3.761988282203673761e-01 2.932630062103271040e+00 -5.747166872024536133e-01 1.000000000000000000e+01
4.491109549999237061e-01 3.491353988647460938e+00 -5.575324296951293945e-01 9.000000000000000000e+00
5.576811432838439941e-01 4.323443412780761719e+00 -5.352501273155212402e-01 9.000000000000000000e+00
7.210291624069213867e-01 5.582126140594482422e+00 -4.924299418926239014e-01 8.000000000000000000e+00
1.043375849723815918e+00 8.055562973022460938e+00 -4.257006645202637274e-01 2.000000000000000000e+00
1.901248574256896973e+00 1.463880348205566051e+01 -2.576673328876494806e-01 2.000000000000000000e+00
2.899664044380187988e-01 2.208470344543457031e+00 -5.968367457389831543e-01 1.500000000000000000e+01
3.319419324398040771e-01 2.521349191665648970e+00 -5.871222615242004395e-01 1.100000000000000000e+01
3.869465291500092108e-01 2.935191869735718218e+00 -5.754799246788024902e-01 1.000000000000000000e+01
4.610364437103270929e-01 3.487806797027587891e+00 -5.572195649147033691e-01 9.000000000000000000e+00
5.722477436065673828e-01 4.317534446716308594e+00 -5.347626805305480957e-01 7.000000000000000000e+00
7.418206334114074707e-01 5.589450359344482422e+00 -4.933015108108521063e-01 8.000000000000000000e+00
1.076230883598328081e+00 8.087509155273437500e+00 -4.275847673416138250e-01 1.000000000000000000e+00
1.953393816947937012e+00 1.464000606536865057e+01 -2.578069567680358887e-01 2.000000000000000000e+00
2.990932464599608820e-01 2.220898628234862837e+00 -6.004601716995239258e-01 1.600000000000000000e+01
3.403011858463286798e-01 2.520234584808350053e+00 -5.871222615242004395e-01 1.100000000000000000e+01
3.956256508827208918e-01 2.926110267639160156e+00 -5.739534497261047363e-01 1.000000000000000000e+01
4.728652536869049072e-01 3.488216161727904829e+00 -5.575324296951293945e-01 9.000000000000000000e+00
5.846906304359436035e-01 4.301844120025634766e+00 -5.330564975738525391e-01 9.000000000000000000e+00
7.600831985473632812e-01 5.584985733032226562e+00 -4.931271970272064209e-01 8.000000000000000000e+00
1.100883960723876953e+00 8.068063735961914062e+00 -4.267473816871643066e-01 2.000000000000000000e+00
2.007894039154053178e+00 1.467703533172607067e+01 -2.585748434066771906e-01 2.000000000000000000e+00
3.060502409934998114e-01 2.214100122451781782e+00 -5.989072918891906738e-01 1.500000000000000000e+01
3.496313989162445068e-01 2.522891998291016069e+00 -5.880220532417297363e-01 1.100000000000000000e+01
4.052975773811339777e-01 2.920822381973267046e+00 -5.731902122497558594e-01 1.000000000000000000e+01
4.866716563701630194e-01 3.498283624649047852e+00 -5.594096183776855469e-01 9.000000000000000000e+00
6.002516746520996094e-01 4.303709030151367188e+00 -5.335440039634704590e-01 9.000000000000000000e+00
7.795737981796264648e-01 5.582298278808593750e+00 -4.931271970272064209e-01 8.000000000000000000e+00
1.129040002822875977e+00 8.064171791076660156e+00 -4.267473816871643066e-01 1.000000000000000000e+00
2.051887273788452148e+00 1.461844921112061080e+01 -2.576673328876494806e-01 2.000000000000000000e+00
3.145495057106018066e-01 2.212908744812012163e+00 -5.989072918891906738e-01 1.500000000000000000e+01
3.604156672954558771e-01 2.529247999191284180e+00 -5.898216366767883301e-01 1.000000000000000000e+01
4.162324070930480957e-01 2.917300939559936968e+00 -5.728086233139038086e-01 1.000000000000000000e+01
4.998207688331604004e-01 3.494433641433715820e+00 -5.590967535972595215e-01 9.000000000000000000e+00
6.162087917327880859e-01 4.297442436218261719e+00 -5.330564975738525391e-01 9.000000000000000000e+00
8.004361987113952637e-01 5.575319290161132812e+00 -4.927785694599152166e-01 8.000000000000000000e+00
1.161702990531920943e+00 8.071639060974121094e+00 -4.273754060268402100e-01 1.000000000000000000e+00
2.104576110839844194e+00 1.458671283721924006e+01 -2.572484612464904785e-01 2.000000000000000000e+00
3.214364647865294855e-01 2.206062078475952148e+00 -5.973543524742126465e-01 1.600000000000000000e+01
3.686788976192473810e-01 2.524117946624755859e+00 -5.889218449592590332e-01 1.000000000000000000e+01
4.272654354572296143e-01 2.921658039093018022e+00 -5.739534497261047363e-01 1.000000000000000000e+01
5.082907676696777344e-01 3.467259168624877930e+00 -5.550295114517211914e-01 9.000000000000000000e+00
6.335148215293884277e-01 4.310977458953857422e+00 -5.350064039230346680e-01 9.000000000000000000e+00
8.204728364944458008e-01 5.576433658599854404e+00 -4.931271970272064209e-01 8.000000000000000000e+00
1.192202448844909890e+00 8.083341598510742188e+00 -4.282127916812896729e-01 1.000000000000000000e+00
2.166009187698363814e+00 1.465049266815186080e+01 -2.585050463676453192e-01 2.000000000000000000e+00
3.299907147884368896e-01 2.210658788681029829e+00 -5.989072918891906738e-01 1.500000000000000000e+01
3.769107162952423096e-01 2.518960952758789062e+00 -5.880220532417297363e-01 1.000000000000000000e+01
4.374613165855408270e-01 2.920148849487305132e+00 -5.739534497261047363e-01 1.000000000000000000e+01
5.227374434471130371e-01 3.481091737747191939e+00 -5.575324296951293945e-01 9.000000000000000000e+00
6.467862725257873535e-01 4.296961784362792969e+00 -5.335440039634704590e-01 9.000000000000000000e+00
8.390425443649291992e-01 5.567625522613525391e+00 -4.926042556762694757e-01 8.000000000000000000e+00
1.215041637420654075e+00 8.043582916259765625e+00 -4.263286888599395752e-01 1.000000000000000000e+00
2.206358432769774947e+00 1.457166481018066051e+01 -2.572484612464904785e-01 2.000000000000000000e+00
3.379972279071807861e-01 2.211403131484984907e+00 -5.994248986244201660e-01 1.500000000000000000e+01
3.868816494941710871e-01 2.525335073471068892e+00 -5.898216366767883301e-01 1.000000000000000000e+01
4.473542273044586182e-01 2.916663408279418945e+00 -5.735718607902526855e-01 1.100000000000000000e+01
5.351856946945190430e-01 3.481198310852050781e+00 -5.578452944755554199e-01 8.000000000000000000e+00
6.599676012992858887e-01 4.282906532287597656e+00 -5.320815443992614746e-01 9.000000000000000000e+00
8.596871495246887207e-01 5.572538852691650391e+00 -4.933015108108521063e-01 8.000000000000000000e+00
1.244332432746886985e+00 8.047188758850097656e+00 -4.267473816871643066e-01 2.000000000000000000e+00
2.268235445022583008e+00 1.463501358032226918e+01 -2.585050463676453192e-01 2.000000000000000000e+00
3.450304567813872736e-01 2.208361387252808061e+00 -5.989072918891906738e-01 1.600000000000000000e+01
3.952538371086121161e-01 2.524038076400756836e+00 -5.898216366767883301e-01 1.100000000000000000e+01
4.558074772357941229e-01 2.907405614852904829e+00 -5.720453858375549316e-01 9.000000000000000000e+00
5.470334291458129883e-01 3.481355667114257812e+00 -5.581581592559814453e-01 9.000000000000000000e+00
6.747842431068420410e-01 4.284616470336914062e+00 -5.325690507888793945e-01 9.000000000000000000e+00
8.766101002693176270e-01 5.559817314147949219e+00 -4.924299418926239014e-01 8.000000000000000000e+00
1.269764065742492898e+00 8.035126686096191406e+00 -4.263286888599395752e-01 2.000000000000000000e+00
2.305492877960205078e+00 1.455630874633789062e+01 -2.572484612464904785e-01 2.000000000000000000e+00
3.521272242069243830e-01 2.203328371047974077e+00 -5.978720188140869141e-01 1.600000000000000000e+01
4.040619730949401855e-01 2.522643089294434038e+00 -5.898216366767883301e-01 1.000000000000000000e+01
4.675076603889464777e-01 2.915489435195922852e+00 -5.739534497261047363e-01 1.000000000000000000e+01
5.579285621643066406e-01 3.471623659133911133e+00 -5.569067001342773438e-01 9.000000000000000000e+00
6.897362470626831055e-01 4.282234668731688565e+00 -5.325690507888793945e-01 9.000000000000000000e+00
8.966464996337890625e-01 5.560657501220703125e+00 -4.927785694599152166e-01 8.000000000000000000e+00
1.297166824340820090e+00 8.026701927185058594e+00 -4.261193573474884033e-01 1.000000000000000000e+00
2.365241765975952148e+00 1.460344409942626953e+01 -2.582257986068726141e-01 2.000000000000000000e+00
3.598161339759827215e-01 2.202085733413695845e+00 -5.978720188140869141e-01 1.600000000000000000e+01
4.128651618957520086e-01 2.521217346191405806e+00 -5.898216366767883301e-01 1.100000000000000000e+01
4.770465493202208918e-01 2.909964799880981001e+00 -5.731902122497558594e-01 1.000000000000000000e+01
5.674813985824584961e-01 3.454061031341553178e+00 -5.544037222862243652e-01 9.000000000000000000e+00
7.066148519515991211e-01 4.291553497314453125e+00 -5.340314507484436035e-01 9.000000000000000000e+00
9.137831330299377441e-01 5.543732643127441406e+00 -4.915584027767180841e-01 8.000000000000000000e+00
1.323875308036803977e+00 8.014243125915527344e+00 -4.257006645202637274e-01 2.000000000000000000e+00
2.407058000564575195e+00 1.453985881805419922e+01 -2.572484612464904785e-01 2.000000000000000000e+00
3.678188323974608820e-01 2.202721834182738814e+00 -5.983896255493164062e-01 1.600000000000000000e+01
4.197335243225098211e-01 2.508228778839110884e+00 -5.871222615242004395e-01 1.100000000000000000e+01
4.868769347667694092e-01 2.906345605850220171e+00 -5.728086233139038086e-01 1.100000000000000000e+01
5.814971327781677246e-01 3.463747739791870117e+00 -5.562809705734252930e-01 9.000000000000000000e+00
7.182974815368652344e-01 4.269484996795654297e+00 -5.315940976142883301e-01 9.000000000000000000e+00
9.354450702667236328e-01 5.554262161254882812e+00 -4.927785694599152166e-01 8.000000000000000000e+00
1.352506995201111062e+00 8.013511657714843750e+00 -4.259100258350371759e-01 2.000000000000000000e+00
2.457797050476074219e+00 1.453136825561523082e+01 -2.572484612464904785e-01 2.000000000000000000e+00
3.767437934875487726e-01 2.211011886596680132e+00 -6.009778380393981934e-01 1.600000000000000000e+01
4.280488193035125732e-01 2.506823062896728960e+00 -5.871222615242004395e-01 1.100000000000000000e+01
4.955196976661682129e-01 2.898909568786621094e+00 -5.716637372970581055e-01 1.100000000000000000e+01
5.919796228408813477e-01 3.455959320068358931e+00 -5.553423762321472168e-01 9.000000000000000000e+00
7.297649383544921875e-01 4.251427650451660156e+00 -5.296441912651062012e-01 9.000000000000000000e+00
9.518340229988098145e-01 5.539347648620604581e+00 -4.917326867580413818e-01 9.000000000000000000e+00
1.375684022903441939e+00 7.989299774169921875e+00 -4.248632788658142090e-01 2.000000000000000000e+00
2.505971193313599077e+00 1.452313804626465021e+01 -2.572484612464904785e-01 2.000000000000000000e+00
3.834659457206726074e-01 2.203973531723022017e+00 -5.994248986244201660e-01 1.600000000000000000e+01
4.374660849571228027e-01 2.509153127670288086e+00 -5.880220532417297363e-01 1.100000000000000000e+01
5.049606561660766602e-01 2.893294095993041992e+00 -5.709004998207092285e-01 1.100000000000000000e+01
6.060813665390014648e-01 3.465546846389770952e+00 -5.572195649147033691e-01 8.000000000000000000e+00
7.473420500755310059e-01 4.264496803283691406e+00 -5.315940976142883301e-01 9.000000000000000000e+00
9.735740423202514648e-01 5.549728393554688388e+00 -4.929528832435607910e-01 9.000000000000000000e+00
1.406329870223999023e+00 8.000185966491699219e+00 -4.257006645202637274e-01 2.000000000000000000e+00
2.556651115417480025e+00 1.451430225372313920e+01 -2.572484612464904785e-01 2.000000000000000000e+00
3.898507356643676758e-01 2.193043231964110884e+00 -5.968367457389831543e-01 1.700000000000000000e+01
4.466596245765686035e-01 2.507532835006713867e+00 -5.880220532417297363e-01 1.000000000000000000e+01
5.169402360916137695e-01 2.899155139923096147e+00 -5.724269747734069824e-01 1.000000000000000000e+01
6.173894405364990234e-01 3.455523967742919922e+00 -5.559681057929992676e-01 8.000000000000000000e+00
7.643665075302124023e-01 4.269545078277587891e+00 -5.325690507888793945e-01 9.000000000000000000e+00
9.946111440658569336e-01 5.550045013427734375e+00 -4.933015108108521063e-01 8.000000000000000000e+00
1.437760591506958008e+00 8.006772041320800781e+00 -4.263286888599395752e-01 1.000000000000000000e+00
2.609831571578979048e+00 1.450483417510985973e+01 -2.572484612464904785e-01 2.000000000000000000e+00
3.978482484817504883e-01 2.193569898605347124e+00 -5.973543524742126465e-01 1.600000000000000000e+01
4.554098546504973810e-01 2.505958557128905806e+00 -5.880220532417297363e-01 1.100000000000000000e+01
5.267056822776794434e-01 2.895401477813721147e+00 -5.720453858375549316e-01 9.000000000000000000e+00
6.298019289970397949e-01 3.455291271209716797e+00 -5.562809705734252930e-01 9.000000000000000000e+00
7.821184992790222168e-01 4.282473087310791016e+00 -5.345189571380615234e-01 9.000000000000000000e+00
1.011111974716186968e+00 5.530860424041748047e+00 -4.919070005416870117e-01 9.000000000000000000e+00
1.462821722030640093e+00 7.985988140106201172e+00 -4.254913330078125000e-01 2.000000000000000000e+00
2.664778709411621094e+00 1.451923751831055043e+01 -2.576673328876494806e-01 2.000000000000000000e+00
4.065244495868682861e-01 2.199837207794189009e+00 -5.994248986244201660e-01 1.600000000000000000e+01
4.615886211395264227e-01 2.492937564849853960e+00 -5.853226184844970703e-01 1.200000000000000000e+01
5.377353429794311523e-01 2.901360273361206055e+00 -5.735718607902526855e-01 1.000000000000000000e+01
6.398140192031860352e-01 3.445415019989014116e+00 -5.550295114517211914e-01 9.000000000000000000e+00
7.926841974258422852e-01 4.260340213775634766e+00 -5.320815443992614746e-01 9.000000000000000000e+00
1.028353095054626021e+00 5.521600723266601562e+00 -4.913840889930725098e-01 8.000000000000000000e+00
1.492227196693419966e+00 7.996800422668457031e+00 -4.263286888599395752e-01 2.000000000000000000e+00
2.708501577377318892e+00 1.448673343658447088e+01 -2.572484612464904785e-01 2.000000000000000000e+00
4.156315624713898260e-01 2.205998659133911133e+00 -6.014954447746276855e-01 1.600000000000000000e+01
4.702877998352050781e-01 2.491311073303223100e+00 -5.853226184844970703e-01 1.000000000000000000e+01
5.456726551055908203e-01 2.887891054153441939e+00 -5.712821483612060547e-01 9.000000000000000000e+00
6.533066034317016602e-01 3.450924158096313032e+00 -5.562809705734252930e-01 9.000000000000000000e+00
8.060710430145263672e-01 4.249745845794677734e+00 -5.311065912246704102e-01 9.000000000000000000e+00
1.052080273628235085e+00 5.541466712951660156e+00 -4.934758245944976807e-01 8.000000000000000000e+00
1.514907002449036089e+00 7.964073657989501953e+00 -4.248632788658142090e-01 2.000000000000000000e+00
2.759053230285644975e+00 1.447719097137450994e+01 -2.572484612464904785e-01 2.000000000000000000e+00
4.207792282104492188e-01 2.191253900527954102e+00 -5.978720188140869141e-01 1.700000000000000000e+01
4.819265305995941162e-01 2.504963397979735884e+00 -5.889218449592590332e-01 1.100000000000000000e+01
5.531512498855590820e-01 2.872473716735839844e+00 -5.686107873916625977e-01 9.000000000000000000e+00
6.660969853401184082e-01 3.452502012252808061e+00 -5.569067001342773438e-01 9.000000000000000000e+00
8.201470375061035156e-01 4.243008136749267578e+00 -5.306191444396972656e-01 9.000000000000000000e+00
1.065740346908568892e+00 5.508418560028076172e+00 -4.908611476421356201e-01 9.000000000000000000e+00
1.545738220214843972e+00 7.974423408508300781e+00 -4.257006645202637274e-01 2.000000000000000000e+00
2.809571266174315962e+00 1.446747112274169922e+01 -2.572484612464904785e-01 2.000000000000000000e+00
4.280546605587006170e-01 2.187875986099243164e+00 -5.973543524742126465e-01 1.600000000000000000e+01
4.921669065952301025e-01 2.510915279388428178e+00 -5.907214879989624023e-01 1.100000000000000000e+01
5.639306306838989258e-01 2.874378442764281782e+00 -5.693740248680114746e-01 1.000000000000000000e+01
6.766204833984375000e-01 3.442402601242064986e+00 -5.556552410125732422e-01 9.000000000000000000e+00
8.361034989356994629e-01 4.245962619781494141e+00 -5.313503146171569824e-01 7.000000000000000000e+00
1.085347056388854980e+00 5.506619930267333984e+00 -4.910354614257813055e-01 9.000000000000000000e+00
1.573564648628235085e+00 7.968979358673095703e+00 -4.257006645202637274e-01 1.000000000000000000e+00
2.860054969787598100e+00 1.445757579803466975e+01 -2.572484612464904785e-01 2.000000000000000000e+00
4.330442547798156738e-01 2.175076484680175781e+00 -5.942485332489013672e-01 1.600000000000000000e+01
4.982036054134368896e-01 2.497802972793579102e+00 -5.880220532417297363e-01 1.100000000000000000e+01
5.749967098236083984e-01 2.880193710327147993e+00 -5.709004998207092285e-01 1.100000000000000000e+01
6.868699789047241211e-01 3.434329032897949219e+00 -5.547165870666503906e-01 9.000000000000000000e+00
8.529089689254760742e-01 4.256791591644287109e+00 -5.330564975738525391e-01 9.000000000000000000e+00
1.103601813316344993e+00 5.502990245819091797e+00 -4.910354614257813055e-01 8.000000000000000000e+00
1.599982142448425071e+00 7.963717460632324219e+00 -4.257006645202637274e-01 2.000000000000000000e+00
2.907982349395751953e+00 1.444801235198974965e+01 -2.572484612464904785e-01 2.000000000000000000e+00
4.448561370372772217e-01 2.194378376007080078e+00 -5.999425649642944336e-01 1.800000000000000000e+01
5.045924186706542969e-01 2.484590053558350053e+00 -5.853226184844970703e-01 1.100000000000000000e+01
5.866112709045410156e-01 2.885864496231079102e+00 -5.724269747734069824e-01 1.000000000000000000e+01
7.000363469123840332e-01 3.437717437744141069e+00 -5.556552410125732422e-01 9.000000000000000000e+00
8.645884394645690918e-01 4.238227844238281250e+00 -5.311065912246704102e-01 9.000000000000000000e+00
1.125594139099121094e+00 5.512769222259520596e+00 -4.922556281089783270e-01 9.000000000000000000e+00
1.624569058418273926e+00 7.942429542541503906e+00 -4.248632788658142090e-01 2.000000000000000000e+00
2.958397626876831055e+00 1.443777370452881037e+01 -2.572484612464904785e-01 2.000000000000000000e+00
4.529036879539489746e-01 2.194704055786132812e+00 -6.004601716995239258e-01 1.600000000000000000e+01
5.136567354202270508e-01 2.484721899032593218e+00 -5.857725739479064941e-01 1.300000000000000000e+01
5.950900912284851074e-01 2.876109123229980025e+00 -5.709004998207092285e-01 1.100000000000000000e+01
7.116310596466064453e-01 3.433318614959716797e+00 -5.553423762321472168e-01 8.000000000000000000e+00
8.785702586174011230e-01 4.231297016143798828e+00 -5.306191444396972656e-01 1.000000000000000000e+01
1.144019603729248047e+00 5.504905223846436435e+00 -4.919070005416870117e-01 8.000000000000000000e+00
1.651469230651855025e+00 7.932799816131591797e+00 -4.246539473533629816e-01 1.000000000000000000e+00
3.008776903152465820e+00 1.442735862731933949e+01 -2.572484612464904785e-01 2.000000000000000000e+00
4.601648449897766113e-01 2.191219091415404829e+00 -5.999425649642944336e-01 1.600000000000000000e+01
5.211233496665954590e-01 2.477192878723144975e+00 -5.844228267669677734e-01 1.200000000000000000e+01
6.047214865684509277e-01 2.872093439102172852e+00 -5.705189108848571777e-01 1.000000000000000000e+01
7.260572314262390137e-01 3.442410707473754883e+00 -5.572195649147033691e-01 8.000000000000000000e+00
8.953866362571716309e-01 4.237915515899658203e+00 -5.318378210067749023e-01 9.000000000000000000e+00
1.164877176284790039e+00 5.508675575256347656e+00 -4.926042556762694757e-01 6.000000000000000000e+00
1.685772061347960982e+00 7.958249568939208984e+00 -4.263286888599395752e-01 2.000000000000000000e+00
3.059119462966918945e+00 1.441676807403563920e+01 -2.572484612464904785e-01 2.000000000000000000e+00
4.650088250637053888e-01 2.178345441818236861e+00 -5.968367457389831543e-01 1.500000000000000000e+01
5.317801237106323242e-01 2.486885070800780806e+00 -5.871222615242004395e-01 1.100000000000000000e+01
6.146532297134399414e-01 2.871992111206055132e+00 -5.709004998207092285e-01 1.000000000000000000e+01
7.358123660087585449e-01 3.432258129119873047e+00 -5.559681057929992676e-01 8.000000000000000000e+00
9.106854796409606934e-01 4.240745544433593750e+00 -5.325690507888793945e-01 9.000000000000000000e+00
1.182300925254821999e+00 5.500886440277099609e+00 -4.922556281089783270e-01 9.000000000000000000e+00
1.710471868515015093e+00 7.944805145263671875e+00 -4.259100258350371759e-01 2.000000000000000000e+00
3.106910228729248047e+00 1.440654468536376953e+01 -2.572484612464904785e-01 2.000000000000000000e+00
4.717900454998015802e-01 2.172933340072631836e+00 -5.958014130592346191e-01 1.500000000000000000e+01
5.412860512733459473e-01 2.488822221755981001e+00 -5.880220532417297363e-01 1.100000000000000000e+01
6.255097389221191406e-01 2.873665571212768999e+00 -5.716637372970581055e-01 1.000000000000000000e+01
7.452638149261474609e-01 3.418088436126708984e+00 -5.540908575057983398e-01 8.000000000000000000e+00
9.263300299644470215e-01 4.241419315338134766e+00 -5.330564975738525391e-01 9.000000000000000000e+00
1.200644373893738015e+00 5.492833137512207031e+00 -4.919070005416870117e-01 8.000000000000000000e+00
1.738193988800049050e+00 7.938786029815673828e+00 -4.259100258350371759e-01 2.000000000000000000e+00
3.157179594039916992e+00 1.439561176300049006e+01 -2.572484612464904785e-01 2.000000000000000000e+00
4.835023880004882812e-01 2.188166618347167969e+00 -6.004601716995239258e-01 1.600000000000000000e+01
5.487198829650878906e-01 2.479210615158081055e+00 -5.862224698066711426e-01 1.100000000000000000e+01
6.360380649566650391e-01 2.871353626251221147e+00 -5.716637372970581055e-01 1.000000000000000000e+01
7.569309473037719727e-01 3.411477088928223100e+00 -5.534651279449462891e-01 8.000000000000000000e+00
9.410080909729003906e-01 4.234120368957520419e+00 -5.325690507888793945e-01 9.000000000000000000e+00
1.219903469085692915e+00 5.484506130218505859e+00 -4.915584027767180841e-01 9.000000000000000000e+00
1.761198759078979048e+00 7.905069828033447266e+00 -4.244446158409119207e-01 2.000000000000000000e+00
3.209920883178710938e+00 1.438394355773925959e+01 -2.572484612464904785e-01 2.000000000000000000e+00
4.902907907962799072e-01 2.182695865631103960e+00 -5.994248986244201660e-01 1.500000000000000000e+01
5.565150976181030273e-01 2.473477840423583984e+00 -5.853226184844970703e-01 1.100000000000000000e+01
6.451944708824157715e-01 2.865285396575928178e+00 -5.709004998207092285e-01 1.000000000000000000e+01
7.723115682601928711e-01 3.424229860305786133e+00 -5.559681057929992676e-01 8.000000000000000000e+00
9.549072980880737305e-01 4.226937294006347656e+00 -5.320815443992614746e-01 9.000000000000000000e+00
1.243873596191406028e+00 5.501591205596923828e+00 -4.934758245944976807e-01 9.000000000000000000e+00
1.788781881332397017e+00 7.898873805999755859e+00 -4.244446158409119207e-01 2.000000000000000000e+00
3.260110616683959961e+00 1.437265110015868963e+01 -2.572484612464904785e-01 2.000000000000000000e+00
4.979557991027832031e-01 2.182941436767578125e+00 -5.999425649642944336e-01 1.700000000000000000e+01
5.655825138092041016e-01 2.475418329238892046e+00 -5.862224698066711426e-01 1.100000000000000000e+01
6.529420614242553711e-01 2.855474710464477983e+00 -5.693740248680114746e-01 1.000000000000000000e+01
7.827804684638977051e-01 3.417798995971680132e+00 -5.553423762321472168e-01 8.000000000000000000e+00
9.689190983772277832e-01 4.223747253417968750e+00 -5.320815443992614746e-01 9.000000000000000000e+00
1.253640174865723100e+00 5.460540294647216797e+00 -4.901638925075531006e-01 9.000000000000000000e+00
1.816756010055541992e+00 7.900684356689453125e+00 -4.248632788658142090e-01 2.000000000000000000e+00
3.298777818679810014e+00 1.432278728485107067e+01 -2.565503716468811035e-01 2.000000000000000000e+00
5.016467571258544922e-01 2.164252281188964844e+00 -5.952838063240051270e-01 1.600000000000000000e+01
5.746605992317199707e-01 2.475327253341674805e+00 -5.866723656654357910e-01 1.000000000000000000e+01
6.633498668670654297e-01 2.855090379714965820e+00 -5.697556734085083008e-01 1.000000000000000000e+01
7.947060465812683105e-01 3.415045738220214844e+00 -5.553423762321472168e-01 8.000000000000000000e+00
9.836568236351013184e-01 4.220339298248291016e+00 -5.320815443992614746e-01 9.000000000000000000e+00
1.271788239479064941e+00 5.452250480651854581e+00 -4.898152649402617853e-01 9.000000000000000000e+00
1.847958564758301003e+00 7.909853458404541016e+00 -4.257006645202637274e-01 2.000000000000000000e+00
3.339641332626343218e+00 1.427224349975585938e+01 -2.558522820472716730e-01 2.000000000000000000e+00
5.118550062179565430e-01 2.173770427703856978e+00 -5.983896255493164062e-01 1.900000000000000000e+01
5.841922163963317871e-01 2.477099657058715820e+00 -5.875721573829650879e-01 1.100000000000000000e+01
6.737629175186157227e-01 2.854668378829956055e+00 -5.701372623443603516e-01 1.000000000000000000e+01
8.038952946662902832e-01 3.400716543197631836e+00 -5.534651279449462891e-01 8.000000000000000000e+00
9.974678754806518555e-01 4.213016510009765625e+00 -5.315940976142883301e-01 9.000000000000000000e+00
1.293109178543091042e+00 5.457471370697020596e+00 -4.906868338584899902e-01 8.000000000000000000e+00
1.873713135719299094e+00 7.895581722259520596e+00 -4.252819716930388849e-01 2.000000000000000000e+00
3.398688554763793945e+00 1.429940891265868963e+01 -2.565503716468811035e-01 2.000000000000000000e+00
5.194397568702697754e-01 2.171970605850220171e+00 -5.983896255493164062e-01 1.900000000000000000e+01
5.910196304321289062e-01 2.467464685440063032e+00 -5.857725739479064941e-01 1.100000000000000000e+01
6.855540275573730469e-01 2.859935760498046875e+00 -5.716637372970581055e-01 9.000000000000000000e+00
8.139165639877319336e-01 3.390206575393677202e+00 -5.522136688232421875e-01 8.000000000000000000e+00
1.011239767074584961e+00 4.205648899078369141e+00 -5.311065912246704102e-01 9.000000000000000000e+00
1.313083648681641069e+00 5.456798553466796875e+00 -4.910354614257813055e-01 9.000000000000000000e+00
1.899390697479248047e+00 7.881226539611816406e+00 -4.248632788658142090e-01 2.000000000000000000e+00
3.448582172393798828e+00 1.428745841979979936e+01 -2.565503716468811035e-01 2.000000000000000000e+00
5.302094817161560059e-01 2.183285236358643022e+00 -6.020131111145019531e-01 1.600000000000000000e+01
5.968658328056335449e-01 2.454025506973267046e+00 -5.830731391906738281e-01 1.100000000000000000e+01
6.946042776107788086e-01 2.853710174560546875e+00 -5.709004998207092285e-01 1.100000000000000000e+01
8.304240703582763672e-01 3.406536579132080078e+00 -5.553423762321472168e-01 9.000000000000000000e+00
1.025914072990417036e+00 4.202093601226806641e+00 -5.311065912246704102e-01 9.000000000000000000e+00
1.334015011787414995e+00 5.459923744201660156e+00 -4.917326867580413818e-01 9.000000000000000000e+00
1.924990892410278098e+00 7.866788387298583984e+00 -4.244446158409119207e-01 2.000000000000000000e+00
3.495577812194824219e+00 1.426368045806884943e+01 -2.563409507274628241e-01 2.000000000000000000e+00
5.369024276733398438e-01 2.177669763565063032e+00 -6.009778380393981934e-01 1.700000000000000000e+01
6.082312464714050293e-01 2.463278532028197798e+00 -5.857725739479064941e-01 1.100000000000000000e+01
7.055032849311828613e-01 2.855079889297484907e+00 -5.716637372970581055e-01 1.100000000000000000e+01
8.446827530860900879e-01 3.413204669952393022e+00 -5.569067001342773438e-01 9.000000000000000000e+00
1.037710547447205034e+00 4.186925888061523438e+00 -5.296441912651062012e-01 9.000000000000000000e+00
1.349228501319885032e+00 5.439763545989990234e+00 -4.903382062911986750e-01 9.000000000000000000e+00
1.956772685050963911e+00 7.877466201782226562e+00 -4.253866374492645264e-01 3.000000000000000000e+00
3.526036024093627930e+00 1.417376899719237926e+01 -2.549447417259215753e-01 2.000000000000000000e+00
5.412176847457885742e-01 2.162663936614989790e+00 -5.973543524742126465e-01 1.600000000000000000e+01
6.177734732627868652e-01 2.464920997619628906e+00 -5.866723656654357910e-01 1.000000000000000000e+01
7.135546207427978516e-01 2.844982862472534180e+00 -5.701372623443603516e-01 1.100000000000000000e+01
8.527420759201049805e-01 3.394908428192139116e+00 -5.544037222862243652e-01 9.000000000000000000e+00
1.054256439208983931e+00 4.190978527069091797e+00 -5.306191444396972656e-01 9.000000000000000000e+00
1.369181275367737038e+00 5.438884735107421875e+00 -4.906868338584899902e-01 8.000000000000000000e+00
1.990117311477660911e+00 7.893827438354492188e+00 -4.266427159309387207e-01 3.000000000000000000e+00
3.583322525024414062e+00 1.419239616394042969e+01 -2.555032372474669855e-01 2.000000000000000000e+00
5.501900911331176758e-01 2.166378736495972124e+00 -5.989072918891906738e-01 1.800000000000000000e+01
6.234918236732482910e-01 2.451417922973632812e+00 -5.839729309082031250e-01 1.100000000000000000e+01
7.234811186790466309e-01 2.842474699020386186e+00 -5.701372623443603516e-01 9.000000000000000000e+00
8.606839776039123535e-01 3.376597881317139116e+00 -5.519008040428161621e-01 9.000000000000000000e+00
1.070843219757080078e+00 4.194966793060302734e+00 -5.315940976142883301e-01 9.000000000000000000e+00
1.389144539833069070e+00 5.437933444976806641e+00 -4.910354614257813055e-01 9.000000000000000000e+00
2.011719703674315962e+00 7.863613128662109375e+00 -4.253866374492645264e-01 3.000000000000000000e+00
3.622915506362915039e+00 1.414105892181395951e+01 -2.548051476478577215e-01 2.000000000000000000e+00
5.565118789672851562e-01 2.162768602371215820e+00 -5.983896255493164062e-01 1.900000000000000000e+01
6.321626305580139160e-01 2.453221321105957031e+00 -5.848727226257324219e-01 1.000000000000000000e+01
7.338781356811523438e-01 2.845890998840332031e+00 -5.712821483612060547e-01 1.100000000000000000e+01
8.742511868476867676e-01 3.385353088378905806e+00 -5.537779927253723145e-01 9.000000000000000000e+00
1.081034660339355025e+00 4.180050849914550781e+00 -5.301316380500793457e-01 9.000000000000000000e+00
1.405722141265868919e+00 5.431613445281982422e+00 -4.908611476421356201e-01 9.000000000000000000e+00
2.034409523010253906e+00 7.849521160125732422e+00 -4.249679744243621826e-01 3.000000000000000000e+00
3.660289764404296875e+00 1.410250949859618963e+01 -2.543164789676666260e-01 2.000000000000000000e+00
5.640579462051391602e-01 2.160812854766846147e+00 -5.983896255493164062e-01 1.500000000000000000e+01
6.397364139556884766e-01 2.447228908538817915e+00 -5.839729309082031250e-01 1.100000000000000000e+01
7.443045377731323242e-01 2.845211267471313032e+00 -5.716637372970581055e-01 1.000000000000000000e+01
8.870641589164733887e-01 3.386102437973022017e+00 -5.544037222862243652e-01 9.000000000000000000e+00
1.092596769332885964e+00 4.164731025695800781e+00 -5.286692380905151367e-01 9.000000000000000000e+00
1.428720831871032937e+00 5.442090034484863281e+00 -4.922556281089783270e-01 9.000000000000000000e+00
2.058242321014403853e+00 7.828850269317626953e+00 -4.242352545261383057e-01 2.000000000000000000e+00
3.714585781097412109e+00 1.410898494720458984e+01 -2.546655237674713135e-01 2.000000000000000000e+00
5.720915794372558594e-01 2.160698413848876953e+00 -5.989072918891906738e-01 1.700000000000000000e+01
6.502726674079895020e-01 2.452515363693236861e+00 -5.857725739479064941e-01 1.000000000000000000e+01
7.522177100181579590e-01 2.835005521774291992e+00 -5.701372623443603516e-01 1.100000000000000000e+01
8.998929858207702637e-01 3.386803627014160156e+00 -5.550295114517211914e-01 9.000000000000000000e+00
1.112232089042664018e+00 4.180075168609619141e+00 -5.311065912246704102e-01 9.000000000000000000e+00
1.440531611442565918e+00 5.410115718841552734e+00 -4.898152649402617853e-01 9.000000000000000000e+00
2.093790769577025923e+00 7.852495670318604404e+00 -4.259100258350371759e-01 2.000000000000000000e+00
3.758653879165648970e+00 1.407661247253417969e+01 -2.543164789676666260e-01 2.000000000000000000e+00
5.786284208297729492e-01 2.154956579208374023e+00 -5.978720188140869141e-01 1.700000000000000000e+01
6.618656516075134277e-01 2.461522102355957031e+00 -5.884719491004943848e-01 1.100000000000000000e+01
7.610889077186584473e-01 2.828570842742919922e+00 -5.693740248680114746e-01 9.000000000000000000e+00
9.106817841529846191e-01 3.379827022552489790e+00 -5.544037222862243652e-01 9.000000000000000000e+00
1.124747991561890093e+00 4.168501377105712891e+00 -5.301316380500793457e-01 9.000000000000000000e+00
1.458888292312622070e+00 5.403130531311035156e+00 -4.896409511566162109e-01 9.000000000000000000e+00
2.113890171051024947e+00 7.818146705627441406e+00 -4.244446158409119207e-01 2.000000000000000000e+00
3.799405813217163086e+00 1.403252410888672053e+01 -2.537579834461212158e-01 2.000000000000000000e+00
5.836096405982971191e-01 2.143603801727294922e+00 -5.952838063240051270e-01 1.500000000000000000e+01
6.694288253784179688e-01 2.455436468124390093e+00 -5.875721573829650879e-01 1.100000000000000000e+01
7.719912528991699219e-01 2.829684972763061968e+00 -5.701372623443603516e-01 1.000000000000000000e+01
9.214328527450561523e-01 3.372816562652587891e+00 -5.537779927253723145e-01 9.000000000000000000e+00
1.141387104988097922e+00 4.172208786010742188e+00 -5.311065912246704102e-01 9.000000000000000000e+00
1.478265881538390891e+00 5.399927139282226562e+00 -4.898152649402617853e-01 9.000000000000000000e+00
2.147504091262816939e+00 7.833834648132324219e+00 -4.257006645202637274e-01 2.000000000000000000e+00
3.858952283859252930e+00 1.405774307250976918e+01 -2.544560730457305908e-01 2.000000000000000000e+00
5.916026830673217773e-01 2.143415689468383789e+00 -5.958014130592346191e-01 1.400000000000000000e+01
6.728044152259826660e-01 2.434301614761352983e+00 -5.830731391906738281e-01 1.000000000000000000e+01
7.834340333938598633e-01 2.832649707794189009e+00 -5.712821483612060547e-01 1.100000000000000000e+01
9.342550635337829590e-01 3.373387098312377930e+00 -5.544037222862243652e-01 9.000000000000000000e+00
1.153821945190429910e+00 4.160547256469726562e+00 -5.301316380500793457e-01 9.000000000000000000e+00
1.497638940811157005e+00 5.396653652191162109e+00 -4.899895787239075262e-01 9.000000000000000000e+00
2.167349576950072798e+00 7.799349784851074219e+00 -4.242352545261383057e-01 2.000000000000000000e+00
3.911216020584106001e+00 1.405574607849120916e+01 -2.546655237674713135e-01 2.000000000000000000e+00
6.046628355979919434e-01 2.159836292266846147e+00 -6.009778380393981934e-01 1.500000000000000000e+01
6.817220449447631836e-01 2.431819200515747070e+00 -5.830731391906738281e-01 1.100000000000000000e+01
7.932806611061096191e-01 2.827868938446044922e+00 -5.709004998207092285e-01 9.000000000000000000e+00
9.460786581039428711e-01 3.368038415908813032e+00 -5.540908575057983398e-01 9.000000000000000000e+00
1.169063329696655051e+00 4.156290531158447266e+00 -5.301316380500793457e-01 1.000000000000000000e+01
1.517948389053344949e+00 5.393046379089354581e+00 -4.901638925075531006e-01 9.000000000000000000e+00
2.198088169097899947e+00 7.799043178558349609e+00 -4.246539473533629816e-01 1.000000000000000000e+00
3.934463500976562944e+00 1.394124126434325994e+01 -2.528504729270935059e-01 2.000000000000000000e+00
6.079799532890319824e-01 2.142844438552856001e+00 -5.968367457389831543e-01 1.600000000000000000e+01
6.928693652153015137e-01 2.438797473907471147e+00 -5.853226184844970703e-01 9.000000000000000000e+00
8.020732402801513672e-01 2.821305751800537109e+00 -5.701372623443603516e-01 9.000000000000000000e+00
9.616154432296752930e-01 3.378014802932738814e+00 -5.562809705734252930e-01 9.000000000000000000e+00
1.181387782096863015e+00 4.144548416137695312e+00 -5.291566848754882812e-01 9.000000000000000000e+00
1.540043473243712935e+00 5.399210453033447266e+00 -4.912097752094268799e-01 9.000000000000000000e+00
2.223104476928710938e+00 7.783640861511229581e+00 -4.242352545261383057e-01 2.000000000000000000e+00
3.983103513717650923e+00 1.392742252349854049e+01 -2.528504729270935059e-01 2.000000000000000000e+00
6.140156388282775879e-01 2.137103080749512163e+00 -5.958014130592346191e-01 1.600000000000000000e+01
7.031080126762390137e-01 2.443977594375609907e+00 -5.871222615242004395e-01 1.000000000000000000e+01
8.114246129989624023e-01 2.818630456924438032e+00 -5.701372623443603516e-01 9.000000000000000000e+00
9.689820408821105957e-01 3.361520767211914062e+00 -5.540908575057983398e-01 8.000000000000000000e+00
1.199529051780700906e+00 4.155865669250488281e+00 -5.311065912246704102e-01 9.000000000000000000e+00
1.554622292518615945e+00 5.382588863372802734e+00 -4.901638925075531006e-01 9.000000000000000000e+00
2.252233028411864790e+00 7.787737846374511719e+00 -4.248632788658142090e-01 2.000000000000000000e+00
4.015917301177979404e+00 1.386803913116455078e+01 -2.520127594470977783e-01 2.000000000000000000e+00
6.230915784835815430e-01 2.140511274337768999e+00 -5.973543524742126465e-01 1.500000000000000000e+01
7.110894918441772461e-01 2.439637422561645952e+00 -5.866723656654357910e-01 1.100000000000000000e+01
8.229076266288757324e-01 2.821434974670410156e+00 -5.712821483612060547e-01 1.000000000000000000e+01
9.812638163566589355e-01 3.360013961791992188e+00 -5.544037222862243652e-01 9.000000000000000000e+00
1.215142726898192915e+00 4.155463695526123047e+00 -5.315940976142883301e-01 9.000000000000000000e+00
1.571163415908813032e+00 5.369480609893798828e+00 -4.894666373729705811e-01 8.000000000000000000e+00
2.279403686523437944e+00 7.779828548431395596e+00 -4.248632788658142090e-01 2.000000000000000000e+00
4.064301490783691406e+00 1.385393619537354049e+01 -2.520127594470977783e-01 2.000000000000000000e+00
6.323707103729248047e-01 2.145845651626586914e+00 -5.994248986244201660e-01 1.600000000000000000e+01
7.158666253089904785e-01 2.426051616668701172e+00 -5.839729309082031250e-01 1.100000000000000000e+01
8.328152894973754883e-01 2.820573568344116211e+00 -5.716637372970581055e-01 9.000000000000000000e+00
9.884803295135498047e-01 3.343481302261352983e+00 -5.522136688232421875e-01 8.000000000000000000e+00
1.227789044380187988e+00 4.147604465484619141e+00 -5.311065912246704102e-01 9.000000000000000000e+00
1.594619274139404075e+00 5.383344650268554688e+00 -4.912097752094268799e-01 9.000000000000000000e+00
2.298374891281127930e+00 7.749249458312988281e+00 -4.236072301864624023e-01 2.000000000000000000e+00
4.098834514617919922e+00 1.380204296112061080e+01 -2.513146400451660156e-01 2.000000000000000000e+00
6.404097676277160645e-01 2.145476341247559038e+00 -5.999425649642944336e-01 1.700000000000000000e+01
7.254468202590942383e-01 2.427272319793701172e+00 -5.848727226257324219e-01 1.000000000000000000e+01
8.415307998657226562e-01 2.813887357711791992e+00 -5.709004998207092285e-01 9.000000000000000000e+00
1.001278519630431907e+00 3.343795061111450195e+00 -5.528393983840942383e-01 8.000000000000000000e+00
1.237128496170043945e+00 4.126180171966552734e+00 -5.289129614830017090e-01 9.000000000000000000e+00
1.611110806465148926e+00 5.370111942291259766e+00 -4.905125200748444159e-01 9.000000000000000000e+00
2.325410842895507812e+00 7.741179466247558594e+00 -4.236072301864624023e-01 2.000000000000000000e+00
4.152747631072998047e+00 1.380680084228515980e+01 -2.516637146472930908e-01 2.000000000000000000e+00
6.467769742012023926e-01 2.139529228210449219e+00 -5.989072918891906738e-01 1.400000000000000000e+01
7.361733913421630859e-01 2.432185888290404829e+00 -5.866723656654357910e-01 1.000000000000000000e+01
8.496407270431518555e-01 2.805295944213867188e+00 -5.697556734085083008e-01 9.000000000000000000e+00
1.016957283020019975e+00 3.353512287139893022e+00 -5.550295114517211914e-01 7.000000000000000000e+00
1.253254175186157005e+00 4.127535343170166016e+00 -5.296441912651062012e-01 9.000000000000000000e+00
1.621737480163573997e+00 5.337766647338867188e+00 -4.880721569061278742e-01 9.000000000000000000e+00
2.357068538665771040e+00 7.748301506042479581e+00 -4.244446158409119207e-01 2.000000000000000000e+00
4.191594600677490234e+00 1.376161384582520064e+01 -2.511052191257476807e-01 2.000000000000000000e+00
6.531104445457458496e-01 2.133563995361328125e+00 -5.978720188140869141e-01 1.500000000000000000e+01
7.458009123802185059e-01 2.433327674865723100e+00 -5.875721573829650879e-01 1.000000000000000000e+01
8.600034713745117188e-01 2.804189920425415039e+00 -5.701372623443603516e-01 1.100000000000000000e+01
1.025757670402527078e+00 3.340500116348267046e+00 -5.534651279449462891e-01 8.000000000000000000e+00
1.268821120262145996e+00 4.126930236816406250e+00 -5.301316380500793457e-01 9.000000000000000000e+00
1.641531586647033913e+00 5.335881710052490234e+00 -4.884207844734191895e-01 9.000000000000000000e+00
2.385276794433594194e+00 7.743844032287597656e+00 -4.246539473533629816e-01 2.000000000000000000e+00
4.241963386535645419e+00 1.375454235076903942e+01 -2.512448430061339777e-01 2.000000000000000000e+00
6.607536077499389648e-01 2.133231878280640093e+00 -5.983896255493164062e-01 1.600000000000000000e+01
7.515571117401123047e-01 2.423396110534667969e+00 -5.857725739479064941e-01 1.000000000000000000e+01
8.704615235328674316e-01 2.805072784423828125e+00 -5.709004998207092285e-01 9.000000000000000000e+00
1.035071253776550071e+00 3.331420898437500000e+00 -5.525265336036682129e-01 9.000000000000000000e+00
1.284268498420715110e+00 4.128386497497558594e+00 -5.308628678321838379e-01 9.000000000000000000e+00
1.660993456840514915e+00 5.336116313934326172e+00 -4.889437258243560791e-01 9.000000000000000000e+00
2.409754514694213867e+00 7.732078075408936435e+00 -4.244446158409119207e-01 2.000000000000000000e+00
4.287551879882813388e+00 1.374040031433104936e+01 -2.512448430061339777e-01 2.000000000000000000e+00
6.693519949913024902e-01 2.134599208831787109e+00 -5.994248986244201660e-01 1.600000000000000000e+01
7.600117325782775879e-01 2.420757770538330078e+00 -5.857725739479064941e-01 1.100000000000000000e+01
8.826013207435607910e-01 2.809509277343750000e+00 -5.724269747734069824e-01 9.000000000000000000e+00
1.047286510467529075e+00 3.329672098159790039e+00 -5.528393983840942383e-01 9.000000000000000000e+00
1.295690059661865012e+00 4.114411354064941406e+00 -5.296441912651062012e-01 9.000000000000000000e+00
1.684400200843811035e+00 5.345488071441650391e+00 -4.903382062911986750e-01 9.000000000000000000e+00
2.431922435760498047e+00 7.708381652832031250e+00 -4.236072301864624023e-01 2.000000000000000000e+00
4.352353572845458984e+00 1.377874088287354049e+01 -2.522221803665161133e-01 2.000000000000000000e+00
6.777559518814086914e-01 2.133972883224486861e+00 -5.999425649642944336e-01 1.500000000000000000e+01
7.712413072586059570e-01 2.425384521484375000e+00 -5.875721573829650879e-01 1.000000000000000000e+01
8.905117511749267578e-01 2.798772096633911133e+00 -5.709004998207092285e-01 1.000000000000000000e+01
1.059483289718627930e+00 3.325811147689818892e+00 -5.528393983840942383e-01 9.000000000000000000e+00
1.305935859680176003e+00 4.094504833221436435e+00 -5.276942849159240723e-01 9.000000000000000000e+00
1.703375339508057085e+00 5.337380409240722656e+00 -4.901638925075531006e-01 9.000000000000000000e+00
2.460158824920653853e+00 7.699416160583496094e+00 -4.236072301864624023e-01 1.000000000000000000e+00
4.373579502105712891e+00 1.367127513885498047e+01 -2.505467534065247137e-01 2.000000000000000000e+00
6.828359961509704590e-01 2.124237298965454102e+00 -5.978720188140869141e-01 1.400000000000000000e+01
7.797027826309204102e-01 2.422677516937255859e+00 -5.875721573829650879e-01 1.000000000000000000e+01
8.960633277893066406e-01 2.782565355300902876e+00 -5.682291984558105469e-01 1.000000000000000000e+01
1.074116945266724077e+00 3.331492900848389116e+00 -5.544037222862243652e-01 9.000000000000000000e+00
1.325098752975464089e+00 4.105034351348876953e+00 -5.296441912651062012e-01 9.000000000000000000e+00
1.721995830535888894e+00 5.331401824951171875e+00 -4.901638925075531006e-01 9.000000000000000000e+00
2.484561681747436968e+00 7.683180332183837891e+00 -4.231885373592377264e-01 1.000000000000000000e+00
4.431129455566406250e+00 1.368636512756348012e+01 -2.511052191257476807e-01 2.000000000000000000e+00
6.886819005012512207e-01 2.118286848068236861e+00 -5.968367457389831543e-01 1.500000000000000000e+01
7.889387011528015137e-01 2.423784732818603960e+00 -5.884719491004943848e-01 1.000000000000000000e+01
9.077176451683044434e-01 2.787045717239379883e+00 -5.697556734085083008e-01 1.000000000000000000e+01
1.086995840072632058e+00 3.333546876907349077e+00 -5.553423762321472168e-01 8.000000000000000000e+00
1.337472200393676980e+00 4.096843242645263672e+00 -5.291566848754882812e-01 9.000000000000000000e+00
1.738428711891174094e+00 5.321874141693115234e+00 -4.898152649402617853e-01 9.000000000000000000e+00
2.506301403045653853e+00 7.663508892059326172e+00 -4.225605130195618231e-01 2.000000000000000000e+00
4.483957767486572266e+00 1.369440078735351918e+01 -2.515240907669066828e-01 2.000000000000000000e+00
6.948644518852233887e-01 2.112199783325194868e+00 -5.958014130592346191e-01 1.500000000000000000e+01
7.937366962432861328e-01 2.409910440444945845e+00 -5.857725739479064941e-01 1.100000000000000000e+01
9.180552363395690918e-01 2.785724639892578125e+00 -5.701372623443603516e-01 9.000000000000000000e+00
1.094292759895324929e+00 3.316601037979125977e+00 -5.531522631645202637e-01 9.000000000000000000e+00
1.358613729476928933e+00 4.112883567810058594e+00 -5.318378210067749023e-01 7.000000000000000000e+00
1.756994843482970969e+00 5.315773487091063565e+00 -4.898152649402617853e-01 9.000000000000000000e+00
2.541821241378784180e+00 7.681259632110595703e+00 -4.240259230136870783e-01 2.000000000000000000e+00
4.612229824066162109e+00 1.392163848876952947e+01 -2.559919059276580811e-01 2.000000000000000000e+00
7.058938145637512207e-01 2.120759248733520952e+00 -5.989072918891906738e-01 1.500000000000000000e+01
7.996796965599060059e-01 2.399729967117310014e+00 -5.839729309082031250e-01 1.100000000000000000e+01
9.296365976333618164e-01 2.788090467453002930e+00 -5.712821483612060547e-01 1.000000000000000000e+01
1.105863213539123979e+00 3.312760829925537109e+00 -5.531522631645202637e-01 9.000000000000000000e+00
1.367299079895019975e+00 4.091171741485595703e+00 -5.296441912651062012e-01 9.000000000000000000e+00
1.774907827377318892e+00 5.307718753814697266e+00 -4.896409511566162109e-01 9.000000000000000000e+00
2.559741258621215820e+00 7.645825386047363281e+00 -4.225605130195618231e-01 2.000000000000000000e+00
4.667152404785156250e+00 1.392441463470458984e+01 -2.563409507274628241e-01 2.000000000000000000e+00
7.182244062423706055e-01 2.132929086685181108e+00 -6.030483841896057129e-01 1.600000000000000000e+01
8.080514669418334961e-01 2.396924018859862837e+00 -5.839729309082031250e-01 1.100000000000000000e+01
9.374806880950927734e-01 2.779247522354125977e+00 -5.701372623443603516e-01 9.000000000000000000e+00
1.116156101226807085e+00 3.305137395858765093e+00 -5.525265336036682129e-01 9.000000000000000000e+00
1.380300045013427956e+00 4.082612991333007812e+00 -5.291566848754882812e-01 9.000000000000000000e+00
1.794062852859497070e+00 5.303378105163574219e+00 -4.898152649402617853e-01 9.000000000000000000e+00
2.591540098190308061e+00 7.651977062225341797e+00 -4.233978986740111750e-01 2.000000000000000000e+00
4.715729236602783203e+00 1.390803813934325994e+01 -2.563409507274628241e-01 2.000000000000000000e+00
7.196903824806213379e-01 2.114076614379882812e+00 -5.983896255493164062e-01 1.500000000000000000e+01
8.185101151466369629e-01 2.401609420776367188e+00 -5.857725739479064941e-01 1.100000000000000000e+01
9.441572427749633789e-01 2.768690824508666992e+00 -5.686107873916625977e-01 1.000000000000000000e+01
1.132854342460632102e+00 3.318243026733397993e+00 -5.553423762321472168e-01 8.000000000000000000e+00
1.391262769699096902e+00 4.070499897003173828e+00 -5.281817317008972168e-01 9.000000000000000000e+00
1.810350179672240989e+00 5.293629169464111328e+00 -4.894666373729705811e-01 9.000000000000000000e+00
2.616900682449340820e+00 7.643341064453125000e+00 -4.233978986740111750e-01 1.000000000000000000e+00
4.739778518676757812e+00 1.382800769805908025e+01 -2.551541924476624090e-01 2.000000000000000000e+00
7.239207625389099121e-01 2.102418422698975053e+00 -5.958014130592346191e-01 1.500000000000000000e+01
8.306988477706909180e-01 2.409791707992554155e+00 -5.884719491004943848e-01 1.100000000000000000e+01
9.582970142364501953e-01 2.778369903564453125e+00 -5.712821483612060547e-01 1.000000000000000000e+01
1.142495989799499956e+00 3.308666706085205078e+00 -5.544037222862243652e-01 9.000000000000000000e+00
1.406760215759276900e+00 4.069370746612548828e+00 -5.286692380905151367e-01 9.000000000000000000e+00
