-8.942860603332519531e+00 -3.466911554336547852e+00 -8.391354680061340332e-01 1.000000000000000000e+00
-1.372454166412354049e+01 -5.315133571624755859e+00 -7.713273167610168457e-01 1.700000000000000000e+01
-4.877332305908203125e+01 -1.886897468566894887e+01 -9.128306508064270020e-01 1.400000000000000000e+01
-2.503938913345336914e+00 -9.646835923194885254e-01 -7.189993262290954590e-01 1.300000000000000000e+01
-2.909912824630736861e+00 -1.119925379753113015e+00 -7.198433876037597656e-01 1.200000000000000000e+01
-3.477827310562133789e+00 -1.337799310684204102e+00 -7.243109345436096191e-01 1.200000000000000000e+01
-4.366416454315186435e+00 -1.677859187126159890e+00 -7.408736348152160645e-01 1.200000000000000000e+01
-5.869221687316895419e+00 -2.252983093261719194e+00 -7.719204425811767578e-01 1.100000000000000000e+01
-8.958628654479980469e+00 -3.437101364135742188e+00 -8.394840955734252930e-01 1.000000000000000000e+00
-1.378777122497558949e+01 -5.284348011016845703e+00 -7.738394737243652344e-01 1.700000000000000000e+01
-4.888370895385742188e+01 -1.871576881408691051e+01 -9.136683940887451172e-01 1.400000000000000000e+01
-5.151908874511718750e+01 -1.972475814819335938e+01 1.478167343139648082e+01 1.900000000000000000e+01
-2.507290840148925781e+00 -9.559373259544372559e-01 -7.189993262290954590e-01 1.800000000000000000e+01
-2.906519889831542969e+00 -1.106986641883850098e+00 -7.180437445640563965e-01 1.300000000000000000e+01
-3.487980365753173828e+00 -1.327746629714966042e+00 -7.254558205604553223e-01 1.200000000000000000e+01
-4.372246265411376953e+00 -1.662607312202454057e+00 -7.408736348152160645e-01 1.200000000000000000e+01
-5.862204551696777344e+00 -2.226842641830443892e+00 -7.699705362319946289e-01 1.100000000000000000e+01
-8.951945304870605469e+00 -3.398737192153931108e+00 -8.377410173416137695e-01 1.000000000000000000e+00
-1.382854270935058949e+01 -5.244686603546142578e+00 -7.750955224037170410e-01 2.100000000000000000e+01
-5.452978515625000000e+01 -2.067037010192871094e+01 1.346332073211669922e+01 1.900000000000000000e+01
-4.903102111816406250e+01 -1.857619285583496094e+01 -9.152041673660278320e-01 1.400000000000000000e+01
-2.515703439712523970e+00 -9.501034021377563477e-01 -7.205522060394287109e-01 2.500000000000000000e+01
-2.904513359069824219e+00 -1.095786571502685991e+00 -7.166940569877624512e-01 1.100000000000000000e+01
-3.486623287200928178e+00 -1.314704179763793945e+00 -7.243109345436096191e-01 1.100000000000000000e+01
-4.368205070495604581e+00 -1.645381689071655051e+00 -7.393093109130859375e-01 1.100000000000000000e+01
-5.850592136383056641e+00 -2.201424121856689009e+00 -7.675331234931945801e-01 1.100000000000000000e+01
-8.932740211486816406e+00 -3.359375715255736861e+00 -8.349519968032836914e-01 1.000000000000000000e+00
-1.384308147430419922e+01 -5.200514793395996094e+00 -7.749908566474914551e-01 1.700000000000000000e+01
-5.450323486328125000e+01 -2.046470832824707031e+01 1.344082546234131037e+01 1.900000000000000000e+01
-4.933626937866210938e+01 -1.851480865478515980e+01 -9.198116064071655273e-01 1.400000000000000000e+01
-5.114957809448242188e+01 -1.919530296325683949e+01 1.463880538940430043e+01 1.800000000000000000e+01
-2.504527568817139116e+00 -9.359062910079956055e-01 -7.164111137390136719e-01 1.500000000000000000e+01
-2.917448997497559038e+00 -1.089048743247986062e+00 -7.189435958862304688e-01 1.200000000000000000e+01
-3.474636554718018022e+00 -1.296349287033081055e+00 -7.208763957023620605e-01 1.000000000000000000e+01
-4.381326198577880859e+00 -1.632883191108704057e+00 -7.405607700347900391e-01 1.100000000000000000e+01
-5.860101222991943359e+00 -2.181680917739868164e+00 -7.677768468856811523e-01 1.100000000000000000e+01
-8.959350585937500000e+00 -3.333732843399047852e+00 -8.363465070724487305e-01 1.000000000000000000e+00
-1.387238311767577947e+01 -5.156337261199951172e+00 -7.756188511848449707e-01 1.300000000000000000e+01
-4.940059661865233664e+01 -1.834247970581055043e+01 -9.198116064071655273e-01 1.400000000000000000e+01
-5.132463455200195312e+01 -1.904668426513671875e+01 1.466882801055908025e+01 1.800000000000000000e+01
-2.488168478012084961e+00 -9.189206361770629883e-01 -7.107170820236206055e-01 1.400000000000000000e+01
-2.919780969619750977e+00 -1.077164053916930930e+00 -7.184936404228210449e-01 1.200000000000000000e+01
-3.485114812850952148e+00 -1.285035729408263938e+00 -7.220212221145629883e-01 1.100000000000000000e+01
-4.383856296539306641e+00 -1.614682674407958984e+00 -7.399350404739379883e-01 1.100000000000000000e+01
-5.862845897674561435e+00 -2.157107353210449219e+00 -7.670456767082214355e-01 1.100000000000000000e+01
-8.904767036437988281e+00 -3.274551630020142046e+00 -8.300712704658508301e-01 1.000000000000000000e+00
-1.401393985748291016e+01 -5.147796630859375000e+00 -7.824225425720214844e-01 8.000000000000000000e+00
-2.494989871978760210e+00 -9.115556478500366211e-01 -7.117523550987243652e-01 1.800000000000000000e+01
-2.919861793518065962e+00 -1.065629363059998003e+00 -7.175938487052917480e-01 1.300000000000000000e+01
-3.493267774581909180e+00 -1.274208068847656028e+00 -7.227844595909118652e-01 1.200000000000000000e+01
-4.380185604095458984e+00 -1.595988988876342995e+00 -7.383706569671630859e-01 1.200000000000000000e+01
-5.892724514007568359e+00 -2.144776344299315962e+00 -7.699705362319946289e-01 1.100000000000000000e+01
-8.927376747131347656e+00 -3.247534990310668945e+00 -8.311171531677246094e-01 3.000000000000000000e+00
-1.414820766448974965e+01 -5.141138553619384766e+00 -7.889121770858764648e-01 9.000000000000000000e+00
-2.505265951156616211e+00 -9.059046506881713867e-01 -7.138229012489318848e-01 2.000000000000000000e+01
-2.912382602691649947e+00 -1.051968693733215110e+00 -7.148944735527038574e-01 1.400000000000000000e+01
-3.504860401153564009e+00 -1.265283465385437012e+00 -7.243109345436096191e-01 1.100000000000000000e+01
-4.391028881072998047e+00 -1.583465337753295898e+00 -7.393093109130859375e-01 1.200000000000000000e+01
-5.877393245697020596e+00 -2.117150545120238814e+00 -7.670456767082214355e-01 1.100000000000000000e+01
-8.915601730346679688e+00 -3.209814071655272993e+00 -8.290254473686218262e-01 1.000000000000000000e+00
-1.424035549163818004e+01 -5.121229171752929688e+00 -7.930991053581237793e-01 9.000000000000000000e+00
-5.135407257080078125e+01 -1.845823478698730113e+01 1.259860897064208984e+01 1.700000000000000000e+01
-5.252486419677733664e+01 -1.886870384216308949e+01 1.495456409454346058e+01 1.900000000000000000e+01
-2.506593942642211914e+00 -8.965035080909729004e-01 -7.133052945137023926e-01 2.500000000000000000e+01
-2.923377275466918945e+00 -1.044418692588805930e+00 -7.166940569877624512e-01 1.400000000000000000e+01
-3.501860141754149947e+00 -1.250400781631469949e+00 -7.227844595909118652e-01 1.100000000000000000e+01
-4.398390293121337891e+00 -1.568791747093200906e+00 -7.396221756935119629e-01 1.200000000000000000e+01
-5.881007671356201172e+00 -2.095289230346680132e+00 -7.665581703186035156e-01 1.100000000000000000e+01
-8.930505752563476562e+00 -3.180010080337523970e+00 -8.293740749359130859e-01 1.000000000000000000e+00
-1.453852844238281072e+01 -5.171219348907470703e+00 -8.086951971054077148e-01 1.300000000000000000e+01
-5.252085113525391336e+01 -1.865020561218262074e+01 1.493385887145995916e+01 1.900000000000000000e+01
-2.509862899780272993e+00 -8.873103857040405273e-01 -7.133052945137023926e-01 2.400000000000000000e+01
-2.925348281860352007e+00 -1.033048033714293990e+00 -7.162441611289978027e-01 1.300000000000000000e+01
-3.497162818908690962e+00 -1.234290361404418945e+00 -7.208763957023620605e-01 1.100000000000000000e+01
-4.411562442779541016e+00 -1.555287480354309082e+00 -7.408736348152160645e-01 1.200000000000000000e+01
-5.877413272857666016e+00 -2.069764137268065962e+00 -7.650957107543945312e-01 1.100000000000000000e+01
-8.938342094421386719e+00 -3.145933866500854048e+00 -8.290254473686218262e-01 1.000000000000000000e+00
-1.463463687896729049e+01 -5.145057678222656250e+00 -8.129867315292358398e-01 1.300000000000000000e+01
-2.498355865478516069e+00 -8.734435439109802246e-01 -7.091642022132873535e-01 2.200000000000000000e+01
-2.928936481475830078e+00 -1.022830367088318093e+00 -7.162441611289978027e-01 1.300000000000000000e+01
-3.503303766250609907e+00 -1.222722411155700906e+00 -7.212579846382141113e-01 1.100000000000000000e+01
-4.413233757019042969e+00 -1.538578152656554954e+00 -7.402479052543640137e-01 1.200000000000000000e+01
-5.884602546691895419e+00 -2.049235343933105025e+00 -7.650957107543945312e-01 1.100000000000000000e+01
-4.972976303100585938e+01 -1.730800437927246094e+01 8.339834213256835938e+00 2.200000000000000000e+01
-8.892818450927734375e+00 -3.095067024230957031e+00 -8.237960934638977051e-01 1.000000000000000000e+00
-1.472230815887450994e+01 -5.118208408355712891e+00 -8.168596029281616211e-01 1.300000000000000000e+01
-2.508541584014893022e+00 -8.676798939704895020e-01 -7.112347483634948730e-01 2.400000000000000000e+01
-2.935995817184447798e+00 -1.014384746551513894e+00 -7.171439528465270996e-01 1.200000000000000000e+01
-3.512906312942504883e+00 -1.213020682334899902e+00 -7.224028706550598145e-01 1.100000000000000000e+01
-4.395902633666992188e+00 -1.516205787658690962e+00 -7.364934682846069336e-01 1.200000000000000000e+01
-5.910133838653563565e+00 -2.036176204681396040e+00 -7.675331234931945801e-01 1.100000000000000000e+01
-8.914336204528808594e+00 -3.069452285766602007e+00 -8.248419761657714844e-01 1.000000000000000000e+00
-1.480908012390137074e+01 -5.093393802642822266e+00 -8.207324743270874023e-01 1.300000000000000000e+01
-2.515210866928101030e+00 -8.601683974266052246e-01 -7.122700214385986328e-01 2.300000000000000000e+01
-2.933986663818358931e+00 -1.002240300178528054e+00 -7.157942652702331543e-01 1.300000000000000000e+01
-3.511545181274414062e+00 -1.198848128318787065e+00 -7.212579846382141113e-01 1.200000000000000000e+01
-4.412386417388916016e+00 -1.504677414894104004e+00 -7.383706569671630859e-01 1.200000000000000000e+01
-5.898414611816406250e+00 -2.009133100509643999e+00 -7.650957107543945312e-01 1.100000000000000000e+01
-8.902363777160644531e+00 -3.030611753463745117e+00 -8.227502107620239258e-01 1.000000000000000000e+00
-1.489106082916259943e+01 -5.063530921936035156e+00 -8.242912888526916504e-01 9.000000000000000000e+00
-2.516516447067261186e+00 -8.503254652023315430e-01 -7.117523550987243652e-01 2.200000000000000000e+01
-2.930254697799683061e+00 -9.889872074127197266e-01 -7.139946222305297852e-01 1.400000000000000000e+01
-3.514055490493773970e+00 -1.185342073440551980e+00 -7.208763957023620605e-01 1.000000000000000000e+01
-4.421615600585938388e+00 -1.489756584167480025e+00 -7.389963865280151367e-01 1.200000000000000000e+01
-5.898213386535645419e+00 -1.984968066215514915e+00 -7.641207575798034668e-01 1.100000000000000000e+01
-8.917188644409179688e+00 -2.999233007431029829e+00 -8.230988383293151855e-01 1.000000000000000000e+00
-1.501175689697265980e+01 -5.043265342712402344e+00 -8.299435973167419434e-01 1.300000000000000000e+01
-5.223858642578125000e+01 -1.753963661193848012e+01 1.272188186645507990e+01 1.700000000000000000e+01
-5.367350006103516336e+01 -1.801099967956542969e+01 1.516990184783936080e+01 2.000000000000000000e+01
-2.519469261169434038e+00 -8.415360450744628906e-01 -7.117523550987243652e-01 1.900000000000000000e+01
-2.939234733581542969e+00 -9.806028604507446289e-01 -7.153443694114685059e-01 1.300000000000000000e+01
-3.514446735382080078e+00 -1.171826481819153054e+00 -7.201131582260131836e-01 1.100000000000000000e+01
-4.438034057617188388e+00 -1.478058218955994096e+00 -7.408736348152160645e-01 1.200000000000000000e+01
-5.893804550170898438e+00 -1.960607886314392090e+00 -7.626583576202392578e-01 1.100000000000000000e+01
-8.912478446960449219e+00 -2.963059186935424805e+00 -8.217043280601501465e-01 1.000000000000000000e+00
-1.506717872619629084e+01 -5.003422737121582031e+00 -8.320370316505432129e-01 1.300000000000000000e+01
-5.340908050537108664e+01 -1.770473861694335938e+01 1.507672691345215021e+01 1.900000000000000000e+01
-2.511240005493164062e+00 -8.295408487319946289e-01 -7.086465358734130859e-01 1.900000000000000000e+01
-2.942470312118529829e+00 -9.708506464958190918e-01 -7.153443694114685059e-01 1.300000000000000000e+01
-3.512719869613647017e+00 -1.158321261405945046e+00 -7.189682722091674805e-01 1.100000000000000000e+01
-4.420396327972412109e+00 -1.455917477607727051e+00 -7.371191978454589844e-01 1.200000000000000000e+01
-5.904045104980468750e+00 -1.942293167114258035e+00 -7.631458044052124023e-01 1.100000000000000000e+01
-8.926040649414062500e+00 -2.934732675552368164e+00 -8.220529556274414062e-01 1.000000000000000000e+00
-1.522410774230957031e+01 -4.999543666839599609e+00 -8.397827744483947754e-01 9.000000000000000000e+00
-2.515956640243529829e+00 -8.213694691658020020e-01 -7.091642022132873535e-01 1.800000000000000000e+01
-2.949546813964844194e+00 -9.617818593978881836e-01 -7.162441611289978027e-01 1.300000000000000000e+01
-3.516741752624512163e+00 -1.146052598953247070e+00 -7.189682722091674805e-01 1.100000000000000000e+01
-4.417937755584716797e+00 -1.438032984733581987e+00 -7.358677387237548828e-01 1.200000000000000000e+01
-5.908901214599609375e+00 -1.921058654785156028e+00 -7.629020810127258301e-01 1.100000000000000000e+01
-8.932440757751464844e+00 -2.902325868606566939e+00 -8.217043280601501465e-01 3.000000000000000000e+00
-1.538394546508789062e+01 -4.992610454559326172e+00 -8.476331233978271484e-01 1.900000000000000000e+01
-2.531535863876343218e+00 -8.171758651733398438e-01 -7.127876281738281250e-01 1.900000000000000000e+01
-2.941591501235961914e+00 -9.484075903892517090e-01 -7.135447263717651367e-01 1.300000000000000000e+01
-3.529865980148314986e+00 -1.137394905090332031e+00 -7.208763957023620605e-01 1.000000000000000000e+01
-4.426443099975585938e+00 -1.424584984779357910e+00 -7.364934682846069336e-01 1.200000000000000000e+01
-5.900120258331298828e+00 -1.896593570709228960e+00 -7.609521746635437012e-01 9.000000000000000000e+00
-8.945809364318847656e+00 -2.873907566070557085e+00 -8.220529556274414062e-01 1.000000000000000000e+00
-1.538710498809813920e+01 -4.937296390533447266e+00 -8.469004631042480469e-01 9.000000000000000000e+00
-2.532532215118408203e+00 -8.077471852302551270e-01 -7.122700214385986328e-01 1.800000000000000000e+01
-2.943027496337891069e+00 -9.375422000885009766e-01 -7.130948305130004883e-01 1.300000000000000000e+01
-3.531944036483765093e+00 -1.124470829963684082e+00 -7.204947471618652344e-01 1.100000000000000000e+01
-4.429506301879882812e+00 -1.408526539802551047e+00 -7.361806035041809082e-01 1.300000000000000000e+01
-5.906704902648925781e+00 -1.875986695289612038e+00 -7.609521746635437012e-01 9.000000000000000000e+00
-5.272987365722656250e+01 -1.673703193664551137e+01 8.762207031250000000e+00 2.600000000000000000e+01
-8.951989173889160156e+00 -2.841457843780518022e+00 -8.217043280601501465e-01 1.000000000000000000e+00
-1.531285953521729049e+01 -4.854583740234375000e+00 -8.418762087821960449e-01 4.000000000000000000e+00
-2.528105258941649947e+00 -7.961384057998657227e-01 -7.101994752883911133e-01 1.800000000000000000e+01
-2.950161695480347124e+00 -9.279186129570007324e-01 -7.139946222305297852e-01 1.300000000000000000e+01
-3.522931337356566939e+00 -1.107396960258484109e+00 -7.178234457969665527e-01 1.200000000000000000e+01
-4.425215721130371094e+00 -1.389323592185973899e+00 -7.346162199974060059e-01 1.200000000000000000e+01
-5.898387908935546875e+00 -1.849573254585265891e+00 -7.590022683143615723e-01 9.000000000000000000e+00
-8.962343215942382812e+00 -2.808628082275391069e+00 -8.217043280601501465e-01 3.000000000000000000e+00
-1.529242801666259943e+01 -4.786494731903076172e+00 -8.397827744483947754e-01 9.000000000000000000e+00
-3.224782562255858664e+01 -1.008113670349120916e+01 -5.897517204284667969e-01 6.000000000000000000e+00
-2.521645545959473100e+00 -7.844396233558654785e-01 -7.076112627983093262e-01 1.900000000000000000e+01
-2.966409683227539062e+00 -9.216623902320861816e-01 -7.171439528465270996e-01 1.300000000000000000e+01
-3.532400369644165039e+00 -1.096839427947998047e+00 -7.189682722091674805e-01 1.200000000000000000e+01
-4.437585353851318359e+00 -1.376208662986754927e+00 -7.358677387237548828e-01 1.200000000000000000e+01
-5.916185379028320312e+00 -1.832496881484984907e+00 -7.604647278785705566e-01 9.000000000000000000e+00
-8.941639900207519531e+00 -2.767899990081787109e+00 -8.189153671264648438e-01 1.000000000000000000e+00
-1.588148593902588068e+01 -4.910067081451416016e+00 -8.711843490600585938e-01 1.000000000000000000e+01
-3.240892028808593750e+01 -1.000744915008544922e+01 -5.920554399490356445e-01 1.200000000000000000e+01
-2.520675182342528853e+00 -7.744978666305541992e-01 -7.065759897232055664e-01 1.900000000000000000e+01
-2.964020013809204102e+00 -9.095869660377502441e-01 -7.157942652702331543e-01 1.400000000000000000e+01
-3.528699636459351030e+00 -1.082199811935425027e+00 -7.174417972564697266e-01 1.100000000000000000e+01
-4.423474788665770596e+00 -1.354924917221068892e+00 -7.327390313148498535e-01 1.200000000000000000e+01
-5.930139064788818359e+00 -1.814157247543334961e+00 -7.614396810531616211e-01 9.000000000000000000e+00
-8.955058097839355469e+00 -2.737835884094237837e+00 -8.192639946937561035e-01 3.000000000000000000e+00
-1.600931930541991832e+01 -4.888430118560791016e+00 -8.772553205490112305e-01 1.000000000000000000e+01
-3.248191070556641336e+01 -9.905925750732421875e+00 -5.927535295486450195e-01 1.300000000000000000e+01
-2.536303758621215820e+00 -7.696210145950317383e-01 -7.101994752883911133e-01 2.000000000000000000e+01
-2.957852125167847124e+00 -8.964090347290039062e-01 -7.135447263717651367e-01 1.500000000000000000e+01
-3.538092613220214844e+00 -1.071583032608032005e+00 -7.185866832733154297e-01 1.200000000000000000e+01
-4.424395561218261719e+00 -1.338332056999206987e+00 -7.321133017539978027e-01 1.200000000000000000e+01
-5.938335418701171875e+00 -1.794020175933837891e+00 -7.616834044456481934e-01 9.000000000000000000e+00
-5.305576324462891336e+01 -1.601848030090332031e+01 8.777851104736328125e+00 2.600000000000000000e+01
-8.964560508728027344e+00 -2.706560373306273970e+00 -8.192639946937561035e-01 3.000000000000000000e+00
-1.634371376037598012e+01 -4.928233623504638672e+00 -8.946308493614196777e-01 5.000000000000000000e+00
-3.266564178466796875e+01 -9.837460517883300781e+00 -5.954760909080505371e-01 6.000000000000000000e+00
-2.546376943588256836e+00 -7.629809379577636719e-01 -7.122700214385986328e-01 2.000000000000000000e+01
-2.960963010787963867e+00 -8.860787749290466309e-01 -7.135447263717651367e-01 1.500000000000000000e+01
-3.532406806945800781e+00 -1.056413650512695090e+00 -7.166785597801208496e-01 1.200000000000000000e+01
-4.432826042175292969e+00 -1.324010491371155007e+00 -7.327390313148498535e-01 1.200000000000000000e+01
-5.917930126190186435e+00 -1.765336275100708008e+00 -7.582710385322570801e-01 7.000000000000000000e+00
-8.973953247070312500e+00 -2.675251722335814986e+00 -8.192639946937561035e-01 3.000000000000000000e+00
-1.654841041564941051e+01 -4.927006244659423828e+00 -9.048886895179748535e-01 5.000000000000000000e+00
-2.541614770889281782e+00 -7.518956661224365234e-01 -7.101994752883911133e-01 1.900000000000000000e+01
-2.965906858444213867e+00 -8.762898445129394531e-01 -7.139946222305297852e-01 1.400000000000000000e+01
-3.541721582412720171e+00 -1.045744657516479048e+00 -7.178234457969665527e-01 1.200000000000000000e+01
-4.437420368194580078e+00 -1.308529019355773926e+00 -7.327390313148498535e-01 1.200000000000000000e+01
-5.927864551544188565e+00 -1.745789766311645952e+00 -7.587585449218750000e-01 7.000000000000000000e+00
-8.971769332885742188e+00 -2.640535116195679155e+00 -8.182181119918823242e-01 1.000000000000000000e+00
-1.667281532287598012e+01 -4.900753021240234375e+00 -9.107503294944763184e-01 1.100000000000000000e+01
-2.532968282699584961e+00 -7.402119040489196777e-01 -7.070936560630798340e-01 1.900000000000000000e+01
-2.980020761489868164e+00 -8.697255253791809082e-01 -7.166940569877624512e-01 1.300000000000000000e+01
-3.535746335983275923e+00 -1.031245589256287065e+00 -7.159153223037719727e-01 1.100000000000000000e+01
-4.441735267639160156e+00 -1.293806791305541992e+00 -7.327390313148498535e-01 1.200000000000000000e+01
-5.937433719635009766e+00 -1.727231621742248979e+00 -7.592459917068481445e-01 7.000000000000000000e+00
-8.946038246154785156e+00 -2.600757837295531782e+00 -8.150805234909057617e-01 1.000000000000000000e+00
-1.663526916503905895e+01 -4.829843997955322266e+00 -9.078195095062255859e-01 5.000000000000000000e+00
-2.531824350357056108e+00 -7.302948832511901855e-01 -7.060583829879760742e-01 1.900000000000000000e+01
-2.975548028945922852e+00 -8.571602702140808105e-01 -7.148944735527038574e-01 1.400000000000000000e+01
-3.541211128234862837e+00 -1.019440412521362083e+00 -7.162969708442687988e-01 1.200000000000000000e+01
-4.425341606140136719e+00 -1.272290349006653054e+00 -7.292974591255187988e-01 1.100000000000000000e+01
-5.935794353485107422e+00 -1.704304218292236106e+00 -7.582710385322570801e-01 5.000000000000000000e+00
-8.951231956481933594e+00 -2.568415403366088867e+00 -8.147318959236145020e-01 3.000000000000000000e+00
-1.661746788024901988e+01 -4.761843681335449219e+00 -9.059354066848754883e-01 1.100000000000000000e+01
-2.541790246963500977e+00 -7.235684394836425781e-01 -7.081289291381835938e-01 2.000000000000000000e+01
-2.965400695800780806e+00 -8.430382013320922852e-01 -7.117451429367065430e-01 1.500000000000000000e+01
-3.544748067855834961e+00 -1.007073044776916948e+00 -7.162969708442687988e-01 1.200000000000000000e+01
-4.435456752777099609e+00 -1.258452892303467019e+00 -7.302360534667968750e-01 1.200000000000000000e+01
-5.935977935791015625e+00 -1.681950569152832031e+00 -7.575398683547973633e-01 5.000000000000000000e+00
-8.963976860046386719e+00 -2.538239717483520952e+00 -8.150805234909057617e-01 1.000000000000000000e+00
-1.689536666870116832e+01 -4.777721881866455078e+00 -9.201707839965820312e-01 1.100000000000000000e+01
-2.557319641113280806e+00 -7.183485627174377441e-01 -7.117523550987243652e-01 2.200000000000000000e+01
-2.972078084945679155e+00 -8.337345719337463379e-01 -7.126449346542358398e-01 1.500000000000000000e+01
-3.548241853713988814e+00 -9.946934580802917480e-01 -7.162969708442687988e-01 1.200000000000000000e+01
-4.443626880645751953e+00 -1.244027614593506081e+00 -7.308618426322937012e-01 1.200000000000000000e+01
-5.936077117919921875e+00 -1.659616351127624956e+00 -7.568086385726928711e-01 7.000000000000000000e+00
-8.968944549560546875e+00 -2.505861997604370117e+00 -8.147318959236145020e-01 1.000000000000000000e+00
-1.680805587768555043e+01 -4.689731597900390625e+00 -9.145184755325317383e-01 1.100000000000000000e+01
-3.324816513061522727e+01 -9.264290809631347656e+00 -6.024570465087890625e-01 6.000000000000000000e+00
-2.552364826202393022e+00 -7.073537111282348633e-01 -7.096818089485168457e-01 2.100000000000000000e+01
-2.978726387023925781e+00 -8.243945837020874023e-01 -7.135447263717651367e-01 1.500000000000000000e+01
-3.549800157546997070e+00 -9.817783832550048828e-01 -7.159153223037719727e-01 1.200000000000000000e+01
-4.455558776855468750e+00 -1.230612516403198020e+00 -7.321133017539978027e-01 1.200000000000000000e+01
-5.943747997283936435e+00 -1.639413356781006081e+00 -7.570523619651794434e-01 7.000000000000000000e+00
-8.946905136108398438e+00 -2.466068267822266069e+00 -8.119428753852844238e-01 1.000000000000000000e+00
-1.698992919921875000e+01 -4.676616191864013672e+00 -9.235202670097351074e-01 5.000000000000000000e+00
-2.547364473342895952e+00 -6.964022517204284668e-01 -7.076112627983093262e-01 2.200000000000000000e+01
-4.513293075561522727e+01 -1.233004093170166016e+01 8.166679143905639648e-01 5.400000000000000000e+01
-2.983465909957886186e+00 -8.145051002502441406e-01 -7.139946222305297852e-01 1.500000000000000000e+01
-4.516702270507813211e+01 -1.232241249084473012e+01 2.453614234924315962e+00 3.900000000000000000e+01
-3.553205490112305132e+00 -9.693812727928161621e-01 -7.159153223037719727e-01 1.200000000000000000e+01
-4.440768241882324219e+00 -1.209859728813170943e+00 -7.289845943450927734e-01 1.100000000000000000e+01
-5.951349735260009766e+00 -1.619176983833312988e+00 -7.572960853576660156e-01 7.000000000000000000e+00
-8.970839500427246094e+00 -2.439004421234130859e+00 -8.133373856544494629e-01 1.000000000000000000e+00
-1.693290519714355113e+01 -4.597395420074462891e+00 -9.195427298545837402e-01 1.100000000000000000e+01
-2.547794818878173828e+00 -6.874477863311767578e-01 -7.070936560630798340e-01 1.900000000000000000e+01
-4.516198730468750000e+01 -1.217718410491943004e+01 8.164584636688232422e-01 5.400000000000000000e+01
-2.978624105453491211e+00 -8.025791049003601074e-01 -7.121950387954711914e-01 1.500000000000000000e+01
-4.519992065429688211e+01 -1.217048835754395064e+01 2.453195571899414062e+00 3.900000000000000000e+01
-3.548817634582519975e+00 -9.555513262748718262e-01 -7.143889069557189941e-01 1.200000000000000000e+01
-4.433310031890869141e+00 -1.192049384117126021e+00 -7.271074056625366211e-01 1.100000000000000000e+01
-5.949017524719238281e+00 -1.597373485565185991e+00 -7.563211321830749512e-01 7.000000000000000000e+00
-8.948089599609375000e+00 -2.400981426239014116e+00 -8.105484247207641602e-01 1.000000000000000000e+00
-1.700979232788085938e+01 -4.557760238647460938e+00 -9.228922724723815918e-01 5.000000000000000000e+00
-4.511380767822266336e+01 -1.207133197784424006e+01 -8.151670098304748535e-01 1.200000000000000000e+01
-2.548311948776245117e+00 -6.780533790588378906e-01 -7.065759897232055664e-01 2.200000000000000000e+01
-4.513464736938477273e+01 -1.200096607208251953e+01 8.152018785476684570e-01 5.400000000000000000e+01
-2.971990346908568892e+00 -7.896747589111328125e-01 -7.099454998970031738e-01 1.400000000000000000e+01
-4.514947128295897727e+01 -1.198803520202637074e+01 2.448171377182006836e+00 3.800000000000000000e+01
-3.565413951873778853e+00 -9.466845989227294922e-01 -7.170602083206176758e-01 1.200000000000000000e+01
-4.431715965270996094e+00 -1.175048112869262917e+00 -7.261688113212585449e-01 1.200000000000000000e+01
-5.939205646514892578e+00 -1.572533130645751953e+00 -7.543712258338928223e-01 7.000000000000000000e+00
-8.979529380798339844e+00 -2.375847578048706055e+00 -8.126401305198669434e-01 1.000000000000000000e+00
-1.757400131225585938e+01 -4.643251419067382812e+00 -9.526190757751464844e-01 6.000000000000000000e+00
-2.558254957199097124e+00 -6.706683635711669922e-01 -7.086465358734130859e-01 2.100000000000000000e+01
-4.514737701416016336e+01 -1.182735061645507990e+01 8.146434426307678223e-01 5.300000000000000000e+01
-2.967324018478393999e+00 -7.768024802207946777e-01 -7.081459164619445801e-01 1.300000000000000000e+01
-4.516991806030272727e+01 -1.181640815734862926e+01 2.446915388107299805e+00 3.800000000000000000e+01
-3.555564403533935991e+00 -9.301322698593139648e-01 -7.143889069557189941e-01 1.300000000000000000e+01
-4.437903881072998047e+00 -1.159296512603759988e+00 -7.264816761016845703e-01 1.100000000000000000e+01
-5.960295677185058594e+00 -1.554762721061706987e+00 -7.563211321830749512e-01 9.000000000000000000e+00
-9.007455825805664062e+00 -2.347945451736450195e+00 -8.143832683563232422e-01 1.000000000000000000e+00
-1.776292610168457031e+01 -4.623585224151611328e+00 -9.619348645210266113e-01 1.900000000000000000e+01
-3.374541091918945312e+01 -8.771156311035156250e+00 -6.086003184318542480e-01 6.000000000000000000e+00
-2.553098678588867188e+00 -6.598008275032043457e-01 -7.065759897232055664e-01 1.900000000000000000e+01
-4.512643051147460938e+01 -1.165368461608887074e+01 8.135264515876770020e-01 5.300000000000000000e+01
-2.990773439407349077e+00 -7.717961668968200684e-01 -7.130948305130004883e-01 1.500000000000000000e+01
-4.517221069335938211e+01 -1.164868927001952947e+01 2.444821834564208984e+00 3.800000000000000000e+01
-3.545482158660889116e+00 -9.142837524414062500e-01 -7.117175459861755371e-01 1.200000000000000000e+01
-4.455314636230468750e+00 -1.147246360778809038e+00 -7.286717295646667480e-01 1.200000000000000000e+01
-5.957996368408203125e+00 -1.531970500946044922e+00 -7.553461790084838867e-01 7.000000000000000000e+00
-8.977003097534179688e+00 -2.306572675704956055e+00 -8.108970522880554199e-01 1.000000000000000000e+00
-1.786988258361816051e+01 -4.584881782531738281e+00 -9.668544530868530273e-01 1.300000000000000000e+01
-3.382231521606445312e+01 -8.665220260620117188e+00 -6.094380617141723633e-01 7.000000000000000000e+00
-2.549656629562377930e+00 -6.498993635177612305e-01 -7.050230503082275391e-01 2.000000000000000000e+01
-4.514932632446289062e+01 -1.150002670288085938e+01 8.132472634315490723e-01 5.300000000000000000e+01
-2.985762357711791992e+00 -7.599514126777648926e-01 -7.112952470779418945e-01 1.300000000000000000e+01
-4.517962265014647727e+01 -1.149095153808593928e+01 2.443147182464600053e+00 3.800000000000000000e+01
-3.559910535812377930e+00 -9.054250121116638184e-01 -7.140072584152221680e-01 1.200000000000000000e+01
-4.443777561187744141e+00 -1.128575801849365012e+00 -7.261688113212585449e-01 1.200000000000000000e+01
-5.949574470520020419e+00 -1.508788943290710005e+00 -7.536399960517883301e-01 7.000000000000000000e+00
-8.934388160705566406e+00 -2.264066219329833984e+00 -8.063649535179138184e-01 1.000000000000000000e+00
-1.790822410583496094e+01 -4.531477451324462891e+00 -9.681105017662048340e-01 1.300000000000000000e+01
-2.550036191940308061e+00 -6.405248045921325684e-01 -7.045054435729980469e-01 2.200000000000000000e+01
-4.514264297485352273e+01 -1.133067321777343928e+01 8.124095201492309570e-01 5.300000000000000000e+01
-2.990287065505981001e+00 -7.499986290931701660e-01 -7.117451429367065430e-01 1.300000000000000000e+01
-4.518458557128906250e+01 -1.132443523406982067e+01 2.441262960433959961e+00 3.800000000000000000e+01
-3.561145067214965820e+00 -8.925158381462097168e-01 -7.136256694793701172e-01 1.100000000000000000e+01
-4.438108444213867188e+00 -1.110659360885619895e+00 -7.246044278144836426e-01 1.100000000000000000e+01
-5.962508678436279297e+00 -1.489936828613281028e+00 -7.546149492263793945e-01 5.000000000000000000e+00
-8.988629341125488281e+00 -2.244449853897095171e+00 -8.105484247207641602e-01 1.000000000000000000e+00
-1.808284378051758168e+01 -4.508559226989746094e+00 -9.766936302185058594e-01 6.000000000000000000e+00
-2.559757471084595171e+00 -6.334759593009948730e-01 -7.065759897232055664e-01 2.100000000000000000e+01
-4.513145065307617188e+01 -1.116054534912109020e+01 8.115019798278808594e-01 5.300000000000000000e+01
-2.973968505859375000e+00 -7.348812222480773926e-01 -7.072461247444152832e-01 1.400000000000000000e+01
-4.515791320800781250e+01 -1.115036392211914062e+01 2.437704086303710938e+00 3.800000000000000000e+01
-3.579486846923828125e+00 -8.838447332382202148e-01 -7.166785597801208496e-01 1.100000000000000000e+01
-4.445794582366943359e+00 -1.096106529235840066e+00 -7.252301573753356934e-01 1.100000000000000000e+01
-5.958035469055175781e+00 -1.466742157936095969e+00 -7.533962726593017578e-01 7.000000000000000000e+00
-8.953845024108886719e+00 -2.202589750289916992e+00 -8.067135810852050781e-01 1.000000000000000000e+00
-1.847087478637694957e+01 -4.536881923675537109e+00 -9.967906475067138672e-01 6.000000000000000000e+00
-3.410396194458007812e+01 -8.364114761352539062e+00 -6.129285097122192383e-01 7.000000000000000000e+00
-2.565706968307495117e+00 -6.254519224166870117e-01 -7.076112627983093262e-01 2.100000000000000000e+01
-4.516236114501953125e+01 -1.100104618072509943e+01 8.113623857498168945e-01 5.300000000000000000e+01
-2.976515531539916992e+00 -7.244956493377685547e-01 -7.072461247444152832e-01 1.400000000000000000e+01
-4.517327117919921875e+01 -1.098700141906737926e+01 2.436448097229003906e+00 3.800000000000000000e+01
-3.565381526947021040e+00 -8.671687841415405273e-01 -7.132440209388732910e-01 1.200000000000000000e+01
-4.457271575927734375e+00 -1.082445740699768066e+00 -7.264816761016845703e-01 1.100000000000000000e+01
-5.943827152252197266e+00 -1.441257834434509055e+00 -7.509589195251464844e-01 7.000000000000000000e+00
-8.934370040893554688e+00 -2.164753198623656782e+00 -8.042731881141662598e-01 2.000000000000000000e+00
-1.765962409973144887e+01 -4.272312641143798828e+00 -9.522004127502441406e-01 6.000000000000000000e+00
-3.400466156005858664e+01 -8.214030265808105469e+00 -6.106247901916503906e-01 7.000000000000000000e+00
-2.565996170043944868e+00 -6.160411834716796875e-01 -7.070936560630798340e-01 1.900000000000000000e+01
-4.515381622314453125e+01 -1.083213806152343928e+01 8.105246424674987793e-01 5.300000000000000000e+01
-2.994186878204346147e+00 -7.177353501319885254e-01 -7.108453512191772461e-01 1.400000000000000000e+01
-4.518415451049804688e+01 -1.082273674011229936e+01 2.434982776641846147e+00 3.800000000000000000e+01
-3.562659025192261186e+00 -8.533461093902587891e-01 -7.120991945266723633e-01 1.100000000000000000e+01
-4.457180500030517578e+00 -1.065961480140686035e+00 -7.258559465408325195e-01 1.100000000000000000e+01
-5.941098690032958984e+00 -1.418657064437865989e+00 -7.499839663505554199e-01 7.000000000000000000e+00
-8.965127944946289062e+00 -2.139101982116699219e+00 -8.063649535179138184e-01 1.000000000000000000e+00
-1.783763122558594105e+01 -4.249523162841796875e+00 -9.609928131103515625e-01 1.200000000000000000e+01
-3.404479980468750000e+01 -8.098057746887207031e+00 -6.108342409133911133e-01 7.000000000000000000e+00
-2.545570373535155806e+00 -6.017473340034484863e-01 -7.008819580078125000e-01 2.000000000000000000e+01
-4.516410827636718750e+01 -1.066802024841308949e+01 8.100360035896301270e-01 5.300000000000000000e+01
-2.992880821228026900e+00 -7.063840031623840332e-01 -7.099454998970031738e-01 1.400000000000000000e+01
-4.517111587524414062e+01 -1.065302944183349965e+01 2.432261228561400923e+00 3.800000000000000000e+01
-3.557972669601439986e+00 -8.391023278236389160e-01 -7.105727195739746094e-01 1.100000000000000000e+01
-4.453183174133300781e+00 -1.048585414886475053e+00 -7.246044278144836426e-01 1.100000000000000000e+01
-5.947947025299072266e+00 -1.398364424705504927e+00 -7.502276897430419922e-01 9.000000000000000000e+00
-8.945385932922363281e+00 -2.101415872573852983e+00 -8.039245605468750000e-01 1.000000000000000000e+00
-1.799041557312012074e+01 -4.219613552093505859e+00 -9.684245586395263672e-01 1.900000000000000000e+01
-2.557063341140747070e+00 -5.950472354888916016e-01 -7.034701704978942871e-01 2.100000000000000000e+01
-4.515042877197266336e+01 -1.049852752685547053e+01 8.091284632682800293e-01 5.300000000000000000e+01
-3.001022815704346147e+00 -6.972556710243225098e-01 -7.112952470779418945e-01 1.600000000000000000e+01
-4.519452285766602273e+01 -1.050046634674072088e+01 2.431633234024047852e+00 3.800000000000000000e+01
-3.576179265975952148e+00 -8.302293419837951660e-01 -7.136256694793701172e-01 1.100000000000000000e+01
-4.441421508789063388e+00 -1.029466271400452104e+00 -7.221015095710754395e-01 1.100000000000000000e+01
-5.960527896881104404e+00 -1.379383921623229980e+00 -7.512026429176330566e-01 7.000000000000000000e+00
-8.960431098937988281e+00 -2.071973323822021040e+00 -8.046218156814575195e-01 1.000000000000000000e+00
-1.828332328796387074e+01 -4.221037387847900391e+00 -9.833925962448120117e-01 1.300000000000000000e+01
-3.426808547973632812e+01 -7.898812294006347656e+00 -6.138360500335693359e-01 1.400000000000000000e+01
-2.564774036407471147e+00 -5.874117016792297363e-01 -7.050230503082275391e-01 1.900000000000000000e+01
-4.514781570434570312e+01 -1.033193683624267933e+01 8.084303736686706543e-01 5.200000000000000000e+01
-2.984441280364989790e+00 -6.824319958686828613e-01 -7.067962288856506348e-01 1.300000000000000000e+01
-4.518597412109375000e+01 -1.032407188415526988e+01 2.429121017456055132e+00 3.800000000000000000e+01
-3.586711168289185014e+00 -8.194902539253234863e-01 -7.151521444320678711e-01 1.100000000000000000e+01
-4.444987773895263672e+00 -1.013956546783447044e+00 -7.221015095710754395e-01 1.100000000000000000e+01
-5.971112728118895596e+00 -1.359891772270203081e+00 -7.519338726997375488e-01 7.000000000000000000e+00
-8.952067375183105469e+00 -2.037146329879761186e+00 -8.032273054122924805e-01 1.000000000000000000e+00
-1.841869735717773082e+01 -4.184625625610351562e+00 -9.898822903633117676e-01 1.300000000000000000e+01
-3.429934692382813211e+01 -7.780030727386474609e+00 -6.139058470726013184e-01 1.400000000000000000e+01
-2.568693399429320845e+00 -5.788800716400146484e-01 -7.055407166481018066e-01 2.200000000000000000e+01
-4.516409683227539062e+01 -1.016988658905028942e+01 8.080813288688659668e-01 5.200000000000000000e+01
-2.983002901077270952e+00 -6.711546778678894043e-01 -7.058964371681213379e-01 1.600000000000000000e+01
-4.518488693237304688e+01 -1.016628170013427912e+01 2.427237033843994141e+00 3.700000000000000000e+01
-3.578057289123535156e+00 -8.043816089630126953e-01 -7.128624320030212402e-01 1.100000000000000000e+01
-4.456210136413574219e+00 -1.000164747238158958e+00 -7.233529686927795410e-01 1.100000000000000000e+01
-5.948704719543457031e+00 -1.332963824272155984e+00 -7.485215067863464355e-01 7.000000000000000000e+00
-8.966900825500488281e+00 -2.007626533508300781e+00 -8.039245605468750000e-01 1.000000000000000000e+00
-1.850726127624512074e+01 -4.136862754821777344e+00 -9.938598275184631348e-01 1.300000000000000000e+01
-3.434581375122070312e+01 -7.664611816406250000e+00 -6.142548918724060059e-01 7.000000000000000000e+00
-2.565040349960327148e+00 -5.686557292938232422e-01 -7.039877772331237793e-01 1.800000000000000000e+01
-4.514855957031250000e+01 -1.000092792510985973e+01 8.071737885475158691e-01 5.200000000000000000e+01
-2.992938280105590820e+00 -6.624224185943603516e-01 -7.076960206031799316e-01 1.500000000000000000e+01
-4.520449829101563211e+01 -1.000504302978515980e+01 2.426399707794189009e+00 3.700000000000000000e+01
-3.565507650375366211e+00 -7.884956002235412598e-01 -7.098094820976257324e-01 1.100000000000000000e+01
-4.459673881530761719e+00 -9.846036434173583984e-01 -7.233529686927795410e-01 1.100000000000000000e+01
-5.949444293975830078e+00 -1.311336278915405051e+00 -7.480340003967285156e-01 7.000000000000000000e+00
-8.962180137634277344e+00 -1.973742961883544922e+00 -8.028786778450012207e-01 1.000000000000000000e+00
-1.866593742370605113e+01 -4.103972434997558594e+00 -1.001605510711669922e+00 1.400000000000000000e+01
-3.421610260009766336e+01 -7.510377883911132812e+00 -6.114625334739685059e-01 7.000000000000000000e+00
-2.548134565353393999e+00 -5.555831789970397949e-01 -6.988114118576049805e-01 1.600000000000000000e+01
-4.515193176269531250e+01 -9.836458206176757812e+00 8.066152930259704590e-01 5.200000000000000000e+01
-3.004752874374390093e+00 -6.540434360504150391e-01 -7.099454998970031738e-01 1.300000000000000000e+01
-4.520573806762695312e+01 -9.831652641296386719e+00 2.424515485763549805e+00 3.700000000000000000e+01
-3.572075128555297852e+00 -7.768793106079101562e-01 -7.105727195739746094e-01 1.100000000000000000e+01
-4.451501369476318359e+00 -9.665156602859497070e-01 -7.214757800102233887e-01 1.100000000000000000e+01
-5.969505786895751953e+00 -1.293924927711487038e+00 -7.499839663505554199e-01 9.000000000000000000e+00
-8.941753387451171875e+00 -1.936542987823486106e+00 -8.004383444786071777e-01 1.000000000000000000e+00
-3.419128799438477273e+01 -7.379926204681395596e+00 -6.105549931526184082e-01 7.000000000000000000e+00
-2.555725097656250000e+00 -5.479000210762023926e-01 -7.003643512725830078e-01 1.900000000000000000e+01
-4.515470886230468750e+01 -9.672087669372558594e+00 8.060568571090698242e-01 5.200000000000000000e+01
-3.005112171173096147e+00 -6.431431174278259277e-01 -7.094956040382385254e-01 1.500000000000000000e+01
-4.520684051513671875e+01 -9.675003051757812500e+00 2.422840833663939986e+00 3.700000000000000000e+01
-3.574765205383300781e+00 -7.644057273864746094e-01 -7.105727195739746094e-01 1.200000000000000000e+01
-4.443256855010986328e+00 -9.484968185424804688e-01 -7.195985317230224609e-01 1.100000000000000000e+01
-5.960395336151123047e+00 -1.270183444023132102e+00 -7.482777833938598633e-01 9.000000000000000000e+00
-8.964048385620117188e+00 -1.908638000488281028e+00 -8.018328547477722168e-01 1.000000000000000000e+00
-3.432638549804688211e+01 -7.283775806427001953e+00 -6.125096678733825684e-01 7.000000000000000000e+00
-2.559512615203856978e+00 -5.393738746643066406e-01 -7.008819580078125000e-01 2.000000000000000000e+01
-4.517645263671875000e+01 -9.511937141418457031e+00 8.058474063873291016e-01 5.200000000000000000e+01
-2.992082834243773970e+00 -6.294400095939636230e-01 -7.058964371681213379e-01 1.500000000000000000e+01
-4.520124816894531250e+01 -9.508919715881347656e+00 2.420747280120850053e+00 3.700000000000000000e+01
-3.585096836090087891e+00 -7.535380721092224121e-01 -7.120991945266723633e-01 1.200000000000000000e+01
-4.450407028198242188e+00 -9.337924718856811523e-01 -7.202242612838745117e-01 1.100000000000000000e+01
-5.949249744415283203e+00 -1.246114253997802956e+00 -7.463278770446777344e-01 9.000000000000000000e+00
-8.935553550720214844e+00 -1.869989871978759988e+00 -7.986952066421508789e-01 1.000000000000000000e+00
-3.427721405029296875e+01 -7.148396492004395419e+00 -6.111832857131958008e-01 7.000000000000000000e+00
-2.567054748535155806e+00 -5.316115021705627441e-01 -7.024348974227905273e-01 1.900000000000000000e+01
-4.518588256835938211e+01 -9.349322319030761719e+00 8.054285645484924316e-01 5.200000000000000000e+01
-2.998078584671020952e+00 -6.197808980941772461e-01 -7.067962288856506348e-01 1.600000000000000000e+01
-4.514810562133789062e+01 -9.333289146423339844e+00 2.416141748428345171e+00 3.700000000000000000e+01
-3.574246644973754883e+00 -7.382393479347229004e-01 -7.094278335571289062e-01 1.200000000000000000e+01
-4.465247631072998047e+00 -9.206452965736389160e-01 -7.221015095710754395e-01 1.100000000000000000e+01
-5.945785522460938388e+00 -1.223739266395569070e+00 -7.453529238700866699e-01 9.000000000000000000e+00
-8.930317878723144531e+00 -1.836379766464232954e+00 -7.976493835449218750e-01 1.000000000000000000e+00
-3.434505462646483664e+01 -7.037534236907958984e+00 -6.119511723518371582e-01 7.000000000000000000e+00
-2.572680950164794922e+00 -5.234178900718688965e-01 -7.034701704978942871e-01 1.900000000000000000e+01
-4.518296813964843750e+01 -9.184367179870605469e+00 8.048002719879150391e-01 5.200000000000000000e+01
-3.002133369445800781e+00 -6.096997261047363281e-01 -7.072461247444152832e-01 1.400000000000000000e+01
-4.516866683959960938e+01 -9.173251152038574219e+00 2.415513753890991211e+00 3.700000000000000000e+01
-3.574877738952637163e+00 -7.253680229187011719e-01 -7.090462446212768555e-01 1.200000000000000000e+01
-4.464561939239501953e+00 -9.042688012123107910e-01 -7.214757800102233887e-01 1.200000000000000000e+01
-5.934455394744873047e+00 -1.199830055236815962e+00 -7.434030175209045410e-01 9.000000000000000000e+00
-8.948390960693359375e+00 -1.807562947273253950e+00 -7.986952066421508789e-01 1.000000000000000000e+00
-3.431451797485352273e+01 -6.906556606292724609e+00 -6.109738349914550781e-01 1.400000000000000000e+01
-2.553653955459595171e+00 -5.102704167366027832e-01 -6.977761387825012207e-01 2.000000000000000000e+01
-4.516376876831054688e+01 -9.016414642333984375e+00 8.038927316665649414e-01 5.200000000000000000e+01
-3.009976625442504883e+00 -6.003601551055908203e-01 -7.085958123207092285e-01 1.500000000000000000e+01
-4.518474197387695312e+01 -9.012401580810546875e+00 2.414676427841186968e+00 3.700000000000000000e+01
-3.579313278198242188e+00 -7.132686376571655273e-01 -7.094278335571289062e-01 1.300000000000000000e+01
-4.459941864013671875e+00 -8.871375322341918945e-01 -7.202242612838745117e-01 1.100000000000000000e+01
-5.942501544952392578e+00 -1.179880738258362038e+00 -7.438904643058776855e-01 1.100000000000000000e+01
-8.899925231933593750e+00 -1.765461325645446999e+00 -7.938144803047180176e-01 1.000000000000000000e+00
-3.435018920898438211e+01 -6.789061069488525391e+00 -6.111832857131958008e-01 7.000000000000000000e+00
-2.562914609909058061e+00 -5.032883882522583008e-01 -6.998466849327087402e-01 2.000000000000000000e+01
-4.518164443969727273e+01 -8.864286422729492188e+00 8.036833405494689941e-01 5.200000000000000000e+01
-3.002389192581177202e+00 -5.885012149810791016e-01 -7.063463330268859863e-01 1.400000000000000000e+01
-4.521592712402343750e+01 -8.854622840881347656e+00 2.414676427841186968e+00 3.700000000000000000e+01
-3.581658840179442915e+00 -7.013952732086181641e-01 -7.094278335571289062e-01 1.300000000000000000e+01
-4.451226711273193359e+00 -8.700692653656005859e-01 -7.183470726013183594e-01 1.100000000000000000e+01
-5.958071708679199219e+00 -1.162449121475219949e+00 -7.453529238700866699e-01 9.000000000000000000e+00
-8.897908210754394531e+00 -1.734413623809814009e+00 -7.931172847747802734e-01 1.000000000000000000e+00
-3.439999771118164062e+01 -6.680451393127441406e+00 -6.116719245910644531e-01 1.400000000000000000e+01
-2.566552639007567915e+00 -4.947047233581542969e-01 -7.003643512725830078e-01 1.900000000000000000e+01
-4.517696762084960938e+01 -8.699712753295898438e+00 8.030550479888916016e-01 5.200000000000000000e+01
-2.991029739379882812e+00 -5.754401683807373047e-01 -7.031970024108886719e-01 1.500000000000000000e+01
-4.519948577880858664e+01 -8.687687873840332031e+00 2.412164211273192915e+00 3.700000000000000000e+01
-3.582157373428345171e+00 -6.885181069374084473e-01 -7.090462446212768555e-01 1.300000000000000000e+01
-4.458117008209229404e+00 -8.552706837654113770e-01 -7.189728021621704102e-01 1.200000000000000000e+01
-5.950395107269287109e+00 -1.139404416084289995e+00 -7.438904643058776855e-01 1.100000000000000000e+01
-8.892167091369628906e+00 -1.701097369194030984e+00 -7.920714020729064941e-01 1.000000000000000000e+00
-3.442703247070313211e+01 -6.561080932617188388e+00 -6.117417216300964355e-01 7.000000000000000000e+00
-2.579567909240723100e+00 -4.883470833301544189e-01 -7.034701704978942871e-01 1.900000000000000000e+01
-4.521735763549804688e+01 -8.552082061767578125e+00 8.032644391059875488e-01 5.200000000000000000e+01
-2.989091873168944868e+00 -5.647947788238525391e-01 -7.022972106933593750e-01 1.600000000000000000e+01
-4.518879699707031250e+01 -8.530343055725097656e+00 2.410070896148682085e+00 3.700000000000000000e+01
-3.586350202560424805e+00 -6.769996285438537598e-01 -7.094278335571289062e-01 1.300000000000000000e+01
-4.453163623809813565e+00 -8.390193581581115723e-01 -7.177213430404663086e-01 1.100000000000000000e+01
-5.922926425933837891e+00 -1.113796114921570046e+00 -7.399906516075134277e-01 9.000000000000000000e+00
-8.909507751464843750e+00 -1.673807740211487038e+00 -7.931172847747802734e-01 1.000000000000000000e+00
-3.436997985839843750e+01 -6.432167053222656250e+00 -6.103455424308776855e-01 7.000000000000000000e+00
-2.571759939193726030e+00 -4.775761663913726807e-01 -7.008819580078125000e-01 1.900000000000000000e+01
-4.516828918457031250e+01 -8.379601478576660156e+00 8.018682599067687988e-01 5.100000000000000000e+01
-3.006373882293701172e+00 -5.571984648704528809e-01 -7.058964371681213379e-01 1.500000000000000000e+01
-4.521829605102539062e+01 -8.372552871704101562e+00 2.410070896148682085e+00 3.700000000000000000e+01
-3.584830522537231001e+00 -6.637619137763977051e-01 -7.086645960807800293e-01 1.300000000000000000e+01
-4.483260154724121094e+00 -8.284953236579895020e-01 -7.221015095710754395e-01 1.100000000000000000e+01
-5.950203895568847656e+00 -1.097435116767883079e+00 -7.429155111312866211e-01 9.000000000000000000e+00
-8.868270874023437500e+00 -1.634032845497130904e+00 -7.889337539672851562e-01 1.000000000000000000e+00
-3.440008926391602273e+01 -6.313598155975341797e+00 -6.104851961135864258e-01 1.400000000000000000e+01
-2.556305885314940962e+00 -4.654813706874846857e-01 -6.962232589721679688e-01 1.900000000000000000e+01
-4.518939208984375000e+01 -8.220452308654785156e+00 8.017286658287048340e-01 5.100000000000000000e+01
