-4.480228042602539062e+01 9.090700149536132812e+00 2.395835399627685991e+00 3.600000000000000000e+01
-3.366961479187012163e+00 6.837921738624572754e-01 -6.678314805030822754e-01 1.200000000000000000e+01
-4.491440963745117188e+01 9.129776954650878906e+00 4.009861469268798828e+00 5.400000000000000000e+01
-4.140505790710449219e+00 8.423954844474792480e-01 -6.692266464233398438e-01 1.000000000000000000e+01
-4.489651107788085938e+01 9.142458915710449219e+00 5.625732421875000000e+00 8.100000000000000000e+01
-5.411275863647460938e+00 1.102903723716736062e+00 -6.780810356140136719e-01 1.200000000000000000e+01
-7.703315258026123047e+00 1.571458101272583008e+00 -6.878331303596496582e-01 1.000000000000000000e+00
-1.374662685394286932e+01 2.809278011322021040e+00 -7.353202104568481445e-01 4.000000000000000000e+00
-3.367628097534179688e+01 6.894373893737792969e+00 -6.000137329101562500e-01 1.300000000000000000e+01
-2.453906059265137163e+00 5.063931941986083984e-01 -6.713765859603881836e-01 1.500000000000000000e+01
-4.483272171020507812e+01 9.259931564331054688e+00 7.990759015083312988e-01 5.100000000000000000e+01
-2.826323509216309038e+00 5.842746496200561523e-01 -6.663050055503845215e-01 1.200000000000000000e+01
-4.483516311645507812e+01 9.268595695495605469e+00 2.399394273757935014e+00 3.600000000000000000e+01
-3.341362237930297852e+00 6.913546919822692871e-01 -6.632520556449890137e-01 1.200000000000000000e+01
-4.145127773284912109e+00 8.591691851615905762e-01 -6.704781055450439453e-01 9.000000000000000000e+00
-5.393591403961181641e+00 1.119904637336730957e+00 -6.763748526573181152e-01 1.200000000000000000e+01
-7.693602561950683594e+00 1.598870873451232910e+00 -6.874845027923583984e-01 3.000000000000000000e+00
-1.373623847961425959e+01 2.859642982482910156e+00 -7.353202104568481445e-01 4.000000000000000000e+00
-3.364295578002929688e+01 7.016124725341796875e+00 -5.998741388320922852e-01 1.300000000000000000e+01
-2.440779924392700195e+00 5.125735998153686523e-01 -6.682707667350769043e-01 1.600000000000000000e+01
-4.477664184570313211e+01 9.411435127258300781e+00 7.986570000648498535e-01 5.100000000000000000e+01
-2.837615728378295898e+00 5.969450473785400391e-01 -6.694543361663818359e-01 1.200000000000000000e+01
-3.346613168716431108e+00 7.046319842338562012e-01 -6.647785305976867676e-01 1.100000000000000000e+01
-4.128573417663574219e+00 8.707794547080993652e-01 -6.682880520820617676e-01 1.000000000000000000e+01
-5.407129287719726562e+00 1.142418146133423074e+00 -6.785684823989868164e-01 1.200000000000000000e+01
-7.684076309204101562e+00 1.624892354011536089e+00 -6.871358752250671387e-01 1.000000000000000000e+00
-3.362608718872070312e+01 7.135178089141845703e+00 -6.000137329101562500e-01 1.300000000000000000e+01
-2.440956115722655806e+00 5.210679769515991211e-01 -6.687884330749511719e-01 1.600000000000000000e+01
-2.829903602600098100e+00 6.051291227340698242e-01 -6.681046485900878906e-01 1.200000000000000000e+01
-3.353857040405272993e+00 7.177801728248596191e-01 -6.666866540908813477e-01 1.200000000000000000e+01
-4.106348037719726562e+00 8.803247809410095215e-01 -6.651593446731567383e-01 1.000000000000000000e+01
-5.391666412353515625e+00 1.157841801643372026e+00 -6.771060824394226074e-01 1.200000000000000000e+01
-7.663062095642089844e+00 1.647015452384948953e+00 -6.857413649559020996e-01 1.000000000000000000e+00
-3.361005783081054688e+01 7.248332977294921875e+00 -6.001533269882202148e-01 1.900000000000000000e+01
-2.441010236740111861e+00 5.299952626228332520e-01 -6.693060398101806641e-01 1.600000000000000000e+01
-2.814444541931151900e+00 6.121046543121337891e-01 -6.649553179740905762e-01 1.300000000000000000e+01
-3.351330995559691939e+00 7.294829487800598145e-01 -6.666866540908813477e-01 1.200000000000000000e+01
-4.118690490722656250e+00 8.980197310447692871e-01 -6.676623225212097168e-01 1.000000000000000000e+01
-5.383713245391845703e+00 1.175808072090148926e+00 -6.766185760498046875e-01 1.200000000000000000e+01
-7.672837734222412109e+00 1.677158117294311968e+00 -6.871358752250671387e-01 1.000000000000000000e+00
-3.363924407958983664e+01 7.377604484558104581e+00 -6.011306643486022949e-01 1.300000000000000000e+01
-2.446691036224364790e+00 5.401786565780639648e-01 -6.713765859603881836e-01 1.600000000000000000e+01
-2.816096305847167969e+00 6.227667331695556641e-01 -6.658551096916198730e-01 1.300000000000000000e+01
-3.337263107299805132e+00 7.386313080787658691e-01 -6.643969416618347168e-01 1.300000000000000000e+01
-4.103959560394287109e+00 9.098259210586547852e-01 -6.657850742340087891e-01 1.000000000000000000e+01
-5.356321334838867188e+00 1.189429640769958052e+00 -6.736937165260314941e-01 1.200000000000000000e+01
-7.659156799316406250e+00 1.702202200889586958e+00 -6.864386200904846191e-01 1.000000000000000000e+00
-3.362889862060546875e+01 7.498464107513427734e+00 -6.014099121093750000e-01 1.300000000000000000e+01
-2.435365676879882812e+00 5.466005802154541016e-01 -6.687884330749511719e-01 1.400000000000000000e+01
-2.817707777023314986e+00 6.334478259086608887e-01 -6.667549014091491699e-01 1.400000000000000000e+01
-3.334664344787598100e+00 7.502760291099548340e-01 -6.643969416618347168e-01 1.300000000000000000e+01
-4.120028972625732422e+00 9.284886717796325684e-01 -6.689137816429138184e-01 1.000000000000000000e+01
-5.352136611938476562e+00 1.208119392395019975e+00 -6.736937165260314941e-01 1.200000000000000000e+01
-7.633734226226806641e+00 1.724536895751952903e+00 -6.846955418586730957e-01 1.000000000000000000e+00
-3.367662811279296875e+01 7.632601737976074219e+00 -6.027362942695617676e-01 6.000000000000000000e+00
-2.424218416213988814e+00 5.521038770675659180e-01 -6.662002205848693848e-01 1.600000000000000000e+01
-2.823303699493408203e+00 6.440303325653076172e-01 -6.685545444488525391e-01 1.400000000000000000e+01
-3.332290887832642046e+00 7.607485055923461914e-01 -6.643969416618347168e-01 1.300000000000000000e+01
-4.099760532379150391e+00 9.374645352363586426e-01 -6.660979390144348145e-01 1.000000000000000000e+01
-5.359924793243408203e+00 1.227586627006530984e+00 -6.751561760902404785e-01 1.200000000000000000e+01
-7.593322277069091797e+00 1.740497827529907005e+00 -6.815578937530517578e-01 1.000000000000000000e+00
-3.355894088745117188e+01 7.716851711273193359e+00 -6.010608673095703125e-01 1.300000000000000000e+01
-2.420394182205200195e+00 5.601270794868469238e-01 -6.656825542449951172e-01 1.900000000000000000e+01
-2.809648036956787109e+00 6.512414216995239258e-01 -6.658551096916198730e-01 1.300000000000000000e+01
-3.331527471542357954e+00 7.728193402290344238e-01 -6.647785305976867676e-01 1.200000000000000000e+01
-4.082994461059570312e+00 9.486402869224548340e-01 -6.639078855514526367e-01 1.000000000000000000e+01
-5.351740360260009766e+00 1.245388984680176003e+00 -6.746686697006225586e-01 1.200000000000000000e+01
-7.598843574523925781e+00 1.769704341888427956e+00 -6.826037764549255371e-01 1.000000000000000000e+00
-3.354737854003906250e+01 7.837586402893066406e+00 -6.013401150703430176e-01 2.000000000000000000e+01
-2.420304775238037109e+00 5.690145492553710938e-01 -6.662002205848693848e-01 2.100000000000000000e+01
-2.805460691452025923e+00 6.605982780456542969e-01 -6.654052138328552246e-01 1.200000000000000000e+01
-3.317344188690185991e+00 7.817419767379760742e-01 -6.624888181686401367e-01 1.200000000000000000e+01
-4.095038890838623047e+00 9.665169119834899902e-01 -6.664108037948608398e-01 1.000000000000000000e+01
-5.324178218841552734e+00 1.258582472801208052e+00 -6.717438101768493652e-01 1.200000000000000000e+01
-7.577108860015869141e+00 1.792549014091491921e+00 -6.812092661857604980e-01 1.000000000000000000e+00
-3.364822769165039062e+01 7.985115051269531250e+00 -6.036438345909118652e-01 1.300000000000000000e+01
-2.423940896987915039e+00 5.788055658340454102e-01 -6.677531599998474121e-01 2.000000000000000000e+01
-2.797451734542847124e+00 6.690273284912109375e-01 -6.640555262565612793e-01 1.400000000000000000e+01
-3.318413734436035156e+00 7.942308783531188965e-01 -6.632520556449890137e-01 1.300000000000000000e+01
-4.095481872558593750e+00 9.817263484001159668e-01 -6.670365333557128906e-01 1.000000000000000000e+01
-5.312031745910645419e+00 1.275305986404418945e+00 -6.707688570022583008e-01 1.200000000000000000e+01
-7.551433086395263672e+00 1.814332604408263938e+00 -6.794661879539489746e-01 1.000000000000000000e+00
-3.362015151977539062e+01 8.102520942687988281e+00 -6.036438345909118652e-01 1.300000000000000000e+01
-2.419823408126831055e+00 5.876526236534118652e-01 -6.672354936599731445e-01 2.100000000000000000e+01
-2.800542831420897993e+00 6.811454892158508301e-01 -6.654052138328552246e-01 1.200000000000000000e+01
-3.313432216644287109e+00 8.065024614334106445e-01 -6.628704667091369629e-01 1.300000000000000000e+01
-4.099359035491943359e+00 9.993159770965576172e-01 -6.682880520820617676e-01 1.000000000000000000e+01
-5.307095527648925781e+00 1.295693278312683105e+00 -6.707688570022583008e-01 1.200000000000000000e+01
-7.532797813415527344e+00 1.840477228164673074e+00 -6.784203052520751953e-01 0.000000000000000000e+00
-1.324064826965332031e+01 3.239966154098511186e+00 -7.143858075141906738e-01 4.000000000000000000e+00
-3.357713699340820312e+01 8.228696823120117188e+00 -6.034343838691711426e-01 1.300000000000000000e+01
-2.400876283645629883e+00 5.919337868690490723e-01 -6.625767350196838379e-01 2.000000000000000000e+01
-2.807607889175415039e+00 6.932528018951416016e-01 -6.676547527313232422e-01 1.400000000000000000e+01
-3.304878950119018999e+00 8.166506886482238770e-01 -6.617255806922912598e-01 1.300000000000000000e+01
-4.074752807617188388e+00 1.008399367332458052e+00 -6.648464798927307129e-01 1.000000000000000000e+01
-5.298686981201171875e+00 1.313255429267883079e+00 -6.702814102172851562e-01 1.100000000000000000e+01
-7.510857105255126953e+00 1.862923264503479004e+00 -6.770257949829101562e-01 2.000000000000000000e+00
-1.313234043121338068e+01 3.262090444564818892e+00 -7.091522216796875000e-01 4.000000000000000000e+00
-3.362583160400391336e+01 8.365162849426269531e+00 -6.048306226730346680e-01 1.300000000000000000e+01
-2.404627323150635210e+00 6.008784770965576172e-01 -6.641296744346618652e-01 1.900000000000000000e+01
-2.795963764190673828e+00 6.997042894363403320e-01 -6.654052138328552246e-01 1.200000000000000000e+01
-3.313723802566527876e+00 8.298909068107604980e-01 -6.640152931213378906e-01 1.300000000000000000e+01
-4.067732810974121094e+00 1.020234465599060059e+00 -6.642207503318786621e-01 9.000000000000000000e+00
-5.286833763122558594e+00 1.327960848808289018e+00 -6.693064570426940918e-01 1.100000000000000000e+01
-7.501102924346923828e+00 1.885538697242737038e+00 -6.766771674156188965e-01 2.000000000000000000e+00
-1.312202739715575994e+01 3.303330659866333008e+00 -7.091522216796875000e-01 4.000000000000000000e+00
-3.371572875976563211e+01 8.500091552734375000e+00 -6.069248914718627930e-01 6.000000000000000000e+00
-2.406260490417480025e+00 6.102182865142822266e-01 -6.651649475097656250e-01 1.900000000000000000e+01
-2.785949230194091797e+00 7.075409889221191406e-01 -6.636056303977966309e-01 1.300000000000000000e+01
-3.308903932571411133e+00 8.409693241119384766e-01 -6.636337041854858398e-01 1.300000000000000000e+01
-4.056488990783691406e+00 1.032478332519531028e+00 -6.629692912101745605e-01 9.000000000000000000e+00
-5.274471759796142578e+00 1.344446063041687012e+00 -6.683315038681030273e-01 1.100000000000000000e+01
-7.509920120239257812e+00 1.915650606155395952e+00 -6.780716776847839355e-01 1.000000000000000000e+00
-1.308332538604735973e+01 3.342194318771361861e+00 -7.076867818832397461e-01 4.000000000000000000e+00
-3.370522308349608664e+01 8.622685432434082031e+00 -6.072739362716674805e-01 1.300000000000000000e+01
-2.407857418060303178e+00 6.195767521858215332e-01 -6.662002205848693848e-01 1.900000000000000000e+01
-2.785349607467650923e+00 7.177477478981018066e-01 -6.640555262565612793e-01 1.500000000000000000e+01
-3.296442985534667969e+00 8.500632643699645996e-01 -6.617255806922912598e-01 1.300000000000000000e+01
-4.049035072326660156e+00 1.045643925666809082e+00 -6.623435020446777344e-01 1.000000000000000000e+01
-5.258215427398681641e+00 1.359866976737976074e+00 -6.668690443038940430e-01 1.100000000000000000e+01
-7.491614341735839844e+00 1.938858270645142046e+00 -6.770257949829101562e-01 1.000000000000000000e+00
-1.300197792053223012e+01 3.369804143905640093e+00 -7.039186358451843262e-01 4.000000000000000000e+00
-3.375621414184570312e+01 8.761385917663574219e+00 -6.087399125099182129e-01 2.000000000000000000e+01
-2.403810977935791016e+00 6.274900436401367188e-01 -6.656825542449951172e-01 1.800000000000000000e+01
-2.792254209518433061e+00 7.299303412437438965e-01 -6.663050055503845215e-01 1.300000000000000000e+01
-3.287757396697998047e+00 8.600742220878601074e-01 -6.605807542800903320e-01 1.300000000000000000e+01
-4.049182415008544922e+00 1.060772538185120073e+00 -6.629692912101745605e-01 9.000000000000000000e+00
-6.088581848144531250e+01 1.596173763275145951e+01 7.728466510772705078e+00 6.300000000000000000e+01
-5.245756149291992188e+00 1.376198410987854004e+00 -6.658940911293029785e-01 1.100000000000000000e+01
-7.461676120758056641e+00 1.958926081657409890e+00 -6.749340891838073730e-01 1.000000000000000000e+00
-1.299013519287109020e+01 3.415169000625609907e+00 -7.039186358451843262e-01 4.000000000000000000e+00
-3.374476242065429688e+01 8.884254455566406250e+00 -6.090889573097229004e-01 1.300000000000000000e+01
-2.395892620086669922e+00 6.348118782043457031e-01 -6.641296744346618652e-01 1.900000000000000000e+01
-2.789560079574584961e+00 7.401595711708068848e-01 -6.663050055503845215e-01 1.400000000000000000e+01
-3.278890609741210938e+00 8.706071972846984863e-01 -6.594358682632446289e-01 1.200000000000000000e+01
-4.047176361083984375e+00 1.076113939285278098e+00 -6.632821559906005859e-01 1.000000000000000000e+01
-6.094968032836914062e+01 1.621745681762694957e+01 7.744065761566162109e+00 6.300000000000000000e+01
-5.256022930145263672e+00 1.399501919746398926e+00 -6.678439974784851074e-01 1.100000000000000000e+01
-7.431343555450438565e+00 1.980105519294738992e+00 -6.728423237800598145e-01 1.000000000000000000e+00
-1.288104343414306996e+01 3.437011957168579102e+00 -6.986849904060363770e-01 4.000000000000000000e+00
-3.373129272460938211e+01 9.013037681579589844e+00 -6.094380617141723633e-01 1.400000000000000000e+01
-2.397393465042113814e+00 6.441738605499267578e-01 -6.651649475097656250e-01 1.900000000000000000e+01
-2.783195734024047852e+00 7.488797903060913086e-01 -6.654052138328552246e-01 1.400000000000000000e+01
-3.287205934524536133e+00 8.851100206375122070e-01 -6.617255806922912598e-01 1.400000000000000000e+01
-4.022415161132813388e+00 1.084577798843384011e+00 -6.598405838012695312e-01 9.000000000000000000e+00
-5.235774040222167969e+00 1.413700699806212935e+00 -6.658940911293029785e-01 1.100000000000000000e+01
-7.405152320861816406e+00 2.000836610794066939e+00 -6.710992455482482910e-01 2.000000000000000000e+00
-1.286896800994873047e+01 3.481954097747803178e+00 -6.986849904060363770e-01 4.000000000000000000e+00
-3.371120834350585938e+01 9.133864402770996094e+00 -6.096474528312683105e-01 1.400000000000000000e+01
-2.393493890762329102e+00 6.511951088905334473e-01 -6.646472811698913574e-01 1.800000000000000000e+01
-2.769548177719116211e+00 7.545462250709533691e-01 -6.627057790756225586e-01 1.400000000000000000e+01
-3.280620813369750977e+00 8.943999409675598145e-01 -6.609623432159423828e-01 1.400000000000000000e+01
-4.032327651977539062e+00 1.100851058959960938e+00 -6.620306372642517090e-01 1.000000000000000000e+01
-5.223647594451904297e+00 1.428048491477966087e+00 -6.649191379547119141e-01 1.100000000000000000e+01
-7.414204120635986328e+00 2.028296709060668945e+00 -6.724936962127685547e-01 1.000000000000000000e+00
-3.374791336059570312e+01 9.257713317871093750e+00 -6.108342409133911133e-01 7.000000000000000000e+00
-2.391206264495850053e+00 6.595460176467895508e-01 -6.646472811698913574e-01 1.800000000000000000e+01
-2.759383678436278853e+00 7.621338963508605957e-01 -6.609061956405639648e-01 1.300000000000000000e+01
-3.279371261596680132e+00 9.063689708709716797e-01 -6.613439917564392090e-01 1.400000000000000000e+01
-4.028460502624511719e+00 1.114919781684875044e+00 -6.620306372642517090e-01 1.000000000000000000e+01
-5.195675373077392578e+00 1.439911723136902078e+00 -6.619942784309387207e-01 1.100000000000000000e+01
-7.395559310913085938e+00 2.050970077514647993e+00 -6.714478135108947754e-01 2.000000000000000000e+00
-3.371154022216796875e+01 9.374386787414550781e+00 -6.107644438743591309e-01 7.000000000000000000e+00
-2.388889312744141069e+00 6.678888797760009766e-01 -6.646472811698913574e-01 1.900000000000000000e+01
-2.764213085174560991e+00 7.738627791404724121e-01 -6.627057790756225586e-01 1.400000000000000000e+01
-3.268625497817993164e+00 9.156921505928039551e-01 -6.598175168037414551e-01 1.500000000000000000e+01
-4.016936302185058594e+00 1.126840710639954057e+00 -6.607791781425476074e-01 1.000000000000000000e+01
-5.200172901153563565e+00 1.460723400115967019e+00 -6.632129549980163574e-01 1.100000000000000000e+01
-7.384518623352050781e+00 2.075694561004639116e+00 -6.710992455482482910e-01 1.000000000000000000e+00
-3.354003143310546875e+01 9.452947616577148438e+00 -6.082512736320495605e-01 1.300000000000000000e+01
-2.373532772064208984e+00 6.725370287895202637e-01 -6.610238552093505859e-01 1.900000000000000000e+01
-2.768993854522705078e+00 7.856345772743225098e-01 -6.645054221153259277e-01 1.400000000000000000e+01
-3.267297744750977007e+00 9.276324510574340820e-01 -6.601991057395935059e-01 1.600000000000000000e+01
-4.005378246307373047e+00 1.138694882392883079e+00 -6.595277190208435059e-01 9.000000000000000000e+00
-5.189314842224121094e+00 1.477236032485961914e+00 -6.624817252159118652e-01 1.100000000000000000e+01
-7.335072517395020419e+00 2.089450359344481978e+00 -6.672643423080444336e-01 2.000000000000000000e+00
-1.260142040252686080e+01 3.594365119934082031e+00 -6.867524385452270508e-01 4.000000000000000000e+00
-3.357989501953125000e+01 9.590835571289062500e+00 -6.095776557922363281e-01 1.400000000000000000e+01
-2.380573987960814986e+00 6.830682754516601562e-01 -6.636120080947875977e-01 2.000000000000000000e+01
-2.766373395919799805e+00 7.948126196861267090e-01 -6.645054221153259277e-01 1.400000000000000000e+01
-3.264203786849976030e+00 9.384620785713195801e-01 -6.601991057395935059e-01 1.400000000000000000e+01
-3.990190267562866211e+00 1.148692131042480025e+00 -6.576504707336425781e-01 9.000000000000000000e+00
-5.195832252502441406e+00 1.497735261917114036e+00 -6.639441847801208496e-01 1.100000000000000000e+01
-7.328103542327880859e+00 2.113762855529785156e+00 -6.672643423080444336e-01 2.000000000000000000e+00
-1.261629486083984020e+01 3.643892049789429155e+00 -6.882178187370300293e-01 4.000000000000000000e+00
-3.345569992065429688e+01 9.675471305847167969e+00 -6.079022288322448730e-01 6.000000000000000000e+00
-2.380030155181885210e+00 6.919131875038146973e-01 -6.641296744346618652e-01 1.900000000000000000e+01
-2.741129159927368164e+00 7.979282736778259277e-01 -6.591066122055053711e-01 1.300000000000000000e+01
-3.260908126831055132e+00 9.498505592346191406e-01 -6.601991057395935059e-01 1.300000000000000000e+01
-3.997534513473511186e+00 1.165932059288024902e+00 -6.595277190208435059e-01 9.000000000000000000e+00
-5.173422813415527344e+00 1.510854601860045943e+00 -6.617505550384521484e-01 9.000000000000000000e+00
-7.324505329132080078e+00 2.140447616577147993e+00 -6.676129698753356934e-01 2.000000000000000000e+00
-1.250765514373778942e+01 3.659863948822021040e+00 -6.829842329025268555e-01 4.000000000000000000e+00
-3.350616073608397727e+01 9.816933631896972656e+00 -6.094380617141723633e-01 7.000000000000000000e+00
-2.375625133514403853e+00 7.000856995582580566e-01 -6.636120080947875977e-01 2.000000000000000000e+01
-2.751269578933715820e+00 8.118302822113037109e-01 -6.622558832168579102e-01 1.500000000000000000e+01
-3.257404804229735884e+00 9.617959856986999512e-01 -6.601991057395935059e-01 1.300000000000000000e+01
-3.989445686340332031e+00 1.179455876350403054e+00 -6.589019894599914551e-01 9.000000000000000000e+00
-5.164043903350830078e+00 1.528679132461548074e+00 -6.612630486488342285e-01 9.000000000000000000e+00
-7.286045551300048828e+00 2.158225059509276900e+00 -6.648240089416503906e-01 2.000000000000000000e+00
-1.249415683746338068e+01 3.705682277679442915e+00 -6.829842329025268555e-01 4.000000000000000000e+00
-3.350445938110352273e+01 9.949921607971191406e+00 -6.100662946701049805e-01 1.400000000000000000e+01
-2.373167037963867188e+00 7.083739042282104492e-01 -6.636120080947875977e-01 2.000000000000000000e+01
-2.744684934616088867e+00 8.203129768371582031e-01 -6.613560914993286133e-01 1.500000000000000000e+01
-3.235218286514281782e+00 9.675353765487670898e-01 -6.563829183578491211e-01 1.300000000000000000e+01
-3.996658325195312944e+00 1.196774363517761008e+00 -6.607791781425476074e-01 1.000000000000000000e+01
-5.160577774047851562e+00 1.547265768051147017e+00 -6.615067720413208008e-01 1.300000000000000000e+01
-7.316634654998779297e+00 2.195095539093018022e+00 -6.683102250099182129e-01 2.000000000000000000e+00
-1.248114490509033025e+01 3.749272346496582031e+00 -6.829842329025268555e-01 4.000000000000000000e+00
-3.343505477905272727e+01 1.005644512176514027e+01 -6.094380617141723633e-01 7.000000000000000000e+00
-2.366981506347655806e+00 7.155354619026184082e-01 -6.625767350196838379e-01 1.900000000000000000e+01
-2.743669748306273970e+00 8.304532766342163086e-01 -6.618059873580932617e-01 1.300000000000000000e+01
-3.237457990646361861e+00 9.805297851562500000e-01 -6.575278043746948242e-01 1.200000000000000000e+01
-3.981114387512207031e+00 1.207278490066528098e+00 -6.589019894599914551e-01 9.000000000000000000e+00
-5.139949321746826172e+00 1.560656189918518066e+00 -6.595568656921386719e-01 1.100000000000000000e+01
-7.274613380432128906e+00 2.210196495056151900e+00 -6.651726365089416504e-01 2.000000000000000000e+00
-1.246798229217528942e+01 3.792816877365111861e+00 -6.829842329025268555e-01 4.000000000000000000e+00
-3.349539566040039062e+01 1.020222663879395064e+01 -6.111832857131958008e-01 1.400000000000000000e+01
-2.364469289779663086e+00 7.237933874130249023e-01 -6.625767350196838379e-01 1.900000000000000000e+01
-2.746343851089477983e+00 8.417385816574096680e-01 -6.631557345390319824e-01 1.500000000000000000e+01
-3.235892534255981001e+00 9.924002885818481445e-01 -6.579093933105468750e-01 1.200000000000000000e+01
-3.954215526580810991e+00 1.214209556579590066e+00 -6.551475524902343750e-01 9.000000000000000000e+00
-5.138265132904052734e+00 1.579755187034606934e+00 -6.600443720817565918e-01 1.100000000000000000e+01
-7.247810840606688565e+00 2.229717731475830078e+00 -6.634294986724853516e-01 2.000000000000000000e+00
-1.245466613769531072e+01 3.836315155029296875e+00 -6.829842329025268555e-01 4.000000000000000000e+00
-3.365066528320313211e+01 1.037801837921142933e+01 -6.146737337112426758e-01 1.400000000000000000e+01
-2.369437456130981001e+00 7.339166402816772461e-01 -6.646472811698913574e-01 2.000000000000000000e+01
-2.723063230514525923e+00 8.444916009902954102e-01 -6.582067608833312988e-01 1.400000000000000000e+01
-3.238209009170531782e+00 1.004871010780334029e+00 -6.590542793273925781e-01 1.200000000000000000e+01
-3.961485862731934038e+00 1.230832219123840110e+00 -6.570247411727905273e-01 9.000000000000000000e+00
-5.125416278839111328e+00 1.594426989555359109e+00 -6.590694189071655273e-01 1.100000000000000000e+01
-7.244181632995604581e+00 2.254924535751343218e+00 -6.637781262397766113e-01 3.000000000000000000e+00
-1.234653663635254084e+01 3.847881793975830078e+00 -6.777506470680236816e-01 3.000000000000000000e+00
-3.369623947143554688e+01 1.051456832885742010e+01 -6.161397695541381836e-01 1.400000000000000000e+01
-2.374234676361083984e+00 7.444951534271240234e-01 -6.667178869247436523e-01 2.000000000000000000e+01
-2.731254577636719194e+00 8.574940562248229980e-01 -6.609061956405639648e-01 1.400000000000000000e+01
-3.223443508148192915e+00 1.012637972831726074e+00 -6.567645668983459473e-01 1.200000000000000000e+01
-3.957165479660034180e+00 1.244652867317199929e+00 -6.570247411727905273e-01 9.000000000000000000e+00
-5.119819641113281250e+00 1.612308382987976074e+00 -6.590694189071655273e-01 1.100000000000000000e+01
-7.240067005157470703e+00 2.281395196914672852e+00 -6.641267538070678711e-01 2.000000000000000000e+00
-1.233302974700927912e+01 3.890955924987792969e+00 -6.777506470680236816e-01 3.000000000000000000e+00
-3.366314697265625000e+01 1.063333034515381037e+01 -6.162095665931701660e-01 1.400000000000000000e+01
-2.364256143569945845e+00 7.504404187202453613e-01 -6.646472811698913574e-01 2.000000000000000000e+01
-2.720815658569335938e+00 8.646618127822875977e-01 -6.591066122055053711e-01 1.400000000000000000e+01
-3.210534572601317915e+00 1.020908951759337935e+00 -6.548564434051513672e-01 1.200000000000000000e+01
-3.962208032608031782e+00 1.261454701423645020e+00 -6.585891246795654297e-01 8.000000000000000000e+00
-5.102812290191650391e+00 1.626552820205688032e+00 -6.576069593429565430e-01 1.100000000000000000e+01
-7.209281444549561435e+00 2.299388885498046875e+00 -6.620350480079650879e-01 2.000000000000000000e+00
-1.241450309753417969e+01 3.964360713958739790e+00 -6.829842329025268555e-01 4.000000000000000000e+00
-3.355344390869141336e+01 1.072763156890868963e+01 -6.148831844329833984e-01 1.400000000000000000e+01
-2.348747253417969194e+00 7.545524835586547852e-01 -6.610238552093505859e-01 1.600000000000000000e+01
-2.732622146606444868e+00 8.789275288581848145e-01 -6.627057790756225586e-01 1.400000000000000000e+01
-3.206951379776000977e+00 1.032109618186950906e+00 -6.548564434051513672e-01 1.200000000000000000e+01
-3.950259923934936968e+00 1.272854328155518022e+00 -6.573376059532165527e-01 8.000000000000000000e+00
-5.093325138092041016e+00 1.643136024475098100e+00 -6.571195125579833984e-01 1.100000000000000000e+01
-7.182250499725341797e+00 2.318419456481934038e+00 -6.602919101715087891e-01 1.000000000000000000e+00
-1.240058898925781072e+01 4.007671356201171875e+00 -6.829842329025268555e-01 4.000000000000000000e+00
-3.359950637817382812e+01 1.087177658081055043e+01 -6.164190173149108887e-01 1.400000000000000000e+01
-2.349773645401000977e+00 7.639411091804504395e-01 -6.620591282844543457e-01 1.900000000000000000e+01
-6.080009841918945312e+01 1.977861595153808949e+01 1.116011619567871094e+00 5.100000000000000000e+01
-2.727684259414672852e+00 8.878576159477233887e-01 -6.622558832168579102e-01 1.500000000000000000e+01
-3.207062482833861861e+00 1.044513702392577903e+00 -6.556196808815002441e-01 1.200000000000000000e+01
-3.934524297714232954e+00 1.282961249351501021e+00 -6.554604172706604004e-01 8.000000000000000000e+00
-5.102655410766601562e+00 1.665833592414855957e+00 -6.590694189071655273e-01 1.100000000000000000e+01
-7.170326232910156250e+00 2.342238664627075195e+00 -6.599432826042175293e-01 2.000000000000000000e+00
-1.219669246673583984e+01 3.988849639892578125e+00 -6.725170612335205078e-01 3.000000000000000000e+00
-3.360696411132813211e+01 1.100392818450927912e+01 -6.172567009925842285e-01 1.400000000000000000e+01
-2.348927736282349077e+00 7.727424502372741699e-01 -6.625767350196838379e-01 2.000000000000000000e+01
-2.709761142730712891e+00 8.924965858459472656e-01 -6.586567163467407227e-01 1.500000000000000000e+01
-3.210855484008789062e+00 1.058160066604614036e+00 -6.571461558341979980e-01 1.100000000000000000e+01
-3.926270246505736861e+00 1.295449614524841087e+00 -6.548346877098083496e-01 8.000000000000000000e+00
-5.081729888916015625e+00 1.678653836250304954e+00 -6.571195125579833984e-01 1.100000000000000000e+01
-7.173456668853759766e+00 2.371005296707152876e+00 -6.609891653060913086e-01 2.000000000000000000e+00
-1.227750110626221058e+01 4.062772750854492188e+00 -6.777506470680236816e-01 3.000000000000000000e+00
-3.354177093505858664e+01 1.111236763000487926e+01 -6.167680621147155762e-01 7.000000000000000000e+00
-2.349881887435913086e+00 7.821572422981262207e-01 -6.636120080947875977e-01 2.000000000000000000e+01
-6.079713821411132812e+01 2.024808883666991832e+01 1.118524670600890891e+00 5.100000000000000000e+01
-2.704780340194702148e+00 9.013338685035705566e-01 -6.582067608833312988e-01 1.700000000000000000e+01
-3.203417301177978960e+00 1.068119525909424050e+00 -6.563829183578491211e-01 1.200000000000000000e+01
-3.925471782684326172e+00 1.310397863388061968e+00 -6.554604172706604004e-01 9.000000000000000000e+00
-5.068308353424072266e+00 1.693865299224853960e+00 -6.561445593833923340e-01 1.100000000000000000e+01
-7.161357879638671875e+00 2.394767045974731001e+00 -6.606405377388000488e-01 1.000000000000000000e+00
-1.216854763031006037e+01 4.073900699615479404e+00 -6.725170612335205078e-01 3.000000000000000000e+00
-3.341935348510742188e+01 1.120141983032226918e+01 -6.152322292327880859e-01 7.000000000000000000e+00
-2.343475818634033203e+00 7.891220450401306152e-01 -6.625767350196838379e-01 2.000000000000000000e+01
-6.077914810180664062e+01 2.047806549072265980e+01 1.119502067565917969e+00 5.000000000000000000e+01
-2.701617717742919922e+00 9.107698798179626465e-01 -6.582067608833312988e-01 1.400000000000000000e+01
-3.188507556915283203e+00 1.075530052185059038e+00 -6.540932655334472656e-01 1.100000000000000000e+01
-3.930231571197510210e+00 1.327252507209778054e+00 -6.570247411727905273e-01 9.000000000000000000e+00
-5.058603763580322266e+00 1.710275053977966087e+00 -6.556570529937744141e-01 1.100000000000000000e+01
-7.118982791900634766e+00 2.408257961273192915e+00 -6.575029492378234863e-01 1.000000000000000000e+00
-1.215425300598145064e+01 4.116352081298828125e+00 -6.725170612335205078e-01 3.000000000000000000e+00
-3.336868667602539062e+01 1.131415462493895951e+01 -6.150227785110473633e-01 1.400000000000000000e+01
-2.331563472747803178e+00 7.941830754280090332e-01 -6.599885821342468262e-01 1.900000000000000000e+01
-6.070729827880858664e+01 2.069009971618651988e+01 1.119502067565917969e+00 5.000000000000000000e+01
-2.698421955108643022e+00 9.201946854591369629e-01 -6.582067608833312988e-01 1.400000000000000000e+01
-3.177301645278931108e+00 1.084117531776428001e+00 -6.525667905807495117e-01 1.200000000000000000e+01
-3.919966459274291992e+00 1.339047789573668990e+00 -6.560861468315124512e-01 8.000000000000000000e+00
-5.052603244781494141e+00 1.727922439575195090e+00 -6.556570529937744141e-01 1.100000000000000000e+01
-7.076601982116699219e+00 2.421482563018798828e+00 -6.543653011322021484e-01 2.000000000000000000e+00
-1.213981056213379084e+01 4.158753395080566406e+00 -6.725170612335205078e-01 3.000000000000000000e+00
-3.328359222412108664e+01 1.141499423980713068e+01 -6.141850948333740234e-01 1.400000000000000000e+01
-2.332430124282836914e+00 8.035754561424255371e-01 -6.610238552093505859e-01 1.900000000000000000e+01
-6.082375717163085938e+01 2.096705055236816051e+01 1.122992515563965066e+00 5.000000000000000000e+01
-2.700720310211182085e+00 9.315145611763000488e-01 -6.595565080642700195e-01 1.500000000000000000e+01
-3.177209615707397017e+00 1.096482753753662109e+00 -6.533300280570983887e-01 1.200000000000000000e+01
-3.905933141708374023e+00 1.349497556686400923e+00 -6.545218229293823242e-01 9.000000000000000000e+00
-5.061549186706542969e+00 1.750740051269531028e+00 -6.576069593429565430e-01 1.100000000000000000e+01
-7.086934089660645419e+00 2.452685832977294922e+00 -6.561084389686584473e-01 1.000000000000000000e+00
-3.325865936279296875e+01 1.153634929656982067e+01 -6.144643425941467285e-01 1.400000000000000000e+01
-2.331435203552246094e+00 8.123478889465332031e-01 -6.615414619445800781e-01 1.900000000000000000e+01
-6.075019836425781250e+01 2.117923736572265980e+01 1.122992515563965066e+00 5.000000000000000000e+01
-2.684572219848632812e+00 9.364433288574218750e-01 -6.564071774482727051e-01 1.400000000000000000e+01
-3.182631015777587891e+00 1.110801339149475098e+00 -6.552380919456481934e-01 1.300000000000000000e+01
-3.897469043731689009e+00 1.361820340156554954e+00 -6.538960933685302734e-01 9.000000000000000000e+00
-6.088970184326171875e+01 2.128748512268066051e+01 7.920044898986816406e+00 6.300000000000000000e+01
-5.036669254302979404e+00 1.761842966079711914e+00 -6.551696062088012695e-01 1.300000000000000000e+01
-7.067046642303466797e+00 2.473459959030150923e+00 -6.550625562667846680e-01 2.000000000000000000e+00
-3.336537170410156250e+01 1.170400238037109020e+01 -6.171869039535522461e-01 1.400000000000000000e+01
-2.328585386276245117e+00 8.204811811447143555e-01 -6.615414619445800781e-01 1.900000000000000000e+01
-2.673935890197753906e+00 9.432154893875122070e-01 -6.546075940132141113e-01 1.400000000000000000e+01
-6.083182144165039062e+01 2.147001266479491832e+01 3.380798101425170898e+00 4.900000000000000000e+01
-3.171328783035277876e+00 1.119290351867676003e+00 -6.537116169929504395e-01 1.300000000000000000e+01
-3.888966560363769975e+00 1.374100565910338911e+00 -6.532703042030334473e-01 9.000000000000000000e+00
-6.084122848510742188e+01 2.150916481018066051e+01 7.923457145690917969e+00 6.300000000000000000e+01
-5.028617382049561435e+00 1.778751611709594949e+00 -6.549258232116699219e-01 1.300000000000000000e+01
-7.054613113403320312e+00 2.496783971786499023e+00 -6.547139286994934082e-01 2.000000000000000000e+00
-3.333562088012695312e+01 1.182440948486327947e+01 -6.173963546752929688e-01 1.400000000000000000e+01
-2.318572044372559038e+00 8.256063461303710938e-01 -6.594709157943725586e-01 1.800000000000000000e+01
-6.079299926757813211e+01 2.165937042236328125e+01 1.126483082771301047e+00 4.900000000000000000e+01
-2.679971456527709961e+00 9.553491473197937012e-01 -6.568570733070373535e-01 1.500000000000000000e+01
-3.154655456542969194e+00 1.125183820724487083e+00 -6.510403156280517578e-01 1.200000000000000000e+01
-3.888109207153319868e+00 1.388317823410033958e+00 -6.538960933685302734e-01 9.000000000000000000e+00
-5.020821571350097656e+00 1.794749140739440918e+00 -6.546820998191833496e-01 1.100000000000000000e+01
-7.012526512145996094e+00 2.508086681365966797e+00 -6.515763401985168457e-01 2.000000000000000000e+00
-1.189328098297118963e+01 4.258410930633544922e+00 -6.620498299598693848e-01 3.000000000000000000e+00
-3.327363586425781250e+01 1.192679214477539062e+01 -6.169774532318115234e-01 7.000000000000000000e+00
-2.312040805816649947e+00 8.323858976364135742e-01 -6.584356427192687988e-01 1.800000000000000000e+01
-2.678453683853148970e+00 9.653589129447937012e-01 -6.573069691658020020e-01 1.400000000000000000e+01
-3.159942865371704102e+00 1.139518857002258079e+00 -6.529483795166015625e-01 1.200000000000000000e+01
-3.877665281295775923e+00 1.399869203567505105e+00 -6.529574394226074219e-01 8.000000000000000000e+00
-5.014526367187500000e+00 1.812264084815979004e+00 -6.546820998191833496e-01 1.100000000000000000e+01
-7.022465229034423828e+00 2.539324760437012163e+00 -6.533194184303283691e-01 2.000000000000000000e+00
-1.197224330902099965e+01 4.333891868591308594e+00 -6.672834157943725586e-01 3.000000000000000000e+00
-3.323932266235352273e+01 1.204559135437012074e+01 -6.171171069145202637e-01 7.000000000000000000e+00
-2.314567089080810991e+00 8.424335122108459473e-01 -6.599885821342468262e-01 1.900000000000000000e+01
-6.082820510864257812e+01 2.215167999267578125e+01 1.129973530769347922e+00 4.900000000000000000e+01
-2.673236608505249023e+00 9.740354418754577637e-01 -6.568570733070373535e-01 1.300000000000000000e+01
-3.152256965637207031e+00 1.149197220802306907e+00 -6.521851420402526855e-01 1.200000000000000000e+01
-3.861621379852294922e+00 1.409332752227782981e+00 -6.510802507400512695e-01 8.000000000000000000e+00
-5.004440784454345703e+00 1.828394532203674094e+00 -6.541946530342102051e-01 1.100000000000000000e+01
-6.987360954284667969e+00 2.554245471954346147e+00 -6.508790850639343262e-01 1.000000000000000000e+00
-3.318955993652343750e+01 1.215879344940186080e+01 -6.169774532318115234e-01 7.000000000000000000e+00
-2.311612367630004883e+00 8.505077362060546875e-01 -6.599885821342468262e-01 1.900000000000000000e+01
-6.081806945800781250e+01 2.238874435424805043e+01 1.131230115890502930e+00 4.800000000000000000e+01
-2.660676956176757812e+00 9.799931645393371582e-01 -6.546075940132141113e-01 1.300000000000000000e+01
-3.150068521499633789e+00 1.160872578620911089e+00 -6.525667905807495117e-01 1.100000000000000000e+01
-3.852971792221068892e+00 1.421436309814452903e+00 -6.504545211791992188e-01 8.000000000000000000e+00
-4.964509010314941406e+00 1.833473205566406028e+00 -6.498073339462280273e-01 8.000000000000000000e+00
-7.004566669464111328e+00 2.588288545608520952e+00 -6.533194184303283691e-01 2.000000000000000000e+00
-3.315816879272460938e+01 1.227873897552490057e+01 -6.171869039535522461e-01 1.400000000000000000e+01
-2.312250852584838867e+00 8.599183559417724609e-01 -6.610238552093505859e-01 1.900000000000000000e+01
-6.079202270507813211e+01 2.262042999267578125e+01 1.132207393646240012e+00 4.800000000000000000e+01
-2.659066200256348100e+00 9.899545907974243164e-01 -6.550574898719787598e-01 1.300000000000000000e+01
-3.140477895736693892e+00 1.169805407524109109e+00 -6.514219045639038086e-01 1.200000000000000000e+01
-3.855390071868896040e+00 1.437637805938720925e+00 -6.517059803009033203e-01 9.000000000000000000e+00
-4.971096992492675781e+00 1.855650901794434038e+00 -6.515135169029235840e-01 4.000000000000000000e+00
-6.988023281097412109e+00 2.609934806823730025e+00 -6.526222229003906250e-01 2.000000000000000000e+00
-3.311885070800781250e+01 1.239580917358398082e+01 -6.172567009925842285e-01 1.400000000000000000e+01
-2.311043500900268999e+00 8.686640858650207520e-01 -6.615414619445800781e-01 2.000000000000000000e+01
-6.078007507324218750e+01 2.285783576965332031e+01 1.133463978767395020e+00 4.800000000000000000e+01
-2.650122880935668945e+00 9.971715807914733887e-01 -6.537077426910400391e-01 1.100000000000000000e+01
-3.121676445007324219e+00 1.175226807594299094e+00 -6.483689546585083008e-01 1.200000000000000000e+01
-3.846651315689086914e+00 1.449693560600280984e+00 -6.510802507400512695e-01 8.000000000000000000e+00
-4.994306087493895596e+00 1.884203314781188965e+00 -6.554133296012878418e-01 8.000000000000000000e+00
-6.945317745208740234e+00 2.621646881103516069e+00 -6.494845747947692871e-01 2.000000000000000000e+00
-3.309408569335938211e+01 1.251841545104979936e+01 -6.176057457923889160e-01 1.400000000000000000e+01
-2.295355558395386186e+00 8.719237446784973145e-01 -6.579180359840393066e-01 1.900000000000000000e+01
-2.653911828994750977e+00 1.009186744689940962e+00 -6.555073857307434082e-01 1.000000000000000000e+01
-3.121224880218505859e+00 1.187512636184691939e+00 -6.491321921348571777e-01 1.200000000000000000e+01
-3.852643728256226030e+00 1.467330574989319070e+00 -6.529574394226074219e-01 8.000000000000000000e+00
-4.995118141174316406e+00 1.904453873634337935e+00 -6.563882827758789062e-01 9.000000000000000000e+00
-6.932401180267333984e+00 2.644454240798950195e+00 -6.491359472274780273e-01 2.000000000000000000e+00
-1.180149078369140980e+01 4.506551265716552734e+00 -6.620498299598693848e-01 3.000000000000000000e+00
-3.303150558471679688e+01 1.262671852111816051e+01 -6.172567009925842285e-01 1.400000000000000000e+01
-2.283280134201049805e+00 8.764691352844238281e-01 -6.553298234939575195e-01 1.800000000000000000e+01
-6.080195999145507812e+01 2.335186195373535156e+01 1.136884689331054910e+00 4.700000000000000000e+01
-2.644915819168090820e+00 1.016347527503967063e+00 -6.541576385498046875e-01 9.000000000000000000e+00
-3.133553028106689009e+00 1.204741239547729048e+00 -6.525667905807495117e-01 1.100000000000000000e+01
-3.829062700271606001e+00 1.473674654960632102e+00 -6.498287916183471680e-01 8.000000000000000000e+00
-4.995849609375000000e+00 1.924733161926269975e+00 -6.573632359504699707e-01 9.000000000000000000e+00
-6.915691852569580078e+00 2.665770292282104048e+00 -6.484387516975402832e-01 2.000000000000000000e+00
-1.166643333435058949e+01 4.501702308654785156e+00 -6.553508639335632324e-01 3.000000000000000000e+00
-3.309169006347656250e+01 1.278229331970215021e+01 -6.192113757133483887e-01 1.400000000000000000e+01
-2.299863338470458984e+00 8.925200104713439941e-01 -6.610238552093505859e-01 1.900000000000000000e+01
-2.628457546234130859e+00 1.021095156669616921e+00 -6.510083675384521484e-01 8.000000000000000000e+00
-3.116307258605957031e+00 1.211239457130431907e+00 -6.498954296112060547e-01 1.000000000000000000e+01
-3.830999612808227983e+00 1.490563988685607910e+00 -6.510802507400512695e-01 9.000000000000000000e+00
-4.977663040161132812e+00 1.938708305358886941e+00 -6.559008359909057617e-01 9.000000000000000000e+00
-6.894736289978027344e+00 2.686759233474731001e+00 -6.473928689956665039e-01 3.000000000000000000e+00
-1.158287048339843928e+01 4.518301486968994141e+00 -6.515826582908630371e-01 3.000000000000000000e+00
-3.304461669921875000e+01 1.290349483489990057e+01 -6.192113757133483887e-01 7.000000000000000000e+00
-2.291338205337523970e+00 8.984270095825195312e-01 -6.594709157943725586e-01 1.700000000000000000e+01
-6.081945800781250000e+01 2.385937881469726918e+01 1.140375137329102007e+00 4.700000000000000000e+01
-2.633947372436522993e+00 1.033823966979980025e+00 -6.532578468322753906e-01 6.000000000000000000e+00
-3.113887548446654829e+00 1.222827672958374023e+00 -6.502770781517028809e-01 1.100000000000000000e+01
-3.818419456481934038e+00 1.501036882400512917e+00 -6.498287916183471680e-01 8.000000000000000000e+00
-4.952393054962158203e+00 1.948802828788757102e+00 -6.534634232521057129e-01 9.000000000000000000e+00
-6.879754066467285156e+00 2.708620309829711914e+00 -6.468698978424072266e-01 3.000000000000000000e+00
-1.156702804565430043e+01 4.558705806732177734e+00 -6.515826582908630371e-01 3.000000000000000000e+00
-3.297333145141602273e+01 1.300848960876465021e+01 -6.187227368354797363e-01 7.000000000000000000e+00
-2.284754037857056108e+00 9.045981168746948242e-01 -6.584356427192687988e-01 1.800000000000000000e+01
-2.628692865371704102e+00 1.041834712028502974e+00 -6.528079509735107422e-01 7.000000000000000000e+00
-3.097040414810181108e+00 1.228081226348876953e+00 -6.476057171821594238e-01 1.100000000000000000e+01
-3.806076765060424805e+00 1.510775804519653098e+00 -6.485772728919982910e-01 8.000000000000000000e+00
-4.955127239227294922e+00 1.968879938125609907e+00 -6.546820998191833496e-01 1.100000000000000000e+01
-6.846665382385253906e+00 2.721851110458374023e+00 -6.446038484573364258e-01 3.000000000000000000e+00
-1.155184745788574041e+01 4.597038269042968750e+00 -6.515826582908630371e-01 3.000000000000000000e+00
-3.295230865478516336e+01 1.312664127349854049e+01 -6.191415786743164062e-01 1.400000000000000000e+01
-2.277995109558105025e+00 9.111329913139343262e-01 -6.574003696441650391e-01 1.900000000000000000e+01
-6.084130096435546875e+01 2.434710311889648082e+01 1.143865585327147993e+00 4.600000000000000000e+01
-2.632276773452758789e+00 1.053901553153991921e+00 -6.546075940132141113e-01 8.000000000000000000e+00
-3.096379756927489790e+00 1.240344524383544922e+00 -6.483689546585083008e-01 1.100000000000000000e+01
-3.804446935653686968e+00 1.525522708892822044e+00 -6.492030024528503418e-01 8.000000000000000000e+00
-4.951909065246582031e+00 1.987643480300903098e+00 -6.551696062088012695e-01 1.100000000000000000e+01
-6.842669486999511719e+00 2.747961282730102983e+00 -6.451268196105957031e-01 3.000000000000000000e+00
-1.153573036193848012e+01 4.637333869934082031e+00 -6.515826582908630371e-01 3.000000000000000000e+00
-3.292854690551757812e+01 1.325054454803466975e+01 -6.195604205131530762e-01 1.400000000000000000e+01
-2.267636060714722124e+00 9.161844253540039062e-01 -6.553298234939575195e-01 1.900000000000000000e+01
-2.628581762313843218e+00 1.063083529472351074e+00 -6.546075940132141113e-01 1.300000000000000000e+01
-3.101130723953247070e+00 1.254827380180359109e+00 -6.502770781517028809e-01 1.100000000000000000e+01
-3.789944171905518022e+00 1.535085439682007058e+00 -6.476386785507202148e-01 9.000000000000000000e+00
-4.932063102722167969e+00 1.999695539474487083e+00 -6.534634232521057129e-01 9.000000000000000000e+00
-6.827496528625488281e+00 2.769583225250244141e+00 -6.446038484573364258e-01 3.000000000000000000e+00
-1.142694664001465021e+01 4.640001773834229404e+00 -6.463490724563598633e-01 3.000000000000000000e+00
-3.286727142333983664e+01 1.335938167572020951e+01 -6.192811727523803711e-01 2.100000000000000000e+01
-2.262635469436645952e+00 9.233644008636474609e-01 -6.548121571540832520e-01 1.900000000000000000e+01
-2.615834951400756836e+00 1.068567752838134988e+00 -6.523580551147460938e-01 1.500000000000000000e+01
-3.096731662750244141e+00 1.265644669532776101e+00 -6.502770781517028809e-01 1.100000000000000000e+01
-3.773592948913574219e+00 1.543817639350890891e+00 -6.457614898681640625e-01 9.000000000000000000e+00
-4.906682491302490234e+00 2.009376525878905806e+00 -6.510260105133056641e-01 9.000000000000000000e+00
-6.821474552154541016e+00 2.794909477233887163e+00 -6.449524760246276855e-01 2.000000000000000000e+00
-1.141068077087401988e+01 4.679861068725585938e+00 -6.463490724563598633e-01 3.000000000000000000e+00
-3.289813613891602273e+01 1.350592517852783025e+01 -6.207472085952758789e-01 1.400000000000000000e+01
-2.271901130676269975e+00 9.364100694656372070e-01 -6.584356427192687988e-01 2.000000000000000000e+01
-2.610287427902222124e+00 1.076949000358581987e+00 -6.519081592559814453e-01 1.400000000000000000e+01
-3.086850643157958984e+00 1.274199366569519043e+00 -6.491321921348571777e-01 1.100000000000000000e+01
-3.771832227706909180e+00 1.558489203453063965e+00 -6.463872194290161133e-01 9.000000000000000000e+00
-4.895969867706298828e+00 2.024974346160889116e+00 -6.505385637283325195e-01 9.000000000000000000e+00
-6.822722911834716797e+00 2.823274612426757812e+00 -6.459983587265014648e-01 2.000000000000000000e+00
-3.286926269531250000e+01 1.362833786010742010e+01 -6.210962533950805664e-01 2.100000000000000000e+01
-2.270402193069458008e+00 9.450771808624267578e-01 -6.589533090591430664e-01 1.900000000000000000e+01
-6.086463165283203125e+01 2.534796524047851918e+01 1.150846600532531960e+00 4.500000000000000000e+01
-2.613707542419434038e+00 1.089052081108093040e+00 -6.537077426910400391e-01 1.400000000000000000e+01
-3.062451124191284180e+00 1.276657104492187944e+00 -6.449344158172607422e-01 1.100000000000000000e+01
-3.773661375045775923e+00 1.574688792228698953e+00 -6.476386785507202148e-01 9.000000000000000000e+00
-4.879713058471679688e+00 2.038226842880249023e+00 -6.493198871612548828e-01 1.100000000000000000e+01
-6.787089824676513672e+00 2.836318016052246094e+00 -6.435580253601074219e-01 2.000000000000000000e+00
-3.286575698852539062e+01 1.376152610778808949e+01 -6.219339370727539062e-01 1.400000000000000000e+01
-2.246047973632812944e+00 9.432291984558105469e-01 -6.527416110038757324e-01 1.900000000000000000e+01
-2.608476877212523970e+00 1.096502780914307085e+00 -6.532578468322753906e-01 1.500000000000000000e+01
-3.065664052963256836e+00 1.289316177368164062e+00 -6.464608907699584961e-01 1.100000000000000000e+01
-3.772336959838867188e+00 1.588069200515747070e+00 -6.482644081115722656e-01 9.000000000000000000e+00
-4.869626998901367188e+00 2.052005052566527876e+00 -6.488323807716369629e-01 1.100000000000000000e+01
-6.763458728790283203e+00 2.851434230804442915e+00 -6.421635150909423828e-01 3.000000000000000000e+00
-3.279657363891602273e+01 1.385381507873534979e+01 -6.214452981948852539e-01 7.000000000000000000e+00
-2.251634359359741211e+00 9.548346400260925293e-01 -6.553298234939575195e-01 2.000000000000000000e+01
-6.087926864624022727e+01 2.582917785644530895e+01 1.154337048530579057e+00 4.400000000000000000e+01
-2.599251985549927202e+00 1.103317022323607954e+00 -6.519081592559814453e-01 1.400000000000000000e+01
-3.062951803207397017e+00 1.300776839256287065e+00 -6.468424797058105469e-01 1.200000000000000000e+01
