1.022427463531493963e+01 8.664681434631347656e+00 -2.339320629835129062e-01 2.000000000000000000e+00
3.642293930053710938e+01 3.085612487792969105e+01 1.279083728790283025e+01 1.400000000000000000e+01
1.713102698326111062e+00 1.447683930397033913e+00 -6.009778380393981934e-01 1.800000000000000000e+01
1.962342500686645952e+00 1.657134175300597922e+00 -5.929709672927856445e-01 1.200000000000000000e+01
2.251784086227416992e+00 1.900884866714477983e+00 -5.728086233139038086e-01 8.000000000000000000e+00
2.708755254745482954e+00 2.285026550292969194e+00 -5.612868666648864746e-01 1.200000000000000000e+01
3.345164775848389116e+00 2.819885253906250000e+00 -5.372000932693481445e-01 1.000000000000000000e+01
4.357419490814208984e+00 3.671888113021851030e+00 -4.985308349132537842e-01 9.000000000000000000e+00
6.283620357513427734e+00 5.291299343109130859e+00 -4.305155873298645020e-01 2.000000000000000000e+00
1.026057815551757990e+01 8.634089469909667969e+00 -2.340716719627380094e-01 2.000000000000000000e+00
1.716665744781493919e+00 1.440453529357909934e+00 -6.004601716995239258e-01 1.900000000000000000e+01
1.972594738006592019e+00 1.654030442237854004e+00 -5.943207144737243652e-01 1.200000000000000000e+01
2.262919425964355025e+00 1.896796584129333052e+00 -5.739534497261047363e-01 7.000000000000000000e+00
2.712171792984008789e+00 2.271752119064331055e+00 -5.603482723236083984e-01 1.000000000000000000e+01
3.348898649215697798e+00 2.803094625473022017e+00 -5.362251400947570801e-01 1.000000000000000000e+01
4.356457710266113281e+00 3.645148754119873047e+00 -4.969620406627655029e-01 9.000000000000000000e+00
6.317374229431152344e+00 5.282144546508789062e+00 -4.315623044967650812e-01 1.000000000000000000e+00
1.029065418243408025e+01 8.598220825195312500e+00 -2.340716719627380094e-01 2.000000000000000000e+00
3.596797180175781250e+01 3.005256652832030895e+01 1.255893516540526988e+01 1.400000000000000000e+01
1.723167538642883079e+00 1.435689091682434082e+00 -6.009778380393981934e-01 2.000000000000000000e+01
1.978356361389159934e+00 1.647134780883789062e+00 -5.943207144737243652e-01 1.300000000000000000e+01
2.275562524795531782e+00 1.893909573554992898e+00 -5.754799246788024902e-01 8.000000000000000000e+00
2.714010238647460938e+00 2.257218599319458008e+00 -5.590967535972595215e-01 1.000000000000000000e+01
3.373929738998413086e+00 2.804075956344604048e+00 -5.386624932289123535e-01 1.000000000000000000e+01
4.378350257873535156e+00 3.637558937072753906e+00 -4.980079233646392822e-01 9.000000000000000000e+00
6.305039882659912109e+00 5.234545230865479404e+00 -4.294688701629639227e-01 2.000000000000000000e+00
3.596135711669921875e+01 2.984509277343750000e+01 1.078910255432129084e+01 1.300000000000000000e+01
1.037293052673340021e+01 8.605658531188964844e+00 -2.352584451436995905e-01 2.000000000000000000e+00
1.731145620346068892e+00 1.432128190994262917e+00 -6.020131111145019531e-01 1.800000000000000000e+01
1.970576167106627974e+00 1.629044175148010032e+00 -5.902715921401977539e-01 1.300000000000000000e+01
2.283673048019409180e+00 1.887205481529236062e+00 -5.758615732192993164e-01 1.000000000000000000e+01
2.734058141708374023e+00 2.257793664932250977e+00 -5.615997314453125000e-01 1.000000000000000000e+01
3.380635023117064986e+00 2.789754629135131836e+00 -5.381750464439392090e-01 1.000000000000000000e+01
4.397168636322020596e+00 3.627324819564818892e+00 -4.987051486968994141e-01 9.000000000000000000e+00
6.354096412658691406e+00 5.237912654876708984e+00 -4.315623044967650812e-01 2.000000000000000000e+00
1.039364624023438033e+01 8.561769485473632812e+00 -2.350490093231200894e-01 2.000000000000000000e+00
3.632302856445313211e+01 2.992110443115234020e+01 1.260966396331786932e+01 1.400000000000000000e+01
1.737626910209655984e+00 1.427302837371825950e+00 -6.025307178497314453e-01 1.700000000000000000e+01
1.980769515037537065e+00 1.625864863395690918e+00 -5.916212797164916992e-01 1.400000000000000000e+01
2.294800043106079102e+00 1.882958531379699929e+00 -5.770063996315002441e-01 1.300000000000000000e+01
2.732757329940795898e+00 2.240721225738524947e+00 -5.597225427627563477e-01 1.000000000000000000e+01
3.376533031463623047e+00 2.766613960266112837e+00 -5.359813570976257324e-01 9.000000000000000000e+00
4.415968894958496094e+00 3.617003679275513139e+00 -4.994024038314818781e-01 9.000000000000000000e+00
6.378523349761962891e+00 5.220760822296142578e+00 -4.319809973239899237e-01 2.000000000000000000e+00
1.041727733612061080e+01 8.520372390747070312e+00 -2.349093854427337924e-01 2.000000000000000000e+00
3.621110153198242188e+01 2.960679626464844105e+01 1.253305339813232067e+01 1.300000000000000000e+01
1.736363053321837935e+00 1.416647791862488015e+00 -6.004601716995239258e-01 1.800000000000000000e+01
1.980108618736267090e+00 1.614361882209778054e+00 -5.898216366767883301e-01 1.200000000000000000e+01
2.296465873718262163e+00 1.871617436408997026e+00 -5.758615732192993164e-01 1.400000000000000000e+01
2.746299505233765093e+00 2.236636400222777876e+00 -5.609740018844604492e-01 1.000000000000000000e+01
3.396466493606566939e+00 2.764172792434691939e+00 -5.376875400543212891e-01 1.000000000000000000e+01
4.418665885925292969e+00 3.594795703887939009e+00 -4.983565509319304865e-01 1.100000000000000000e+01
6.389602184295654297e+00 5.194540977478027344e+00 -4.315623044967650812e-01 2.000000000000000000e+00
3.656923675537108664e+01 2.971901130676269887e+01 1.087908267974854049e+01 1.300000000000000000e+01
1.041753768920898082e+01 8.463084220886230469e+00 -2.342811077833175937e-01 2.000000000000000000e+00
3.634292221069335938e+01 2.952456092834473012e+01 1.254651165008544922e+01 1.400000000000000000e+01
1.741297483444214089e+00 1.410578131675719993e+00 -6.004601716995239258e-01 2.000000000000000000e+01
1.997849106788635032e+00 1.617249011993407981e+00 -5.934208631515502930e-01 1.100000000000000000e+01
2.302985191345214844e+00 1.863589882850646973e+00 -5.758615732192993164e-01 1.400000000000000000e+01
2.758698225021361861e+00 2.230762720108031782e+00 -5.619125962257385254e-01 1.000000000000000000e+01
3.398374557495117188e+00 2.746062040328979048e+00 -5.364688634872436523e-01 9.000000000000000000e+00
4.437386989593505859e+00 3.584357500076293945e+00 -4.990537762641906738e-01 1.100000000000000000e+01
6.407695770263671875e+00 5.172205448150634766e+00 -4.315623044967650812e-01 2.000000000000000000e+00
3.678194427490233664e+01 2.967928886413573863e+01 1.091147613525390980e+01 1.300000000000000000e+01
1.049059677124023082e+01 8.461821556091308594e+00 -2.352584451436995905e-01 2.000000000000000000e+00
1.750726699829102007e+00 1.408123612403870073e+00 -6.020131111145019531e-01 2.100000000000000000e+01
2.003482103347777876e+00 1.610265374183655007e+00 -5.934208631515502930e-01 1.200000000000000000e+01
2.320189476013184038e+00 1.864147186279297097e+00 -5.785328745841979980e-01 1.300000000000000000e+01
2.760306835174560991e+00 2.216172695159912109e+00 -5.606611371040344238e-01 1.000000000000000000e+01
3.418777704238892046e+00 2.742878437042235884e+00 -5.381750464439392090e-01 1.000000000000000000e+01
4.432774543762207031e+00 3.555134534835814986e+00 -4.971363544464110773e-01 9.000000000000000000e+00
6.416359901428222656e+00 5.142312526702880859e+00 -4.309342503547667902e-01 2.000000000000000000e+00
1.047636699676514027e+01 8.390151023864746094e+00 -2.342811077833175937e-01 2.000000000000000000e+00
1.763179183006287065e+00 1.408031344413757102e+00 -6.046012639999389648e-01 1.900000000000000000e+01
2.001474857330321822e+00 1.597184538841248003e+00 -5.911713838577270508e-01 1.300000000000000000e+01
2.332821369171143022e+00 1.860934019088744895e+00 -5.800593495368957520e-01 1.400000000000000000e+01
2.768025875091553178e+00 2.206523895263671875e+00 -5.606611371040344238e-01 1.000000000000000000e+01
3.425225973129272017e+00 2.728454351425170898e+00 -5.376875400543212891e-01 1.000000000000000000e+01
4.462302207946777344e+00 3.553291797637939009e+00 -4.990537762641906738e-01 9.000000000000000000e+00
6.449899196624755859e+00 5.132319927215576172e+00 -4.319809973239899237e-01 2.000000000000000000e+00
1.053376388549805043e+01 8.375932693481445312e+00 -2.349093854427337924e-01 2.000000000000000000e+00
3.761399078369141336e+01 2.989808654785155895e+01 1.287469482421875000e+01 1.400000000000000000e+01
1.764811635017395020e+00 1.399775743484497070e+00 -6.035659909248352051e-01 1.900000000000000000e+01
2.009814739227294922e+00 1.592959523200988992e+00 -5.920711755752563477e-01 1.300000000000000000e+01
2.325130462646483931e+00 1.842215061187743919e+00 -5.766248106956481934e-01 1.300000000000000000e+01
2.776876449584960938e+00 2.198558807373046875e+00 -5.609740018844604492e-01 1.000000000000000000e+01
3.458374404907227273e+01 2.737144851684569957e+01 5.415386199951171875e+00 3.500000000000000000e+01
3.428027868270874023e+00 2.712154150009154829e+00 -5.367125868797302246e-01 1.000000000000000000e+01
4.461558818817138672e+00 3.528587102890015093e+00 -4.976592957973480225e-01 1.300000000000000000e+01
6.466883182525634766e+00 5.110902786254882812e+00 -4.319809973239899237e-01 2.000000000000000000e+00
1.055834293365479049e+01 8.338476181030273438e+00 -2.348395884037018100e-01 2.000000000000000000e+00
1.766651511192321999e+00 1.391216516494750977e+00 -6.025307178497314453e-01 1.900000000000000000e+01
2.019957304000854048e+00 1.589549660682678001e+00 -5.934208631515502930e-01 1.100000000000000000e+01
2.333089828491210938e+00 1.835301399230957031e+00 -5.770063996315002441e-01 1.300000000000000000e+01
2.795404911041260210e+00 2.197397708892821822e+00 -5.631640553474426270e-01 1.000000000000000000e+01
3.446840763092041016e+00 2.707528829574584961e+00 -5.381750464439392090e-01 1.000000000000000000e+01
4.467580795288085938e+00 3.508069992065430132e+00 -4.969620406627655029e-01 1.100000000000000000e+01
6.481541633605957031e+00 5.085832118988037109e+00 -4.317716360092163086e-01 2.000000000000000000e+00
1.059682655334473012e+01 8.308973312377929688e+00 -2.350490093231200894e-01 2.000000000000000000e+00
1.758039712905884011e+00 1.374025344848633035e+00 -5.978720188140869141e-01 1.900000000000000000e+01
2.022698163986206055e+00 1.579736471176147017e+00 -5.925210714340209961e-01 1.100000000000000000e+01
2.347538232803345171e+00 1.832778692245482954e+00 -5.789144635200500488e-01 1.400000000000000000e+01
2.801882743835449219e+00 2.185922384262084961e+00 -5.628511905670166016e-01 1.000000000000000000e+01
3.452044486999512163e+00 2.691215991973876953e+00 -5.374438166618347168e-01 9.000000000000000000e+00
4.477265357971191406e+00 3.489222526550292969e+00 -4.966134130954741877e-01 1.100000000000000000e+01
6.509593486785888672e+00 5.069405078887938565e+00 -4.323996603488922119e-01 2.000000000000000000e+00
1.063036537170409979e+01 8.272534370422363281e+00 -2.351188212633132935e-01 2.000000000000000000e+00
1.764351487159729004e+00 1.369064569473267046e+00 -5.983896255493164062e-01 1.600000000000000000e+01
2.031280040740966797e+00 1.575054526329040971e+00 -5.934208631515502930e-01 1.100000000000000000e+01
2.350818157196044922e+00 1.822167634963989036e+00 -5.781512856483459473e-01 1.300000000000000000e+01
2.809495925903319868e+00 2.176128625869750977e+00 -5.628511905670166016e-01 1.000000000000000000e+01
3.467696666717528853e+00 2.684009790420531782e+00 -5.384187698364257812e-01 1.000000000000000000e+01
4.487842082977294922e+00 3.472353458404541016e+00 -4.964390993118286133e-01 1.100000000000000000e+01
6.546210289001464844e+00 5.061311244964599609e+00 -4.336557388305664062e-01 2.000000000000000000e+00
3.897741317749022727e+01 3.012516784667969105e+01 1.137307548522949041e+01 1.400000000000000000e+01
1.069399070739745916e+01 8.262274742126464844e+00 -2.358867228031157892e-01 2.000000000000000000e+00
1.787484169006348100e+00 1.377045154571532981e+00 -6.046012639999389648e-01 2.000000000000000000e+01
2.027500629425048828e+00 1.560822010040282981e+00 -5.907214879989624023e-01 1.100000000000000000e+01
2.360276222229003906e+00 1.816345214843750000e+00 -5.789144635200500488e-01 1.300000000000000000e+01
2.815508842468262163e+00 2.165104150772095171e+00 -5.625383257865905762e-01 1.000000000000000000e+01
3.475470542907714844e+00 2.670679330825806108e+00 -5.381750464439392090e-01 1.000000000000000000e+01
4.506255626678466797e+00 3.461521625518798828e+00 -4.971363544464110773e-01 9.000000000000000000e+00
6.538488388061523438e+00 5.018971920013427734e+00 -4.319809973239899237e-01 1.000000000000000000e+00
1.071641921997069957e+01 8.220026969909667969e+00 -2.357470989227294922e-01 2.000000000000000000e+00
1.790745615959167036e+00 1.369623661041259988e+00 -6.040836572647094727e-01 1.900000000000000000e+01
2.036033153533935991e+00 1.556101918220520020e+00 -5.916212797164916992e-01 1.100000000000000000e+01
2.372842311859130859e+00 1.812862873077393022e+00 -5.804409384727478027e-01 1.300000000000000000e+01
2.827759742736815962e+00 2.158859014511107954e+00 -5.634769201278686523e-01 1.000000000000000000e+01
3.483193635940552202e+00 2.657327413558959961e+00 -5.379312634468078613e-01 9.000000000000000000e+00
4.569007396697998047e+00 3.484433174133300781e+00 -5.027143359184265137e-01 9.000000000000000000e+00
6.562322139739990234e+00 5.000959873199462891e+00 -4.323996603488922119e-01 2.000000000000000000e+00
1.073231983184813920e+01 8.172877311706542969e+00 -2.354678660631180087e-01 2.000000000000000000e+00
3.595690155029296875e+01 2.737199020385741832e+01 1.210859012603759943e+01 1.200000000000000000e+01
1.792438387870789018e+00 1.361027956008910911e+00 -6.030483841896057129e-01 1.900000000000000000e+01
2.047662258148192915e+00 1.553697109222412109e+00 -5.934208631515502930e-01 1.100000000000000000e+01
2.361949682235718218e+00 1.791518211364746094e+00 -5.762431621551513672e-01 1.200000000000000000e+01
2.840001106262207031e+00 2.152554750442504883e+00 -5.644155740737915039e-01 9.000000000000000000e+00
3.492448091506958008e+00 2.645152568817139116e+00 -5.379312634468078613e-01 9.000000000000000000e+00
4.539842128753662109e+00 3.437193870544434038e+00 -4.981822371482849121e-01 9.000000000000000000e+00
6.582924365997313565e+00 4.980432987213134766e+00 -4.326090216636658270e-01 2.000000000000000000e+00
1.077992534637450994e+01 8.149836540222167969e+00 -2.358867228031157892e-01 2.000000000000000000e+00
1.786379933357238992e+00 1.346622705459594949e+00 -5.994248986244201660e-01 1.800000000000000000e+01
2.053073167800902876e+00 1.546539902687072976e+00 -5.934208631515502930e-01 1.200000000000000000e+01
2.371325492858887163e+00 1.785624504089355025e+00 -5.770063996315002441e-01 1.100000000000000000e+01
2.838027000427246094e+00 2.135502099990845171e+00 -5.625383257865905762e-01 9.000000000000000000e+00
3.508006572723389116e+00 2.637717485427856001e+00 -5.389062166213989258e-01 9.000000000000000000e+00
4.585258483886718750e+00 3.446465253829956055e+00 -5.018427371978759766e-01 9.000000000000000000e+00
6.613044738769531250e+00 4.967019557952880859e+00 -4.334463775157927912e-01 2.000000000000000000e+00
1.079551315307617010e+01 8.102554321289062500e+00 -2.356074899435043057e-01 2.000000000000000000e+00
1.799879312515259011e+00 1.347952127456665039e+00 -6.025307178497314453e-01 1.800000000000000000e+01
2.061042070388793945e+00 1.542417645454406960e+00 -5.943207144737243652e-01 1.200000000000000000e+01
2.380067586898804155e+00 1.780518054962157981e+00 -5.777696371078491211e-01 1.100000000000000000e+01
2.832064628601074219e+00 2.117113590240478960e+00 -5.600354075431823730e-01 9.000000000000000000e+00
3.522637367248535156e+00 2.631435871124268022e+00 -5.398811697959899902e-01 9.000000000000000000e+00
4.604045391082763672e+00 3.438003778457642046e+00 -5.027143359184265137e-01 9.000000000000000000e+00
6.625415325164794922e+00 4.943830966949462891e+00 -4.332370460033416748e-01 1.000000000000000000e+00
1.082732677459716975e+01 8.073380470275878906e+00 -2.357470989227294922e-01 2.000000000000000000e+00
3.215741729736328125e+01 2.397813034057616832e+01 1.074823760986327947e+01 9.000000000000000000e+00
1.806123971939086914e+00 1.342813849449157937e+00 -6.030483841896057129e-01 1.900000000000000000e+01
2.053899288177489790e+00 1.525916576385498047e+00 -5.907214879989624023e-01 1.100000000000000000e+01
2.390996694564818892e+00 1.775710821151732954e+00 -5.789144635200500488e-01 1.000000000000000000e+01
2.847368955612183061e+00 2.113101005554199219e+00 -5.615997314453125000e-01 1.000000000000000000e+01
3.528612375259398970e+00 2.616758584976195845e+00 -5.393937230110168457e-01 9.000000000000000000e+00
4.603213787078857422e+00 3.412419557571411133e+00 -5.013198256492614746e-01 9.000000000000000000e+00
6.655471324920654297e+00 4.930184364318847656e+00 -4.340744316577910822e-01 2.000000000000000000e+00
3.148964118957519887e+01 2.331812286376953125e+01 9.046181678771972656e+00 1.200000000000000000e+01
1.088115882873534979e+01 8.054573059082031250e+00 -2.363055795431137085e-01 2.000000000000000000e+00
3.221091842651367188e+01 2.383482742309569957e+01 1.073684883117675959e+01 1.900000000000000000e+01
1.818571925163269043e+00 1.342237234115601030e+00 -6.056365370750427246e-01 1.800000000000000000e+01
2.063918352127075195e+00 1.522207856178283913e+00 -5.920711755752563477e-01 1.300000000000000000e+01
2.389279365539550781e+00 1.761528730392456055e+00 -5.770063996315002441e-01 1.200000000000000000e+01
2.862679481506348100e+00 2.109007358551024947e+00 -5.631640553474426270e-01 1.100000000000000000e+01
3.531330585479735884e+00 2.599718093872069868e+00 -5.384187698364257812e-01 9.000000000000000000e+00
4.643981456756591797e+00 3.417587041854857954e+00 -5.044574141502380371e-01 9.000000000000000000e+00
6.662985801696777344e+00 4.899823188781738281e+00 -4.334463775157927912e-01 2.000000000000000000e+00
3.152688026428223012e+01 2.317574310302734020e+01 9.033584594726562500e+00 1.200000000000000000e+01
1.089309406280517933e+01 8.004700660705566406e+00 -2.359565347433089932e-01 2.000000000000000000e+00
3.226487350463867188e+01 2.370957756042480113e+01 1.072856712341308949e+01 1.900000000000000000e+01
1.821687817573546919e+00 1.334739208221435991e+00 -6.051189303398132324e-01 1.900000000000000000e+01
2.077080965042113814e+00 1.520750284194946067e+00 -5.943207144737243652e-01 1.100000000000000000e+01
2.395413637161254883e+00 1.753177881240844949e+00 -5.770063996315002441e-01 1.100000000000000000e+01
2.868429422378540039e+00 2.097835779190063032e+00 -5.628511905670166016e-01 1.100000000000000000e+01
3.543589115142821822e+00 2.589718103408813032e+00 -5.389062166213989258e-01 9.000000000000000000e+00
4.586704254150390625e+00 3.350817203521728960e+00 -4.969620406627655029e-01 9.000000000000000000e+00
6.676822662353515625e+00 4.874179840087890625e+00 -4.332370460033416748e-01 2.000000000000000000e+00
3.159499359130859020e+01 2.305636405944823863e+01 9.029985427856445312e+00 1.200000000000000000e+01
1.092743110656737926e+01 7.971341609954833984e+00 -2.360961586236954013e-01 2.000000000000000000e+00
3.233807373046875000e+01 2.358997726440430043e+01 1.072546100616455078e+01 9.000000000000000000e+00
1.814067602157592995e+00 1.318964958190917969e+00 -6.009778380393981934e-01 1.900000000000000000e+01
2.082640886306763139e+00 1.513127207756042036e+00 -5.943207144737243652e-01 1.100000000000000000e+01
2.408177375793457031e+00 1.749001264572143999e+00 -5.785328745841979980e-01 1.100000000000000000e+01
2.879296541213988814e+00 2.089628934860229048e+00 -5.634769201278686523e-01 1.400000000000000000e+01
3.557878255844116211e+00 2.580209016799927202e+00 -5.396374464035034180e-01 1.000000000000000000e+01
4.644121646881104404e+00 3.366727113723754883e+00 -5.018427371978759766e-01 9.000000000000000000e+00
6.733461380004882812e+00 4.877796173095703125e+00 -4.357491731643676758e-01 2.000000000000000000e+00
3.172032546997069957e+01 2.297012329101562855e+01 9.041682243347167969e+00 1.200000000000000000e+01
1.094037628173827947e+01 7.919511318206787109e+00 -2.357470989227294922e-01 2.000000000000000000e+00
3.215922164916992188e+01 2.327084159851073863e+01 1.063642787933349965e+01 9.000000000000000000e+00
1.824926376342772993e+00 1.317147016525268999e+00 -6.030483841896057129e-01 1.900000000000000000e+01
2.087909936904906782e+00 1.505848169326782005e+00 -5.943207144737243652e-01 1.100000000000000000e+01
2.417453050613402876e+00 1.742880702018738015e+00 -5.792961120605468750e-01 1.200000000000000000e+01
2.873751163482666016e+00 2.070328235626221147e+00 -5.609740018844604492e-01 1.300000000000000000e+01
3.576529264450072798e+00 2.574732780456542969e+00 -5.410999059677124023e-01 1.000000000000000000e+01
3.152858352661133168e+01 2.268897819519042969e+01 6.152254581451416016e+00 1.400000000000000000e+01
4.686571598052979404e+00 3.372607231140137163e+00 -5.051546692848205566e-01 9.000000000000000000e+00
6.711530208587645596e+00 4.826277256011962891e+00 -4.332370460033416748e-01 1.000000000000000000e+00
1.096795368194580078e+01 7.881274223327636719e+00 -2.357470989227294922e-01 2.000000000000000000e+00
3.192959022521973012e+01 2.293528938293457031e+01 1.053393554687500000e+01 9.000000000000000000e+00
1.832424521446228027e+00 1.313338875770569070e+00 -6.040836572647094727e-01 1.600000000000000000e+01
2.084970474243164062e+00 1.493242740631103960e+00 -5.920711755752563477e-01 1.200000000000000000e+01
2.424815654754639116e+00 1.735997438430785911e+00 -5.796777009963989258e-01 1.200000000000000000e+01
2.883813858032227007e+00 2.063085794448852983e+00 -5.615997314453125000e-01 1.400000000000000000e+01
3.732505416870117188e+01 2.669256591796875000e+01 5.634263515472412109e+00 4.000000000000000000e+01
3.578588247299193892e+00 2.558240652084351030e+00 -5.401249527931213379e-01 1.000000000000000000e+01
3.159970664978026988e+01 2.258981704711914062e+01 6.152254581451416016e+00 1.400000000000000000e+01
4.718803405761718750e+00 3.372106552124022993e+00 -5.074207186698913574e-01 8.000000000000000000e+00
6.740500926971436435e+00 4.813279628753662109e+00 -4.340744316577910822e-01 1.000000000000000000e+00
1.102007293701172053e+01 7.863443851470947266e+00 -2.363055795431137085e-01 2.000000000000000000e+00
1.844868421554564986e+00 1.312534093856811968e+00 -6.066718697547912598e-01 1.800000000000000000e+01
2.094934940338135210e+00 1.489343166351317915e+00 -5.934208631515502930e-01 1.300000000000000000e+01
2.424459457397460938e+00 1.722973585128783958e+00 -5.781512856483459473e-01 1.200000000000000000e+01
2.892608404159545898e+00 2.054150581359862837e+00 -5.619125962257385254e-01 1.200000000000000000e+01
3.577782869338988814e+00 2.538840532302856001e+00 -5.386624932289123535e-01 1.000000000000000000e+01
3.154948997497558949e+01 2.238792228698730113e+01 6.127224922180175781e+00 1.400000000000000000e+01
4.735420703887938565e+00 3.359072685241699219e+00 -5.079436898231506348e-01 8.000000000000000000e+00
3.161507797241210938e+01 2.241787719726562855e+01 7.533520698547363281e+00 6.300000000000000000e+01
6.750743865966796875e+00 4.785101413726806641e+00 -4.336557388305664062e-01 1.000000000000000000e+00
3.233042526245117188e+01 2.290816307067871094e+01 9.147859573364257812e+00 1.200000000000000000e+01
1.106703662872313920e+01 7.838798522949218750e+00 -2.367244362831116000e-01 2.000000000000000000e+00
1.844704747200011985e+00 1.302743077278136985e+00 -6.051189303398132324e-01 2.100000000000000000e+01
2.101713180541992188e+00 1.483144998550415039e+00 -5.938707590103149414e-01 1.200000000000000000e+01
2.433667421340941939e+00 1.716763496398926003e+00 -5.789144635200500488e-01 1.200000000000000000e+01
2.912677764892578125e+00 2.053145885467528853e+00 -5.644155740737915039e-01 1.100000000000000000e+01
3.250931167602539062e+01 2.290731430053710938e+01 4.883060932159423828e+00 2.100000000000000000e+01
3.588246345520019975e+00 2.527479410171508789e+00 -5.389062166213989258e-01 1.000000000000000000e+01
4.753633499145507812e+00 3.347110748291016069e+00 -5.086408853530883789e-01 8.000000000000000000e+00
3.169314002990723012e+01 2.230738258361816051e+01 7.533520698547363281e+00 6.300000000000000000e+01
6.790274143218994141e+00 4.777597904205322266e+00 -4.351211488246917725e-01 1.000000000000000000e+00
3.137729835510253906e+01 2.206870079040526988e+01 8.856323242187500000e+00 1.200000000000000000e+01
1.107470130920409979e+01 7.786318302154541016e+00 -2.363055795431137085e-01 2.000000000000000000e+00
3.210322952270507812e+01 2.257089996337890980e+01 1.051529979705811080e+01 9.000000000000000000e+00
1.839749455451965110e+00 1.289642572402954102e+00 -6.020131111145019531e-01 1.900000000000000000e+01
2.111665964126586914e+00 1.479153752326965110e+00 -5.952205061912536621e-01 1.300000000000000000e+01
2.441253423690795898e+00 1.709384083747863992e+00 -5.792961120605468750e-01 1.200000000000000000e+01
2.923063755035399947e+00 2.045231103897095171e+00 -5.650413036346435547e-01 1.200000000000000000e+01
3.601927518844604048e+00 2.518351078033446822e+00 -5.396374464035034180e-01 1.000000000000000000e+01
3.183452987670898082e+01 2.225767326354980113e+01 6.152254581451416016e+00 1.400000000000000000e+01
4.771820068359375000e+00 3.335062503814696822e+00 -5.093381404876708984e-01 6.000000000000000000e+00
6.797084808349609375e+00 4.747004985809326172e+00 -4.344930946826934814e-01 2.000000000000000000e+00
1.111821174621582031e+01 7.759057044982910156e+00 -2.366546243429183960e-01 2.000000000000000000e+00
3.252797317504882812e+01 2.269182777404785156e+01 1.062710952758789062e+01 9.000000000000000000e+00
1.844239950180053933e+00 1.283212780952454057e+00 -6.020131111145019531e-01 1.900000000000000000e+01
2.118416309356689009e+00 1.472886085510253906e+00 -5.956704020500183105e-01 1.300000000000000000e+01
2.447205305099486861e+00 1.700852036476135032e+00 -5.792961120605468750e-01 1.100000000000000000e+01
2.917205333709716797e+00 2.026000738143920898e+00 -5.625383257865905762e-01 1.200000000000000000e+01
3.170961952209473012e+01 2.201414489746094105e+01 4.739742279052734375e+00 2.000000000000000000e+01
3.622112274169921875e+00 2.513685226440430132e+00 -5.413436293601989746e-01 9.000000000000000000e+00
4.794891834259033203e+00 3.326334953308105025e+00 -5.105583667755126953e-01 9.000000000000000000e+00
6.807047843933104581e+00 4.718698501586914062e+00 -4.340744316577910822e-01 2.000000000000000000e+00
3.031646919250487926e+01 2.100777816772460938e+01 8.515296936035156250e+00 1.100000000000000000e+01
1.114522838592528942e+01 7.720200061798095703e+00 -2.366546243429183960e-01 2.000000000000000000e+00
3.257763290405272727e+01 2.256623649597167969e+01 1.061882781982422053e+01 9.000000000000000000e+00
1.855066418647765891e+00 1.281158685684204102e+00 -6.040836572647094727e-01 1.900000000000000000e+01
2.109109640121459961e+00 1.455520749092102051e+00 -5.916212797164916992e-01 1.300000000000000000e+01
2.456359624862670898e+00 1.694529056549072044e+00 -5.800593495368957520e-01 1.100000000000000000e+01
2.929138898849486861e+00 2.019168853759766069e+00 -5.634769201278686523e-01 1.200000000000000000e+01
3.223414611816406250e+01 2.221194839477539062e+01 4.806527137756347656e+00 2.000000000000000000e+01
3.627594947814940962e+00 2.498774290084838867e+00 -5.408561229705810547e-01 9.000000000000000000e+00
4.814678668975830078e+00 3.315227031707764116e+00 -5.114299058914184570e-01 8.000000000000000000e+00
6.813605308532714844e+00 4.688116073608398438e+00 -4.334463775157927912e-01 2.000000000000000000e+00
3.044099426269530895e+01 2.093716430664062855e+01 8.529693603515625000e+00 1.100000000000000000e+01
1.117869949340819957e+01 7.685780525207520419e+00 -2.367942482233046930e-01 2.000000000000000000e+00
3.245315170288085938e+01 2.230443382263183949e+01 1.055153465270995916e+01 9.000000000000000000e+00
1.864084362983704057e+00 1.278277635574341042e+00 -6.056365370750427246e-01 1.800000000000000000e+01
2.113924741744995117e+00 1.448518633842468040e+00 -5.916212797164916992e-01 1.400000000000000000e+01
2.457106351852416992e+00 1.683045744895935059e+00 -5.789144635200500488e-01 1.100000000000000000e+01
2.937448740005493164e+00 2.010560035705565962e+00 -5.637897849082946777e-01 1.200000000000000000e+01
3.256648254394531250e+01 2.228204154968262074e+01 4.845037460327148438e+00 2.000000000000000000e+01
3.626030206680297852e+00 2.480006933212279829e+00 -5.393937230110168457e-01 9.000000000000000000e+00
3.287728118896483664e+01 2.248626899719237926e+01 6.308689117431640625e+00 1.400000000000000000e+01
4.840448856353759766e+00 3.309363126754761186e+00 -5.129987001419067383e-01 8.000000000000000000e+00
6.829114437103270596e+00 4.665495395660400391e+00 -4.334463775157927912e-01 2.000000000000000000e+00
3.056497383117676137e+01 2.087347030639648082e+01 8.544990539550781250e+00 1.100000000000000000e+01
1.122064113616943004e+01 7.659943103790283203e+00 -2.371432930231094083e-01 2.000000000000000000e+00
3.245605087280272727e+01 2.215662384033203125e+01 1.052979373931884943e+01 9.000000000000000000e+00
1.868535041809082031e+00 1.271762967109679954e+00 -6.056365370750427246e-01 1.900000000000000000e+01
2.125413656234741211e+00 1.445514440536499023e+00 -5.934208631515502930e-01 1.400000000000000000e+01
2.459718942642211914e+00 1.672250986099242942e+00 -5.781512856483459473e-01 1.200000000000000000e+01
2.954252958297729048e+00 2.006954431533813032e+00 -5.656670331954956055e-01 1.100000000000000000e+01
3.304148101806641336e+01 2.243811035156250000e+01 4.904022216796875000e+00 2.100000000000000000e+01
3.634665012359619141e+00 2.467334747314453125e+00 -5.393937230110168457e-01 9.000000000000000000e+00
3.181527900695801137e+01 2.158918762207030895e+01 6.089680671691895419e+00 1.400000000000000000e+01
4.842079162597656250e+00 3.285734176635742188e+00 -5.119528174400329590e-01 8.000000000000000000e+00
6.855276584625244141e+00 4.648354053497313565e+00 -4.340744316577910822e-01 1.000000000000000000e+00
3.058602905273437855e+01 2.073166275024414062e+01 8.530593872070312500e+00 1.100000000000000000e+01
1.124731063842773082e+01 7.620728969573974609e+00 -2.371432930231094083e-01 2.000000000000000000e+00
1.864958882331847922e+00 1.259825825691222922e+00 -6.030483841896057129e-01 1.900000000000000000e+01
2.136907339096068892e+00 1.442447781562804954e+00 -5.952205061912536621e-01 1.400000000000000000e+01
2.468796253204346147e+00 1.665850996971129927e+00 -5.789144635200500488e-01 1.000000000000000000e+01
2.956326961517333984e+00 1.993317008018494096e+00 -5.647284388542175293e-01 1.000000000000000000e+01
3.658072233200072798e+00 2.464615106582642046e+00 -5.415873527526855469e-01 1.000000000000000000e+01
3.180478477478026988e+01 2.142837715148926137e+01 6.074037551879882812e+00 1.400000000000000000e+01
4.853518962860107422e+00 3.268812179565430132e+00 -5.119528174400329590e-01 9.000000000000000000e+00
6.864832878112792969e+00 4.619935989379882812e+00 -4.336557388305664062e-01 1.000000000000000000e+00
3.219427490234375000e+01 2.165813064575194957e+01 8.958001136779785156e+00 1.200000000000000000e+01
1.126720619201659979e+01 7.576958656311035156e+00 -2.370036840438843051e-01 2.000000000000000000e+00
1.867740511894226074e+00 1.252232432365417036e+00 -6.025307178497314453e-01 1.700000000000000000e+01
2.140310525894165039e+00 1.433895111083983931e+00 -5.947706103324890137e-01 1.200000000000000000e+01
2.482752323150635210e+00 1.662685394287108931e+00 -5.808225870132446289e-01 1.100000000000000000e+01
2.951775074005126953e+00 1.975295186042786089e+00 -5.625383257865905762e-01 9.000000000000000000e+00
3.666652917861938032e+00 2.451830863952637163e+00 -5.415873527526855469e-01 1.000000000000000000e+01
3.188311004638671875e+01 2.131166267395019887e+01 6.074037551879882812e+00 1.400000000000000000e+01
4.869868755340576172e+00 3.255172014236450195e+00 -5.124757885932922363e-01 9.000000000000000000e+00
6.914134502410888672e+00 4.618131637573242188e+00 -4.357491731643676758e-01 2.000000000000000000e+00
3.208816146850585938e+01 2.142442512512207031e+01 8.907611846923828125e+00 1.200000000000000000e+01
1.131687164306640980e+01 7.553123950958251953e+00 -2.374923527240752896e-01 2.000000000000000000e+00
1.880141854286194070e+00 1.251056194305419922e+00 -6.051189303398132324e-01 1.900000000000000000e+01
3.244270324707031250e+01 2.157937431335448863e+01 6.801202893257141113e-01 3.300000000000000000e+01
2.140434265136719194e+00 1.423178315162658913e+00 -5.934208631515502930e-01 1.100000000000000000e+01
2.480365753173828125e+00 1.648575067520142046e+00 -5.789144635200500488e-01 1.200000000000000000e+01
2.957006454467772993e+00 1.963886618614196999e+00 -5.622254610061645508e-01 1.000000000000000000e+01
3.671881198883057085e+00 2.436821699142456055e+00 -5.410999059677124023e-01 1.000000000000000000e+01
3.197664833068848012e+01 2.122110939025878906e+01 6.078417778015136719e+00 1.400000000000000000e+01
4.879541873931884766e+00 3.237051725387572798e+00 -5.123014450073242188e-01 9.000000000000000000e+00
6.903577327728270596e+00 4.576312541961669922e+00 -4.340744316577910822e-01 2.000000000000000000e+00
1.133316516876221058e+01 7.506948947906494141e+00 -2.372829169034957886e-01 2.000000000000000000e+00
3.278157043457031250e+01 2.171410751342773082e+01 1.053600597381591975e+01 9.000000000000000000e+00
1.886109471321105957e+00 1.245550155639647993e+00 -6.056365370750427246e-01 1.800000000000000000e+01
2.143762588500977007e+00 1.414624929428101030e+00 -5.929709672927856445e-01 1.200000000000000000e+01
2.497576951980590820e+00 1.647474169731139915e+00 -5.815858244895935059e-01 1.300000000000000000e+01
2.983635663986206055e+00 1.966598272323607954e+00 -5.659798979759216309e-01 1.000000000000000000e+01
3.686996221542357954e+00 2.428357124328612837e+00 -5.420748591423034668e-01 1.000000000000000000e+01
4.894139766693115234e+00 3.222190380096435991e+00 -5.126500725746154785e-01 9.000000000000000000e+00
3.165945053100585938e+01 2.083594512939453125e+01 7.367135524749755859e+00 6.200000000000000000e+01
6.922846794128417969e+00 4.554381847381591797e+00 -4.342837631702423096e-01 2.000000000000000000e+00
3.229556274414063211e+01 2.123843574523926137e+01 8.923808097839355469e+00 1.200000000000000000e+01
1.136932563781737926e+01 7.473933696746826172e+00 -2.374923527240752896e-01 2.000000000000000000e+00
3.301592636108397727e+01 2.169565963745116832e+01 1.058569908142090021e+01 9.000000000000000000e+00
1.895293116569519043e+00 1.242135643959044966e+00 -6.071894764900207520e-01 1.900000000000000000e+01
2.153578281402587891e+00 1.410336017608643022e+00 -5.943207144737243652e-01 1.000000000000000000e+01
2.490171909332274947e+00 1.630143523216248003e+00 -5.785328745841979980e-01 1.300000000000000000e+01
2.987175941467285156e+00 1.954008698463439941e+00 -5.653541684150695801e-01 1.000000000000000000e+01
3.687142133712768999e+00 2.410041809082030806e+00 -5.408561229705810547e-01 1.000000000000000000e+01
4.898685455322265625e+00 3.200727939605712891e+00 -5.119528174400329590e-01 8.000000000000000000e+00
6.952081203460693359e+00 4.538923740386962891e+00 -4.351211488246917725e-01 2.000000000000000000e+00
3.247394561767578125e+01 2.119373703002930043e+01 8.952602386474609375e+00 1.200000000000000000e+01
1.142214298248291016e+01 7.451683998107910156e+00 -2.380508184432983121e-01 2.000000000000000000e+00
3.335303878784179688e+01 2.175916671752930043e+01 1.067059135437012074e+01 9.000000000000000000e+00
1.889900684356689009e+00 1.229192495346068892e+00 -6.040836572647094727e-01 2.000000000000000000e+01
2.165024042129517046e+00 1.407057762145996094e+00 -5.961202979087829590e-01 1.100000000000000000e+01
2.510663986206055132e+00 1.631067276000977007e+00 -5.819674134254455566e-01 1.500000000000000000e+01
2.989007949829102007e+00 1.940342903137207031e+00 -5.644155740737915039e-01 9.000000000000000000e+00
3.695532321929932085e+00 2.397156715393065962e+00 -5.408561229705810547e-01 9.000000000000000000e+00
3.291968154907227273e+01 2.135379409790039062e+01 6.214828491210938388e+00 1.400000000000000000e+01
4.913171768188476562e+00 3.185776710510253906e+00 -5.123014450073242188e-01 8.000000000000000000e+00
6.977940082550048828e+00 4.521145343780517578e+00 -4.357491731643676758e-01 2.000000000000000000e+00
1.141451168060302912e+01 7.390032291412354404e+00 -2.373527288436889926e-01 2.000000000000000000e+00
3.256282424926757812e+01 2.108196449279785156e+01 1.039417266845702947e+01 8.000000000000000000e+00
1.894179821014404075e+00 1.222588062286376953e+00 -6.040836572647094727e-01 1.800000000000000000e+01
2.156821012496947798e+00 1.391042113304137962e+00 -5.925210714340209961e-01 1.100000000000000000e+01
2.522942304611206055e+00 1.626548647880553977e+00 -5.834938883781433105e-01 1.500000000000000000e+01
2.992441654205321822e+00 1.927757859230041948e+00 -5.637897849082946777e-01 9.000000000000000000e+00
3.715561628341674805e+00 2.391763448715209961e+00 -5.425623059272766113e-01 1.000000000000000000e+01
4.935990810394287109e+00 3.176154136657714844e+00 -5.135216116905212402e-01 9.000000000000000000e+00
6.997038841247558594e+00 4.498920440673828125e+00 -4.359585046768187921e-01 2.000000000000000000e+00
3.073260116577148082e+01 1.975271034240723012e+01 8.434314727783203125e+00 1.100000000000000000e+01
1.148734569549561080e+01 7.380408287048339844e+00 -2.383300662040709894e-01 2.000000000000000000e+00
3.262321472167968750e+01 2.095981597900390980e+01 1.039003181457520064e+01 8.000000000000000000e+00
1.901689529418945090e+00 1.218052625656127930e+00 -6.051189303398132324e-01 1.800000000000000000e+01
2.161663532257080078e+00 1.383504867553710938e+00 -5.925210714340209961e-01 1.200000000000000000e+01
2.523643493652344194e+00 1.614557981491089089e+00 -5.823490619659423828e-01 1.300000000000000000e+01
3.000816822052001953e+00 1.918364524841309038e+00 -5.641027092933654785e-01 8.000000000000000000e+00
3.720541954040526900e+00 2.376641988754272017e+00 -5.420748591423034668e-01 1.000000000000000000e+01
3.140673828125000000e+01 2.005456733703612926e+01 5.901959419250488281e+00 1.300000000000000000e+01
4.943688869476318359e+00 3.156760215759276900e+00 -5.131729841232299805e-01 9.000000000000000000e+00
6.992496013641357422e+00 4.461577415466308594e+00 -4.347024559974669855e-01 2.000000000000000000e+00
3.092951774597167969e+01 1.972705078125000000e+01 8.469407081604003906e+00 1.100000000000000000e+01
1.155687808990479049e+01 7.368216037750244141e+00 -2.392375916242598932e-01 2.000000000000000000e+00
1.908978700637816939e+00 1.213812828063965066e+00 -6.061542034149169922e-01 1.800000000000000000e+01
2.169529199600220171e+00 1.378419041633605957e+00 -5.934208631515502930e-01 1.100000000000000000e+01
2.524011850357056108e+00 1.603022813796997070e+00 -5.812041759490966797e-01 1.500000000000000000e+01
3.005493879318236861e+00 1.907344460487365945e+00 -5.637897849082946777e-01 7.000000000000000000e+00
3.599924087524414062e+01 2.283699989318848012e+01 5.234531879425048828e+00 3.000000000000000000e+01
3.723373413085937944e+00 2.361101865768433061e+00 -5.413436293601989746e-01 9.000000000000000000e+00
4.957495689392089844e+00 3.142482519149779829e+00 -5.135216116905212402e-01 9.000000000000000000e+00
7.034248828887938565e+00 4.455463886260986328e+00 -4.363771975040435791e-01 2.000000000000000000e+00
3.101123046875000000e+01 1.963480186462401988e+01 8.473906517028808594e+00 1.100000000000000000e+01
1.155759239196776988e+01 7.314879417419433594e+00 -2.387489229440689087e-01 2.000000000000000000e+00
3.273900985717772727e+01 2.072074317932128906e+01 1.038174915313721058e+01 8.000000000000000000e+00
1.909936428070067915e+00 1.205080151557921919e+00 -6.051189303398132324e-01 1.800000000000000000e+01
2.177624464035034180e+00 1.372916221618651900e+00 -5.943207144737243652e-01 1.100000000000000000e+01
2.526270151138306108e+00 1.592109084129333052e+00 -5.804409384727478027e-01 1.400000000000000000e+01
3.017148256301879883e+00 1.899999618530272993e+00 -5.647284388542175293e-01 9.000000000000000000e+00
3.139838027954101918e+01 1.976496315002441051e+01 4.555476188659667969e+00 1.900000000000000000e+01
3.734952688217163086e+00 2.350204944610596147e+00 -5.418310761451721191e-01 1.000000000000000000e+01
4.968434810638427734e+00 3.125158548355102983e+00 -5.135216116905212402e-01 9.000000000000000000e+00
7.029466629028320312e+00 4.418128967285156250e+00 -4.351211488246917725e-01 2.000000000000000000e+00
3.099707412719726918e+01 1.947459602355957031e+01 8.451411247253417969e+00 1.100000000000000000e+01
1.156273460388183949e+01 7.261728763580322266e+00 -2.383300662040709894e-01 2.000000000000000000e+00
3.239232635498046875e+01 2.034331130981444957e+01 1.024923419952392933e+01 8.000000000000000000e+00
1.910856485366821067e+00 1.196355581283568892e+00 -6.040836572647094727e-01 1.900000000000000000e+01
2.192316055297852007e+00 1.371507763862610085e+00 -5.970200896263122559e-01 1.100000000000000000e+01
2.535141468048096147e+00 1.585362911224365012e+00 -5.812041759490966797e-01 1.400000000000000000e+01
3.022086858749390093e+00 1.888409495353698953e+00 -5.644155740737915039e-01 1.100000000000000000e+01
3.153789520263671875e+01 1.969941139221191051e+01 4.565712928771972656e+00 1.900000000000000000e+01
3.749869108200072798e+00 2.341358661651610884e+00 -5.428060293197631836e-01 9.000000000000000000e+00
4.957340717315673828e+00 3.094082355499268022e+00 -5.112555623054504395e-01 9.000000000000000000e+00
3.088300323486328125e+01 1.926787567138671875e+01 7.075579166412354404e+00 6.100000000000000000e+01
7.048235416412354404e+00 4.395678520202636719e+00 -4.353304803371428888e-01 2.000000000000000000e+00
3.112439727783203125e+01 1.940339279174805043e+01 8.467607498168945312e+00 1.100000000000000000e+01
1.160837745666504084e+01 7.234014511108398438e+00 -2.387489229440689087e-01 2.000000000000000000e+00
3.272219085693358664e+01 2.039155006408691051e+01 1.033102130889892933e+01 8.000000000000000000e+00
1.918302774429321067e+00 1.191717028617859109e+00 -6.051189303398132324e-01 1.900000000000000000e+01
2.193778753280640093e+00 1.361791253089905007e+00 -5.961202979087829590e-01 1.100000000000000000e+01
2.540659904479980025e+00 1.576503992080688032e+00 -5.812041759490966797e-01 1.500000000000000000e+01
3.025302410125731978e+00 1.875766992568969949e+00 -5.637897849082946777e-01 1.500000000000000000e+01
3.175494766235351918e+01 1.968123054504394887e+01 4.587162017822265625e+00 1.900000000000000000e+01
3.761394023895264116e+00 2.330345869064331055e+00 -5.432935357093811035e-01 9.000000000000000000e+00
4.985049724578857422e+00 3.087249279022216797e+00 -5.129987001419067383e-01 8.000000000000000000e+00
7.049949169158936435e+00 4.362640857696533203e+00 -4.344930946826934814e-01 2.000000000000000000e+00
3.117536544799805043e+01 1.928437805175780895e+01 8.463109016418457031e+00 1.100000000000000000e+01
1.168458271026610973e+01 7.224999904632568359e+00 -2.397960573434829989e-01 2.000000000000000000e+00
3.272769165039063211e+01 2.022881889343262074e+01 1.030928039550781072e+01 8.000000000000000000e+00
1.933962702751159890e+00 1.192109465599060059e+00 -6.087424159049987793e-01 2.100000000000000000e+01
2.195200443267821822e+00 1.352081298828125000e+00 -5.952205061912536621e-01 1.000000000000000000e+01
2.549491167068481001e+00 1.569684386253356934e+00 -5.819674134254455566e-01 1.300000000000000000e+01
3.036879062652587891e+00 1.868300557136536089e+00 -5.647284388542175293e-01 1.300000000000000000e+01
3.188094711303710938e+01 1.960561943054198863e+01 4.595448970794677734e+00 1.900000000000000000e+01
3.766123294830321822e+00 2.315122604370117188e+00 -5.428060293197631836e-01 1.000000000000000000e+01
4.999190807342529297e+00 3.071915626525878906e+00 -5.133473277091979980e-01 6.000000000000000000e+00
3.260599517822266336e+01 2.002797698974609020e+01 7.438116073608398438e+00 6.200000000000000000e+01
7.082155227661132812e+00 4.348455905914306641e+00 -4.355398416519165039e-01 2.000000000000000000e+00
3.139196968078612926e+01 1.926718139648437855e+01 8.503600120544433594e+00 1.100000000000000000e+01
1.172677612304688033e+01 7.194626331329345703e+00 -2.401451170444489081e-01 2.000000000000000000e+00
3.262992858886718750e+01 2.001915359497069957e+01 1.025751686096191051e+01 8.000000000000000000e+00
1.938112139701843040e+00 1.185351490974426047e+00 -6.087424159049987793e-01 2.100000000000000000e+01
2.203232288360596147e+00 1.346442699432373047e+00 -5.961202979087829590e-01 1.200000000000000000e+01
2.559980869293212891e+00 1.563845872879028098e+00 -5.831122994422912598e-01 1.400000000000000000e+01
3.045068264007567915e+00 1.858717679977416992e+00 -5.650413036346435547e-01 1.200000000000000000e+01
3.774181604385375977e+00 2.301962375640869141e+00 -5.428060293197631836e-01 9.000000000000000000e+00
5.014986991882324219e+00 3.057558059692382812e+00 -5.138702392578125000e-01 9.000000000000000000e+00
3.259188461303710938e+01 1.986295318603515980e+01 7.419035434722900391e+00 6.200000000000000000e+01
7.117758750915527344e+00 4.336177349090576172e+00 -4.367958903312683105e-01 2.000000000000000000e+00
3.176528358459473012e+01 1.934398269653319957e+01 8.586381912231445312e+00 1.100000000000000000e+01
1.176206779479979936e+01 7.159887313842773438e+00 -2.403545379638671875e-01 2.000000000000000000e+00
1.942237973213196023e+00 1.178578972816467063e+00 -6.087424159049987793e-01 2.200000000000000000e+01
2.201253414154053178e+00 1.334702253341675027e+00 -5.943207144737243652e-01 1.100000000000000000e+01
2.557029485702515093e+00 1.549812316894531028e+00 -5.812041759490966797e-01 1.300000000000000000e+01
3.061675786972045898e+00 1.854216814041137917e+00 -5.669184923171997070e-01 1.200000000000000000e+01
3.404463958740233664e+01 2.061004638671875000e+01 4.886473178863525391e+00 2.100000000000000000e+01
3.785590648651123047e+00 2.290829420089722124e+00 -5.432935357093811035e-01 1.000000000000000000e+01
3.323262786865233664e+01 2.011054229736328125e+01 6.152254581451416016e+00 1.400000000000000000e+01
5.000057697296142578e+00 3.024565458297729048e+00 -5.112555623054504395e-01 9.000000000000000000e+00
7.122595787048339844e+00 4.305106639862061435e+00 -4.361678659915924072e-01 2.000000000000000000e+00
3.179925537109375000e+01 1.921282768249512074e+01 8.577383995056152344e+00 1.100000000000000000e+01
1.179383563995360973e+01 7.122921466827392578e+00 -2.404941618442535123e-01 2.000000000000000000e+00
3.347026443481445312e+01 2.020649147033691051e+01 1.047595977783202947e+01 9.000000000000000000e+00
1.933099746704102007e+00 1.163820743560791016e+00 -6.046012639999389648e-01 2.100000000000000000e+01
2.215918302536011186e+00 1.333037614822387917e+00 -5.970200896263122559e-01 1.100000000000000000e+01
2.564106225967406782e+00 1.541888833045959029e+00 -5.815858244895935059e-01 1.300000000000000000e+01
3.066436529159545898e+00 1.842500925064086914e+00 -5.666056275367736816e-01 1.400000000000000000e+01
3.406872558593750000e+01 2.046246528625487926e+01 4.879648685455322266e+00 2.100000000000000000e+01
3.791862249374390093e+00 2.276579618453979048e+00 -5.430498123168945312e-01 1.000000000000000000e+01
3.161235046386719105e+01 1.897209548950194957e+01 5.839385509490966797e+00 1.300000000000000000e+01
5.015709877014160156e+00 3.010169267654418945e+00 -5.117785334587097168e-01 9.000000000000000000e+00
7.147857189178466797e+00 4.286380767822265625e+00 -4.367958903312683105e-01 2.000000000000000000e+00
3.206669998168945312e+01 1.922194290161133168e+01 8.631371498107910156e+00 1.100000000000000000e+01
1.180147361755370916e+01 7.071431636810302734e+00 -2.401451170444489081e-01 2.000000000000000000e+00
3.354722213745117188e+01 2.009350585937500000e+01 1.047803020477294922e+01 9.000000000000000000e+00
1.947101593017577903e+00 1.163009643554687944e+00 -6.077071428298950195e-01 2.100000000000000000e+01
2.227251291275023970e+00 1.329289436340332031e+00 -5.988197326660156250e-01 1.400000000000000000e+01
3.714582824707031250e+01 2.216972732543944957e+01 2.267088890075684038e+00 3.000000000000000000e+01
2.571158885955810991e+00 1.533934950828552024e+00 -5.819674134254455566e-01 1.300000000000000000e+01
3.059275150299071822e+00 1.823693990707397017e+00 -5.641027092933654785e-01 1.200000000000000000e+01
3.801491260528564009e+00 2.264345407485961914e+00 -5.432935357093811035e-01 1.000000000000000000e+01
3.167509078979491832e+01 1.886716079711914062e+01 5.839385509490966797e+00 1.300000000000000000e+01
