1.294159293174744096e+00 3.243835687637329102e+00 -5.531522631645202637e-01 9.000000000000000000e+00
1.596155881881714089e+00 3.996742248535155806e+00 -5.284254550933837891e-01 1.000000000000000000e+01
2.078069925308227983e+00 5.200809478759765625e+00 -4.899895787239075262e-01 9.000000000000000000e+00
2.992831230163574219e+00 7.482611656188964844e+00 -4.223511815071105957e-01 2.000000000000000000e+00
5.329250335693359375e+00 1.331059932708740057e+01 -2.502675056457520086e-01 2.000000000000000000e+00
8.351256251335144043e-01 2.077440261840819868e+00 -5.999425649642944336e-01 1.600000000000000000e+01
9.471885561943054199e-01 2.353831052780150923e+00 -5.857725739479064941e-01 1.000000000000000000e+01
1.091769933700561968e+00 2.711759328842163086e+00 -5.682291984558105469e-01 1.000000000000000000e+01
1.306951284408568892e+00 3.242962837219237837e+00 -5.537779927253723145e-01 9.000000000000000000e+00
1.610840082168579102e+00 3.992987155914307085e+00 -5.286692380905151367e-01 9.000000000000000000e+00
2.093974351882935014e+00 5.187981128692626953e+00 -4.894666373729705811e-01 9.000000000000000000e+00
3.018932104110718218e+00 7.472119331359863281e+00 -4.223511815071105957e-01 2.000000000000000000e+00
5.375680446624755859e+00 1.329191589355468928e+01 -2.502675056457520086e-01 2.000000000000000000e+00
8.394649028778076172e-01 2.067352771759033203e+00 -5.978720188140869141e-01 1.900000000000000000e+01
9.583343863487243652e-01 2.357731580734252930e+00 -5.875721573829650879e-01 1.000000000000000000e+01
1.101229071617126021e+00 2.707931756973267046e+00 -5.682291984558105469e-01 1.000000000000000000e+01
1.316773772239685059e+00 3.234721899032593218e+00 -5.531522631645202637e-01 9.000000000000000000e+00
1.624768376350403054e+00 3.987339973449707031e+00 -5.286692380905151367e-01 9.000000000000000000e+00
2.106805801391602007e+00 5.167725563049316406e+00 -4.882464706897736151e-01 9.000000000000000000e+00
3.057070732116699219e+00 7.491123199462890625e+00 -4.240259230136870783e-01 2.000000000000000000e+00
5.434144496917724609e+00 1.330268955230713068e+01 -2.508259713649749756e-01 2.000000000000000000e+00
8.492468595504760742e-01 2.071707725524901900e+00 -5.999425649642944336e-01 1.900000000000000000e+01
9.646680355072021484e-01 2.350934982299805132e+00 -5.866723656654357910e-01 1.000000000000000000e+01
1.113930821418761985e+00 2.713345766067504883e+00 -5.701372623443603516e-01 1.100000000000000000e+01
1.327493190765381081e+00 3.230337381362915039e+00 -5.531522631645202637e-01 9.000000000000000000e+00
1.641002655029297097e+00 3.989273548126221147e+00 -5.296441912651062012e-01 1.000000000000000000e+01
2.124689340591431108e+00 5.162553310394287109e+00 -4.884207844734191895e-01 9.000000000000000000e+00
3.075809240341186968e+00 7.466170787811279297e+00 -4.231885373592377264e-01 2.000000000000000000e+00
5.466030597686767578e+00 1.325501728057860973e+01 -2.502675056457520086e-01 2.000000000000000000e+00
8.564733266830444336e-01 2.068730592727661133e+00 -5.999425649642944336e-01 1.900000000000000000e+01
9.743605852127075195e-01 2.351153850555419922e+00 -5.875721573829650879e-01 1.100000000000000000e+01
1.127155065536499023e+00 2.718508720397949219e+00 -5.720453858375549316e-01 1.100000000000000000e+01
1.338761091232300027e+00 3.225683927536011186e+00 -5.531522631645202637e-01 9.000000000000000000e+00
1.653394699096679910e+00 3.979854583740233931e+00 -5.291566848754882812e-01 1.000000000000000000e+01
2.144226312637329102e+00 5.158784866333007812e+00 -4.887694120407103937e-01 9.000000000000000000e+00
3.095714569091796875e+00 7.440636634826660156e+00 -4.223511815071105957e-01 2.000000000000000000e+00
5.499965190887451172e+00 1.320631980895995916e+01 -2.497090250253677091e-01 2.000000000000000000e+00
8.670532107353210449e-01 2.074791431427001953e+00 -6.025307178497314453e-01 2.000000000000000000e+01
9.776397943496704102e-01 2.337123155593872070e+00 -5.848727226257324219e-01 1.200000000000000000e+01
1.130858182907104048e+00 2.702078580856322798e+00 -5.693740248680114746e-01 9.000000000000000000e+00
1.349450588226317915e+00 3.221226692199707031e+00 -5.531522631645202637e-01 9.000000000000000000e+00
1.668118596076965110e+00 3.978011369705200195e+00 -5.296441912651062012e-01 9.000000000000000000e+00
2.169029712677001953e+00 5.170018672943115234e+00 -4.905125200748444159e-01 9.000000000000000000e+00
3.120371580123900923e+00 7.430329799652099609e+00 -4.223511815071105957e-01 2.000000000000000000e+00
5.532879829406738281e+00 1.316220092773438033e+01 -2.492203712463378906e-01 2.000000000000000000e+00
8.697836399078369141e-01 2.061073064804077148e+00 -5.994248986244201660e-01 1.900000000000000000e+01
9.873085021972656250e-01 2.337286472320557085e+00 -5.857725739479064941e-01 1.100000000000000000e+01
1.138754725456238015e+00 2.694498062133789062e+00 -5.686107873916625977e-01 9.000000000000000000e+00
1.366073846817017046e+00 3.229231595993041992e+00 -5.553423762321472168e-01 8.000000000000000000e+00
1.675801873207092063e+00 3.957540512084960938e+00 -5.276942849159240723e-01 9.000000000000000000e+00
2.188617706298828125e+00 5.166084766387938565e+00 -4.908611476421356201e-01 9.000000000000000000e+00
3.160324573516846147e+00 7.452489852905273438e+00 -4.242352545261383057e-01 2.000000000000000000e+00
5.578790664672851562e+00 1.314280700683593928e+01 -2.492203712463378906e-01 2.000000000000000000e+00
8.766136169433593750e-01 2.058177471160889116e+00 -5.994248986244201660e-01 1.800000000000000000e+01
9.965822696685791016e-01 2.337584972381591797e+00 -5.866723656654357910e-01 1.100000000000000000e+01
1.149994492530822976e+00 2.696124553680419922e+00 -5.697556734085083008e-01 1.100000000000000000e+01
1.372896552085876021e+00 3.215600252151488814e+00 -5.537779927253723145e-01 9.000000000000000000e+00
1.695157170295715110e+00 3.966564655303955078e+00 -5.296441912651062012e-01 9.000000000000000000e+00
2.196337461471558061e+00 5.136815071105957031e+00 -4.887694120407103937e-01 9.000000000000000000e+00
3.180305480957030806e+00 7.430952072143554688e+00 -4.236072301864624023e-01 1.000000000000000000e+00
5.606594085693359375e+00 1.308747291564941051e+01 -2.485222667455672940e-01 2.000000000000000000e+00
8.822662830352783203e-01 2.051555633544921875e+00 -5.983896255493164062e-01 1.800000000000000000e+01
1.009358882904052956e+00 2.344831705093383789e+00 -5.893717408180236816e-01 1.000000000000000000e+01
1.160951852798461914e+00 2.695700168609619141e+00 -5.705189108848571777e-01 1.000000000000000000e+01
1.377856850624084029e+00 3.196276187896728960e+00 -5.512750744819641113e-01 9.000000000000000000e+00
1.708206295967102051e+00 3.958800554275513139e+00 -5.294004082679748535e-01 7.000000000000000000e+00
2.215834379196166992e+00 5.132775783538818359e+00 -4.891180396080017090e-01 9.000000000000000000e+00
3.199887037277222124e+00 7.405138015747070312e+00 -4.227698445320128839e-01 1.000000000000000000e+00
5.636366844177246094e+00 1.303111457824707031e+01 -2.478241771459578913e-01 2.000000000000000000e+00
8.894221186637878418e-01 2.048463344573975053e+00 -5.983896255493164062e-01 1.700000000000000000e+01
1.009770274162292036e+00 2.323421478271483931e+00 -5.848727226257324219e-01 1.100000000000000000e+01
1.171137452125549094e+00 2.693431615829468218e+00 -5.709004998207092285e-01 1.100000000000000000e+01
1.394523739814758079e+00 3.204126119613647017e+00 -5.534651279449462891e-01 9.000000000000000000e+00
1.722807526588439941e+00 3.954633712768555132e+00 -5.296441912651062012e-01 9.000000000000000000e+00
2.234533786773682085e+00 5.126836299896240234e+00 -4.892923533916472834e-01 8.000000000000000000e+00
3.216132640838623047e+00 7.371955871582031250e+00 -4.215137958526610773e-01 2.000000000000000000e+00
5.257683753967285156e+00 1.204009056091308949e+01 -2.293246239423752109e-01 2.000000000000000000e+00
9.027718305587768555e-01 2.059500932693481001e+00 -6.025307178497314453e-01 1.500000000000000000e+01
1.019440412521362083e+00 2.323451757431029829e+00 -5.857725739479064941e-01 1.100000000000000000e+01
1.181321263313293013e+00 2.691124916076660156e+00 -5.712821483612060547e-01 1.000000000000000000e+01
1.403315901756287065e+00 3.193813323974608931e+00 -5.525265336036682129e-01 9.000000000000000000e+00
1.736601233482361062e+00 3.948595762252808061e+00 -5.296441912651062012e-01 9.000000000000000000e+00
2.256428241729735884e+00 5.128123283386229581e+00 -4.901638925075531006e-01 9.000000000000000000e+00
3.249896287918090820e+00 7.378962993621826172e+00 -4.225605130195618231e-01 2.000000000000000000e+00
5.715909957885742188e+00 1.296583175659180043e+01 -2.473355084657669067e-01 2.000000000000000000e+00
9.076100587844848633e-01 2.051037311553955078e+00 -6.009778380393981934e-01 1.600000000000000000e+01
1.027544498443603960e+00 2.319879055023192915e+00 -5.857725739479064941e-01 1.100000000000000000e+01
1.185935378074645996e+00 2.676215410232543945e+00 -5.689924359321594238e-01 1.000000000000000000e+01
1.420062422752379927e+00 3.201535224914550781e+00 -5.547165870666503906e-01 9.000000000000000000e+00
1.743929743766784890e+00 3.927995443344116211e+00 -5.276942849159240723e-01 9.000000000000000000e+00
2.271079778671265093e+00 5.112932205200195312e+00 -4.894666373729705811e-01 9.000000000000000000e+00
3.272388219833374023e+00 7.360273361206054688e+00 -4.221418201923369806e-01 2.000000000000000000e+00
5.764386653900145596e+00 1.295310783386229936e+01 -2.474751174449920932e-01 2.000000000000000000e+00
9.124002456665039062e-01 2.042564868927001953e+00 -5.994248986244201660e-01 1.500000000000000000e+01
1.037227034568787065e+00 2.319836139678955078e+00 -5.866723656654357910e-01 1.000000000000000000e+01
1.196873188018799050e+00 2.675643682479857954e+00 -5.697556734085083008e-01 9.000000000000000000e+00
1.427193045616149902e+00 3.187544345855712891e+00 -5.531522631645202637e-01 9.000000000000000000e+00
1.760877728462219016e+00 3.929130077362060991e+00 -5.286692380905151367e-01 9.000000000000000000e+00
2.284022569656372070e+00 5.094065189361572266e+00 -4.884207844734191895e-01 9.000000000000000000e+00
3.304602622985839844e+00 7.363383293151854581e+00 -4.229792058467864990e-01 2.000000000000000000e+00
5.793178081512451172e+00 1.289642524719237926e+01 -2.467770278453826904e-01 2.000000000000000000e+00
9.207561612129211426e-01 2.043050527572631836e+00 -6.004601716995239258e-01 1.600000000000000000e+01
1.046516776084899902e+00 2.319936513900756836e+00 -5.875721573829650879e-01 1.000000000000000000e+01
1.205739378929137962e+00 2.671659946441649947e+00 -5.697556734085083008e-01 1.000000000000000000e+01
1.437755465507507102e+00 3.182794094085692915e+00 -5.531522631645202637e-01 9.000000000000000000e+00
1.778804540634155051e+00 3.934121847152709961e+00 -5.301316380500793457e-01 9.000000000000000000e+00
2.300902605056763139e+00 5.086463451385498047e+00 -4.884207844734191895e-01 9.000000000000000000e+00
3.317469120025635210e+00 7.326911926269531250e+00 -4.215137958526610773e-01 2.000000000000000000e+00
5.852421283721923828e+00 1.291357135772705078e+01 -2.474751174449920932e-01 2.000000000000000000e+00
9.254824519157409668e-01 2.034548759460449219e+00 -5.989072918891906738e-01 1.500000000000000000e+01
1.049763441085814986e+00 2.305628061294556108e+00 -5.848727226257324219e-01 1.100000000000000000e+01
1.218313217163085938e+00 2.674581289291381836e+00 -5.712821483612060547e-01 1.000000000000000000e+01
1.448037147521973100e+00 3.175958633422852007e+00 -5.528393983840942383e-01 8.000000000000000000e+00
1.787581443786621094e+00 3.917053222656250000e+00 -5.286692380905151367e-01 9.000000000000000000e+00
2.325263500213623047e+00 5.092899799346923828e+00 -4.898152649402617853e-01 9.000000000000000000e+00
3.357967138290404829e+00 7.347985267639160156e+00 -4.233978986740111750e-01 2.000000000000000000e+00
5.897462368011474609e+00 1.289306354522705078e+01 -2.474751174449920932e-01 2.000000000000000000e+00
9.374148845672607422e-01 2.041839838027954102e+00 -6.020131111145019531e-01 1.600000000000000000e+01
1.057805180549622026e+00 2.301949739456177202e+00 -5.848727226257324219e-01 1.100000000000000000e+01
1.225181698799133079e+00 2.664961099624633789e+00 -5.701372623443603516e-01 1.000000000000000000e+01
1.459940314292907937e+00 3.172679185867310014e+00 -5.531522631645202637e-01 9.000000000000000000e+00
1.796260952949523926e+00 3.899971246719359907e+00 -5.272067785263061523e-01 9.000000000000000000e+00
2.344694614410399947e+00 5.088371276855468750e+00 -4.901638925075531006e-01 9.000000000000000000e+00
3.368539333343505859e+00 7.303573608398438388e+00 -4.215137958526610773e-01 2.000000000000000000e+00
5.925668716430664062e+00 1.283608818054199041e+01 -2.467770278453826904e-01 2.000000000000000000e+00
9.404757618904113770e-01 2.029790878295897993e+00 -5.994248986244201660e-01 1.600000000000000000e+01
1.070753216743469016e+00 2.308850526809691939e+00 -5.875721573829650879e-01 1.100000000000000000e+01
1.234476685523987038e+00 2.660668134689331055e+00 -5.701372623443603516e-01 9.000000000000000000e+00
1.474334239959717019e+00 3.174730062484741211e+00 -5.544037222862243652e-01 9.000000000000000000e+00
1.819904327392577903e+00 3.915278911590576172e+00 -5.301316380500793457e-01 9.000000000000000000e+00
2.359921693801879883e+00 5.074736118316650391e+00 -4.896409511566162109e-01 9.000000000000000000e+00
3.394012928009033203e+00 7.291770458221436435e+00 -4.215137958526610773e-01 1.000000000000000000e+00
5.961994171142578125e+00 1.279719924926757990e+01 -2.464279830455780029e-01 2.000000000000000000e+00
9.500101208686828613e-01 2.031745672225952148e+00 -6.009778380393981934e-01 1.900000000000000000e+01
1.077154040336609109e+00 2.301568746566772017e+00 -5.866723656654357910e-01 1.100000000000000000e+01
1.242924094200134055e+00 2.654564857482910156e+00 -5.697556734085083008e-01 1.000000000000000000e+01
1.482053995132446067e+00 3.162409543991088867e+00 -5.531522631645202637e-01 9.000000000000000000e+00
1.830188035964966042e+00 3.901713609695435014e+00 -5.291566848754882812e-01 9.000000000000000000e+00
2.370003461837768999e+00 5.050234317779541016e+00 -4.880721569061278742e-01 9.000000000000000000e+00
3.434729576110839844e+00 7.312418460845947266e+00 -4.233978986740111750e-01 2.000000000000000000e+00
5.994717597961425781e+00 1.275097370147705078e+01 -2.459393143653869906e-01 2.000000000000000000e+00
9.529745578765869141e-01 2.019681453704833984e+00 -5.983896255493164062e-01 1.700000000000000000e+01
1.088510274887084961e+00 2.304843187332152876e+00 -5.884719491004943848e-01 1.100000000000000000e+01
1.255537509918212891e+00 2.657310247421265093e+00 -5.712821483612060547e-01 1.000000000000000000e+01
1.489705801010132058e+00 3.150074005126953125e+00 -5.519008040428161621e-01 9.000000000000000000e+00
1.847193479537964089e+00 3.902478218078612837e+00 -5.301316380500793457e-01 9.000000000000000000e+00
2.391028642654418945e+00 5.049133777618408203e+00 -4.887694120407103937e-01 9.000000000000000000e+00
3.444835901260375977e+00 7.267898559570313388e+00 -4.215137958526610773e-01 2.000000000000000000e+00
6.023762226104736328e+00 1.269745063781737926e+01 -2.453110218048095981e-01 2.000000000000000000e+00
9.616796970367431641e-01 2.019831180572510210e+00 -5.994248986244201660e-01 1.600000000000000000e+01
1.089842319488524947e+00 2.286956071853638139e+00 -5.848727226257324219e-01 1.200000000000000000e+01
1.260581135749816895e+00 2.644050836563109907e+00 -5.693740248680114746e-01 9.000000000000000000e+00
1.505797028541564941e+00 3.155551433563231978e+00 -5.537779927253723145e-01 9.000000000000000000e+00
1.853960156440735085e+00 3.881676435470581055e+00 -5.281817317008972168e-01 9.000000000000000000e+00
2.405202865600585938e+00 5.033565998077392578e+00 -4.880721569061278742e-01 9.000000000000000000e+00
3.459843873977661133e+00 7.234207630157470703e+00 -4.202577173709868830e-01 2.000000000000000000e+00
6.069774627685546875e+00 1.267995357513427912e+01 -2.453808337450026911e-01 2.000000000000000000e+00
9.720705747604370117e-01 2.023427248001099077e+00 -6.014954447746276855e-01 1.700000000000000000e+01
1.096129655838012917e+00 2.279625177383422852e+00 -5.839729309082031250e-01 1.100000000000000000e+01
1.272356152534485085e+00 2.644942045211791992e+00 -5.705189108848571777e-01 1.000000000000000000e+01
1.513374924659729004e+00 3.143156766891479048e+00 -5.525265336036682129e-01 9.000000000000000000e+00
1.863189458847045898e+00 3.866239786148070845e+00 -5.269630551338195801e-01 1.000000000000000000e+01
2.427950143814086914e+00 5.035907745361328125e+00 -4.891180396080017090e-01 9.000000000000000000e+00
3.495491027832030806e+00 7.243671894073486328e+00 -4.215137958526610773e-01 2.000000000000000000e+00
6.112259387969970703e+00 1.265508747100830078e+01 -2.453110218048095981e-01 2.000000000000000000e+00
9.791277050971984863e-01 2.020021915435791016e+00 -6.014954447746276855e-01 1.700000000000000000e+01
1.107482790946960005e+00 2.282798290252685991e+00 -5.857725739479064941e-01 1.100000000000000000e+01
1.276437520980834961e+00 2.629887342453002930e+00 -5.682291984558105469e-01 1.000000000000000000e+01
1.529516339302062988e+00 3.148515939712523970e+00 -5.544037222862243652e-01 9.000000000000000000e+00
1.882750034332274947e+00 3.872209310531616211e+00 -5.286692380905151367e-01 9.000000000000000000e+00
2.446385383605957031e+00 5.029193401336669922e+00 -4.892923533916472834e-01 9.000000000000000000e+00
3.524252176284790039e+00 7.238609313964843750e+00 -4.219324886798859198e-01 1.000000000000000000e+00
6.149388790130615234e+00 1.261929416656493963e+01 -2.450317889451980868e-01 2.000000000000000000e+00
9.844756126403808594e-01 2.013120889663695845e+00 -6.004601716995239258e-01 1.700000000000000000e+01
1.120584726333617942e+00 2.289420604705810991e+00 -5.884719491004943848e-01 1.100000000000000000e+01
1.284746289253235085e+00 2.623652458190917969e+00 -5.678475499153137207e-01 9.000000000000000000e+00
1.540497422218322976e+00 3.143157720565795898e+00 -5.544037222862243652e-01 9.000000000000000000e+00
1.901500582695007102e+00 3.876307010650635210e+00 -5.301316380500793457e-01 9.000000000000000000e+00
2.459536790847777876e+00 5.011680126190186435e+00 -4.884207844734191895e-01 9.000000000000000000e+00
3.542453765869141069e+00 7.211921691894531250e+00 -4.210951030254364014e-01 1.000000000000000000e+00
6.193400859832763672e+00 1.259775161743164062e+01 -2.450317889451980868e-01 2.000000000000000000e+00
9.902914762496948242e-01 2.008112430572510210e+00 -5.999425649642944336e-01 1.600000000000000000e+01
1.126445531845092995e+00 2.282196998596190962e+00 -5.875721573829650879e-01 1.100000000000000000e+01
1.298655033111572044e+00 2.629939556121826172e+00 -5.701372623443603516e-01 9.000000000000000000e+00
1.544785380363463911e+00 3.125635623931885210e+00 -5.522136688232421875e-01 9.000000000000000000e+00
1.914344429969788042e+00 3.869980096817017046e+00 -5.301316380500793457e-01 9.000000000000000000e+00
2.475259065628052202e+00 5.001710891723632812e+00 -4.882464706897736151e-01 8.000000000000000000e+00
3.564576864242554155e+00 7.196555614471436435e+00 -4.208857715129851740e-01 1.000000000000000000e+00
6.217378616333007812e+00 1.254131221771240057e+01 -2.443336844444274902e-01 2.000000000000000000e+00
9.964345693588256836e-01 2.002913951873778853e+00 -5.994248986244201660e-01 1.500000000000000000e+01
1.130061984062195046e+00 2.269528865814208984e+00 -5.853226184844970703e-01 1.100000000000000000e+01
1.308702707290648970e+00 2.627147674560546875e+00 -5.705189108848571777e-01 1.000000000000000000e+01
1.554805040359497070e+00 3.118456363677978960e+00 -5.519008040428161621e-01 9.000000000000000000e+00
1.921636939048767090e+00 3.850840568542480025e+00 -5.284254550933837891e-01 1.000000000000000000e+01
2.498042821884154829e+00 5.003735542297363281e+00 -4.892923533916472834e-01 9.000000000000000000e+00
3.580748558044434038e+00 7.166202545166015625e+00 -4.198390543460845947e-01 2.000000000000000000e+00
6.270062446594238281e+00 1.253741741180419922e+01 -2.446827441453933993e-01 2.000000000000000000e+00
1.008103013038635032e+00 2.007880687713623047e+00 -6.020131111145019531e-01 1.600000000000000000e+01
1.136622667312622070e+00 2.261889219284058061e+00 -5.844228267669677734e-01 1.200000000000000000e+01
1.319204807281493919e+00 2.624087572097777876e+00 -5.709004998207092285e-01 1.100000000000000000e+01
1.574215292930603027e+00 3.128618240356444868e+00 -5.547165870666503906e-01 8.000000000000000000e+00
1.938416719436645952e+00 3.849090576171875000e+00 -5.291566848754882812e-01 9.000000000000000000e+00
2.520847797393798828e+00 5.003442764282226562e+00 -4.901638925075531006e-01 9.000000000000000000e+00
3.612385511398314986e+00 7.163730621337890625e+00 -4.204670786857604980e-01 2.000000000000000000e+00
6.306962490081787109e+00 1.249650096893311080e+01 -2.443336844444274902e-01 2.000000000000000000e+00
1.014232873916625977e+00 2.002625942230225053e+00 -6.014954447746276855e-01 1.600000000000000000e+01
1.148035526275634988e+00 2.264860630035399947e+00 -5.862224698066711426e-01 1.200000000000000000e+01
1.325692653656006081e+00 2.614213705062866211e+00 -5.697556734085083008e-01 1.000000000000000000e+01
1.587808728218079057e+00 3.128388643264770952e+00 -5.556552410125732422e-01 9.000000000000000000e+00
1.952739834785460982e+00 3.844070672988892046e+00 -5.294004082679748535e-01 1.000000000000000000e+01
2.536492347717285156e+00 4.991060733795166016e+00 -4.898152649402617853e-01 9.000000000000000000e+00
3.635558605194091797e+00 7.147516727447509766e+00 -4.202577173709868830e-01 2.000000000000000000e+00
6.345101833343505859e+00 1.246371650695800959e+01 -2.441242635250092108e-01 2.000000000000000000e+00
1.015596985816956010e+00 1.988928556442260964e+00 -5.983896255493164062e-01 1.800000000000000000e+01
1.160860657691956010e+00 2.271452665328979048e+00 -5.889218449592590332e-01 1.000000000000000000e+01
1.333460688591002974e+00 2.608055114746094194e+00 -5.693740248680114746e-01 9.000000000000000000e+00
1.594574570655822976e+00 3.116071939468383789e+00 -5.544037222862243652e-01 9.000000000000000000e+00
1.960951805114746094e+00 3.828739643096923828e+00 -5.281817317008972168e-01 9.000000000000000000e+00
2.553029537200928178e+00 4.982622146606445312e+00 -4.898152649402617853e-01 9.000000000000000000e+00
3.670177221298218218e+00 7.156747817993164062e+00 -4.215137958526610773e-01 2.000000000000000000e+00
6.391876697540283203e+00 1.245328140258789062e+01 -2.443336844444274902e-01 2.000000000000000000e+00
1.026956081390381081e+00 1.993958592414855957e+00 -6.009778380393981934e-01 1.900000000000000000e+01
1.165210962295532005e+00 2.260458230972290039e+00 -5.871222615242004395e-01 1.100000000000000000e+01
1.348855257034301980e+00 2.615598917007445845e+00 -5.720453858375549316e-01 1.000000000000000000e+01
1.603629946708678977e+00 3.106976270675659180e+00 -5.537779927253723145e-01 9.000000000000000000e+00
1.985237598419189009e+00 3.843035459518433061e+00 -5.311065912246704102e-01 9.000000000000000000e+00
2.567662239074707031e+00 4.968369960784912109e+00 -4.892923533916472834e-01 8.000000000000000000e+00
3.691466331481934038e+00 7.136796951293945312e+00 -4.210951030254364014e-01 2.000000000000000000e+00
6.422437191009520596e+00 1.240603160858153942e+01 -2.438450157642365057e-01 2.000000000000000000e+00
1.032129049301147017e+00 1.986932992935181108e+00 -5.999425649642944336e-01 1.900000000000000000e+01
1.171296477317810059e+00 2.252918958663939986e+00 -5.862224698066711426e-01 1.000000000000000000e+01
1.357977151870727983e+00 2.610874652862548828e+00 -5.720453858375549316e-01 1.000000000000000000e+01
1.608992815017699973e+00 3.090846538543701172e+00 -5.519008040428161621e-01 9.000000000000000000e+00
1.993136882781981978e+00 3.825519323348999023e+00 -5.296441912651062012e-01 9.000000000000000000e+00
2.576701402664185014e+00 4.943475723266601562e+00 -4.877235293388367254e-01 9.000000000000000000e+00
3.705270528793334961e+00 7.102618694305419922e+00 -4.198390543460845947e-01 2.000000000000000000e+00
6.450894832611083984e+00 1.235517597198485973e+01 -2.432865500450134000e-01 2.000000000000000000e+00
1.043540954589843972e+00 1.991874217987060991e+00 -6.025307178497314453e-01 1.900000000000000000e+01
1.180963397026062012e+00 2.252268314361571822e+00 -5.871222615242004395e-01 1.100000000000000000e+01
1.361610531806946023e+00 2.595687150955200195e+00 -5.697556734085083008e-01 1.100000000000000000e+01
1.623445034027100053e+00 3.092207193374633789e+00 -5.531522631645202637e-01 9.000000000000000000e+00
2.000938177108765093e+00 3.807995080947875977e+00 -5.281817317008972168e-01 9.000000000000000000e+00
2.600430965423583984e+00 4.946796417236328125e+00 -4.889437258243560791e-01 9.000000000000000000e+00
3.733760595321654829e+00 7.096711635589599609e+00 -4.202577173709868830e-01 1.000000000000000000e+00
6.505163669586181641e+00 1.235381507873534979e+01 -2.437054067850112915e-01 2.000000000000000000e+00
1.045975208282470925e+00 1.979678988456726074e+00 -5.999425649642944336e-01 1.900000000000000000e+01
1.190640091896056907e+00 2.251577854156494141e+00 -5.880220532417297363e-01 1.200000000000000000e+01
1.369744896888732910e+00 2.589182853698730025e+00 -5.693740248680114746e-01 1.000000000000000000e+01
1.637926340103148970e+00 3.093504428863524947e+00 -5.544037222862243652e-01 9.000000000000000000e+00
2.022583723068236861e+00 3.816773653030395952e+00 -5.303753614425659180e-01 1.000000000000000000e+01
2.621415615081787109e+00 4.944730281829833984e+00 -4.896409511566162109e-01 9.000000000000000000e+00
3.751021146774291992e+00 7.069520950317382812e+00 -4.194203615188599188e-01 2.000000000000000000e+00
6.551998138427734375e+00 1.233809757232666016e+01 -2.438450157642365057e-01 2.000000000000000000e+00
1.053787589073180930e+00 1.977720737457274947e+00 -6.004601716995239258e-01 2.000000000000000000e+01
1.202160239219665971e+00 2.254286050796508789e+00 -5.898216366767883301e-01 1.100000000000000000e+01
1.376926183700561968e+00 2.580921649932860884e+00 -5.686107873916625977e-01 9.000000000000000000e+00
1.646853804588318093e+00 3.084283113479613814e+00 -5.537779927253723145e-01 9.000000000000000000e+00
2.036829948425292969e+00 3.811440944671630859e+00 -5.306191444396972656e-01 1.000000000000000000e+01
2.631145000457764116e+00 4.921493053436279297e+00 -4.882464706897736151e-01 9.000000000000000000e+00
3.786982774734497070e+00 7.077516555786132812e+00 -4.206764101982117254e-01 2.000000000000000000e+00
6.595026493072509766e+00 1.231515121459960938e+01 -2.438450157642365057e-01 2.000000000000000000e+00
1.055426597595215066e+00 1.965890049934386985e+00 -5.978720188140869141e-01 1.900000000000000000e+01
1.209236264228821023e+00 2.250498056411743164e+00 -5.898216366767883301e-01 1.100000000000000000e+01
1.389675378799438032e+00 2.585229396820067915e+00 -5.705189108848571777e-01 9.000000000000000000e+00
1.652791619300842063e+00 3.072135686874390093e+00 -5.525265336036682129e-01 9.000000000000000000e+00
2.050676107406616211e+00 3.808518886566162109e+00 -5.311065912246704102e-01 1.000000000000000000e+01
2.650372982025146040e+00 4.920219421386718750e+00 -4.889437258243560791e-01 9.000000000000000000e+00
3.803511857986450195e+00 7.055036067962645596e+00 -4.200483858585358221e-01 2.000000000000000000e+00
6.618489742279052734e+00 1.226621341705322088e+01 -2.432865500450134000e-01 2.000000000000000000e+00
1.065041661262511985e+00 1.967290520668030007e+00 -5.994248986244201660e-01 1.800000000000000000e+01
1.209657669067383035e+00 2.232556343078612837e+00 -5.862224698066711426e-01 1.100000000000000000e+01
1.401497721672058105e+00 2.585540771484375000e+00 -5.716637372970581055e-01 9.000000000000000000e+00
1.665389299392699973e+00 3.069820404052733931e+00 -5.531522631645202637e-01 9.000000000000000000e+00
2.052591562271118164e+00 3.780403137207030806e+00 -5.281817317008972168e-01 9.000000000000000000e+00
2.668482542037963867e+00 4.912688732147216797e+00 -4.891180396080017090e-01 9.000000000000000000e+00
3.814760446548461914e+00 7.017149925231933594e+00 -4.185829758644104004e-01 2.000000000000000000e+00
6.638329505920410156e+00 1.220087909698485973e+01 -2.424488365650177002e-01 2.000000000000000000e+00
1.076530456542968972e+00 1.972039103507996050e+00 -6.020131111145019531e-01 1.900000000000000000e+01
1.216509103775023970e+00 2.226609945297241211e+00 -5.857725739479064941e-01 1.200000000000000000e+01
1.407689690589905007e+00 2.575464725494385210e+00 -5.705189108848571777e-01 1.000000000000000000e+01
1.674198746681212935e+00 3.060522317886352983e+00 -5.525265336036682129e-01 9.000000000000000000e+00
2.065774917602539062e+00 3.773215293884276900e+00 -5.281817317008972168e-01 1.000000000000000000e+01
2.689443111419678178e+00 4.910333633422851562e+00 -4.898152649402617853e-01 6.000000000000000000e+00
3.854592323303223100e+00 7.031813621520996094e+00 -4.202577173709868830e-01 2.000000000000000000e+00
6.703962326049804688e+00 1.221970939636229936e+01 -2.432865500450134000e-01 2.000000000000000000e+00
1.080613017082213911e+00 1.963192105293273926e+00 -6.004601716995239258e-01 2.000000000000000000e+01
1.228975534439086914e+00 2.230884313583374023e+00 -5.880220532417297363e-01 1.000000000000000000e+01
1.416671156883239968e+00 2.570535182952880859e+00 -5.705189108848571777e-01 1.100000000000000000e+01
1.694412350654602051e+00 3.071956634521483931e+00 -5.556552410125732422e-01 9.000000000000000000e+00
2.086608409881591797e+00 3.779884338378905806e+00 -5.301316380500793457e-01 9.000000000000000000e+00
2.704640626907349077e+00 4.897427558898925781e+00 -4.894666373729705811e-01 9.000000000000000000e+00
3.871385097503662109e+00 7.004331588745117188e+00 -4.194203615188599188e-01 2.000000000000000000e+00
6.721409797668457031e+00 1.215073871612549006e+01 -2.423790246248244962e-01 2.000000000000000000e+00
1.085584282875061035e+00 1.956029772758484109e+00 -5.994248986244201660e-01 1.700000000000000000e+01
1.236755251884460005e+00 2.226580858230590820e+00 -5.880220532417297363e-01 1.100000000000000000e+01
1.420867323875427024e+00 2.556993961334228960e+00 -5.686107873916625977e-01 1.100000000000000000e+01
1.699364662170409934e+00 3.055665254592895952e+00 -5.537779927253723145e-01 9.000000000000000000e+00
2.093997240066527876e+00 3.762170553207397017e+00 -5.286692380905151367e-01 9.000000000000000000e+00
2.717842340469359907e+00 4.880993843078613281e+00 -4.887694120407103937e-01 9.000000000000000000e+00
3.915256261825561968e+00 7.025668144226074219e+00 -4.215137958526610773e-01 2.000000000000000000e+00
6.750145912170410156e+00 1.210275268554688033e+01 -2.418903559446335116e-01 2.000000000000000000e+00
1.093348860740662065e+00 1.953914403915405051e+00 -5.999425649642944336e-01 1.900000000000000000e+01
1.241663336753844993e+00 2.217149496078491211e+00 -5.866723656654357910e-01 1.200000000000000000e+01
1.434582114219665971e+00 2.560582399368286133e+00 -5.705189108848571777e-01 1.000000000000000000e+01
1.706156134605407937e+00 3.042822599411011186e+00 -5.525265336036682129e-01 9.000000000000000000e+00
2.120717525482178178e+00 3.779074192047119141e+00 -5.320815443992614746e-01 1.000000000000000000e+01
2.729986906051636186e+00 4.862790584564208984e+00 -4.878978431224822998e-01 9.000000000000000000e+00
3.918233156204224077e+00 6.973650932312011719e+00 -4.192110002040863037e-01 2.000000000000000000e+00
6.802152633666992188e+00 1.209654617309569957e+01 -2.422394007444381991e-01 2.000000000000000000e+00
1.104566931724547896e+00 1.958691596984863059e+00 -6.025307178497314453e-01 1.900000000000000000e+01
1.249966740608215110e+00 2.214716911315917969e+00 -5.871222615242004395e-01 1.100000000000000000e+01
1.446926474571228027e+00 2.562649250030518022e+00 -5.720453858375549316e-01 1.100000000000000000e+01
1.718180656433105025e+00 3.040587663650513139e+00 -5.531522631645202637e-01 9.000000000000000000e+00
2.125420093536376953e+00 3.758197784423828125e+00 -5.301316380500793457e-01 9.000000000000000000e+00
2.754927396774291992e+00 4.869317531585693359e+00 -4.894666373729705811e-01 9.000000000000000000e+00
3.939368963241577148e+00 6.957143306732177734e+00 -4.190016686916350763e-01 2.000000000000000000e+00
6.836313247680664062e+00 1.206348514556884943e+01 -2.420299798250198087e-01 2.000000000000000000e+00
1.111397266387939009e+00 1.954823970794677956e+00 -6.025307178497314453e-01 1.900000000000000000e+01
1.255762338638306108e+00 2.206952571868896040e+00 -5.862224698066711426e-01 1.100000000000000000e+01
1.451978087425231934e+00 2.550758361816405806e+00 -5.705189108848571777e-01 1.000000000000000000e+01
1.727806091308593972e+00 3.032855272293090820e+00 -5.528393983840942383e-01 9.000000000000000000e+00
2.136559247970581055e+00 3.747306585311890093e+00 -5.296441912651062012e-01 9.000000000000000000e+00
2.780791997909545898e+00 4.875247478485107422e+00 -4.910354614257813055e-01 8.000000000000000000e+00
3.963629961013793945e+00 6.943350315093994141e+00 -4.190016686916350763e-01 2.000000000000000000e+00
6.872429370880126953e+00 1.202912998199463068e+01 -2.418205440044403076e-01 2.000000000000000000e+00
1.116972565650939941e+00 1.947190642356873003e+00 -6.014954447746276855e-01 2.000000000000000000e+01
1.266167640686034934e+00 2.205494642257689986e+00 -5.871222615242004395e-01 1.100000000000000000e+01
1.456872820854187012e+00 2.536652088165283203e+00 -5.686107873916625977e-01 1.200000000000000000e+01
1.744360685348510964e+00 3.034761667251586914e+00 -5.544037222862243652e-01 9.000000000000000000e+00
2.146972656250000000e+00 3.732192516326903853e+00 -5.286692380905151367e-01 9.000000000000000000e+00
2.798497200012207031e+00 4.862807273864746094e+00 -4.908611476421356201e-01 9.000000000000000000e+00
3.996242046356201172e+00 6.938464164733886719e+00 -4.196296930313109796e-01 2.000000000000000000e+00
6.902588844299316406e+00 1.197493362426757990e+01 -2.412620633840560913e-01 2.000000000000000000e+00
1.116026043891906960e+00 1.929901003837585005e+00 -5.973543524742126465e-01 1.700000000000000000e+01
1.277763128280640093e+00 2.207808017730712891e+00 -5.889218449592590332e-01 1.100000000000000000e+01
1.470636963844299094e+00 2.540046215057373047e+00 -5.705189108848571777e-01 1.100000000000000000e+01
1.754943251609802024e+00 3.028654336929320845e+00 -5.544037222862243652e-01 9.000000000000000000e+00
2.165962457656859907e+00 3.734978914260863814e+00 -5.301316380500793457e-01 1.000000000000000000e+01
2.800457477569580078e+00 4.827158451080322266e+00 -4.882464706897736151e-01 8.000000000000000000e+00
4.020437240600585938e+00 6.924472332000732422e+00 -4.196296930313109796e-01 2.000000000000000000e+00
6.944346904754638672e+00 1.195076656341552912e+01 -2.412620633840560913e-01 2.000000000000000000e+00
1.125000476837157981e+00 1.931393265724181907e+00 -5.989072918891906738e-01 1.600000000000000000e+01
1.282729983329772949e+00 2.200415849685668945e+00 -5.880220532417297363e-01 1.200000000000000000e+01
1.482565641403198020e+00 2.542197227478026900e+00 -5.720453858375549316e-01 1.000000000000000000e+01
1.756483554840087891e+00 3.009477615356444868e+00 -5.519008040428161621e-01 9.000000000000000000e+00
2.181690454483031782e+00 3.735012292861938032e+00 -5.311065912246704102e-01 9.000000000000000000e+00
2.824655532836914062e+00 4.833818435668945312e+00 -4.898152649402617853e-01 9.000000000000000000e+00
4.028055667877197266e+00 6.887670516967773438e+00 -4.181642830371857245e-01 1.000000000000000000e+00
6.973776340484619141e+00 1.191508388519286932e+01 -2.409828305244446078e-01 2.000000000000000000e+00
1.133691787719727007e+00 1.930786371231079102e+00 -5.999425649642944336e-01 1.600000000000000000e+01
1.290403008460998979e+00 2.195924758911132812e+00 -5.880220532417297363e-01 1.100000000000000000e+01
1.494415402412414995e+00 2.542084217071533203e+00 -5.731902122497558594e-01 1.100000000000000000e+01
1.768981218338012917e+00 3.006733179092406782e+00 -5.525265336036682129e-01 9.000000000000000000e+00
2.188671588897705078e+00 3.717110395431518999e+00 -5.296441912651062012e-01 9.000000000000000000e+00
2.839488983154296875e+00 4.820496082305908203e+00 -4.894666373729705811e-01 8.000000000000000000e+00
4.052073478698729581e+00 6.873568058013916016e+00 -4.181642830371857245e-01 2.000000000000000000e+00
7.011260986328125000e+00 1.188377952575683949e+01 -2.408432066440581998e-01 2.000000000000000000e+00
1.142392516136168990e+00 1.930142283439636008e+00 -6.009778380393981934e-01 1.400000000000000000e+01
1.298060417175292969e+00 2.191407203674315962e+00 -5.880220532417297363e-01 1.100000000000000000e+01
1.495272994041443093e+00 2.523340225219727007e+00 -5.701372623443603516e-01 1.100000000000000000e+01
1.784504055976867898e+00 3.009035110473632812e+00 -5.540908575057983398e-01 9.000000000000000000e+00
2.198593854904174805e+00 3.704326629638671875e+00 -5.289129614830017090e-01 1.000000000000000000e+01
2.866470336914062944e+00 4.827686309814453125e+00 -4.912097752094268799e-01 9.000000000000000000e+00
4.063798427581787109e+00 6.838778018951416016e+00 -4.169082343578339178e-01 2.000000000000000000e+00
7.038390636444091797e+00 1.183517074584960938e+01 -2.403545379638671875e-01 2.000000000000000000e+00
1.148133277893065962e+00 1.924483776092529075e+00 -6.004601716995239258e-01 1.100000000000000000e+01
1.307699918746948020e+00 2.190209150314331055e+00 -5.889218449592590332e-01 1.200000000000000000e+01
1.504071950912476030e+00 2.518105506896973100e+00 -5.701372623443603516e-01 1.100000000000000000e+01
1.793983101844788042e+00 3.001092195510863814e+00 -5.537779927253723145e-01 9.000000000000000000e+00
2.214568376541138139e+00 3.701740026473999023e+00 -5.296441912651062012e-01 9.000000000000000000e+00
2.878188848495482954e+00 4.809103012084960938e+00 -4.903382062911986750e-01 9.000000000000000000e+00
4.099960803985595703e+00 6.845111846923828125e+00 -4.181642830371857245e-01 1.000000000000000000e+00
7.098165988922119141e+00 1.184140300750732067e+01 -2.409828305244446078e-01 2.000000000000000000e+00
1.145551323890686035e+00 1.905764102935791016e+00 -5.958014130592346191e-01 1.000000000000000000e+01
1.314955711364746094e+00 2.185860633850098100e+00 -5.889218449592590332e-01 1.100000000000000000e+01
1.516463398933411089e+00 2.519832372665404829e+00 -5.716637372970581055e-01 1.200000000000000000e+01
1.802906036376952903e+00 2.993434429168701172e+00 -5.534651279449462891e-01 8.000000000000000000e+00
2.230930805206298828e+00 3.701176404953002930e+00 -5.306191444396972656e-01 9.000000000000000000e+00
2.893091678619385210e+00 4.797826290130615234e+00 -4.901638925075531006e-01 9.000000000000000000e+00
4.120573520660400391e+00 6.828058242797851562e+00 -4.179549515247344971e-01 2.000000000000000000e+00
7.102245330810546875e+00 1.175960063934325994e+01 -2.397960573434829989e-01 2.000000000000000000e+00
1.152196764945984109e+00 1.901753783226012962e+00 -5.958014130592346191e-01 8.000000000000000000e+00
1.322577834129333052e+00 2.181257247924805132e+00 -5.889218449592590332e-01 1.200000000000000000e+01
1.521177172660828081e+00 2.507809162139893022e+00 -5.701372623443603516e-01 1.100000000000000000e+01
1.810268878936768022e+00 2.982057094573975053e+00 -5.525265336036682129e-01 9.000000000000000000e+00
2.241775274276732954e+00 3.689973592758179155e+00 -5.301316380500793457e-01 9.000000000000000000e+00
2.908787012100220171e+00 4.785995483398438388e+00 -4.899895787239075262e-01 8.000000000000000000e+00
4.142307281494140625e+00 6.810220718383789062e+00 -4.177455902099608820e-01 2.000000000000000000e+00
7.143250465393066406e+00 1.173473739624023082e+01 -2.397960573434829989e-01 2.000000000000000000e+00
1.161505222320557085e+00 1.900612473487854004e+00 -5.968367457389831543e-01 8.000000000000000000e+00
1.325859665870666948e+00 2.167850494384766069e+00 -5.866723656654357910e-01 1.200000000000000000e+01
1.534893751144408958e+00 2.508648633956909180e+00 -5.716637372970581055e-01 9.000000000000000000e+00
1.825832009315490945e+00 2.981822967529296875e+00 -5.537779927253723145e-01 9.000000000000000000e+00
2.253852605819702148e+00 3.677953481674193892e+00 -5.296441912651062012e-01 9.000000000000000000e+00
2.937555551528931108e+00 4.791777610778808594e+00 -4.917326867580413818e-01 8.000000000000000000e+00
4.170515060424804688e+00 6.797669887542724609e+00 -4.179549515247344971e-01 2.000000000000000000e+00
7.204997062683104581e+00 1.173448848724365057e+01 -2.403545379638671875e-01 2.000000000000000000e+00
1.179276823997498003e+00 1.914640188217163086e+00 -6.025307178497314453e-01 7.000000000000000000e+00
1.333418726921081987e+00 2.163209199905395952e+00 -5.866723656654357910e-01 1.300000000000000000e+01
1.543641209602355957e+00 2.503275394439696822e+00 -5.716637372970581055e-01 1.100000000000000000e+01
1.838304162025452104e+00 2.978793382644652876e+00 -5.544037222862243652e-01 9.000000000000000000e+00
2.264591217041016069e+00 3.666685581207274947e+00 -5.291566848754882812e-01 9.000000000000000000e+00
2.946933269500731978e+00 4.769629478454589844e+00 -4.905125200748444159e-01 8.000000000000000000e+00
4.196318626403808594e+00 6.786468029022216797e+00 -4.181642830371857245e-01 2.000000000000000000e+00
7.245914459228515625e+00 1.170926761627197088e+01 -2.403545379638671875e-01 2.000000000000000000e+00
1.167975187301635964e+00 1.883017182350158913e+00 -5.937308669090270996e-01 8.000000000000000000e+00
1.347402453422545943e+00 2.170599222183227983e+00 -5.898216366767883301e-01 1.100000000000000000e+01
1.547355055809020996e+00 2.491742372512816939e+00 -5.701372623443603516e-01 1.100000000000000000e+01
1.847653269767761008e+00 2.973003625869750977e+00 -5.544037222862243652e-01 9.000000000000000000e+00
2.281341314315795898e+00 3.667981386184691939e+00 -5.303753614425659180e-01 1.000000000000000000e+01
2.964008092880249023e+00 4.763731002807617188e+00 -4.908611476421356201e-01 9.000000000000000000e+00
4.213395118713378906e+00 6.766469955444335938e+00 -4.177455902099608820e-01 2.000000000000000000e+00
7.291125297546386719e+00 1.170002269744873047e+01 -2.406337857246398926e-01 2.000000000000000000e+00
1.173516988754272017e+00 1.877290606498718040e+00 -5.932132601737976074e-01 9.000000000000000000e+00
1.357038140296936035e+00 2.169186830520629883e+00 -5.907214879989624023e-01 1.200000000000000000e+01
1.555001854896544966e+00 2.484661579132080078e+00 -5.697556734085083008e-01 1.000000000000000000e+01
1.851728439331054910e+00 2.956491231918334961e+00 -5.525265336036682129e-01 9.000000000000000000e+00
2.293076753616333008e+00 3.658313751220703125e+00 -5.301316380500793457e-01 9.000000000000000000e+00
2.971092462539672852e+00 4.738163948059082031e+00 -4.892923533916472834e-01 8.000000000000000000e+00
4.249728679656982422e+00 6.772021770477294922e+00 -4.190016686916350763e-01 2.000000000000000000e+00
7.306396961212158203e+00 1.163385868072509943e+01 -2.397960573434829989e-01 2.000000000000000000e+00
1.182122230529784934e+00 1.876451849937438965e+00 -5.942485332489013672e-01 1.200000000000000000e+01
1.362523198127747026e+00 2.161139726638793945e+00 -5.898216366767883301e-01 1.000000000000000000e+01
1.575186133384705034e+00 2.497484683990478960e+00 -5.739534497261047363e-01 1.100000000000000000e+01
1.862037301063538042e+00 2.950009346008300781e+00 -5.525265336036682129e-01 9.000000000000000000e+00
2.310073375701903853e+00 3.657000303268433061e+00 -5.311065912246704102e-01 9.000000000000000000e+00
2.999321460723876953e+00 4.746291160583496094e+00 -4.912097752094268799e-01 9.000000000000000000e+00
4.260530948638916016e+00 6.736890316009520596e+00 -4.177455902099608820e-01 2.000000000000000000e+00
7.338406562805175781e+00 1.159476566314697088e+01 -2.395168244838714877e-01 2.000000000000000000e+00
1.194877624511718972e+00 1.882099747657776101e+00 -5.973543524742126465e-01 1.800000000000000000e+01
1.363788366317749023e+00 2.146501541137694868e+00 -5.871222615242004395e-01 1.100000000000000000e+01
1.578628778457642046e+00 2.483686685562133789e+00 -5.720453858375549316e-01 1.000000000000000000e+01
1.876564145088196023e+00 2.950158834457397017e+00 -5.537779927253723145e-01 9.000000000000000000e+00
2.322824478149414062e+00 3.648914337158203125e+00 -5.311065912246704102e-01 1.000000000000000000e+01
3.000887870788574219e+00 4.712265014648438388e+00 -4.887694120407103937e-01 9.000000000000000000e+00
4.279727458953857422e+00 6.715240001678466797e+00 -4.173269271850585938e-01 2.000000000000000000e+00
7.404643058776854581e+00 1.160954284667968928e+01 -2.403545379638671875e-01 2.000000000000000000e+00
1.207686781883239968e+00 1.887681245803833008e+00 -6.004601716995239258e-01 1.900000000000000000e+01
1.371272683143615945e+00 2.141727924346923828e+00 -5.871222615242004395e-01 1.100000000000000000e+01
1.584112167358397993e+00 2.473201513290404829e+00 -5.709004998207092285e-01 1.000000000000000000e+01
1.888982772827147993e+00 2.946916341781616211e+00 -5.544037222862243652e-01 9.000000000000000000e+00
2.333403825759888139e+00 3.637442350387572798e+00 -5.306191444396972656e-01 9.000000000000000000e+00
3.030231237411499023e+00 4.721882820129395419e+00 -4.908611476421356201e-01 9.000000000000000000e+00
4.310697078704833984e+00 6.712023735046386719e+00 -4.180596172809600830e-01 3.000000000000000000e+00
7.410524368286132812e+00 1.152979469299316051e+01 -2.392375916242598932e-01 2.000000000000000000e+00
1.212175011634827104e+00 1.880206704139709029e+00 -5.994248986244201660e-01 2.000000000000000000e+01
1.382966399192810059e+00 2.143478155136107954e+00 -5.889218449592590332e-01 1.100000000000000000e+01
1.590606331825255904e+00 2.464357852935791016e+00 -5.701372623443603516e-01 1.100000000000000000e+01
1.901401519775391069e+00 2.943623304367064986e+00 -5.550295114517211914e-01 9.000000000000000000e+00
2.341775894165039062e+00 3.622606515884398970e+00 -5.296441912651062012e-01 9.000000000000000000e+00
3.047777175903319868e+00 4.712949752807617188e+00 -4.910354614257813055e-01 9.000000000000000000e+00
4.331929683685302734e+00 6.693582057952880859e+00 -4.178502857685089111e-01 3.000000000000000000e+00
7.455073833465576172e+00 1.151057052612305043e+01 -2.393772006034851074e-01 2.000000000000000000e+00
1.213142633438109907e+00 1.868075728416443093e+00 -5.968367457389831543e-01 2.100000000000000000e+01
1.390066862106323020e+00 2.138880252838135210e+00 -5.889218449592590332e-01 1.100000000000000000e+01
1.603050112724303977e+00 2.465653419494628906e+00 -5.716637372970581055e-01 1.100000000000000000e+01
1.911152482032776101e+00 2.937301874160767046e+00 -5.550295114517211914e-01 9.000000000000000000e+00
2.362441539764403853e+00 3.628129243850708008e+00 -5.315940976142883301e-01 1.000000000000000000e+01
3.056864261627196822e+00 4.692800521850585938e+00 -4.899895787239075262e-01 8.000000000000000000e+00
4.362828254699707031e+00 6.692565441131591797e+00 -4.186876416206359863e-01 3.000000000000000000e+00
7.484462261199951172e+00 1.147238636016846058e+01 -2.390979677438735962e-01 2.000000000000000000e+00
1.226002812385559082e+00 1.873528718948364036e+00 -5.999425649642944336e-01 2.200000000000000000e+01
1.401795029640197976e+00 2.140536069869995117e+00 -5.907214879989624023e-01 1.100000000000000000e+01
1.606267809867859109e+00 2.451831579208374023e+00 -5.697556734085083008e-01 1.100000000000000000e+01
1.907313823699950950e+00 2.909137010574340820e+00 -5.509622097015380859e-01 1.000000000000000000e+01
2.377269744873046875e+00 3.623180150985718218e+00 -5.320815443992614746e-01 9.000000000000000000e+00
3.074319839477539062e+00 4.683766841888427734e+00 -4.901638925075531006e-01 6.000000000000000000e+00
4.373004913330078125e+00 6.657263278961181641e+00 -4.174315929412841797e-01 3.000000000000000000e+00
7.520069122314453125e+00 1.143950748443604049e+01 -2.389583438634871881e-01 2.000000000000000000e+00
1.234662055969238059e+00 1.872463345527648926e+00 -6.009778380393981934e-01 2.200000000000000000e+01
1.398525238037108931e+00 2.119364738464355025e+00 -5.862224698066711426e-01 1.100000000000000000e+01
1.623469233512877974e+00 2.459317445755004883e+00 -5.728086233139038086e-01 1.200000000000000000e+01
1.925078988075255904e+00 2.913998842239379883e+00 -5.531522631645202637e-01 9.000000000000000000e+00
2.378954648971558061e+00 3.598300695419311968e+00 -5.296441912651062012e-01 9.000000000000000000e+00
3.097245216369628906e+00 4.682977676391601562e+00 -4.912097752094268799e-01 9.000000000000000000e+00
