-5.882096290588378906e+00 -4.288578033447266180e-01 -7.241476178169250488e-01 1.100000000000000000e+01
-8.687776565551757812e+00 -6.318928599357604980e-01 -7.620897889137268066e-01 2.000000000000000000e+00
-3.479254150390625000e+01 -2.506167888641356978e+00 -6.088795661926269531e-01 1.300000000000000000e+01
-2.561051130294799805e+00 -1.808829158544540128e-01 -6.879410147666931152e-01 1.900000000000000000e+01
-3.003395795822143999e+00 -2.110714316368103027e-01 -6.950987577438354492e-01 1.500000000000000000e+01
-3.550666332244873047e+00 -2.489095181226730069e-01 -6.918734312057495117e-01 1.200000000000000000e+01
-4.476726150512695312e+01 -3.130431890487670898e+00 3.926191806793212891e+00 5.400000000000000000e+01
-4.455501079559326172e+00 -3.107775747776030939e-01 -7.073966264724731445e-01 1.000000000000000000e+01
-5.895439147949218750e+00 -4.091474413871765137e-01 -7.256100773811340332e-01 1.300000000000000000e+01
-8.662102699279785156e+00 -5.996366739273071289e-01 -7.596494555473327637e-01 2.000000000000000000e+00
-3.477314758300781250e+01 -2.382790088653564009e+00 -6.083908677101135254e-01 1.300000000000000000e+01
-2.563624382019042969e+00 -1.716240197420119962e-01 -6.884586811065673828e-01 1.700000000000000000e+01
-2.998316049575806108e+00 -1.996735483407973966e-01 -6.937490701675415039e-01 1.300000000000000000e+01
-3.565267324447631836e+00 -2.368047982454299927e-01 -6.945447325706481934e-01 1.200000000000000000e+01
-4.479433822631835938e+01 -2.967384099960327148e+00 3.927586317062377930e+00 5.400000000000000000e+01
-4.466465950012207031e+00 -2.950963973999022882e-01 -7.089610099792480469e-01 8.000000000000000000e+00
-5.877090930938720703e+00 -3.862350583076477051e-01 -7.231726646423339844e-01 1.100000000000000000e+01
-8.632431983947753906e+00 -5.657995343208312988e-01 -7.568604946136474609e-01 2.000000000000000000e+00
-1.738518524169921875e+01 -1.133390784263611062e+00 -9.130530953407287598e-01 5.000000000000000000e+00
-3.478563690185546875e+01 -2.255583047866820845e+00 -6.084607243537902832e-01 2.000000000000000000e+01
-2.571919679641724077e+00 -1.631634980440140048e-01 -6.905292272567749023e-01 1.900000000000000000e+01
-2.981490850448607954e+00 -1.881019324064255038e-01 -6.896999478340148926e-01 1.200000000000000000e+01
-3.569990873336791992e+00 -2.246048003435134888e-01 -6.953079700469970703e-01 1.300000000000000000e+01
-4.478851699829102273e+01 -2.810006618499755859e+00 3.926191806793212891e+00 5.400000000000000000e+01
-4.441838741302490234e+00 -2.779002189636229914e-01 -7.048937082290649414e-01 1.000000000000000000e+01
-5.882366180419921875e+00 -3.659643530845642090e-01 -7.236601710319519043e-01 1.100000000000000000e+01
-8.626400947570800781e+00 -5.351697802543640137e-01 -7.561632394790649414e-01 2.000000000000000000e+00
-1.718968963623046875e+01 -1.060400843620300071e+00 -9.025859236717224121e-01 5.000000000000000000e+00
-3.478930664062500000e+01 -2.133899927139281782e+00 -6.083908677101135254e-01 1.300000000000000000e+01
-2.578231811523437944e+00 -1.549815684556961060e-01 -6.920821070671081543e-01 2.100000000000000000e+01
-2.984043598175048828e+00 -1.783301830291748047e-01 -6.901498436927795410e-01 1.400000000000000000e+01
-4.497193908691406250e+01 -2.687579393386840820e+00 2.361084222793579102e+00 3.500000000000000000e+01
-3.570716142654418945e+00 -2.127650380134583075e-01 -6.953079700469970703e-01 1.200000000000000000e+01
-4.480952072143554688e+01 -2.662176132202147993e+00 3.927237749099731001e+00 5.400000000000000000e+01
-4.456539630889892578e+00 -2.639866769313812256e-01 -7.070837616920471191e-01 1.000000000000000000e+01
-5.871657371520996094e+00 -3.457555770874022882e-01 -7.221977114677429199e-01 1.100000000000000000e+01
-8.628128051757812500e+00 -5.065606832504272461e-01 -7.561632394790649414e-01 2.000000000000000000e+00
-3.474029541015625000e+01 -2.015280008316040039e+00 -6.074135303497314453e-01 1.300000000000000000e+01
-2.574899435043334961e+00 -1.457625478506087979e-01 -6.910468339920043945e-01 2.200000000000000000e+01
-2.990484714508057085e+00 -1.682412177324295044e-01 -6.914995312690734863e-01 1.900000000000000000e+01
-4.502092742919921875e+01 -2.532825231552124023e+00 2.363177776336669922e+00 3.500000000000000000e+01
-3.553795576095581055e+00 -1.993102133274078092e-01 -6.918734312057495117e-01 1.200000000000000000e+01
-4.482252120971679688e+01 -2.505967855453491211e+00 3.927586317062377930e+00 5.400000000000000000e+01
-4.453489303588867188e+00 -2.482089996337890903e-01 -7.064580321311950684e-01 8.000000000000000000e+00
-5.864900112152099609e+00 -3.248184621334075928e-01 -7.212227582931518555e-01 1.100000000000000000e+01
-8.613928794860839844e+00 -4.755611419677733820e-01 -7.547687292098999023e-01 3.000000000000000000e+00
-3.473513793945313211e+01 -1.893348455429076926e+00 -6.072041392326354980e-01 2.000000000000000000e+01
-2.560006856918334961e+00 -1.350603550672531128e-01 -6.869057416915893555e-01 2.200000000000000000e+01
-2.995000839233397993e+00 -1.569613516330718994e-01 -6.923993229866027832e-01 2.500000000000000000e+01
-4.499084091186522727e+01 -2.349996089935303178e+00 2.361084222793579102e+00 3.500000000000000000e+01
-3.560416460037231001e+00 -1.859704107046127042e-01 -6.930182576179504395e-01 1.200000000000000000e+01
-4.480793380737304688e+01 -2.332600831985474077e+00 3.925494670867919922e+00 5.400000000000000000e+01
-4.450463771820068359e+00 -2.309023290872574130e-01 -7.058323025703430176e-01 8.000000000000000000e+00
-5.866104125976563388e+00 -3.022965192794799805e-01 -7.212227582931518555e-01 1.100000000000000000e+01
-8.619670867919921875e+00 -4.426870048046112061e-01 -7.551173567771911621e-01 2.000000000000000000e+00
-1.720000457763671875e+01 -8.773340582847595215e-01 -9.025859236717224121e-01 5.000000000000000000e+00
-3.475413513183593750e+01 -1.760568499565124956e+00 -6.074135303497314453e-01 1.300000000000000000e+01
-2.568180799484252930e+00 -1.265036165714263916e-01 -6.889762878417968750e-01 2.100000000000000000e+01
-2.995530605316162109e+00 -1.465058922767638883e-01 -6.923993229866027832e-01 2.100000000000000000e+01
-4.499838638305664062e+01 -2.200788259506226030e+00 2.361084222793579102e+00 3.500000000000000000e+01
-3.555160999298096147e+00 -1.732544153928756991e-01 -6.918734312057495117e-01 1.400000000000000000e+01
-4.481580352783203125e+01 -2.176177740097045898e+00 3.925494670867919922e+00 5.400000000000000000e+01
-4.437431335449218750e+00 -2.146976590156554898e-01 -7.036422491073608398e-01 1.000000000000000000e+01
-5.877037525177001953e+00 -2.822943627834320068e-01 -7.224414944648742676e-01 1.300000000000000000e+01
-8.609222412109375000e+00 -4.120245873928070068e-01 -7.540714740753173828e-01 3.000000000000000000e+00
-3.473210525512695312e+01 -1.637924432754517046e+00 -6.069248914718627930e-01 1.300000000000000000e+01
-2.564705848693848100e+00 -1.182568669319152971e-01 -6.879410147666931152e-01 1.900000000000000000e+01
-2.966775417327880859e+00 -1.357582360506058017e-01 -6.856508255004882812e-01 1.900000000000000000e+01
-4.490531921386718750e+01 -2.054846048355102983e+00 2.355850696563721147e+00 3.400000000000000000e+01
-3.557649135589600053e+00 -1.621741056442261020e-01 -6.922550201416015625e-01 1.900000000000000000e+01
-4.479057312011718750e+01 -2.033928155899047852e+00 3.922705650329589844e+00 5.400000000000000000e+01
-4.432163715362548828e+00 -2.004882395267487127e-01 -7.027035951614379883e-01 1.000000000000000000e+01
-5.860047817230224609e+00 -2.630286514759064276e-01 -7.202478051185607910e-01 1.100000000000000000e+01
-8.604503631591796875e+00 -3.847089409828186035e-01 -7.535485625267028809e-01 3.000000000000000000e+00
-3.473707962036132812e+01 -1.528802394866942915e+00 -6.069248914718627930e-01 1.300000000000000000e+01
-2.568963289260863814e+00 -1.094681397080421031e-01 -6.889762878417968750e-01 1.900000000000000000e+01
-4.477087783813477273e+01 -1.899939417839050071e+00 7.821819782257080078e-01 4.800000000000000000e+01
-2.988648414611815962e+00 -1.263065636157990057e-01 -6.905997395515441895e-01 2.500000000000000000e+01
-3.564078092575072798e+00 -1.500022709369658869e-01 -6.933999061584472656e-01 1.800000000000000000e+01
-4.481730651855468750e+01 -1.878401756286621094e+00 3.924448728561400923e+00 5.400000000000000000e+01
-4.442705154418945312e+00 -1.854277551174164096e-01 -7.042679786682128906e-01 1.000000000000000000e+01
-5.837129592895507812e+00 -2.415865957736968994e-01 -7.173229455947875977e-01 1.100000000000000000e+01
-8.607784271240234375e+00 -3.547533154487609863e-01 -7.537228465080261230e-01 2.000000000000000000e+00
-3.472621917724608664e+01 -1.406890511512755904e+00 -6.066456437110900879e-01 1.300000000000000000e+01
-2.557747602462768999e+00 -1.000470742583274980e-01 -6.858704686164855957e-01 1.900000000000000000e+01
-4.473327636718750000e+01 -1.741936564445496050e+00 7.814140319824218750e-01 4.800000000000000000e+01
-2.989070892333983931e+00 -1.158734634518622936e-01 -6.905997395515441895e-01 2.400000000000000000e+01
-3.550847291946411133e+00 -1.370304524898529053e-01 -6.907285451889038086e-01 1.900000000000000000e+01
-4.480368423461914062e+01 -1.721183896064758079e+00 3.922705650329589844e+00 5.400000000000000000e+01
-4.439377307891845703e+00 -1.697677224874495905e-01 -7.036422491073608398e-01 1.600000000000000000e+01
-5.849839210510253906e+00 -2.216607183218002042e-01 -7.187854051589965820e-01 1.100000000000000000e+01
-8.604988098144531250e+00 -3.245542049407958984e-01 -7.533742189407348633e-01 3.000000000000000000e+00
-1.701076698303223012e+01 -6.356485486030578613e-01 -8.921186923980712891e-01 5.000000000000000000e+00
-3.469894409179688211e+01 -1.284481167793273926e+00 -6.060871481895446777e-01 1.300000000000000000e+01
-2.550358533859252930e+00 -9.084318578243255615e-02 -6.837999224662780762e-01 1.900000000000000000e+01
-4.473908615112304688e+01 -1.585777640342711958e+00 7.814140319824218750e-01 4.800000000000000000e+01
-2.987509727478026900e+00 -1.053702607750893055e-01 -6.901498436927795410e-01 2.300000000000000000e+01
-3.553266048431396040e+00 -1.247037053108215054e-01 -6.911101937294006348e-01 1.800000000000000000e+01
-4.484127807617188211e+01 -1.565891861915587935e+00 3.925494670867919922e+00 5.400000000000000000e+01
-4.435994625091552734e+00 -1.541331708431243896e-01 -7.030164599418640137e-01 1.600000000000000000e+01
-5.834705829620361328e+00 -2.006937116384505948e-01 -7.168354988098144531e-01 1.100000000000000000e+01
-8.554297447204589844e+00 -2.927434742450714111e-01 -7.488421201705932617e-01 3.000000000000000000e+00
-3.465125274658203125e+01 -1.161609530448914018e+00 -6.051796674728393555e-01 1.300000000000000000e+01
-2.560314416885375977e+00 -8.225036412477493286e-02 -6.863881349563598633e-01 2.000000000000000000e+01
-4.470837402343750000e+01 -1.428449988365172896e+00 7.807857394218444824e-01 4.800000000000000000e+01
-2.987859249114989790e+00 -9.494126588106155396e-02 -6.901498436927795410e-01 2.300000000000000000e+01
-3.555641889572143999e+00 -1.123617440462112010e-01 -6.914917826652526855e-01 1.900000000000000000e+01
-4.481460571289063211e+01 -1.408355712890625000e+00 3.922705650329589844e+00 5.400000000000000000e+01
-4.418735504150390625e+00 -1.380923986434937079e-01 -7.002006769180297852e-01 1.700000000000000000e+01
-5.845291614532470703e+00 -1.806321293115616122e-01 -7.180541753768920898e-01 1.300000000000000000e+01
-8.575181007385253906e+00 -2.634935379028319757e-01 -7.505852580070495605e-01 2.000000000000000000e+00
-3.465909576416016336e+01 -1.040767073631287065e+00 -6.052494645118713379e-01 1.300000000000000000e+01
-2.562517166137694868e+00 -7.336799055337905884e-02 -6.869057416915893555e-01 2.100000000000000000e+01
-4.472907638549804688e+01 -1.272835016250609907e+00 7.810649871826171875e-01 4.800000000000000000e+01
-2.976484775543212891e+00 -8.418055623769760132e-02 -6.874504089355468750e-01 2.300000000000000000e+01
-3.552087545394897017e+00 -9.983923286199569702e-02 -6.907285451889038086e-01 2.000000000000000000e+01
-4.481924819946289062e+01 -1.251914978027343972e+00 3.922705650329589844e+00 5.400000000000000000e+01
-4.421165466308593750e+00 -1.227220967411994934e-01 -7.005135416984558105e-01 1.600000000000000000e+01
-5.822074413299561435e+00 -1.595744937658309937e-01 -7.151293158531188965e-01 1.300000000000000000e+01
-8.556132316589355469e+00 -2.330165654420852939e-01 -7.488421201705932617e-01 4.000000000000000000e+00
-3.467451095581054688e+01 -9.200960993766784668e-01 -6.054588556289672852e-01 1.300000000000000000e+01
-2.558895111083983931e+00 -6.432559341192245483e-02 -6.858704686164855957e-01 2.200000000000000000e+01
-4.472125244140625000e+01 -1.116394162178039995e+00 7.808555960655212402e-01 4.800000000000000000e+01
-2.978708505630493164e+00 -7.383846491575241089e-02 -6.879003047943115234e-01 2.400000000000000000e+01
-3.554377079010010210e+00 -8.748783171176910400e-02 -6.911101937294006348e-01 2.000000000000000000e+01
-4.479545974731445312e+01 -1.094777464866637962e+00 3.920265197753905806e+00 5.400000000000000000e+01
-4.427491188049316406e+00 -1.074323579668998996e-01 -7.014521360397338867e-01 1.700000000000000000e+01
-5.816642284393311435e+00 -1.391083151102066040e-01 -7.143980860710144043e-01 1.500000000000000000e+01
-8.548926353454589844e+00 -2.029595226049422940e-01 -7.481449246406555176e-01 4.000000000000000000e+00
-1.681831169128417969e+01 -3.934085369110106867e-01 -8.816515207290649414e-01 5.000000000000000000e+00
-3.466151809692382812e+01 -7.986853718757629395e-01 -6.051796674728393555e-01 1.300000000000000000e+01
-2.559103965759276900e+00 -5.539298802614212036e-02 -6.858704686164855957e-01 2.100000000000000000e+01
-4.474087142944335938e+01 -9.606244564056396484e-01 7.811347842216491699e-01 4.800000000000000000e+01
-2.976999998092650923e+00 -6.339889019727706909e-02 -6.874504089355468750e-01 2.300000000000000000e+01
-3.548772335052489790e+00 -7.495583593845367432e-02 -6.899653077125549316e-01 2.100000000000000000e+01
-4.480299377441406250e+01 -9.384889602661132812e-01 3.920614004135131836e+00 5.400000000000000000e+01
-4.433763980865479404e+00 -9.209994226694107056e-02 -7.023907303810119629e-01 1.500000000000000000e+01
-5.811138629913330078e+00 -1.186819896101952015e-01 -7.136668562889099121e-01 1.300000000000000000e+01
-8.529663085937500000e+00 -1.727136075496673862e-01 -7.464017868041992188e-01 4.000000000000000000e+00
-3.465010070800781250e+01 -6.774156093597412109e-01 -6.049352884292602539e-01 2.000000000000000000e+01
-2.551555633544921875e+00 -4.631945490837097168e-02 -6.837999224662780762e-01 2.100000000000000000e+01
-4.473995208740233664e+01 -8.043719530105590820e-01 7.810649871826171875e-01 4.800000000000000000e+01
-2.977203130722045898e+00 -5.300683528184890747e-02 -6.874504089355468750e-01 1.900000000000000000e+01
-3.545086622238159180e+00 -6.249864026904106140e-02 -6.892020702362060547e-01 1.900000000000000000e+01
-4.482990264892578125e+01 -7.825088500976562500e-01 3.922705650329589844e+00 5.400000000000000000e+01
-4.436033725738525391e+00 -7.665678858757019043e-02 -7.027035951614379883e-01 1.300000000000000000e+01
-5.829380512237548828e+00 -9.869905561208724976e-02 -7.158605456352233887e-01 1.500000000000000000e+01
-8.510293006896972656e+00 -1.426046639680861872e-01 -7.446586489677429199e-01 4.000000000000000000e+00
-1.666089057922362926e+01 -2.733646631240844727e-01 -8.732777833938598633e-01 5.000000000000000000e+00
-3.464225769042968750e+01 -5.562995076179504395e-01 -6.047607660293579102e-01 6.000000000000000000e+00
-2.549770116806029829e+00 -3.738426044583321312e-02 -6.832822561264038086e-01 1.900000000000000000e+01
-4.472649383544921875e+01 -6.479637026786804199e-01 7.807857394218444824e-01 4.800000000000000000e+01
-2.975421428680419922e+00 -4.258624464273452759e-02 -6.870005130767822266e-01 1.500000000000000000e+01
-3.551172256469727007e+00 -5.020685866475105286e-02 -6.903469562530517578e-01 1.200000000000000000e+01
-4.483235931396483664e+01 -6.260185241699218750e-01 3.922705650329589844e+00 5.400000000000000000e+01
-4.406646251678466797e+00 -6.076313927769660950e-02 -6.980105638504028320e-01 1.000000000000000000e+01
-5.805870532989501953e+00 -7.802999764680862427e-02 -7.129356861114501953e-01 1.100000000000000000e+01
-8.506753921508789062e+00 -1.128444820642471036e-01 -7.443100214004516602e-01 4.000000000000000000e+00
-1.667771911621094105e+01 -2.154120057821274081e-01 -8.741151690483093262e-01 5.000000000000000000e+00
-3.461199569702147727e+01 -4.349700510501862127e-01 -6.042023301124572754e-01 1.300000000000000000e+01
-2.551816940307617188e+00 -2.850525267422198902e-02 -6.837999224662780762e-01 2.200000000000000000e+01
-4.470448684692382812e+01 -4.915713071823120117e-01 7.803668975830078125e-01 4.800000000000000000e+01
-2.961911678314208984e+00 -3.205221891403198242e-02 -6.838511824607849121e-01 1.400000000000000000e+01
-4.504961776733397727e+01 -4.796392917633057196e-01 2.361084222793579102e+00 3.500000000000000000e+01
-3.539546966552733931e+00 -3.768524155020713806e-02 -6.880572438240051270e-01 1.200000000000000000e+01
-4.480638122558593750e+01 -4.692284762859343927e-01 3.920265197753905806e+00 5.400000000000000000e+01
-4.422634124755859375e+00 -4.554342851042746804e-02 -7.005135416984558105e-01 1.100000000000000000e+01
-5.806107521057128906e+00 -5.776325240731239319e-02 -7.129356861114501953e-01 1.100000000000000000e+01
-8.495142936706542969e+00 -8.303283900022506714e-02 -7.432641983032226562e-01 3.000000000000000000e+00
-3.459730529785156250e+01 -3.140037953853607178e-01 -6.039230823516845703e-01 1.300000000000000000e+01
-2.561559677124022993e+00 -1.967175304889678955e-02 -6.863881349563598633e-01 2.600000000000000000e+01
-4.475392150878906250e+01 -3.358807265758513849e-01 7.812046408653259277e-01 4.800000000000000000e+01
-2.958107948303223100e+00 -2.168445289134978901e-02 -6.829513907432556152e-01 1.200000000000000000e+01
-4.505101776123046875e+01 -3.223838508129119873e-01 2.361084222793579102e+00 3.500000000000000000e+01
-3.539656877517700195e+00 -2.532968670129776001e-02 -6.880572438240051270e-01 1.200000000000000000e+01
-4.483563995361328125e+01 -3.130168914794921875e-01 3.922705650329589844e+00 5.400000000000000000e+01
-4.418815135955811435e+00 -3.007838688790797840e-02 -6.998878121376037598e-01 1.000000000000000000e+01
-5.784438133239746094e+00 -3.735479339957237244e-02 -7.102545499801635742e-01 9.000000000000000000e+00
-8.483427047729492188e+00 -5.330364406108856201e-02 -7.422183156013488770e-01 2.000000000000000000e+00
-1.662289428710937855e+01 -9.864339977502822876e-02 -8.711843490600585938e-01 5.000000000000000000e+00
-3.459019088745117188e+01 -1.931900829076766968e-01 -6.037834286689758301e-01 1.300000000000000000e+01
-2.546156167984008789e+00 -1.110977306962013071e-02 -6.822469830513000488e-01 2.900000000000000000e+01
-4.473479461669921875e+01 -1.873857527971267978e-01 7.808555960655212402e-01 4.800000000000000000e+01
-2.969856023788452148e+00 -1.192183047533034931e-02 -6.856508255004882812e-01 1.300000000000000000e+01
-4.491602706909179688e+01 -1.724660098552704135e-01 2.353966712951660156e+00 3.400000000000000000e+01
-3.527942180633544922e+00 -1.354639139026403080e-02 -6.857675313949584961e-01 1.200000000000000000e+01
-4.483642959594727273e+01 -1.643348336219787875e-01 3.922705650329589844e+00 5.400000000000000000e+01
-4.414939880371093750e+00 -1.541111059486865997e-02 -6.992620825767517090e-01 1.000000000000000000e+01
-5.778574943542479581e+00 -1.815398968756198883e-02 -7.095233201980590820e-01 1.100000000000000000e+01
-8.483556747436523438e+00 -2.517129294574261059e-02 -7.422183156013488770e-01 2.000000000000000000e+00
-3.456264495849608664e+01 -7.842028886079788208e-02 -6.032947897911071777e-01 2.000000000000000000e+01
-2.538452148437500000e+00 -2.215218031778932051e-03 -6.801764369010925293e-01 3.400000000000000000e+01
-4.470317840576171875e+01 -3.120871260762215008e-02 7.802971005439758301e-01 4.800000000000000000e+01
-2.967930793762207031e+00 -1.554005080834031105e-03 -6.852009296417236328e-01 1.300000000000000000e+01
-4.497627258300781250e+01 -1.569968275725841869e-02 2.357106685638428178e+00 3.400000000000000000e+01
-3.526004552841186968e+00 -1.230807858519255898e-03 -6.853858828544616699e-01 1.200000000000000000e+01
-4.483673095703125000e+01 -7.825485430657863617e-03 3.922705650329589844e+00 5.400000000000000000e+01
-4.414967060089111328e+00 -8.110162593041002344e-16 -6.992620825767517090e-01 1.000000000000000000e+01
-5.782573699951171875e+00 2.018498955294489861e-03 -7.100107669830322266e-01 1.100000000000000000e+01
-8.459684371948242188e+00 4.429480526596307755e-03 -7.401265501976013184e-01 2.000000000000000000e+00
-3.458270645141602273e+01 4.225076735019683838e-02 -6.036438345909118652e-01 1.300000000000000000e+01
-2.532648801803588867e+00 6.630474235862494382e-03 -6.786235570907592773e-01 3.800000000000000000e+01
-4.472301483154296875e+01 1.248905360698699951e-01 7.806461453437805176e-01 4.800000000000000000e+01
-2.958174467086791992e+00 8.777106180787086487e-03 -6.829513907432556152e-01 1.400000000000000000e+01
-4.501200485229492188e+01 1.414098441600800116e-01 2.358990907669066939e+00 3.400000000000000000e+01
-3.533840417861938032e+00 1.110192388296126972e-02 -6.869123578071594238e-01 1.100000000000000000e+01
-4.481257629394531250e+01 1.486046761274338046e-01 3.920614004135131836e+00 5.400000000000000000e+01
-4.395186424255371094e+00 1.534215733408927917e-02 -6.961333751678466797e-01 1.000000000000000000e+01
-5.770620822906494141e+00 2.215770259499549866e-02 -7.085483670234680176e-01 1.100000000000000000e+01
-8.443677902221679688e+00 3.389528021216393211e-02 -7.387320995330810547e-01 3.000000000000000000e+00
-3.454835510253906250e+01 1.628064811229706088e-01 -6.030504703521728516e-01 2.000000000000000000e+01
-2.548064708709716797e+00 1.556543540209531958e-02 -6.827646493911743164e-01 3.800000000000000000e+01
-4.471430587768554688e+01 2.809519767761229914e-01 7.805064916610717773e-01 4.800000000000000000e+01
-2.948382377624512163e+00 1.904008723795413971e-02 -6.807019114494323730e-01 1.300000000000000000e+01
-4.495132064819335938e+01 2.981328368186951239e-01 2.355850696563721147e+00 3.400000000000000000e+01
-3.541632890701293945e+00 2.348934300243854870e-02 -6.884388327598571777e-01 1.100000000000000000e+01
-4.483569335937500000e+01 3.051915764808654785e-01 3.922705650329589844e+00 5.400000000000000000e+01
-4.406958103179931641e+00 3.076687082648276936e-02 -6.980105638504028320e-01 1.000000000000000000e+01
-5.782418727874755859e+00 4.238810017704963684e-02 -7.100107669830322266e-01 1.100000000000000000e+01
-8.419600486755371094e+00 6.318958103656768799e-02 -7.366403341293334961e-01 2.000000000000000000e+00
-3.457357025146483664e+01 2.836149930953978937e-01 -6.035042405128479004e-01 1.300000000000000000e+01
-2.549926757812500000e+00 2.447829023003577839e-02 -6.832822561264038086e-01 3.100000000000000000e+01
-4.474504470825195312e+01 4.373450279235839844e-01 7.810649871826171875e-01 4.800000000000000000e+01
-2.963886976242064986e+00 2.948683872818946838e-02 -6.843010783195495605e-01 1.400000000000000000e+01
-4.500992202758789062e+01 4.556469321250916082e-01 2.358990907669066939e+00 3.400000000000000000e+01
-3.535640001296997070e+00 3.579218685626984336e-02 -6.872940063476562500e-01 1.200000000000000000e+01
-4.483435440063477273e+01 4.616954922676085871e-01 3.922705650329589844e+00 5.400000000000000000e+01
-4.398922443389892578e+00 4.606709256768227317e-02 -6.967591047286987305e-01 1.000000000000000000e+01
-5.756430625915527344e+00 6.229300424456595681e-02 -7.068421840667724609e-01 1.100000000000000000e+01
-8.423313140869140625e+00 9.262289851903915405e-02 -7.369889616966247559e-01 2.000000000000000000e+00
-3.452437973022460938e+01 4.037363529205322266e-01 -6.026664972305297852e-01 2.000000000000000000e+01
-2.536303997039794922e+00 3.320203721523284912e-02 -6.796588301658630371e-01 2.700000000000000000e+01
-4.476724243164063211e+01 5.938500165939331055e-01 7.814838290214538574e-01 4.800000000000000000e+01
-2.961817502975463867e+00 3.980636596679688194e-02 -6.838511824607849121e-01 1.500000000000000000e+01
-4.497211074829102273e+01 6.122686862945556641e-01 2.357106685638428178e+00 3.400000000000000000e+01
-3.517825841903686968e+00 4.789312183856964111e-02 -6.838594675064086914e-01 1.100000000000000000e+01
-4.483246994018554688e+01 6.181938052177429199e-01 3.922705650329589844e+00 5.400000000000000000e+01
-4.414536476135253906e+00 6.164256483316422203e-02 -6.992620825767517090e-01 1.000000000000000000e+01
-5.756177902221679688e+00 8.238632231950759888e-02 -7.068421840667724609e-01 1.100000000000000000e+01
-8.418953895568847656e+00 1.219674646854401051e-01 -7.366403341293334961e-01 3.000000000000000000e+00
-3.450476455688477273e+01 5.239732265472412109e-01 -6.023523807525634766e-01 2.000000000000000000e+01
-2.520719766616820845e+00 4.179894924163817665e-02 -6.755176782608032227e-01 2.400000000000000000e+01
-4.474890136718750000e+01 7.498452067375183105e-01 7.812046408653259277e-01 4.800000000000000000e+01
-2.961660623550415039e+00 5.014479532837867737e-02 -6.838511824607849121e-01 1.500000000000000000e+01
-4.487397766113281250e+01 7.597752809524536133e-01 2.352082490921020952e+00 3.400000000000000000e+01
-3.517637252807617188e+00 6.017233058810234070e-02 -6.838594675064086914e-01 1.200000000000000000e+01
-4.486988067626953125e+01 7.753730416297912598e-01 3.926191806793212891e+00 5.400000000000000000e+01
-4.374793052673339844e+00 7.636229693889617920e-02 -6.930046677589416504e-01 9.000000000000000000e+00
-5.755855560302734375e+00 1.024786308407784063e-01 -7.068421840667724609e-01 9.000000000000000000e+00
-8.394572257995605469e+00 1.509245783090590876e-01 -7.345486283302307129e-01 3.000000000000000000e+00
-3.451671981811522727e+01 6.446754932403564453e-01 -6.025967001914978027e-01 1.300000000000000000e+01
-2.543736219406127930e+00 5.106291547417640686e-02 -6.817293763160705566e-01 2.500000000000000000e+01
-4.475400924682617188e+01 9.062053561210632324e-01 7.813442349433898926e-01 4.800000000000000000e+01
-2.961467504501343218e+00 6.048261374235153198e-02 -6.838511824607849121e-01 1.500000000000000000e+01
-4.500268173217772727e+01 9.269561171531677246e-01 2.358990907669066939e+00 3.400000000000000000e+01
-3.519368648529053178e+00 7.249124348163604736e-02 -6.842410564422607422e-01 1.200000000000000000e+01
-4.480315780639647727e+01 9.306693077087402344e-01 3.920614004135131836e+00 5.400000000000000000e+01
-4.362649917602539062e+00 9.138449281454086304e-02 -6.911274790763854980e-01 9.000000000000000000e+00
-5.757447242736816406e+00 1.226119548082351962e-01 -7.070859074592590332e-01 1.100000000000000000e+01
-8.397977828979492188e+00 1.803117096424103061e-01 -7.348971962928771973e-01 2.000000000000000000e+00
-3.451625823974608664e+01 7.652017474174499512e-01 -6.026315689086914062e-01 2.000000000000000000e+01
-2.539679765701293945e+00 5.985087156295775673e-02 -6.806941032409667969e-01 2.400000000000000000e+01
-4.475856781005858664e+01 1.062610387802124023e+00 7.814838290214538574e-01 4.800000000000000000e+01
-2.941756486892700195e+00 7.035377621650695801e-02 -6.793521642684936523e-01 1.300000000000000000e+01
-4.503929519653320312e+01 1.077140331268310991e+00 2.361084222793579102e+00 3.500000000000000000e+01
-3.519093990325928178e+00 8.477568626403808594e-02 -6.842410564422607422e-01 1.200000000000000000e+01
-4.482353591918945312e+01 1.087635874748229980e+00 3.922705650329589844e+00 5.400000000000000000e+01
-4.362304687500000000e+00 1.066124290227890015e-01 -6.911274790763854980e-01 1.000000000000000000e+01
-5.747061729431152344e+00 1.424624919891356867e-01 -7.058672308921813965e-01 9.000000000000000000e+00
-8.417215347290039062e+00 2.101222425699234009e-01 -7.366403341293334961e-01 3.000000000000000000e+00
-3.450338363647460938e+01 8.854247927665710449e-01 -6.024570465087890625e-01 1.300000000000000000e+01
-2.547179937362670898e+00 6.892466545104980469e-02 -6.827646493911743164e-01 1.900000000000000000e+01
-4.475058746337891336e+01 1.218731522560120073e+00 7.814140319824218750e-01 4.800000000000000000e+01
-2.943440914154053178e+00 8.067538589239120483e-02 -6.798020601272583008e-01 1.400000000000000000e+01
-4.498335266113281250e+01 1.232927441596985085e+00 2.358362913131713867e+00 3.400000000000000000e+01
-3.508964300155640093e+00 9.678844362497329712e-02 -6.823329925537109375e-01 1.200000000000000000e+01
-4.483938217163085938e+01 1.244645357131958008e+00 3.924448728561400923e+00 5.400000000000000000e+01
-4.379677295684813565e+00 1.223354637622832974e-01 -6.939432621002197266e-01 1.000000000000000000e+01
-5.740576744079589844e+00 1.623542457818984985e-01 -7.051360011100769043e-01 1.100000000000000000e+01
-8.396514892578125000e+00 2.389357984066010077e-01 -7.348971962928771973e-01 2.000000000000000000e+00
-3.453206253051757812e+01 1.006791114807128906e+00 -6.030155420303344727e-01 1.300000000000000000e+01
-2.552730321884154829e+00 7.754701375961303711e-02 -6.843175292015075684e-01 1.900000000000000000e+01
-4.477428436279296875e+01 1.367978096008301003e+00 7.819027304649353027e-01 4.800000000000000000e+01
-2.949000597000122070e+00 9.061530232429504395e-02 -6.811518073081970215e-01 1.200000000000000000e+01
-4.495880889892578125e+01 1.389324307441710982e+00 2.357316255569458008e+00 3.400000000000000000e+01
-3.504699230194091797e+00 1.083027720451354980e-01 -6.815697550773620605e-01 1.100000000000000000e+01
-4.483501052856445312e+01 1.393331289291382058e+00 3.924448728561400923e+00 5.400000000000000000e+01
-4.377273082733154297e+00 1.367966234683989923e-01 -6.936303973197937012e-01 9.000000000000000000e+00
-5.747942924499511719e+00 1.816405951976776123e-01 -7.061109542846679688e-01 1.100000000000000000e+01
-8.371779441833496094e+00 2.660189867019652765e-01 -7.328054904937744141e-01 3.000000000000000000e+00
-1.621537017822265980e+01 5.209204554557800293e-01 -8.502499461174011230e-01 4.000000000000000000e+00
-3.451254653930664062e+01 1.120778799057007058e+00 -6.027362942695617676e-01 1.300000000000000000e+01
-2.535067319869995117e+00 8.586864173412322998e-02 -6.796588301658630371e-01 1.600000000000000000e+01
-4.474924850463867188e+01 1.523580670356750044e+00 7.815536856651306152e-01 4.800000000000000000e+01
-2.958404541015625000e+00 1.012419313192367970e-01 -6.834012866020202637e-01 1.400000000000000000e+01
-4.502581405639647727e+01 1.540864586830138938e+00 2.361084222793579102e+00 3.500000000000000000e+01
-3.508224010467528853e+00 1.206707730889319957e-01 -6.823329925537109375e-01 1.100000000000000000e+01
-4.484181976318358664e+01 1.550239205360413042e+00 3.925494670867919922e+00 5.400000000000000000e+01
-4.368872165679931641e+00 1.518009454011917114e-01 -6.923789381980895996e-01 9.000000000000000000e+00
-5.739338397979736328e+00 2.014250457286834994e-01 -7.051360011100769043e-01 1.100000000000000000e+01
-8.354870796203613281e+00 2.946785092353820801e-01 -7.314109802246093750e-01 2.000000000000000000e+00
-3.445646667480468750e+01 1.239374399185181108e+00 -6.018287539482116699e-01 2.000000000000000000e+01
-2.536682605743408203e+00 9.478929638862609863e-02 -6.801764369010925293e-01 1.500000000000000000e+01
-4.474765777587891336e+01 1.679925560951232910e+00 7.816234827041625977e-01 4.800000000000000000e+01
-2.946348905563354048e+00 1.111273840069770952e-01 -6.807019114494323730e-01 1.400000000000000000e+01
-4.507604598999022727e+01 1.700132369995116965e+00 2.364015102386475053e+00 3.500000000000000000e+01
-3.503857851028441939e+00 1.327673494815826138e-01 -6.815697550773620605e-01 1.100000000000000000e+01
-4.484410095214843750e+01 1.707060098648071067e+00 3.926191806793212891e+00 5.400000000000000000e+01
-4.362393856048583984e+00 1.668237745761871060e-01 -6.914403438568115234e-01 1.000000000000000000e+01
-5.750502109527587891e+00 2.219171524047852118e-01 -7.065984606742858887e-01 1.100000000000000000e+01
-8.353791236877441406e+00 3.238406479358673096e-01 -7.314109802246093750e-01 3.000000000000000000e+00
-3.446791458129882812e+01 1.360273122787476030e+00 -6.021080017089843750e-01 1.300000000000000000e+01
-2.544057369232178178e+00 1.039588972926139970e-01 -6.822469830513000488e-01 1.700000000000000000e+01
-4.475350570678710938e+01 1.836605668067931907e+00 7.818328738212585449e-01 4.800000000000000000e+01
-2.943995952606201172e+00 1.213311403989792009e-01 -6.802520155906677246e-01 1.200000000000000000e+01
-4.501396179199218750e+01 1.855163931846619096e+00 2.361084222793579102e+00 3.500000000000000000e+01
-3.515142440795897993e+00 1.454844027757644931e-01 -6.838594675064086914e-01 1.100000000000000000e+01
-4.479805374145507812e+01 1.861930012702941895e+00 3.922705650329589844e+00 5.400000000000000000e+01
-4.357837677001953125e+00 1.818856000900269110e-01 -6.908146142959594727e-01 1.000000000000000000e+01
-5.737792491912841797e+00 2.414879649877547940e-01 -7.051360011100769043e-01 1.100000000000000000e+01
-8.340666770935058594e+00 3.524940907955170233e-01 -7.303650975227355957e-01 2.000000000000000000e+00
-1.600948143005371094e+01 6.821927428245544434e-01 -8.397827744483947754e-01 4.000000000000000000e+00
-3.438304138183593750e+01 1.477147102355957031e+00 -6.007118225097656250e-01 1.900000000000000000e+01
-2.557208299636840820e+00 1.129916608333588063e-01 -6.858704686164855957e-01 1.900000000000000000e+01
-4.475915908813477273e+01 1.985535264015197976e+00 7.820423245429992676e-01 4.800000000000000000e+01
-2.935790061950684038e+00 1.307463049888611117e-01 -6.784523725509643555e-01 1.300000000000000000e+01
-4.500756072998046875e+01 2.004425525665283203e+00 2.361084222793579102e+00 3.500000000000000000e+01
-3.510718107223511186e+00 1.569648534059525091e-01 -6.830962300300598145e-01 1.100000000000000000e+01
-4.484338378906250000e+01 2.012798309326171875e+00 3.927237749099731001e+00 5.400000000000000000e+01
-4.357210636138916016e+00 1.963357031345366877e-01 -6.908146142959594727e-01 1.000000000000000000e+01
-5.721095561981201172e+00 2.597934305667877197e-01 -7.031860947608947754e-01 1.100000000000000000e+01
-8.323529243469238281e+00 3.794249892234802246e-01 -7.289706468582153320e-01 2.000000000000000000e+00
-1.590737342834473012e+01 7.306960821151733398e-01 -8.345491290092468262e-01 4.000000000000000000e+00
-3.439193725585938211e+01 1.591804504394531028e+00 -6.009561419486999512e-01 2.000000000000000000e+01
-2.551009416580200195e+00 1.216412559151649059e-01 -6.843175292015075684e-01 2.300000000000000000e+01
-4.475594711303710938e+01 2.141952991485596147e+00 7.821121215820312500e-01 4.800000000000000000e+01
-2.943101882934569868e+00 1.413673162460326871e-01 -6.802520155906677246e-01 1.200000000000000000e+01
-4.500028991699218750e+01 2.161519050598144975e+00 2.361084222793579102e+00 3.500000000000000000e+01
-3.498383045196533203e+00 1.686513870954514105e-01 -6.808065176010131836e-01 1.200000000000000000e+01
-4.486792373657227273e+01 2.170859336853026900e+00 3.930026769638061968e+00 5.400000000000000000e+01
-4.356498718261718750e+00 2.115440070629119873e-01 -6.908146142959594727e-01 1.000000000000000000e+01
-5.712223052978515625e+00 2.793743312358856201e-01 -7.022111415863037109e-01 1.100000000000000000e+01
-8.314193725585937500e+00 4.080865085124968927e-01 -7.282733917236328125e-01 2.000000000000000000e+00
-3.435621261596679688e+01 1.710353612899780051e+00 -6.004325747489929199e-01 1.900000000000000000e+01
-2.542806386947631836e+00 1.310378164052962979e-01 -6.822469830513000488e-01 2.000000000000000000e+01
-4.474340057373046875e+01 2.313580751419066939e+00 7.820423245429992676e-01 4.800000000000000000e+01
-2.942537307739257812e+00 1.526669561862946112e-01 -6.802520155906677246e-01 1.300000000000000000e+01
-3.497709512710570845e+00 1.820829361677170077e-01 -6.808065176010131836e-01 1.200000000000000000e+01
-4.482742309570313211e+01 2.341460466384888139e+00 3.927237749099731001e+00 5.400000000000000000e+01
-4.339872837066650391e+00 2.274430990219115933e-01 -6.883116364479064941e-01 1.000000000000000000e+01
-5.711108207702636719e+00 3.013055622577667236e-01 -7.022111415863037109e-01 1.100000000000000000e+01
-8.284710884094238281e+00 4.385332167148590088e-01 -7.258329987525939941e-01 3.000000000000000000e+00
-1.580585670471191051e+01 8.421816229820251465e-01 -8.295249342918395996e-01 4.000000000000000000e+00
-3.436536788940429688e+01 1.843115806579590066e+00 -6.007118225097656250e-01 6.000000000000000000e+00
-2.551978111267089844e+00 1.404438465833663940e-01 -6.848351955413818359e-01 2.900000000000000000e+01
-4.473505020141602273e+01 2.469750404357910156e+00 7.820423245429992676e-01 4.800000000000000000e+01
-2.934203386306763139e+00 1.625063419342041016e-01 -6.784523725509643555e-01 1.200000000000000000e+01
-3.493132114410399947e+00 1.940732896327972135e-01 -6.800432801246643066e-01 1.100000000000000000e+01
-4.482295608520507812e+01 2.498144865036011186e+00 3.927586317062377930e+00 5.400000000000000000e+01
-4.323274135589599609e+00 2.417085468769072931e-01 -6.858087182044982910e-01 1.000000000000000000e+01
-5.715967655181884766e+00 3.215737342834473211e-01 -7.029423713684082031e-01 1.100000000000000000e+01
-8.299043655395507812e+00 4.683476686477661133e-01 -7.272275090217590332e-01 2.000000000000000000e+00
-3.434275436401367188e+01 1.962149620056151900e+00 -6.004325747489929199e-01 1.300000000000000000e+01
-2.545712709426879883e+00 1.485680937767029086e-01 -6.832822561264038086e-01 2.400000000000000000e+01
-4.475456237792968750e+01 2.619719505310059038e+00 7.825310230255126953e-01 4.800000000000000000e+01
-2.929757595062255859e+00 1.720071882009505948e-01 -6.775525808334350586e-01 1.200000000000000000e+01
-3.500308990478516069e+00 2.061174958944320956e-01 -6.815697550773620605e-01 1.100000000000000000e+01
-4.485818099975585938e+01 2.649353742599486861e+00 3.931421279907227007e+00 5.400000000000000000e+01
-4.326392650604248047e+00 2.562773227691649836e-01 -6.864344477653503418e-01 1.000000000000000000e+01
-5.700998783111572266e+00 3.397002816200255793e-01 -7.012361884117126465e-01 1.100000000000000000e+01
-8.285511970520019531e+00 4.951525628566741943e-01 -7.261816263198852539e-01 3.000000000000000000e+00
-1.579975795745849965e+01 9.497483372688293457e-01 -8.295249342918395996e-01 4.000000000000000000e+00
-3.434204483032227273e+01 2.076385498046875000e+00 -6.005373001098632812e-01 1.900000000000000000e+01
-2.547106742858887163e+00 1.575726568698883057e-01 -6.837999224662780762e-01 2.000000000000000000e+01
-4.474913787841796875e+01 2.776173830032349077e+00 7.826008200645446777e-01 4.800000000000000000e+01
-2.933029413223267046e+00 1.824749112129210871e-01 -6.784523725509643555e-01 1.200000000000000000e+01
-3.495649099349976030e+00 2.180901020765305121e-01 -6.808065176010131836e-01 1.100000000000000000e+01
-4.484865951538085938e+01 2.805921792984008789e+00 3.931421279907227007e+00 5.400000000000000000e+01
-4.317585945129395419e+00 2.708829343318939209e-01 -6.851829290390014648e-01 1.000000000000000000e+01
-5.691853523254395419e+00 3.590984344482421875e-01 -7.002612352371215820e-01 1.000000000000000000e+01
-8.275779724121093750e+00 5.235682129859924316e-01 -7.254844307899475098e-01 3.000000000000000000e+00
-3.430864334106445312e+01 2.194589614868164062e+00 -6.000835299491882324e-01 1.900000000000000000e+01
-2.536902427673339844e+00 1.658326983451842984e-01 -6.812117099761962891e-01 1.600000000000000000e+01
-4.475114822387695312e+01 2.933145046234130859e+00 7.828102111816406250e-01 4.800000000000000000e+01
-2.934319019317626953e+00 1.928397715091705045e-01 -6.789022684097290039e-01 1.300000000000000000e+01
-3.490948677062987837e+00 2.300326973199844083e-01 -6.800432801246643066e-01 1.100000000000000000e+01
-4.488630676269531250e+01 2.965608119964600053e+00 3.935604810714722124e+00 5.400000000000000000e+01
-4.324498176574707031e+00 2.864747643470764160e-01 -6.864344477653503418e-01 1.000000000000000000e+01
-5.690565586090087891e+00 3.789645433425902765e-01 -7.002612352371215820e-01 1.000000000000000000e+01
-8.238118171691894531e+00 5.500636100769042969e-01 -7.223467826843261719e-01 2.000000000000000000e+00
-3.430676269531250000e+01 2.314739465713500977e+00 -6.001882553100585938e-01 1.900000000000000000e+01
-2.524744510650635210e+00 1.738906949758529941e-01 -6.781058907508850098e-01 1.300000000000000000e+01
-4.472866821289063211e+01 3.088511466979980025e+00 7.826008200645446777e-01 4.800000000000000000e+01
-2.945292711257935014e+00 2.038887590169906894e-01 -6.816017031669616699e-01 1.300000000000000000e+01
-3.486207246780395952e+00 2.419451326131820956e-01 -6.792800426483154297e-01 1.100000000000000000e+01
-4.484785461425781250e+01 3.120336532592772993e+00 3.933164358139038086e+00 5.400000000000000000e+01
-4.317560195922851562e+00 3.011559844017028809e-01 -6.854958534240722656e-01 1.000000000000000000e+01
-5.677326679229736328e+00 3.979930877685546875e-01 -6.987988352775573730e-01 1.000000000000000000e+01
-8.232172966003417969e+00 5.785372853279113770e-01 -7.219981551170349121e-01 3.000000000000000000e+00
-3.433637237548828125e+01 2.437168359756470171e+00 -6.008514761924743652e-01 2.000000000000000000e+01
-2.522195339202880859e+00 1.825631707906723022e-01 -6.775882840156555176e-01 1.300000000000000000e+01
-4.473755645751953125e+01 3.246072053909302202e+00 7.829498648643493652e-01 4.800000000000000000e+01
-2.930957794189453125e+00 2.131789624691010077e-01 -6.784523725509643555e-01 1.300000000000000000e+01
-3.483383417129517046e+00 2.539700269699097235e-01 -6.788983941078186035e-01 1.200000000000000000e+01
-4.484066390991210938e+01 3.277156114578247070e+00 3.933512926101685014e+00 5.400000000000000000e+01
-4.306632041931152344e+00 3.155035972595214844e-01 -6.839314699172973633e-01 1.000000000000000000e+01
-5.675902843475341797e+00 4.178082346916198730e-01 -6.987988352775573730e-01 1.000000000000000000e+01
-8.198311805725097656e+00 6.049236059188842773e-01 -7.192091941833496094e-01 2.000000000000000000e+00
-3.432765579223632812e+01 2.557009935379027876e+00 -6.008514761924743652e-01 2.000000000000000000e+01
-2.523468971252440962e+00 1.915123462677001953e-01 -6.781058907508850098e-01 1.400000000000000000e+01
-4.474988174438477273e+01 3.404035568237305132e+00 7.833687067031860352e-01 4.800000000000000000e+01
-2.920480251312255859e+00 2.226678580045700073e-01 -6.762028932571411133e-01 1.300000000000000000e+01
-4.496102523803710938e+01 3.435882329940795898e+00 2.363177776336669922e+00 3.500000000000000000e+01
-3.488348245620727983e+00 2.665765285491942804e-01 -6.800432801246643066e-01 1.100000000000000000e+01
-4.485676193237304688e+01 3.435789585113524947e+00 3.935953378677368164e+00 5.400000000000000000e+01
-4.303534984588623047e+00 3.303834199905396063e-01 -6.836186051368713379e-01 1.000000000000000000e+01
-4.490899658203125000e+01 3.455558776855469194e+00 5.530430793762207031e+00 3.800000000000000000e+01
-5.666492938995361328e+00 4.370077252387999933e-01 -6.978238821029663086e-01 1.000000000000000000e+01
-8.196149826049804688e+00 6.335373520851135254e-01 -7.192091941833496094e-01 2.000000000000000000e+00
-3.435041809082031250e+01 2.679308176040648970e+00 -6.014099121093750000e-01 1.300000000000000000e+01
-2.524745702743529829e+00 2.000319957733154019e-01 -6.786235570907592773e-01 1.300000000000000000e+01
-4.472638702392578125e+01 3.551462888717650923e+00 7.831593155860900879e-01 4.800000000000000000e+01
-2.913897991180419922e+00 2.318875193595885953e-01 -6.748531460762023926e-01 1.300000000000000000e+01
-3.471788883209228960e+00 2.768941819667816162e-01 -6.769903302192687988e-01 1.200000000000000000e+01
-4.489278793334960938e+01 3.588330984115601030e+00 3.940136909484862837e+00 5.400000000000000000e+01
-4.308322906494140625e+00 3.451258540153502863e-01 -6.845571994781494141e-01 1.000000000000000000e+01
-4.488937377929688211e+01 3.603827953338623047e+00 5.529455661773681641e+00 3.800000000000000000e+01
-5.641268253326416016e+00 4.538856744766234796e-01 -6.948990225791931152e-01 1.000000000000000000e+01
-8.178116798400878906e+00 6.594322323799133301e-01 -7.178146839141845703e-01 2.000000000000000000e+00
-3.436326980590820312e+01 2.794986724853516069e+00 -6.017938852310180664e-01 2.000000000000000000e+01
-2.516330957412720171e+00 2.082065790891647061e-01 -6.765530109405517578e-01 1.400000000000000000e+01
-4.472168731689453125e+01 3.708226680755614790e+00 7.832989096641540527e-01 4.800000000000000000e+01
-2.920839071273804155e+00 2.427030056715011874e-01 -6.766527891159057617e-01 1.500000000000000000e+01
-3.478626966476439986e+00 2.896629571914672852e-01 -6.785168051719665527e-01 1.100000000000000000e+01
-4.487998962402343750e+01 3.745014190673828125e+00 3.940136909484862837e+00 5.400000000000000000e+01
-4.299217700958251953e+00 3.595041632652283270e-01 -6.833057403564453125e-01 1.000000000000000000e+01
-4.485278320312500000e+01 3.758510112762451172e+00 5.526531219482421875e+00 3.800000000000000000e+01
-5.655474662780761719e+00 4.749034643173217773e-01 -6.968489289283752441e-01 1.000000000000000000e+01
-8.175765037536621094e+00 6.879751682281494141e-01 -7.178146839141845703e-01 1.000000000000000000e+00
-3.429950332641602273e+01 2.910355091094971147e+00 -6.008514761924743652e-01 2.000000000000000000e+01
-2.527099132537841797e+00 2.184261381626128873e-01 -6.796588301658630371e-01 1.300000000000000000e+01
-4.474365615844727273e+01 3.875220775604248047e+00 7.839272022247314453e-01 4.800000000000000000e+01
-2.916046857833861861e+00 2.530698180198668878e-01 -6.757529377937316895e-01 1.500000000000000000e+01
-3.463850975036621094e+00 3.012202084064484198e-01 -6.758454442024230957e-01 1.100000000000000000e+01
-4.486596298217772727e+01 3.909482479095458984e+00 3.940136909484862837e+00 5.400000000000000000e+01
-4.295903205871582031e+00 3.750873506069182794e-01 -6.829928755760192871e-01 9.000000000000000000e+00
-4.486639022827147727e+01 3.925300598144530806e+00 5.529943466186523438e+00 3.800000000000000000e+01
-5.641830921173095703e+00 4.945884943008422852e-01 -6.953864693641662598e-01 1.000000000000000000e+01
-8.175172805786132812e+00 7.181105613708496094e-01 -7.179890275001525879e-01 2.000000000000000000e+00
-3.427466201782227273e+01 3.034814834594727007e+00 -6.006070971488952637e-01 1.900000000000000000e+01
-2.512852668762207031e+00 2.260345071554183960e-01 -6.760353446006774902e-01 1.300000000000000000e+01
-4.470994186401367188e+01 4.029586791992188388e+00 7.835781574249267578e-01 4.800000000000000000e+01
-2.913204908370972124e+00 2.630718946456909180e-01 -6.753030419349670410e-01 1.400000000000000000e+01
-3.464733600616455078e+00 3.134863972663878839e-01 -6.762270927429199219e-01 1.100000000000000000e+01
-4.485204315185546875e+01 4.066070079803466797e+00 3.940136909484862837e+00 5.400000000000000000e+01
-4.290633201599121094e+00 3.897231817245482843e-01 -6.823671460151672363e-01 1.000000000000000000e+01
-4.486427688598632812e+01 4.082969188690186435e+00 5.531405925750732422e+00 3.800000000000000000e+01
-5.647977828979492188e+00 5.150001645088195801e-01 -6.963614225387573242e-01 1.000000000000000000e+01
-8.158727645874023438e+00 7.453739643096923828e-01 -7.167688012123107910e-01 2.000000000000000000e+00
-1.526490211486816051e+01 1.399960756301880105e+00 -8.033569455146789551e-01 4.000000000000000000e+00
-3.429373168945313211e+01 3.157187223434447798e+00 -6.011306643486022949e-01 2.000000000000000000e+01
-2.513971805572510210e+00 2.349844127893447876e-01 -6.765530109405517578e-01 1.400000000000000000e+01
-4.473542404174804688e+01 4.189357757568359375e+00 7.842762470245361328e-01 4.800000000000000000e+01
-2.912268877029418945e+00 2.732392847537993830e-01 -6.753030419349670410e-01 1.400000000000000000e+01
-3.477300643920897993e+00 3.268648087978363037e-01 -6.788983941078186035e-01 1.000000000000000000e+01
-4.485741043090820312e+01 4.224476337432861328e+00 3.941879987716674805e+00 5.400000000000000000e+01
-4.281380176544188565e+00 4.039556980133057196e-01 -6.811156868934631348e-01 9.000000000000000000e+00
-4.484184646606445312e+01 4.238802433013916016e+00 5.530430793762207031e+00 3.800000000000000000e+01
-5.618478298187255859e+00 5.320919156074523926e-01 -6.929491162300109863e-01 1.000000000000000000e+01
