-3.597937774658203125e+01 2.795878982543944957e+01 1.051961135864257990e+01 1.300000000000000000e+01
-1.875507950782776101e+00 1.462147116661071999e+00 -6.372125148773193359e-01 1.900000000000000000e+01
-2.157197475433350053e+00 1.682963371276855025e+00 -6.316625475883483887e-01 1.300000000000000000e+01
-2.541320562362670898e+00 1.983355164527893066e+00 -6.266167163848876953e-01 1.200000000000000000e+01
-3.076296567916870117e+00 2.402601957321166992e+00 -6.182290315628051758e-01 9.000000000000000000e+00
-3.921100378036499023e+00 3.064601659774779829e+00 -6.110528707504272461e-01 9.000000000000000000e+00
-5.371157646179199219e+00 4.199428081512451172e+00 -5.964938998222351074e-01 4.000000000000000000e+00
-8.275568008422851562e+00 6.474891185760498047e+00 -5.506789088249206543e-01 2.000000000000000000e+00
-3.542118835449218750e+01 2.772387886047362926e+01 1.038464069366455078e+01 1.300000000000000000e+01
-1.864825963973999023e+00 1.463261723518372026e+00 -6.351419091224670410e-01 1.900000000000000000e+01
-2.156497716903686968e+00 1.693342685699462891e+00 -6.330122947692871094e-01 1.300000000000000000e+01
-2.541252613067626953e+00 1.996180176734924094e+00 -6.281431913375854492e-01 1.600000000000000000e+01
-3.065627574920653853e+00 2.409812927246094194e+00 -6.176032423973083496e-01 9.000000000000000000e+00
-3.914573669433594194e+00 3.079359531402587891e+00 -6.115403771400451660e-01 9.000000000000000000e+00
-3.517655563354492188e+01 2.768121910095214844e+01 7.089610099792479581e+00 1.500000000000000000e+01
-5.357938289642333984e+00 4.216281414031982422e+00 -5.964938998222351074e-01 4.000000000000000000e+00
-8.280291557312011719e+00 6.520628452301025391e+00 -5.523536801338195801e-01 2.000000000000000000e+00
-3.545638275146483664e+01 2.793149375915526988e+01 1.042063236236572088e+01 1.300000000000000000e+01
-1.865769505500793013e+00 1.474553704261780007e+00 -6.372125148773193359e-01 1.800000000000000000e+01
-2.152102231979370117e+00 1.702068805694580078e+00 -6.334621906280517578e-01 1.200000000000000000e+01
-2.531189918518065962e+00 2.002602338790893999e+00 -6.273799538612365723e-01 1.300000000000000000e+01
-3.041709661483765093e+00 2.408237457275391069e+00 -6.144745945930480957e-01 9.000000000000000000e+00
-3.900689125061035156e+00 3.090539693832397017e+00 -6.110528707504272461e-01 9.000000000000000000e+00
-5.319766521453857422e+00 4.216394901275634766e+00 -5.938792228698730469e-01 4.000000000000000000e+00
-8.204276084899902344e+00 6.507293701171875000e+00 -5.487948656082153320e-01 2.000000000000000000e+00
-1.857329845428467019e+00 1.478975415229796919e+00 -6.361772418022155762e-01 1.800000000000000000e+01
-2.136705160140991211e+00 1.702658414840698020e+00 -6.307627558708190918e-01 1.300000000000000000e+01
-2.529973745346068892e+00 2.016761302947998047e+00 -6.289064288139343262e-01 1.400000000000000000e+01
-3.039039611816405806e+00 2.424297094345093218e+00 -6.157260537147521973e-01 9.000000000000000000e+00
-3.876924276351929155e+00 3.094907999038695845e+00 -6.091029644012451172e-01 8.000000000000000000e+00
-5.305833816528320312e+00 4.237107753753662109e+00 -5.940535664558410645e-01 4.000000000000000000e+00
-8.180371284484863281e+00 6.537320137023925781e+00 -5.487948656082153320e-01 2.000000000000000000e+00
-3.531039810180664062e+01 2.822830390930176137e+01 1.043682956695556996e+01 1.300000000000000000e+01
-1.855170130729675071e+00 1.487866997718811035e+00 -6.372125148773193359e-01 1.800000000000000000e+01
-2.132268428802489790e+00 1.711326360702515093e+00 -6.312126517295837402e-01 1.400000000000000000e+01
-2.507609367370605025e+00 2.013288974761962891e+00 -6.250902414321899414e-01 1.300000000000000000e+01
-3.024399042129517046e+00 2.429941415786743164e+00 -6.144745945930480957e-01 9.000000000000000000e+00
-3.863003253936768022e+00 3.105934381484984907e+00 -6.086155176162719727e-01 8.000000000000000000e+00
-5.289458751678466797e+00 4.254354000091552734e+00 -5.938792228698730469e-01 4.000000000000000000e+00
-8.132607460021972656e+00 6.545798301696777344e+00 -5.471200942993164062e-01 2.000000000000000000e+00
-1.844213843345642090e+00 1.489156126976012962e+00 -6.351419091224670410e-01 2.000000000000000000e+01
-2.126581668853760210e+00 1.718387842178344949e+00 -6.312126517295837402e-01 1.100000000000000000e+01
-2.500919342041016069e+00 2.021593570709228960e+00 -6.250902414321899414e-01 1.400000000000000000e+01
-3.022467613220214844e+00 2.444926738739014116e+00 -6.157260537147521973e-01 9.000000000000000000e+00
-3.837253093719481978e+00 3.106237649917602983e+00 -6.061781048774719238e-01 9.000000000000000000e+00
-5.255192756652832031e+00 4.255571365356445312e+00 -5.916131734848022461e-01 6.000000000000000000e+00
-8.079821586608886719e+00 6.547581672668457031e+00 -5.450266599655151367e-01 2.000000000000000000e+00
-1.836006879806518999e+00 1.493146777153014915e+00 -6.341066360473632812e-01 1.900000000000000000e+01
-2.120570421218872070e+00 1.725800514221190962e+00 -6.312126517295837402e-01 1.400000000000000000e+01
-2.490802526473999023e+00 2.027832031250000000e+00 -6.243270039558410645e-01 1.300000000000000000e+01
-3.013914823532104048e+00 2.455462217330933061e+00 -6.157260537147521973e-01 9.000000000000000000e+00
-3.835618257522583008e+00 3.127139329910277876e+00 -6.076405644416809082e-01 8.000000000000000000e+00
-5.231041908264160156e+00 4.266334056854248047e+00 -5.905672907829284668e-01 4.000000000000000000e+00
-8.072390556335449219e+00 6.588374137878417969e+00 -5.460733771324157715e-01 2.000000000000000000e+00
-1.831045389175415039e+00 1.499227046966552956e+00 -6.341066360473632812e-01 2.000000000000000000e+01
-2.119358062744141069e+00 1.736528277397155984e+00 -6.325623393058776855e-01 1.200000000000000000e+01
-2.488619327545166016e+00 2.039814233779906782e+00 -6.254718899726867676e-01 1.300000000000000000e+01
-2.993537187576293945e+00 2.455421209335327148e+00 -6.132230758666992188e-01 9.000000000000000000e+00
-3.819089651107788086e+00 3.134803771972655806e+00 -6.066656112670898438e-01 8.000000000000000000e+00
-5.206087112426757812e+00 4.274806499481201172e+00 -5.893471240997314453e-01 4.000000000000000000e+00
-8.028894424438476562e+00 6.597355365753173828e+00 -5.446079373359680176e-01 2.000000000000000000e+00
-1.831762671470642090e+00 1.510525703430176003e+00 -6.361772418022155762e-01 1.900000000000000000e+01
-2.105768203735352007e+00 1.737713932991028054e+00 -6.303128600120544434e-01 1.200000000000000000e+01
-2.482997894287108931e+00 2.049738645553588867e+00 -6.258534789085388184e-01 1.300000000000000000e+01
-2.989516735076903853e+00 2.469629764556885210e+00 -6.141617298126220703e-01 1.000000000000000000e+01
-3.450912094116210938e+01 2.851800537109375000e+01 5.496794700622558594e+00 3.700000000000000000e+01
-3.803534030914307085e+00 3.144321203231811968e+00 -6.059343814849853516e-01 9.000000000000000000e+00
-5.183456420898438388e+00 4.286604404449462891e+00 -5.884755849838256836e-01 2.000000000000000000e+00
-7.990429401397705078e+00 6.612607479095458984e+00 -5.435612201690673828e-01 2.000000000000000000e+00
-1.824992656707763894e+00 1.515676259994507058e+00 -6.356595754623413086e-01 1.900000000000000000e+01
-2.096692323684691939e+00 1.742562770843506081e+00 -6.294130682945251465e-01 1.100000000000000000e+01
-2.472808599472045898e+00 2.055883169174193892e+00 -6.250902414321899414e-01 1.300000000000000000e+01
-2.982396364212036133e+00 2.481313467025756836e+00 -6.144745945930480957e-01 9.000000000000000000e+00
-3.435443496704102273e+01 2.859257507324219105e+01 5.488020420074462891e+00 3.700000000000000000e+01
-3.792535066604613814e+00 3.157578945159912109e+00 -6.059343814849853516e-01 9.000000000000000000e+00
-5.168461799621582031e+00 4.304672241210938388e+00 -5.884755849838256836e-01 4.000000000000000000e+00
-7.942750453948974609e+00 6.619999408721923828e+00 -5.418865084648132324e-01 2.000000000000000000e+00
-1.816727161407470925e+00 1.519558548927306907e+00 -6.346243023872375488e-01 1.900000000000000000e+01
-2.093585491180419922e+00 1.752372503280640093e+00 -6.303128600120544434e-01 1.200000000000000000e+01
-2.447554111480712891e+00 2.049377918243408203e+00 -6.205108761787414551e-01 1.200000000000000000e+01
-2.973716735839844194e+00 2.491708993911743164e+00 -6.144745945930480957e-01 9.000000000000000000e+00
-3.787574529647827148e+00 3.175899982452393022e+00 -6.069093346595764160e-01 9.000000000000000000e+00
-5.156457424163818359e+00 4.325248241424561435e+00 -5.888242125511169434e-01 5.000000000000000000e+00
-7.907355785369873047e+00 6.637411594390869141e+00 -5.410491228103637695e-01 2.000000000000000000e+00
-1.801334142684936968e+00 1.516864180564879927e+00 -6.310008168220520020e-01 2.000000000000000000e+01
-2.093723773956298828e+00 1.764328479766845925e+00 -6.321124434471130371e-01 1.200000000000000000e+01
-2.452753305435181108e+00 2.067605972290039062e+00 -6.235638260841369629e-01 1.100000000000000000e+01
-2.966947555541992188e+00 2.502830266952515093e+00 -6.147874593734741211e-01 8.000000000000000000e+00
-3.763370037078856978e+00 3.176918029785155806e+00 -6.047157049179077148e-01 8.000000000000000000e+00
-5.126863479614257812e+00 4.329468727111816406e+00 -5.870810747146606445e-01 4.000000000000000000e+00
-7.909709930419921875e+00 6.684223175048828125e+00 -5.427238941192626953e-01 2.000000000000000000e+00
-1.801921844482422097e+00 1.528140783309936968e+00 -6.330713629722595215e-01 2.300000000000000000e+01
-2.084580659866333008e+00 1.769104361534119096e+00 -6.312126517295837402e-01 1.100000000000000000e+01
-2.439534425735474077e+00 2.071072578430175781e+00 -6.220373511314392090e-01 1.100000000000000000e+01
-2.949160337448120117e+00 2.505497694015502930e+00 -6.129102110862731934e-01 9.000000000000000000e+00
-3.756794929504394975e+00 3.193892717361450195e+00 -6.054468750953674316e-01 9.000000000000000000e+00
-5.107166290283203125e+00 4.343466281890869141e+00 -5.865581631660461426e-01 4.000000000000000000e+00
-7.843741893768311435e+00 6.675547599792479581e+00 -5.397930741310119629e-01 2.000000000000000000e+00
-1.800983548164367898e+00 1.538185358047484907e+00 -6.346243023872375488e-01 2.500000000000000000e+01
-2.069504261016846147e+00 1.768773317337035911e+00 -6.285132169723510742e-01 1.300000000000000000e+01
-2.441243410110474077e+00 2.087230443954468218e+00 -6.243270039558410645e-01 1.100000000000000000e+01
-2.934392690658568892e+00 2.510640144348144975e+00 -6.116587519645690918e-01 8.000000000000000000e+00
-3.736575841903686968e+00 3.199240446090697798e+00 -6.039844751358032227e-01 9.000000000000000000e+00
-5.084407806396484375e+00 4.354786872863770419e+00 -5.856865644454956055e-01 4.000000000000000000e+00
-7.838589668273925781e+00 6.718483924865722656e+00 -5.410491228103637695e-01 2.000000000000000000e+00
-1.795603394508362038e+00 1.544462561607361062e+00 -6.346243023872375488e-01 2.200000000000000000e+01
-2.069225311279296875e+00 1.781071662902832031e+00 -6.303128600120544434e-01 1.300000000000000000e+01
-2.425016164779663086e+00 2.088053226470946822e+00 -6.220373511314392090e-01 1.100000000000000000e+01
-2.925611019134521040e+00 2.520867586135863814e+00 -6.116587519645690918e-01 8.000000000000000000e+00
-6.119693756103516336e+01 5.274926757812500000e+01 9.920164108276367188e+00 6.300000000000000000e+01
-3.716365337371826172e+00 3.204486370086669922e+00 -6.025220155715942383e-01 1.100000000000000000e+01
-5.052580356597900391e+00 4.358193397521972656e+00 -5.837691426277160645e-01 5.000000000000000000e+00
-7.815089702606201172e+00 6.745804786682128906e+00 -5.410491228103637695e-01 2.000000000000000000e+00
-1.787280797958374023e+00 1.548191189765929954e+00 -6.335890293121337891e-01 2.100000000000000000e+01
-2.058578014373778853e+00 1.784454464912414995e+00 -6.289631724357604980e-01 1.200000000000000000e+01
-2.411779642105102983e+00 2.091360569000244141e+00 -6.205108761787414551e-01 1.100000000000000000e+01
-2.922761440277100053e+00 2.536243200302124023e+00 -6.129102110862731934e-01 9.000000000000000000e+00
-3.702159166336060014e+00 3.214836120605469194e+00 -6.020345687866210938e-01 9.000000000000000000e+00
-5.044857025146484375e+00 4.382336616516113281e+00 -5.846407413482666016e-01 5.000000000000000000e+00
-7.764362812042236328e+00 6.749457359313964844e+00 -5.391650199890136719e-01 2.000000000000000000e+00
-1.771675348281859907e+00 1.545530915260314941e+00 -6.299655437469482422e-01 2.000000000000000000e+01
-2.052336692810059038e+00 1.791629314422606978e+00 -6.289631724357604980e-01 1.200000000000000000e+01
-2.398549795150756836e+00 2.094600915908813032e+00 -6.189844012260437012e-01 1.200000000000000000e+01
-2.915378093719481978e+00 2.547729969024658203e+00 -6.132230758666992188e-01 9.000000000000000000e+00
-3.686431884765625000e+00 3.223819255828856978e+00 -6.013033390045166016e-01 1.100000000000000000e+01
-5.011534690856933594e+00 4.384177684783936435e+00 -5.825489759445190430e-01 4.000000000000000000e+00
-7.758788585662841797e+00 6.792305946350097656e+00 -5.404210686683654785e-01 2.000000000000000000e+00
-1.771166563034058061e+00 1.554912686347960982e+00 -6.315184831619262695e-01 2.200000000000000000e+01
-2.049625873565673828e+00 1.800640463829040971e+00 -6.298629641532897949e-01 1.300000000000000000e+01
-2.400805711746215820e+00 2.109901905059814009e+00 -6.212741136550903320e-01 1.200000000000000000e+01
-2.894009590148925781e+00 2.545135498046875000e+00 -6.104072928428649902e-01 9.000000000000000000e+00
-6.125301742553710938e+01 5.388790512084960938e+01 1.001717281341552912e+01 6.300000000000000000e+01
-3.698638439178466797e+00 3.255056619644165039e+00 -6.049594283103942871e-01 1.100000000000000000e+01
-4.996241092681884766e+00 4.398583889007568359e+00 -5.823746919631958008e-01 4.000000000000000000e+00
-7.707438945770263672e+00 6.790241718292236328e+00 -5.383276343345642090e-01 2.000000000000000000e+00
-1.771517395973206010e+00 1.566204071044922097e+00 -6.335890293121337891e-01 2.200000000000000000e+01
-2.033111572265625000e+00 1.798745036125183105e+00 -6.267136335372924805e-01 1.300000000000000000e+01
-2.400777101516724077e+00 2.124775171279906782e+00 -6.231821775436401367e-01 1.200000000000000000e+01
-2.885107755661011186e+00 2.555222034454346147e+00 -6.104072928428649902e-01 9.000000000000000000e+00
-3.672397851943970171e+00 3.254780769348144975e+00 -6.025220155715942383e-01 9.000000000000000000e+00
-4.973402500152587891e+00 4.409388065338134766e+00 -5.815030932426452637e-01 5.000000000000000000e+00
-7.695641994476318359e+00 6.827708244323729581e+00 -5.391650199890136719e-01 2.000000000000000000e+00
-1.737019920349121094e+01 1.542198467254639027e+01 -4.054543077945709229e-01 3.000000000000000000e+00
-1.771535515785217063e+00 1.577826023101807085e+00 -6.356595754623413086e-01 2.200000000000000000e+01
-2.027959823608397993e+00 1.807481288909912109e+00 -6.271635293960571289e-01 1.500000000000000000e+01
-2.385646343231201172e+00 2.127027511596680132e+00 -6.212741136550903320e-01 1.200000000000000000e+01
-2.875723123550415039e+00 2.565779447555541992e+00 -6.104072928428649902e-01 8.000000000000000000e+00
-3.657482147216796875e+00 3.265574693679810014e+00 -6.020345687866210938e-01 9.000000000000000000e+00
-4.957208156585693359e+00 4.427587032318115234e+00 -5.815030932426452637e-01 4.000000000000000000e+00
-7.619934558868408203e+00 6.810615062713623047e+00 -5.356062054634094238e-01 2.000000000000000000e+00
-1.758826494216918945e+00 1.577550649642943892e+00 -6.330713629722595215e-01 2.000000000000000000e+01
-2.023088455200194868e+00 1.815850853919982910e+00 -6.276134252548217773e-01 1.400000000000000000e+01
-2.362138032913208008e+00 2.120913982391356978e+00 -6.170762777328491211e-01 1.200000000000000000e+01
-2.869688034057617188e+00 2.578442335128784180e+00 -6.110330224037170410e-01 9.000000000000000000e+00
-3.640156269073485884e+00 3.273012876510620117e+00 -6.010596156120300293e-01 9.000000000000000000e+00
-4.935797214508056641e+00 4.439534187316895419e+00 -5.808058977127075195e-01 4.000000000000000000e+00
-7.587207794189453125e+00 6.829154968261718750e+00 -5.349781513214111328e-01 2.000000000000000000e+00
-1.746140956878662109e+00 1.577206015586853027e+00 -6.304832100868225098e-01 2.200000000000000000e+01
-2.019629001617432085e+00 1.825515270233154075e+00 -6.285132169723510742e-01 1.400000000000000000e+01
-2.360545158386230025e+00 2.134413480758666992e+00 -6.186027526855468750e-01 1.200000000000000000e+01
-2.848952054977416992e+00 2.577840805053710938e+00 -6.085300445556640625e-01 9.000000000000000000e+00
-3.634595155715941939e+00 3.291028976440430132e+00 -6.020345687866210938e-01 9.000000000000000000e+00
-4.908456802368164062e+00 4.446035861968994141e+00 -5.794113874435424805e-01 5.000000000000000000e+00
-7.587000370025634766e+00 6.877059459686279297e+00 -5.366529226303100586e-01 2.000000000000000000e+00
-1.744912147521973100e+00 1.587191224098206010e+00 -6.320360898971557617e-01 2.300000000000000000e+01
-2.011803388595581055e+00 1.831242084503174050e+00 -6.280633211135864258e-01 1.500000000000000000e+01
-2.361790180206298828e+00 2.150571107864379883e+00 -6.208924651145935059e-01 1.200000000000000000e+01
-2.839936256408690962e+00 2.587769746780395952e+00 -6.085300445556640625e-01 8.000000000000000000e+00
-3.623085260391234907e+00 3.303696155548096147e+00 -6.020345687866210938e-01 9.000000000000000000e+00
-4.903211593627929688e+00 4.472541809082031250e+00 -5.806315541267395020e-01 4.000000000000000000e+00
-7.500993728637695312e+00 6.846948146820068359e+00 -5.322566628456115723e-01 2.000000000000000000e+00
-1.739639163017272949e+00 1.592968821525573953e+00 -6.320360898971557617e-01 2.300000000000000000e+01
-1.997099041938781960e+00 1.830004096031188965e+00 -6.253639459609985352e-01 1.500000000000000000e+01
-2.343067646026610884e+00 2.147778511047362837e+00 -6.178395152091979980e-01 1.200000000000000000e+01
-2.831339359283446822e+00 2.597173213958739790e+00 -6.085300445556640625e-01 8.000000000000000000e+00
-3.612109899520874023e+00 3.315692424774169922e+00 -6.020345687866210938e-01 9.000000000000000000e+00
-4.867807388305664062e+00 4.469910621643066406e+00 -5.781912207603454590e-01 4.000000000000000000e+00
-7.466481685638427734e+00 6.860973358154296875e+00 -5.314192771911621094e-01 2.000000000000000000e+00
-1.735488295555114968e+00 1.600341200828552024e+00 -6.325537562370300293e-01 2.200000000000000000e+01
-1.996427655220031960e+00 1.842250347137450950e+00 -6.271635293960571289e-01 1.500000000000000000e+01
-2.335556268692017046e+00 2.155944108963013139e+00 -6.178395152091979980e-01 1.200000000000000000e+01
-2.819354295730590820e+00 2.604359865188599077e+00 -6.079043149948120117e-01 9.000000000000000000e+00
-3.591767787933350053e+00 3.320195913314818892e+00 -6.005721092224121094e-01 9.000000000000000000e+00
-4.863877773284912109e+00 4.497696876525878906e+00 -5.795856714248657227e-01 5.000000000000000000e+00
-7.419032573699951172e+00 6.865290641784667969e+00 -5.297445654869079590e-01 2.000000000000000000e+00
-1.728755950927733931e+00 1.604773163795470969e+00 -6.320360898971557617e-01 2.000000000000000000e+01
-1.988879799842834029e+00 1.847534418106079102e+00 -6.267136335372924805e-01 1.400000000000000000e+01
-2.322641372680664062e+00 2.158331632614136186e+00 -6.163130402565002441e-01 1.200000000000000000e+01
-2.806362628936768022e+00 2.609659194946289062e+00 -6.069657206535339355e-01 9.000000000000000000e+00
-3.572018623352050781e+00 3.323974609375000000e+00 -5.991097092628479004e-01 9.000000000000000000e+00
-4.835811138153076172e+00 4.501583576202392578e+00 -5.780168771743774414e-01 5.000000000000000000e+00
-7.419608116149902344e+00 6.911636829376220703e+00 -5.314192771911621094e-01 2.000000000000000000e+00
-1.716087460517883079e+00 1.604201674461364968e+00 -6.294479370117187500e-01 1.900000000000000000e+01
-1.983841657638550027e+00 1.855796933174133079e+00 -6.271635293960571289e-01 1.300000000000000000e+01
-2.315093278884888139e+00 2.166425943374633789e+00 -6.163130402565002441e-01 1.100000000000000000e+01
-2.800119876861571822e+00 2.622139692306518999e+00 -6.075914502143859863e-01 9.000000000000000000e+00
-3.560394048690795898e+00 3.336422920227050781e+00 -5.991097092628479004e-01 9.000000000000000000e+00
-4.804078578948974609e+00 4.503447055816650391e+00 -5.760994553565979004e-01 5.000000000000000000e+00
-7.395436763763427734e+00 6.937494277954101562e+00 -5.314192771911621094e-01 2.000000000000000000e+00
-1.714978933334351030e+00 1.613855361938477007e+00 -6.310008168220520020e-01 1.700000000000000000e+01
-1.979095458984375000e+00 1.863701343536376953e+00 -6.276134252548217773e-01 1.400000000000000000e+01
-2.312183618545531782e+00 2.178129673004149947e+00 -6.174579262733459473e-01 1.100000000000000000e+01
-2.782784938812255859e+00 2.623281002044678178e+00 -6.057142615318298340e-01 9.000000000000000000e+00
-3.559418201446533203e+00 3.357746601104735884e+00 -6.008158922195434570e-01 9.000000000000000000e+00
-4.781873226165770596e+00 4.512516498565673828e+00 -5.752279162406921387e-01 5.000000000000000000e+00
-7.357869625091552734e+00 6.948267459869384766e+00 -5.303725600242614746e-01 2.000000000000000000e+00
-1.709335088729857954e+00 1.619831919670104980e+00 -6.310008168220520020e-01 1.800000000000000000e+01
-1.952781319618225098e+00 1.851825237274169922e+00 -6.213148236274719238e-01 1.400000000000000000e+01
-2.305990695953369141e+00 2.187538623809814009e+00 -6.178395152091979980e-01 1.100000000000000000e+01
-2.776476144790648970e+00 2.635698795318603960e+00 -6.063399910926818848e-01 9.000000000000000000e+00
-3.539040565490723100e+00 3.361947536468505859e+00 -5.993534326553344727e-01 9.000000000000000000e+00
-4.767536640167236328e+00 4.530553340911865234e+00 -5.754022002220153809e-01 4.000000000000000000e+00
-7.324886798858642578e+00 6.965650558471679688e+00 -5.297445654869079590e-01 2.000000000000000000e+00
-1.713453531265259011e+00 1.635124683380126953e+00 -6.346243023872375488e-01 1.900000000000000000e+01
-1.957580208778380904e+00 1.869397282600403054e+00 -6.249140501022338867e-01 1.200000000000000000e+01
-2.291242599487305132e+00 2.188794136047362837e+00 -6.159314513206481934e-01 1.200000000000000000e+01
-2.770114898681641069e+00 2.648104429244995117e+00 -6.069657206535339355e-01 9.000000000000000000e+00
-3.502898216247559038e+00 3.350952863693236861e+00 -5.952098965644836426e-01 9.000000000000000000e+00
-4.753132343292236328e+00 4.548544883728027344e+00 -5.755765438079833984e-01 5.000000000000000000e+00
-7.268792152404785156e+00 6.960786342620849609e+00 -5.274417400360107422e-01 2.000000000000000000e+00
-1.699377894401550071e+00 1.633064389228821023e+00 -6.315184831619262695e-01 1.600000000000000000e+01
-1.955256700515747070e+00 1.880271434783935991e+00 -6.262637376785278320e-01 9.000000000000000000e+00
-2.287832975387572798e+00 2.200861930847167969e+00 -6.170762777328491211e-01 1.200000000000000000e+01
-2.756584882736206055e+00 2.653647899627685991e+00 -6.060271263122558594e-01 8.000000000000000000e+00
-3.514054059982299805e+00 3.385195493698120117e+00 -5.991097092628479004e-01 9.000000000000000000e+00
-4.735791206359863281e+00 4.563725948333740234e+00 -5.754022002220153809e-01 4.000000000000000000e+00
-7.261702537536621094e+00 7.002753734588623047e+00 -5.286978483200073242e-01 2.000000000000000000e+00
-1.681172847747802956e+00 1.626895427703856978e+00 -6.268597245216369629e-01 1.700000000000000000e+01
-1.950081348419189009e+00 1.888440847396851030e+00 -6.267136335372924805e-01 7.000000000000000000e+00
-2.270265817642211914e+00 2.199272394180297852e+00 -6.144049763679504395e-01 1.200000000000000000e+01
-2.752978563308715820e+00 2.668753623962401900e+00 -6.072785854339599609e-01 8.000000000000000000e+00
-3.496516704559326172e+00 3.391912221908568892e+00 -5.981347560882568359e-01 9.000000000000000000e+00
-4.694095611572265625e+00 4.555253982543945312e+00 -5.722646117210388184e-01 6.000000000000000000e+00
-7.211422920227050781e+00 7.003013610839843750e+00 -5.268137454986572266e-01 2.000000000000000000e+00
-1.679634332656859907e+00 1.636798739433289018e+00 -6.284126639366149902e-01 1.600000000000000000e+01
-1.942082405090332031e+00 1.893875837326050027e+00 -6.262637376785278320e-01 7.000000000000000000e+00
-2.259764432907104048e+00 2.204442024230957031e+00 -6.136417388916015625e-01 1.200000000000000000e+01
-2.729510784149169922e+00 2.664548158645629883e+00 -6.041498780250549316e-01 9.000000000000000000e+00
-3.478975534439086914e+00 3.398548126220703125e+00 -5.971598029136657715e-01 9.000000000000000000e+00
-4.671041011810302734e+00 4.564649105072020596e+00 -5.713930726051330566e-01 6.000000000000000000e+00
-7.169798374176025391e+00 7.011386394500732422e+00 -5.255576968193054199e-01 2.000000000000000000e+00
-1.682471752166748047e+00 1.650476694107056108e+00 -6.315184831619262695e-01 1.900000000000000000e+01
-1.939963340759276900e+00 1.904401063919066939e+00 -6.276134252548217773e-01 8.000000000000000000e+00
-2.259445667266846147e+00 2.218801259994506836e+00 -6.155498027801513672e-01 1.200000000000000000e+01
-2.724886655807495117e+00 2.677738666534423828e+00 -6.050885319709777832e-01 9.000000000000000000e+00
-3.470517158508300781e+00 3.412849903106689009e+00 -5.976472496986389160e-01 9.000000000000000000e+00
-4.661560058593750000e+00 4.585702419281005859e+00 -5.720902681350708008e-01 4.000000000000000000e+00
-7.140815258026123047e+00 7.029519557952880859e+00 -5.251389741897583008e-01 2.000000000000000000e+00
-1.679448962211609109e+00 1.659054875373840110e+00 -6.325537562370300293e-01 1.800000000000000000e+01
-1.934689879417418990e+00 1.912531256675719993e+00 -6.280633211135864258e-01 9.000000000000000000e+00
-2.247498989105225053e+00 2.222533464431763139e+00 -6.144049763679504395e-01 1.100000000000000000e+01
-2.709906578063964844e+00 2.681676149368286133e+00 -6.038370132446289062e-01 9.000000000000000000e+00
-3.436014652252196822e+00 3.402594804763793945e+00 -5.937474370002746582e-01 9.000000000000000000e+00
-4.642693519592285156e+00 4.599142074584960938e+00 -5.717417001724243164e-01 6.000000000000000000e+00
-7.102049827575683594e+00 7.040341854095458984e+00 -5.240922570228576660e-01 2.000000000000000000e+00
-1.670618176460265891e+00 1.662473917007446067e+00 -6.315184831619262695e-01 1.800000000000000000e+01
-1.924905419349669966e+00 1.916859149932861106e+00 -6.271635293960571289e-01 1.300000000000000000e+01
-2.235165357589722124e+00 2.226599216461182085e+00 -6.132600903511047363e-01 1.200000000000000000e+01
-2.705655574798583984e+00 2.697168827056885210e+00 -6.050885319709777832e-01 9.000000000000000000e+00
-3.423520565032958984e+00 3.415165424346923828e+00 -5.937474370002746582e-01 9.000000000000000000e+00
-4.637088298797607422e+00 4.627386569976806641e+00 -5.731361508369445801e-01 2.000000000000000000e+00
-7.087503910064697266e+00 7.077614784240722656e+00 -5.249296426773071289e-01 2.000000000000000000e+00
-1.652523517608643022e+00 1.655988216400146040e+00 -6.268597245216369629e-01 1.600000000000000000e+01
-1.919578552246093972e+00 1.924946546554564986e+00 -6.276134252548217773e-01 1.300000000000000000e+01
-2.225993394851685014e+00 2.232997417449951172e+00 -6.128785014152526855e-01 1.100000000000000000e+01
-2.693435907363892046e+00 2.703798055648804155e+00 -6.044628024101257324e-01 9.000000000000000000e+00
-3.422782421112060991e+00 3.438349723815917969e+00 -5.956973433494567871e-01 9.000000000000000000e+00
-4.592799663543701172e+00 4.615299224853515625e+00 -5.696499347686767578e-01 3.000000000000000000e+00
-7.037405490875244141e+00 7.076819896697998047e+00 -5.230455398559570312e-01 2.000000000000000000e+00
-1.648383021354675071e+00 1.662831068038939986e+00 -6.273773908615112305e-01 1.900000000000000000e+01
-1.904955983161926047e+00 1.922994852066040039e+00 -6.249140501022338867e-01 1.400000000000000000e+01
-2.224102020263671875e+00 2.245946884155272993e+00 -6.144049763679504395e-01 1.200000000000000000e+01
-2.681676149368286133e+00 2.709906578063964844e+00 -6.038370132446289062e-01 9.000000000000000000e+00
-3.405778408050537109e+00 3.444035291671752930e+00 -5.947223901748657227e-01 9.000000000000000000e+00
-4.585873603820800781e+00 4.639005661010742188e+00 -5.706958174705505371e-01 4.000000000000000000e+00
-7.013899326324462891e+00 7.100118160247802734e+00 -5.230455398559570312e-01 2.000000000000000000e+00
-1.646634340286255105e+00 1.672704935073852983e+00 -6.289302706718444824e-01 1.900000000000000000e+01
-1.894132018089293990e+00 1.925464987754821999e+00 -6.235643029212951660e-01 1.200000000000000000e+01
-2.223131179809569868e+00 2.260695695877075195e+00 -6.163130402565002441e-01 1.200000000000000000e+01
-2.674969673156737837e+00 2.722068786621094194e+00 -6.044628024101257324e-01 9.000000000000000000e+00
-3.392344713211060014e+00 3.454486370086669922e+00 -5.944786667823791504e-01 9.000000000000000000e+00
-4.573839664459229404e+00 4.659250736236572266e+00 -5.712187290191650391e-01 4.000000000000000000e+00
-6.983478069305419922e+00 7.118854999542236328e+00 -5.226268768310546875e-01 2.000000000000000000e+00
-1.647537708282470925e+00 1.685349822044373003e+00 -6.315184831619262695e-01 1.900000000000000000e+01
-1.888761043548583984e+00 1.933459043502808061e+00 -6.240141987800598145e-01 1.400000000000000000e+01
-2.205624818801879883e+00 2.258610010147095171e+00 -6.136417388916015625e-01 1.200000000000000000e+01
-2.662692308425902876e+00 2.728562116622924805e+00 -6.038370132446289062e-01 9.000000000000000000e+00
-3.376107931137084961e+00 3.462043285369873047e+00 -5.937474370002746582e-01 9.000000000000000000e+00
-4.550594329833984375e+00 4.668054580688476562e+00 -5.703471899032592773e-01 7.000000000000000000e+00
-6.947436809539794922e+00 7.131742954254150391e+00 -5.217894911766052246e-01 2.000000000000000000e+00
-1.634916663169861062e+00 1.684159755706787109e+00 -6.289302706718444824e-01 1.900000000000000000e+01
-1.882000565528870073e+00 1.940040230751038042e+00 -6.240141987800598145e-01 1.400000000000000000e+01
-2.194993972778319868e+00 2.263476371765137163e+00 -6.128785014152526855e-01 1.200000000000000000e+01
-2.658650398254394975e+00 2.743514299392700195e+00 -6.050885319709777832e-01 9.000000000000000000e+00
-3.354336023330688032e+00 3.463824748992919922e+00 -5.920412540435791016e-01 8.000000000000000000e+00
-4.534271717071533203e+00 4.683910369873046875e+00 -5.703471899032592773e-01 4.000000000000000000e+00
-6.883617401123046875e+00 7.115756988525390625e+00 -5.188586711883544922e-01 2.000000000000000000e+00
-1.625593900680541992e+00 1.685116648674011008e+00 -6.273773908615112305e-01 1.800000000000000000e+01
-1.884011387825011985e+00 1.954361081123352051e+00 -6.267136335372924805e-01 1.400000000000000000e+01
-2.189234495162963867e+00 2.271774768829346147e+00 -6.132600903511047363e-01 1.200000000000000000e+01
-2.644537210464477983e+00 2.746161699295043945e+00 -6.038370132446289062e-01 9.000000000000000000e+00
-3.357202053070067915e+00 3.488649129867554155e+00 -5.944786667823791504e-01 8.000000000000000000e+00
-4.494671821594238281e+00 4.672286987304688388e+00 -5.672096014022827148e-01 4.000000000000000000e+00
-6.866765022277832031e+00 7.143106460571289062e+00 -5.192773342132568359e-01 2.000000000000000000e+00
-1.614356279373168945e+00 1.685200572013854980e+00 -6.253067851066589355e-01 1.800000000000000000e+01
-1.866397261619568093e+00 1.949663996696471946e+00 -6.231144070625305176e-01 1.200000000000000000e+01
-2.179933786392211914e+00 2.277984380722045898e+00 -6.128785014152526855e-01 1.200000000000000000e+01
-2.621282815933227983e+00 2.741099357604980025e+00 -6.007083654403686523e-01 9.000000000000000000e+00
-3.336775302886962891e+00 3.491735696792602983e+00 -5.930162072181701660e-01 8.000000000000000000e+00
-4.474205970764160156e+00 4.683625698089599609e+00 -5.666866302490234375e-01 6.000000000000000000e+00
-6.833514213562011719e+00 7.158364772796630859e+00 -5.186493396759033203e-01 2.000000000000000000e+00
-1.612458586692810059e+00 1.695024609565735085e+00 -6.268597245216369629e-01 1.600000000000000000e+01
-1.859580278396606001e+00 1.956167101860045943e+00 -6.231144070625305176e-01 1.200000000000000000e+01
-2.171968936920166016e+00 2.285579919815063032e+00 -6.128785014152526855e-01 1.100000000000000000e+01
-2.623940944671630859e+00 2.763124465942382812e+00 -6.035241484642028809e-01 8.000000000000000000e+00
-3.313634872436522993e+00 3.491842508316040039e+00 -5.910663008689880371e-01 8.000000000000000000e+00
-4.457829952239990234e+00 4.699214935302734375e+00 -5.666866302490234375e-01 6.000000000000000000e+00
-6.791996479034423828e+00 7.164780616760253906e+00 -5.173932909965515137e-01 2.000000000000000000e+00
-1.615818262100219949e+00 1.710473060607909934e+00 -6.304832100868225098e-01 1.800000000000000000e+01
-5.837925338745117188e+01 6.182072448730468750e+01 1.484187602996825950e+00 1.000000000000000000e+01
-1.854078412055969016e+00 1.964063405990601030e+00 -6.235643029212951660e-01 1.200000000000000000e+01
-2.158587694168090820e+00 2.287436008453369141e+00 -6.113520264625549316e-01 1.100000000000000000e+01
-2.606148242950439009e+00 2.763643980026245117e+00 -6.016469597816467285e-01 9.000000000000000000e+00
-3.298702955245972124e+00 3.500498533248900923e+00 -5.905788540840148926e-01 8.000000000000000000e+00
-4.456427574157714844e+00 4.730700016021729404e+00 -5.686040520668029785e-01 7.000000000000000000e+00
-6.777897357940673828e+00 7.200079441070556641e+00 -5.182306170463562012e-01 2.000000000000000000e+00
-1.609837770462035911e+00 1.716102957725524902e+00 -6.304832100868225098e-01 1.900000000000000000e+01
-1.848544001579284890e+00 1.971945047378540039e+00 -6.240141987800598145e-01 1.200000000000000000e+01
-2.145220279693603960e+00 2.289226770401000977e+00 -6.098255515098571777e-01 1.200000000000000000e+01
-2.597835779190063032e+00 2.774166107177733931e+00 -6.019598245620727539e-01 9.000000000000000000e+00
-3.283751249313354048e+00 3.509093046188354048e+00 -5.900913476943969727e-01 8.000000000000000000e+00
-4.418109416961669922e+00 4.722946643829345703e+00 -5.658150911331176758e-01 6.000000000000000000e+00
-6.752723217010498047e+00 7.223694801330566406e+00 -5.182306170463562012e-01 2.000000000000000000e+00
-1.590669870376586914e+00 1.707576274871825950e+00 -6.253067851066589355e-01 1.800000000000000000e+01
-1.850943922996520996e+00 1.988370299339293990e+00 -6.271635293960571289e-01 1.300000000000000000e+01
-2.139891147613524947e+00 2.299575567245482954e+00 -6.105887889862060547e-01 1.200000000000000000e+01
-2.590826511383057085e+00 2.786110639572143999e+00 -6.025855541229248047e-01 9.000000000000000000e+00
-3.276887416839600053e+00 3.526350736618041992e+00 -5.910663008689880371e-01 9.000000000000000000e+00
-4.396172523498535156e+00 4.732501029968261719e+00 -5.651178359985351562e-01 6.000000000000000000e+00
-6.716596126556395596e+00 7.235512256622313565e+00 -5.173932909965515137e-01 2.000000000000000000e+00
-1.589946985244750977e+00 1.718790888786315918e+00 -6.273773908615112305e-01 1.900000000000000000e+01
-1.836055040359497070e+00 1.986233234405518022e+00 -6.244641542434692383e-01 1.200000000000000000e+01
-2.131850957870482954e+00 2.307031154632567915e+00 -6.105887889862060547e-01 1.100000000000000000e+01
-2.573044776916503906e+00 2.786429643630981001e+00 -6.007083654403686523e-01 9.000000000000000000e+00
-3.263211965560913086e+00 3.536309003829956055e+00 -5.908225774765014648e-01 9.000000000000000000e+00
-4.374222278594970703e+00 4.741960048675537109e+00 -5.644205808639526367e-01 4.000000000000000000e+00
-6.685883998870849609e+00 7.253039360046386719e+00 -5.169745683670043945e-01 2.000000000000000000e+00
-1.587858200073241965e+00 1.728598594665526900e+00 -6.289302706718444824e-01 1.900000000000000000e+01
-1.819885969161987083e+00 1.982580780982970969e+00 -6.213148236274719238e-01 1.400000000000000000e+01
-2.126439809799193892e+00 2.317351579666138139e+00 -6.113520264625549316e-01 1.200000000000000000e+01
-2.560632467269897017e+00 2.792482376098632812e+00 -6.000826358795166016e-01 9.000000000000000000e+00
-3.249506950378417969e+00 3.546214580535889116e+00 -5.905788540840148926e-01 9.000000000000000000e+00
-4.349568843841552734e+00 4.748384952545166016e+00 -5.633746981620788574e-01 4.000000000000000000e+00
-6.630856990814208984e+00 7.243921756744384766e+00 -5.146718025207519531e-01 2.000000000000000000e+00
-1.399086093902588068e+01 1.529512119293213068e+01 -3.618232905864716131e-01 3.000000000000000000e+00
-1.587022304534912109e+00 1.739839792251586914e+00 -6.310008168220520020e-01 1.900000000000000000e+01
-1.816892743110656960e+00 1.993241906166077104e+00 -6.226645112037658691e-01 1.500000000000000000e+01
-2.111726045608520952e+00 2.317504405975341797e+00 -6.094439029693603516e-01 1.200000000000000000e+01
-2.561509132385253906e+00 2.813088417053223100e+00 -6.025855541229248047e-01 9.000000000000000000e+00
-3.231764554977416992e+00 3.551662921905518022e+00 -5.896039009094238281e-01 9.000000000000000000e+00
-4.341011047363281250e+00 4.772381782531738281e+00 -5.644205808639526367e-01 6.000000000000000000e+00
-6.597470283508300781e+00 7.258156299591063565e+00 -5.140437483787536621e-01 2.000000000000000000e+00
-1.575751781463623047e+00 1.739641666412353960e+00 -6.289302706718444824e-01 1.900000000000000000e+01
-1.808616280555725098e+00 1.998127222061157005e+00 -6.222146153450012207e-01 1.400000000000000000e+01
-2.102306365966796875e+00 2.323405742645264116e+00 -6.090623140335083008e-01 1.100000000000000000e+01
-2.546374559402465820e+00 2.816151618957519975e+00 -6.013340950012207031e-01 9.000000000000000000e+00
-3.219347238540648970e+00 3.562922239303588867e+00 -5.896039009094238281e-01 8.000000000000000000e+00
-4.321654796600341797e+00 4.784548759460449219e+00 -5.640719532966613770e-01 6.000000000000000000e+00
-6.572094440460205078e+00 7.281141281127929688e+00 -5.140437483787536621e-01 2.000000000000000000e+00
-1.561918258666991965e+00 1.736513495445251021e+00 -6.258244514465332031e-01 1.600000000000000000e+01
-1.808143973350524902e+00 2.011674880981444868e+00 -6.244641542434692383e-01 1.300000000000000000e+01
-2.092871427536011186e+00 2.329269647598267046e+00 -6.086806654930114746e-01 1.200000000000000000e+01
-2.533889293670653853e+00 2.822083473205565962e+00 -6.007083654403686523e-01 9.000000000000000000e+00
-3.210867881774901900e+00 3.578570604324340820e+00 -5.903350710868835449e-01 9.000000000000000000e+00
-4.304927349090576172e+00 4.799604892730712891e+00 -5.640719532966613770e-01 6.000000000000000000e+00
-6.546638488769531250e+00 7.304038047790527344e+00 -5.140437483787536621e-01 2.000000000000000000e+00
-1.557134032249450906e+00 1.743395924568176047e+00 -6.263421177864074707e-01 1.700000000000000000e+01
-1.794622778892517090e+00 2.010704994201660156e+00 -6.222146153450012207e-01 1.100000000000000000e+01
-2.086035013198852983e+00 2.338026046752930132e+00 -6.090623140335083008e-01 1.300000000000000000e+01
-2.518764495849608931e+00 2.825013399124145952e+00 -5.994568467140197754e-01 9.000000000000000000e+00
-3.204959392547606978e+00 3.597167730331420898e+00 -5.915538072586059570e-01 8.000000000000000000e+00
-4.272245883941650391e+00 4.796748638153076172e+00 -5.619802474975585938e-01 6.000000000000000000e+00
-6.494545459747313565e+00 7.297007083892822266e+00 -5.119503140449523926e-01 2.000000000000000000e+00
-1.557754635810852051e+00 1.755775332450866921e+00 -6.289302706718444824e-01 1.900000000000000000e+01
-1.781481146812438965e+00 2.009354114532471147e+00 -6.199650764465332031e-01 1.200000000000000000e+01
-2.087385416030883789e+00 2.355215311050415039e+00 -6.117336153984069824e-01 1.200000000000000000e+01
-2.512001991271973100e+00 2.836308002471923828e+00 -6.000826358795166016e-01 9.000000000000000000e+00
-3.174594402313231978e+00 3.586964607238769975e+00 -5.881414413452148438e-01 8.000000000000000000e+00
-4.254995346069335938e+00 4.809397697448729581e+00 -5.618059039115905762e-01 7.000000000000000000e+00
-6.486186981201171875e+00 7.336459159851074219e+00 -5.132063627243041992e-01 2.000000000000000000e+00
-1.558001637458801047e+00 1.768450021743773970e+00 -6.315184831619262695e-01 2.000000000000000000e+01
-1.778319478034972922e+00 2.019948482513428178e+00 -6.213148236274719238e-01 1.100000000000000000e+01
-2.072666406631470171e+00 2.355118513107299805e+00 -6.098255515098571777e-01 1.200000000000000000e+01
-2.498172521591186968e+00 2.840609073638916016e+00 -5.991439819335937500e-01 9.000000000000000000e+00
-3.160743951797484907e+00 3.596533060073852983e+00 -5.878977179527282715e-01 9.000000000000000000e+00
-4.251331329345703125e+00 4.839189052581787109e+00 -5.635490417480468750e-01 6.000000000000000000e+00
-6.415737628936767578e+00 7.308023929595947266e+00 -5.096475481986999512e-01 2.000000000000000000e+00
-1.539099216461182085e+00 1.759337663650512917e+00 -6.263421177864074707e-01 1.700000000000000000e+01
-5.847010803222656250e+01 6.686047363281250000e+01 1.550367116928101030e+00 7.000000000000000000e+00
-1.768692493438720925e+00 2.023209333419799805e+00 -6.204150319099426270e-01 1.400000000000000000e+01
-2.055389642715454102e+00 2.351990938186645952e+00 -6.071542501449584961e-01 1.100000000000000000e+01
-2.489541053771973100e+00 2.850800037384033203e+00 -5.994568467140197754e-01 9.000000000000000000e+00
-3.148170471191405806e+00 3.607544183731079102e+00 -5.878977179527282715e-01 9.000000000000000000e+00
-4.227864742279052734e+00 4.846492290496826172e+00 -5.626775026321411133e-01 6.000000000000000000e+00
-6.413812160491943359e+00 7.357473850250244141e+00 -5.115316510200500488e-01 2.000000000000000000e+00
-1.526614189147948997e+00 1.757407307624816895e+00 -6.237539052963256836e-01 1.900000000000000000e+01
-1.770561575889586958e+00 2.039672374725341797e+00 -6.235643029212951660e-01 1.600000000000000000e+01
-2.051027297973632812e+00 2.363599538803101030e+00 -6.082990765571594238e-01 1.100000000000000000e+01
-2.484751462936400923e+00 2.865442276000977007e+00 -6.007083654403686523e-01 9.000000000000000000e+00
-3.134258508682250977e+00 3.617011308670043945e+00 -5.876539945602416992e-01 9.000000000000000000e+00
-4.183526992797851562e+00 4.829596042633056641e+00 -5.590169429779052734e-01 4.000000000000000000e+00
-6.348875999450683594e+00 7.334514617919921875e+00 -5.083914995193481445e-01 2.000000000000000000e+00
-1.287295055389403942e+01 1.488192176818848012e+01 -3.434633612632750910e-01 3.000000000000000000e+00
-1.519208550453186035e+00 1.761262655258178933e+00 -6.232362389564514160e-01 1.800000000000000000e+01
-1.765975713729857954e+00 2.048792362213135210e+00 -6.244641542434692383e-01 1.600000000000000000e+01
-2.045327425003052202e+00 2.373719215393065962e+00 -6.090623140335083008e-01 1.100000000000000000e+01
-2.467000484466553178e+00 2.865116834640502930e+00 -5.988311171531677246e-01 9.000000000000000000e+00
-3.116434812545775923e+00 3.621910810470581055e+00 -5.866790413856506348e-01 8.000000000000000000e+00
-4.183533191680908203e+00 4.863806247711181641e+00 -5.612829923629760742e-01 4.000000000000000000e+00
-6.338857650756835938e+00 7.374807357788085938e+00 -5.096475481986999512e-01 2.000000000000000000e+00
-1.281050109863281072e+01 1.491462993621825994e+01 -3.431841135025023859e-01 3.000000000000000000e+00
-1.523104786872863992e+00 1.778292775154113992e+00 -6.273773908615112305e-01 1.800000000000000000e+01
-1.746141672134398970e+00 2.040139198303223100e+00 -6.199650764465332031e-01 1.500000000000000000e+01
-2.038305521011352983e+00 2.382336139678955078e+00 -6.094439029693603516e-01 1.100000000000000000e+01
-2.451849460601807085e+00 2.867705106735229048e+00 -5.975796580314636230e-01 9.000000000000000000e+00
-3.110220432281494141e+00 3.640313386917113814e+00 -5.878977179527282715e-01 9.000000000000000000e+00
-4.156178474426270419e+00 4.866259574890136719e+00 -5.598884820938110352e-01 4.000000000000000000e+00
-6.279365062713623047e+00 7.357390880584716797e+00 -5.069260597229003906e-01 2.000000000000000000e+00
-1.267531204223632990e+01 1.486188125610351918e+01 -3.409502208232880194e-01 3.000000000000000000e+00
-1.517199397087096946e+00 1.783333778381348100e+00 -6.273773908615112305e-01 1.800000000000000000e+01
-1.743153452873229980e+00 2.050372600555419922e+00 -6.213148236274719238e-01 1.700000000000000000e+01
-2.026579856872559038e+00 2.384594202041625977e+00 -6.082990765571594238e-01 1.100000000000000000e+01
-2.449998617172241211e+00 2.884853839874268022e+00 -5.994568467140197754e-01 9.000000000000000000e+00
-3.089140176773070845e+00 3.640012502670288086e+00 -5.861915349960327148e-01 8.000000000000000000e+00
-4.134862899780273438e+00 4.873938083648681641e+00 -5.591912269592285156e-01 4.000000000000000000e+00
-6.288512706756591797e+00 7.417783737182617188e+00 -5.096475481986999512e-01 2.000000000000000000e+00
-1.260527706146240057e+01 1.487941932678223012e+01 -3.403917253017426092e-01 3.000000000000000000e+00
-1.513458490371704102e+00 1.791570544242859109e+00 -6.284126639366149902e-01 1.700000000000000000e+01
-1.735985755920409934e+00 2.056444883346558061e+00 -6.213148236274719238e-01 1.600000000000000000e+01
-2.015711545944213867e+00 2.388653039932250977e+00 -6.075358390808105469e-01 1.100000000000000000e+01
-2.443733930587768999e+00 2.897918701171875000e+00 -6.003955006599426270e-01 8.000000000000000000e+00
-3.073857069015502930e+00 3.647737503051757812e+00 -5.857040882110595703e-01 8.000000000000000000e+00
-4.112689971923828125e+00 4.882246494293212891e+00 -5.584939718246459961e-01 4.000000000000000000e+00
-6.208560466766357422e+00 7.375514507293701172e+00 -5.052513480186462402e-01 2.000000000000000000e+00
-1.252751636505126953e+01 1.489272403717041016e+01 -3.396936357021331787e-01 3.000000000000000000e+00
-1.494780421257019043e+00 1.782041549682616965e+00 -6.232362389564514160e-01 1.800000000000000000e+01
-1.736307859420775923e+00 2.071452856063843218e+00 -6.240141987800598145e-01 1.600000000000000000e+01
-2.007361173629761186e+00 2.395674705505371094e+00 -6.075358390808105469e-01 1.100000000000000000e+01
-2.425994396209716797e+00 2.897344112396239790e+00 -5.985182523727416992e-01 9.000000000000000000e+00
-3.064927101135253906e+00 3.663012504577637163e+00 -5.864352583885192871e-01 9.000000000000000000e+00
-4.087953090667724609e+00 4.887403011322020596e+00 -5.574481487274169922e-01 4.000000000000000000e+00
-6.213518142700195312e+00 7.433920383453369141e+00 -5.077634453773498535e-01 2.000000000000000000e+00
-1.239341354370117010e+01 1.483813762664794922e+01 -3.374597430229187012e-01 3.000000000000000000e+00
-1.495968937873840110e+00 1.796154975891113059e+00 -6.263421177864074707e-01 1.700000000000000000e+01
-1.726573348045348899e+00 2.074505567550659180e+00 -6.231144070625305176e-01 1.400000000000000000e+01
-2.002753496170043945e+00 2.407194614410399947e+00 -6.086806654930114746e-01 1.200000000000000000e+01
-2.405763149261475053e+00 2.893642902374268022e+00 -5.960153341293334961e-01 8.000000000000000000e+00
-3.053390502929687944e+00 3.675215721130371094e+00 -5.866790413856506348e-01 8.000000000000000000e+00
-4.068321704864501953e+00 4.898577690124511719e+00 -5.570995211601257324e-01 4.000000000000000000e+00
-6.141612529754638672e+00 7.400235652923583984e+00 -5.039952397346496582e-01 2.000000000000000000e+00
-1.234154319763183949e+01 1.488130760192870916e+01 -3.374597430229187012e-01 3.000000000000000000e+00
-1.488144755363463911e+00 1.800136923789978027e+00 -6.258244514465332031e-01 1.600000000000000000e+01
-1.709029316902161089e+00 2.068800449371337891e+00 -6.195151805877685547e-01 1.200000000000000000e+01
-1.997667551040648970e+00 2.419060468673706055e+00 -6.098255515098571777e-01 1.100000000000000000e+01
-2.403942346572875977e+00 2.913106203079224077e+00 -5.982053875923156738e-01 9.000000000000000000e+00
-3.041162729263306108e+00 3.687913656234741211e+00 -5.869227647781372070e-01 9.000000000000000000e+00
-4.054142475128173828e+00 4.918067932128906250e+00 -5.576224327087402344e-01 4.000000000000000000e+00
-6.099209308624267578e+00 7.404197216033936435e+00 -5.027391910552978516e-01 2.000000000000000000e+00
-1.231996059417724965e+01 1.496658325195313033e+01 -3.383672535419464111e-01 3.000000000000000000e+00
-1.489206075668334961e+00 1.814280033111572044e+00 -6.289302706718444824e-01 1.900000000000000000e+01
