6.455461025238037109e+00 -1.555133610963821134e-01 -5.649435520172119141e-01 9.000000000000000000e+00
9.781651496887207031e+00 -2.390584051609039029e-01 -5.127876996994018555e-01 2.000000000000000000e+00
1.848750305175780895e+01 -4.582821130752562921e-01 -3.227997124195098877e-01 3.000000000000000000e+00
2.348326683044434038e+00 -6.149309501051902771e-02 -6.294479370117187500e-01 1.600000000000000000e+01
5.962020492553710938e+01 -1.571622848510741965e+00 1.041036009788512962e+00 6.300000000000000000e+01
2.701951503753662109e+00 -7.169690728187561035e-02 -6.240141987800598145e-01 8.000000000000000000e+00
3.985307312011718750e+01 -1.064471125602721946e+00 2.089355945587158203e+00 2.300000000000000000e+01
3.183263301849364790e+00 -8.502460271120071411e-02 -6.189844012260437012e-01 1.300000000000000000e+01
3.870321512222290039e+00 -1.047278270125388960e-01 -6.132230758666992188e-01 1.000000000000000000e+01
4.941024303436279297e+00 -1.354262083768844882e-01 -6.069093346595764160e-01 9.000000000000000000e+00
6.460854053497313565e+00 -1.782109886407851895e-01 -5.654664635658264160e-01 9.000000000000000000e+00
9.788743019104003906e+00 -2.734243571758270264e-01 -5.132063627243041992e-01 2.000000000000000000e+00
1.852577018737792969e+01 -5.239434242248535156e-01 -3.234978020191193182e-01 3.000000000000000000e+00
2.361614704132080078e+00 -7.009108364582061768e-02 -6.330713629722595215e-01 2.100000000000000000e+01
2.730902671813964844e+00 -8.200541138648986816e-02 -6.307627558708190918e-01 8.000000000000000000e+00
3.984911727905272727e+01 -1.203577876091002974e+00 2.089355945587158203e+00 2.300000000000000000e+01
3.182947158813477007e+00 -9.613574296236038208e-02 -6.189844012260437012e-01 1.200000000000000000e+01
3.858085632324219194e+00 -1.178751811385155002e-01 -6.113458871841430664e-01 9.000000000000000000e+00
4.956394672393798828e+00 -1.531632989645003995e-01 -6.088592410087585449e-01 9.000000000000000000e+00
3.754168701171875000e+01 -1.166677713394165039e+00 5.948889732360839844e+00 1.300000000000000000e+01
6.440278053283691406e+00 -2.001436203718184870e-01 -5.637233257293701172e-01 9.000000000000000000e+00
9.803699493408203125e+00 -3.080936670303344727e-01 -5.140437483787536621e-01 2.000000000000000000e+00
1.858378791809082031e+01 -5.905125141143798828e-01 -3.245449364185333252e-01 3.000000000000000000e+00
2.355590343475341797e+00 -7.731983065605163574e-02 -6.315184831619262695e-01 2.000000000000000000e+01
2.732579231262207031e+00 -9.064898639917373657e-02 -6.312126517295837402e-01 9.000000000000000000e+00
3.200288772583007812e+00 -1.067236885428429066e-01 -6.224189400672912598e-01 1.200000000000000000e+01
3.867567777633666992e+00 -1.303277462720870972e-01 -6.129102110862731934e-01 1.000000000000000000e+01
4.951920986175537109e+00 -1.685983836650848111e-01 -6.083717346191406250e-01 9.000000000000000000e+00
3.751831817626953125e+01 -1.277388691902161089e+00 5.945761203765869141e+00 1.300000000000000000e+01
6.455547332763671875e+00 -2.209204733371734897e-01 -5.651178359985351562e-01 9.000000000000000000e+00
9.834620475769042969e+00 -3.399954140186309814e-01 -5.157185196876525879e-01 2.000000000000000000e+00
1.872173500061035156e+01 -6.537773609161376953e-01 -3.269882798194885254e-01 3.000000000000000000e+00
2.363028526306151900e+00 -8.582236617803573608e-02 -6.335890293121337891e-01 1.700000000000000000e+01
2.728351354598999023e+00 -1.000441014766692976e-01 -6.303128600120544434e-01 1.300000000000000000e+01
3.948099517822266336e+01 -1.454602360725403054e+00 2.070515155792235884e+00 2.200000000000000000e+01
3.195972919464110884e+00 -1.177495643496512950e-01 -6.216557025909423828e-01 1.200000000000000000e+01
3.861167192459106001e+00 -1.436070352792739868e-01 -6.119716167449951172e-01 9.000000000000000000e+00
4.959237098693847656e+00 -1.861806809902190885e-01 -6.093466877937316895e-01 9.000000000000000000e+00
3.726071548461914062e+01 -1.405361771583556907e+00 5.905714035034179688e+00 1.300000000000000000e+01
6.472655773162841797e+00 -2.441290318965911865e-01 -5.666866302490234375e-01 9.000000000000000000e+00
9.833373069763183594e+00 -3.743225932121276855e-01 -5.157185196876525879e-01 2.000000000000000000e+00
1.871933937072753906e+01 -7.191244363784790039e-01 -3.269882798194885254e-01 3.000000000000000000e+00
2.385878324508666992e+00 -9.499261528253555298e-02 -6.398006677627563477e-01 1.800000000000000000e+01
2.739668607711791992e+00 -1.100364550948143005e-01 -6.330122947692871094e-01 1.200000000000000000e+01
3.893685531616210938e+01 -1.570672392845154031e+00 2.042253732681273970e+00 2.200000000000000000e+01
3.203389167785644975e+00 -1.292213946580887118e-01 -6.231821775436401367e-01 1.200000000000000000e+01
3.870511054992675781e+00 -1.574856936931610107e-01 -6.135360002517700195e-01 1.000000000000000000e+01
4.944673061370849609e+00 -2.029207348823547086e-01 -6.076405644416809082e-01 1.100000000000000000e+01
3.739006423950195312e+01 -1.534422874450684038e+00 5.926989078521729404e+00 1.300000000000000000e+01
6.473754882812500000e+00 -2.668033838272094727e-01 -5.668609738349914551e-01 7.000000000000000000e+00
9.863935470581054688e+00 -4.099722206592559814e-01 -5.173932909965515137e-01 2.000000000000000000e+00
1.871671485900878906e+01 -7.844627499580383301e-01 -3.269882798194885254e-01 3.000000000000000000e+00
2.385532140731811968e+00 -1.033203005790710033e-01 -6.398006677627563477e-01 1.700000000000000000e+01
2.743161439895629883e+00 -1.197690144181251942e-01 -6.339120864868164062e-01 1.200000000000000000e+01
3.200957059860229048e+00 -1.403165459632874090e-01 -6.228005886077880859e-01 1.300000000000000000e+01
3.875858068466186968e+00 -1.712569296360015869e-01 -6.144745945930480957e-01 1.000000000000000000e+01
4.957816600799561435e+00 -2.207978665828705112e-01 -6.093466877937316895e-01 9.000000000000000000e+00
3.742365646362304688e+01 -1.673218607902527078e+00 5.933246612548828125e+00 1.300000000000000000e+01
6.480745792388916016e+00 -2.897553443908690851e-01 -5.675581693649291992e-01 9.000000000000000000e+00
9.830520629882812500e+00 -4.429627954959868830e-01 -5.157185196876525879e-01 2.000000000000000000e+00
1.891362571716308949e+01 -8.588626980781555176e-01 -3.304787576198577881e-01 3.000000000000000000e+00
2.373578548431396040e+00 -1.111047640442848067e-01 -6.366948485374450684e-01 1.600000000000000000e+01
2.746619939804077148e+00 -1.295273005962372104e-01 -6.348118782043457031e-01 1.300000000000000000e+01
3.196525812149047852e+00 -1.513034701347351074e-01 -6.220373511314392090e-01 1.200000000000000000e+01
3.871290445327758789e+00 -1.845969855785369873e-01 -6.138488650321960449e-01 9.000000000000000000e+00
4.957015514373779297e+00 -2.381025403738022128e-01 -6.093466877937316895e-01 9.000000000000000000e+00
6.465764045715332031e+00 -3.117040097713469904e-01 -5.663380026817321777e-01 7.000000000000000000e+00
9.876791954040527344e+00 -4.795998930931090753e-01 -5.182306170463562012e-01 2.000000000000000000e+00
1.896244239807128906e+01 -9.274181723594665527e-01 -3.313862979412078857e-01 3.000000000000000000e+00
2.377035140991210938e+00 -1.195835471153259000e-01 -6.377301216125488281e-01 1.600000000000000000e+01
2.742258548736571822e+00 -1.389168202877044955e-01 -6.339120864868164062e-01 1.200000000000000000e+01
3.211663961410522017e+00 -1.632578521966933927e-01 -6.250902414321899414e-01 1.300000000000000000e+01
3.868649721145629883e+00 -1.980082094669342041e-01 -6.135360002517700195e-01 1.000000000000000000e+01
4.968049049377441406e+00 -2.560172677040100098e-01 -6.108091473579406738e-01 1.000000000000000000e+01
6.494482517242431641e+00 -3.358151316642761230e-01 -5.689526796340942383e-01 9.000000000000000000e+00
9.867079734802246094e+00 -5.136581063270568848e-01 -5.178119540214538574e-01 2.000000000000000000e+00
1.897905921936035156e+01 -9.946503639221191406e-01 -3.317353427410125732e-01 3.000000000000000000e+00
2.384297132492064986e+00 -1.287115514278411865e-01 -6.398006677627563477e-01 1.600000000000000000e+01
2.737839221954346147e+00 -1.487553119659424106e-01 -6.330122947692871094e-01 1.300000000000000000e+01
3.888682937622070312e+01 -2.119649410247803178e+00 2.040997505187987837e+00 2.200000000000000000e+01
3.213004350662231001e+00 -1.751349568367004117e-01 -6.254718899726867676e-01 1.300000000000000000e+01
3.871842861175537109e+00 -2.124025970697402954e-01 -6.141617298126220703e-01 1.000000000000000000e+01
4.955184936523438388e+00 -2.735677957534790039e-01 -6.093466877937316895e-01 1.200000000000000000e+01
4.213342666625977273e+01 -2.333494901657104048e+00 6.683506011962890625e+00 1.400000000000000000e+01
6.497186660766601562e+00 -3.598366975784301758e-01 -5.693013072013854980e-01 9.000000000000000000e+00
9.984780311584472656e+00 -5.564877986907958984e-01 -5.240922570228576660e-01 2.000000000000000000e+00
1.905115509033203125e+01 -1.068460464477539062e+00 -3.330617249011992853e-01 3.000000000000000000e+00
2.389619350433350053e+00 -1.373661309480667114e-01 -6.413536071777343750e-01 1.600000000000000000e+01
2.739248752593994141e+00 -1.584237664937973022e-01 -6.334621906280517578e-01 1.100000000000000000e+01
3.890311813354492188e+01 -2.256764888763428178e+00 2.042253732681273970e+00 2.200000000000000000e+01
3.210413455963135210e+00 -1.862356662750243863e-01 -6.250902414321899414e-01 1.300000000000000000e+01
3.875021696090697798e+00 -2.261467278003692905e-01 -6.147874593734741211e-01 1.000000000000000000e+01
4.956181526184082031e+00 -2.909792959690093994e-01 -6.095904707908630371e-01 1.200000000000000000e+01
6.521747589111328125e+00 -3.840364813804625910e-01 -5.715673565864562988e-01 9.000000000000000000e+00
9.970814704895019531e+00 -5.906291604042053223e-01 -5.234642624855041504e-01 2.000000000000000000e+00
3.649206924438477273e+01 -2.168028354644774947e+00 8.439713478088378906e+00 1.100000000000000000e+01
1.909920883178710938e+01 -1.138047337532043013e+00 -3.339692354202271063e-01 3.000000000000000000e+00
2.381462574005126953e+00 -1.444049477577208918e-01 -6.392830610275268555e-01 1.500000000000000000e+01
2.750408172607421875e+00 -1.677403450012207031e-01 -6.361615657806396484e-01 1.200000000000000000e+01
3.200014591217041016e+00 -1.957212686538696012e-01 -6.231821775436401367e-01 1.300000000000000000e+01
3.892037153244018999e+00 -2.394108772277832031e-01 -6.176032423973083496e-01 1.000000000000000000e+01
4.957224369049072266e+00 -3.066706955432891846e-01 -6.098341941833496094e-01 1.000000000000000000e+01
6.524486064910888672e+00 -4.047699570655822754e-01 -5.719159841537475586e-01 9.000000000000000000e+00
9.972896575927734375e+00 -6.221991777420043945e-01 -5.236735939979553223e-01 2.000000000000000000e+00
1.912348175048828125e+01 -1.199796557426453081e+00 -3.344579041004180908e-01 3.000000000000000000e+00
2.379016160964965820e+00 -1.525932550430298129e-01 -6.387653946876525879e-01 1.700000000000000000e+01
2.749805927276610884e+00 -1.773400455713272095e-01 -6.361615657806396484e-01 1.100000000000000000e+01
3.211066722869873047e+00 -2.076503783464432040e-01 -6.254718899726867676e-01 1.300000000000000000e+01
3.881321668624877930e+00 -2.523543536663054865e-01 -6.160389184951782227e-01 1.000000000000000000e+01
4.960085391998291016e+00 -3.242317438125609796e-01 -6.103217005729675293e-01 1.200000000000000000e+01
6.519057273864746094e+00 -4.272815883159636896e-01 -5.715673565864562988e-01 9.000000000000000000e+00
9.962692260742187500e+00 -6.564820408821105957e-01 -5.232548713684082031e-01 2.000000000000000000e+00
3.594020843505858664e+01 -2.374545335769652876e+00 8.315540313720703125e+00 1.000000000000000000e+01
1.921096038818359020e+01 -1.272622942924499956e+00 -3.360635340213776190e-01 3.000000000000000000e+00
3.935057067871093750e+01 -2.606763839721680132e+00 1.056706428527832031e+01 9.000000000000000000e+00
2.378468990325928178e+00 -1.608966439962387085e-01 -6.387653946876525879e-01 1.800000000000000000e+01
2.749170303344727007e+00 -1.869375705718993863e-01 -6.361615657806396484e-01 1.100000000000000000e+01
3.206404924392700195e+00 -2.185907661914824884e-01 -6.247086524963378906e-01 1.300000000000000000e+01
3.884358644485474077e+00 -2.661712467670441229e-01 -6.166646480560302734e-01 1.000000000000000000e+01
4.962883949279785156e+00 -3.418165147304534912e-01 -6.108091473579406738e-01 1.000000000000000000e+01
6.535414695739746094e+00 -4.512699544429779053e-01 -5.731361508369445801e-01 8.000000000000000000e+00
9.984250068664550781e+00 -6.929136514663696289e-01 -5.245109796524047852e-01 2.000000000000000000e+00
1.912660789489746094e+01 -1.334108233451843040e+00 -3.346673548221588135e-01 3.000000000000000000e+00
3.895965194702147727e+01 -2.717491388320922852e+00 1.046457195281982067e+01 9.000000000000000000e+00
2.381746768951416016e+00 -1.694722920656203946e-01 -6.398006677627563477e-01 1.900000000000000000e+01
2.740725755691527876e+00 -1.959768682718276978e-01 -6.343619823455810547e-01 1.100000000000000000e+01
3.219330072402954102e+00 -2.307644486427307129e-01 -6.273799538612365723e-01 1.300000000000000000e+01
3.875524759292602983e+00 -2.791608572006226141e-01 -6.154131889343261719e-01 1.000000000000000000e+01
4.953741073608398438e+00 -3.585648834705352783e-01 -6.098341941833496094e-01 1.000000000000000000e+01
6.523863792419433594e+00 -4.733591377735137939e-01 -5.722646117210388184e-01 9.000000000000000000e+00
9.957866668701171875e+00 -7.260181903839111328e-01 -5.232548713684082031e-01 2.000000000000000000e+00
1.935317993164062855e+01 -1.417812705039978027e+00 -3.387162983417510986e-01 3.000000000000000000e+00
3.787049865722656250e+01 -2.781035661697388139e+00 1.017469406127930043e+01 8.000000000000000000e+00
2.394626140594481978e+00 -1.787919849157333096e-01 -6.434241533279418945e-01 1.900000000000000000e+01
2.740025043487548828e+00 -2.055425941944122037e-01 -6.343619823455810547e-01 1.000000000000000000e+01
3.214589595794678178e+00 -2.417061924934386929e-01 -6.266167163848876953e-01 1.200000000000000000e+01
3.888314962387084961e+00 -2.937288582324982245e-01 -6.176032423973083496e-01 9.000000000000000000e+00
4.956418037414550781e+00 -3.761549293994904120e-01 -6.103217005729675293e-01 1.000000000000000000e+01
6.551971435546875000e+00 -4.983955919742584229e-01 -5.748792886734008789e-01 6.000000000000000000e+00
9.999083518981933594e+00 -7.641212344169616699e-01 -5.255576968193054199e-01 2.000000000000000000e+00
1.929228401184082031e+01 -1.481073379516602007e+00 -3.377389609813690186e-01 3.000000000000000000e+00
3.804790878295897727e+01 -2.920947313308715820e+00 1.022490501403808949e+01 1.600000000000000000e+01
2.388209581375122070e+00 -1.866980195045470914e-01 -6.418712139129638672e-01 1.800000000000000000e+01
2.747061967849731001e+00 -2.157160490751265924e-01 -6.361615657806396484e-01 1.100000000000000000e+01
3.205897331237792969e+00 -2.523095905780792236e-01 -6.250902414321899414e-01 1.200000000000000000e+01
3.885296821594237837e+00 -3.071441352367401123e-01 -6.172903776168823242e-01 1.100000000000000000e+01
4.947159290313720703e+00 -3.928252458572388250e-01 -6.093466877937316895e-01 9.000000000000000000e+00
6.568067073822020596e+00 -5.226857066154479980e-01 -5.764480829238891602e-01 8.000000000000000000e+00
1.002422809600830078e+01 -8.012478351593017578e-01 -5.270230770111083984e-01 2.000000000000000000e+00
1.938267517089844105e+01 -1.556088209152221902e+00 -3.394143879413604736e-01 3.000000000000000000e+00
3.798741531372070312e+01 -3.049721956253052202e+00 1.021144676208495916e+01 1.600000000000000000e+01
2.383658409118651900e+00 -1.951347440481185913e-01 -6.408359408378601074e-01 1.700000000000000000e+01
4.082261276245117188e+01 -3.349056959152222124e+00 7.149552702903747559e-01 3.700000000000000000e+01
2.757905960083007812e+00 -2.267411351203917902e-01 -6.388610005378723145e-01 1.000000000000000000e+01
3.206907749176024947e+00 -2.642193138599395752e-01 -6.254718899726867676e-01 1.300000000000000000e+01
3.886113643646239790e+00 -3.215453028678894043e-01 -6.176032423973083496e-01 1.000000000000000000e+01
4.951621055603027344e+00 -4.114479720592498779e-01 -6.100779175758361816e-01 9.000000000000000000e+00
6.550222873687744141e+00 -5.454326868057250977e-01 -5.750535726547241211e-01 8.000000000000000000e+00
1.007695293426514027e+01 -8.426431417465209961e-01 -5.299538969993591309e-01 2.000000000000000000e+00
4.070876312255858664e+01 -3.411255359649658203e+00 9.431298255920410156e+00 1.200000000000000000e+01
1.924930953979491832e+01 -1.616409659385680930e+00 -3.371804952621459961e-01 3.000000000000000000e+00
3.795425033569335938e+01 -3.193778514862060991e+00 1.020575237274169922e+01 8.000000000000000000e+00
2.381037950515747070e+00 -2.032897323369980136e-01 -6.403183341026306152e-01 1.600000000000000000e+01
2.753214359283446822e+00 -2.360337376594542902e-01 -6.379612088203430176e-01 1.100000000000000000e+01
3.215746164321898970e+00 -2.762520909309387207e-01 -6.273799538612365723e-01 1.300000000000000000e+01
3.884967565536499023e+00 -3.351083993911743164e-01 -6.176032423973083496e-01 9.000000000000000000e+00
4.963998317718505859e+00 -4.299288690090178888e-01 -6.117841005325317383e-01 1.000000000000000000e+01
6.554234027862548828e+00 -5.688107013702392578e-01 -5.755765438079833984e-01 6.000000000000000000e+00
1.005405235290526988e+01 -8.760793805122375488e-01 -5.289071798324584961e-01 2.000000000000000000e+00
1.927940750122069957e+01 -1.686729669570923074e+00 -3.378087878227233887e-01 3.000000000000000000e+00
2.389935255050659180e+00 -2.124551683664321899e-01 -6.429064869880676270e-01 1.800000000000000000e+01
2.738786458969116211e+00 -2.444301843643187921e-01 -6.348118782043457031e-01 1.300000000000000000e+01
3.224539518356322798e+00 -2.883497774600983221e-01 -6.292880773544311523e-01 1.200000000000000000e+01
3.887709140777587891e+00 -3.490206897258759100e-01 -6.182290315628051758e-01 9.000000000000000000e+00
4.956536293029785156e+00 -4.467192590236663818e-01 -6.110528707504272461e-01 1.200000000000000000e+01
6.544270992279052734e+00 -5.909690260887145996e-01 -5.748792886734008789e-01 4.000000000000000000e+00
1.006286811828612926e+01 -9.122511744499206543e-01 -5.295352339744567871e-01 2.000000000000000000e+00
3.625128173828125000e+01 -3.292745828628540039e+00 8.403721809387207031e+00 1.100000000000000000e+01
1.955220794677734020e+01 -1.779390335083008035e+00 -3.426954448223114014e-01 3.000000000000000000e+00
2.398797273635863814e+00 -2.216851711273193082e-01 -6.454946994781494141e-01 1.900000000000000000e+01
5.968556976318358664e+01 -5.526356220245361328e+00 1.046271800994873047e+00 6.300000000000000000e+01
2.749559164047241211e+00 -2.550688982009888250e-01 -6.375113129615783691e-01 1.300000000000000000e+01
3.949797058105468750e+01 -3.664116144180297852e+00 2.078888893127440962e+00 2.200000000000000000e+01
3.213739156723022017e+00 -2.986952960491179865e-01 -6.273799538612365723e-01 1.200000000000000000e+01
3.892367601394652876e+00 -3.631396889686583918e-01 -6.191676259040832520e-01 1.000000000000000000e+01
4.956923007965087891e+00 -4.642031788825988770e-01 -6.112966537475585938e-01 1.000000000000000000e+01
6.560021400451660156e+00 -6.154842376708984375e-01 -5.764480829238891602e-01 4.000000000000000000e+00
1.007155323028563920e+01 -9.484951496124267578e-01 -5.301632285118103027e-01 2.000000000000000000e+00
3.617748260498046875e+01 -3.413408517837523970e+00 8.389324188232421875e+00 1.100000000000000000e+01
1.957374954223633168e+01 -1.850264072418212891e+00 -3.431841135025023859e-01 3.000000000000000000e+00
2.384587526321411133e+00 -2.283495813608170111e-01 -6.418712139129638672e-01 1.900000000000000000e+01
2.748698234558105025e+00 -2.641853392124176025e-01 -6.375113129615783691e-01 1.300000000000000000e+01
3.928679275512695312e+01 -3.775967597961425781e+00 2.068421602249145952e+00 2.200000000000000000e+01
3.212730884552001953e+00 -3.093508183956146240e-01 -6.273799538612365723e-01 1.300000000000000000e+01
3.895074367523192915e+00 -3.764252960681914728e-01 -6.197933554649353027e-01 1.000000000000000000e+01
4.955356597900390625e+00 -4.806383848190308172e-01 -6.112966537475585938e-01 1.000000000000000000e+01
6.563893795013427734e+00 -6.378127336502075195e-01 -5.769709944725036621e-01 5.000000000000000000e+00
1.008027935028075994e+01 -9.830515384674072266e-01 -5.307912826538085938e-01 2.000000000000000000e+00
3.654222869873046875e+01 -3.570119142532349077e+00 8.476605415344238281e+00 1.100000000000000000e+01
1.963915252685546875e+01 -1.922175168991089089e+00 -3.444406986236572266e-01 3.000000000000000000e+00
3.733045578002929688e+01 -3.653705120086669922e+00 1.005046081542968928e+01 8.000000000000000000e+00
2.374163866043090820e+00 -2.357176393270493109e-01 -6.392830610275268555e-01 1.900000000000000000e+01
2.755515813827515093e+00 -2.745513319969177246e-01 -6.393108963966369629e-01 1.300000000000000000e+01
3.947211456298828125e+01 -3.932883262634276900e+00 2.078888893127440962e+00 2.200000000000000000e+01
3.207724571228026900e+00 -3.201734721660614014e-01 -6.266167163848876953e-01 1.200000000000000000e+01
3.885874509811400923e+00 -3.892318308353424072e-01 -6.185418963432312012e-01 1.000000000000000000e+01
3.664342117309570312e+01 -3.676878213882445845e+00 4.521840095520020419e+00 1.900000000000000000e+01
4.967474460601806641e+00 -4.993226230144500732e-01 -6.130027770996093750e-01 9.000000000000000000e+00
6.565591812133789062e+00 -6.611203551292419434e-01 -5.773196220397949219e-01 6.000000000000000000e+00
1.014037513732909979e+01 -1.024657726287842019e+00 -5.341407656669616699e-01 2.000000000000000000e+00
3.652954483032227273e+01 -3.697653532028197798e+00 8.476605415344238281e+00 2.200000000000000000e+01
1.967211341857910156e+01 -1.994751572608947976e+00 -3.451387882232666016e-01 3.000000000000000000e+00
3.732834625244141336e+01 -3.791675090789794922e+00 1.005356693267822088e+01 8.000000000000000000e+00
2.382935285568236861e+00 -2.449914515018463135e-01 -6.418712139129638672e-01 1.700000000000000000e+01
2.752602100372314009e+00 -2.839682102203369141e-01 -6.388610005378723145e-01 1.300000000000000000e+01
3.220257282257080078e+00 -3.327812254428864081e-01 -6.292880773544311523e-01 1.200000000000000000e+01
3.872703075408935991e+00 -4.015712440013884943e-01 -6.166646480560302734e-01 1.000000000000000000e+01
3.693048477172852273e+01 -3.835938453674315962e+00 4.558888435363770419e+00 1.900000000000000000e+01
4.969650268554688388e+00 -5.170701742172241211e-01 -6.134902834892272949e-01 1.000000000000000000e+01
6.565226078033447266e+00 -6.842410564422607422e-01 -5.774939656257629395e-01 8.000000000000000000e+00
1.010098075866699041e+01 -1.056308865547179954e+00 -5.322566628456115723e-01 2.000000000000000000e+00
3.639625167846679688e+01 -3.812555551528931108e+00 8.448711395263671875e+00 1.100000000000000000e+01
1.968491744995116832e+01 -2.065494775772095171e+00 -3.454878330230712891e-01 3.000000000000000000e+00
3.725408554077147727e+01 -3.908988237380981001e+00 1.003700256347656072e+01 8.000000000000000000e+00
2.395512819290161133e+00 -2.547379136085510254e-01 -6.454946994781494141e-01 1.600000000000000000e+01
5.970312118530272727e+01 -6.359345436096191406e+00 1.048017024993896040e+00 6.300000000000000000e+01
2.745780944824219194e+00 -2.929546236991881769e-01 -6.375113129615783691e-01 1.200000000000000000e+01
3.964155578613281250e+01 -4.236460208892822266e+00 2.089355945587158203e+00 2.300000000000000000e+01
3.226884603500366211e+00 -3.448544740676879883e-01 -6.308145523071289062e-01 1.300000000000000000e+01
3.883062362670897993e+00 -4.163506329059600830e-01 -6.185418963432312012e-01 1.000000000000000000e+01
3.681423187255858664e+01 -3.953803777694702148e+00 4.546214103698729581e+00 1.900000000000000000e+01
4.969789028167724609e+00 -5.346266627311706543e-01 -6.137340068817138672e-01 1.000000000000000000e+01
6.564778327941895419e+00 -7.073672413825988770e-01 -5.776682496070861816e-01 6.000000000000000000e+00
1.010517501831055043e+01 -1.092420101165771040e+00 -5.326753854751586914e-01 2.000000000000000000e+00
3.661908340454102273e+01 -3.965172767639160156e+00 8.503600120544433594e+00 1.100000000000000000e+01
1.968951606750487926e+01 -2.135488986968994141e+00 -3.456972539424896240e-01 3.000000000000000000e+00
4.218300628662108664e+01 -4.582540988922119141e+00 1.136940288543700994e+01 1.100000000000000000e+01
2.394654750823975053e+00 -2.626803219318389893e-01 -6.454946994781494141e-01 1.900000000000000000e+01
5.978109359741210938e+01 -6.568212985992431641e+00 1.049762248992919922e+00 6.300000000000000000e+01
2.744794368743896040e+00 -3.020583689212799072e-01 -6.375113129615783691e-01 1.200000000000000000e+01
5.965832138061522727e+01 -6.575800895690917969e+00 3.145495653152465820e+00 6.300000000000000000e+01
3.214014768600463867e+00 -3.542627394199370783e-01 -6.285248398780822754e-01 1.200000000000000000e+01
3.893440961837768999e+00 -4.305277168750762939e-01 -6.204190850257873535e-01 1.000000000000000000e+01
3.696665573120117188e+01 -4.094218254089354581e+00 4.566688060760498047e+00 1.900000000000000000e+01
4.969961643218994141e+00 -5.513229966163635254e-01 -6.139777302742004395e-01 9.000000000000000000e+00
6.590119361877441406e+00 -7.322131395339965820e-01 -5.801086425781250000e-01 6.000000000000000000e+00
3.375787353515625000e+01 -3.756725311279296875e+00 6.602372646331787109e+00 5.800000000000000000e+01
1.012134647369384943e+01 -1.128136515617371050e+00 -5.337221026420593262e-01 2.000000000000000000e+00
3.449084854125977273e+01 -3.850482940673828125e+00 8.012306213378906250e+00 1.000000000000000000e+01
1.980951499938964844e+01 -2.214991569519042969e+00 -3.479311764240264893e-01 3.000000000000000000e+00
3.455413055419921875e+01 -3.863653898239136186e+00 9.316450119018554688e+00 6.000000000000000000e+00
2.391803741455078125e+00 -2.708202600479125977e-01 -6.449770331382751465e-01 1.900000000000000000e+01
5.988496780395507812e+01 -6.791269302368164062e+00 1.051996111869812012e+00 6.300000000000000000e+01
2.753404617309569868e+00 -3.127372860908507746e-01 -6.397607922554016113e-01 1.400000000000000000e+01
3.204955816268920898e+00 -3.645919561386107843e-01 -6.269983649253845215e-01 1.200000000000000000e+01
3.897802352905272993e+00 -4.447876214981079102e-01 -6.213576793670654297e-01 9.000000000000000000e+00
3.694424819946289062e+01 -4.222329139709472656e+00 4.565712928771972656e+00 1.900000000000000000e+01
4.968006610870361328e+00 -5.686680674552917480e-01 -6.139777302742004395e-01 9.000000000000000000e+00
6.591482162475585938e+00 -7.556663751602172852e-01 -5.804572701454162598e-01 6.000000000000000000e+00
3.382647323608397727e+01 -3.883945226669311968e+00 6.618401050567626953e+00 5.800000000000000000e+01
1.017290401458740057e+01 -1.169848561286926047e+00 -5.366529226303100586e-01 2.000000000000000000e+00
3.447719955444335938e+01 -3.970855236053466797e+00 8.012306213378906250e+00 1.000000000000000000e+01
1.992085266113280895e+01 -2.297874927520751953e+00 -3.500254750251770020e-01 3.000000000000000000e+00
3.443227005004882812e+01 -3.977859497070312944e+00 9.287462234497070312e+00 6.000000000000000000e+00
2.379282474517821822e+00 -2.782385349273682196e-01 -6.418712139129638672e-01 1.900000000000000000e+01
5.985173034667968750e+01 -7.009782791137695312e+00 1.051856517791748047e+00 6.300000000000000000e+01
2.756110906600952148e+00 -3.232809603214263916e-01 -6.406605839729309082e-01 1.600000000000000000e+01
3.223096370697021040e+00 -3.786268234252930243e-01 -6.308145523071289062e-01 1.300000000000000000e+01
3.886336803436278853e+00 -4.579150080680847168e-01 -6.197933554649353027e-01 1.000000000000000000e+01
4.967860698699951172e+00 -5.871058702468872070e-01 -6.142215132713317871e-01 1.200000000000000000e+01
6.560968399047851562e+00 -7.765417695045471191e-01 -5.780168771743774414e-01 6.000000000000000000e+00
3.361705017089843750e+01 -3.984789848327637163e+00 6.580238819122313565e+00 5.800000000000000000e+01
1.018838119506835938e+01 -1.209480762481689009e+00 -5.376996397972106934e-01 2.000000000000000000e+00
3.468301391601563211e+01 -4.123420715332031250e+00 8.063595771789550781e+00 2.000000000000000000e+01
1.998775291442871094e+01 -2.379857063293457031e+00 -3.513518571853638250e-01 3.000000000000000000e+00
2.384050607681273970e+00 -2.872353494167327881e-01 -6.434241533279418945e-01 2.100000000000000000e+01
5.990630722045897727e+01 -7.228243350982666016e+00 1.053252696990967019e+00 6.200000000000000000e+01
2.758835077285767046e+00 -3.333671689033507746e-01 -6.415604352951049805e-01 1.400000000000000000e+01
5.968407058715820312e+01 -7.222566127777099609e+00 3.150729179382324219e+00 6.300000000000000000e+01
3.221755266189575195e+00 -3.898752033710479736e-01 -6.308145523071289062e-01 1.200000000000000000e+01
3.878831863403319868e+00 -4.707640707492827814e-01 -6.188547611236572266e-01 1.100000000000000000e+01
4.967751502990722656e+00 -6.046832203865051270e-01 -6.144652366638183594e-01 1.000000000000000000e+01
6.574039459228515625e+00 -8.013677597045898438e-01 -5.794113874435424805e-01 5.000000000000000000e+00
1.023564243316650035e+01 -1.251338958740233931e+00 -5.404210686683654785e-01 2.000000000000000000e+00
3.575548553466796875e+01 -4.377552986145020419e+00 8.316440582275390625e+00 1.000000000000000000e+01
2.017780685424805043e+01 -2.473948478698730025e+00 -3.548423349857329767e-01 3.000000000000000000e+00
3.488420104980468750e+01 -4.283241748809813565e+00 9.417389869689941406e+00 1.400000000000000000e+01
2.394639968872069868e+00 -2.961462736129760742e-01 -6.465299725532531738e-01 2.200000000000000000e+01
5.988330459594727273e+01 -7.416408538818359375e+00 1.053252696990967019e+00 6.200000000000000000e+01
2.738434791564940962e+00 -3.396340906620026190e-01 -6.370613574981689453e-01 1.300000000000000000e+01
5.966108703613281250e+01 -7.410033226013183594e+00 3.150729179382324219e+00 6.300000000000000000e+01
3.222462654113769975e+00 -4.002366960048676092e-01 -6.311961412429809570e-01 1.300000000000000000e+01
3.883214473724364790e+00 -4.836799204349517822e-01 -6.197933554649353027e-01 1.000000000000000000e+01
3.656000137329102273e+01 -4.560268878936767578e+00 4.523789882659912109e+00 1.900000000000000000e+01
4.948099136352539062e+00 -6.180724501609802246e-01 -6.122716069221496582e-01 1.000000000000000000e+01
6.595213413238525391e+00 -8.249843120574951172e-01 -5.815030932426452637e-01 5.000000000000000000e+00
3.378468704223632812e+01 -4.232059478759765625e+00 6.618401050567626953e+00 5.800000000000000000e+01
1.019995307922362926e+01 -1.279511451721190962e+00 -5.387463569641113281e-01 2.000000000000000000e+00
3.546312713623046875e+01 -4.454884052276611328e+00 8.251654624938964844e+00 1.000000000000000000e+01
2.016993522644042969e+01 -2.537326574325561968e+00 -3.548423349857329767e-01 3.000000000000000000e+00
3.486558914184570312e+01 -4.386002540588378906e+00 9.415837287902832031e+00 1.400000000000000000e+01
2.395508050918579102e+00 -3.047471046447753906e-01 -6.470476388931274414e-01 1.900000000000000000e+01
5.985705184936522727e+01 -7.625394821166992188e+00 1.053252696990967019e+00 6.200000000000000000e+01
2.748831033706665039e+00 -3.506705760955811102e-01 -6.397607922554016113e-01 1.400000000000000000e+01
3.217151165008544922e+00 -4.109852015972136896e-01 -6.304329037666320801e-01 1.300000000000000000e+01
3.881502389907836914e+00 -4.972319304943085272e-01 -6.197933554649353027e-01 1.000000000000000000e+01
3.632333755493164062e+01 -4.659570693969726562e+00 4.496491432189941406e+00 1.900000000000000000e+01
4.971507549285888672e+00 -6.386287212371826172e-01 -6.154401898384094238e-01 1.200000000000000000e+01
6.588341236114501953e+00 -8.474924564361572266e-01 -5.811544656753540039e-01 5.000000000000000000e+00
1.020334815979004084e+01 -1.316130280494689941e+00 -5.391650199890136719e-01 2.000000000000000000e+00
3.506855392456054688e+01 -4.529716491699218750e+00 8.163474082946777344e+00 1.000000000000000000e+01
3.513282775878906250e+01 -4.550487518310546875e+00 9.492446899414062500e+00 7.000000000000000000e+00
2.398260831832886186e+00 -3.136081099510192871e-01 -6.480829119682312012e-01 1.900000000000000000e+01
2.755319118499755859e+00 -3.612770438194274902e-01 -6.415604352951049805e-01 1.400000000000000000e+01
5.970691299438477273e+01 -7.839362144470214844e+00 3.155962944030762163e+00 6.200000000000000000e+01
3.217643499374390093e+00 -4.224682152271270752e-01 -6.308145523071289062e-01 1.300000000000000000e+01
3.895410776138306108e+00 -5.128405690193176270e-01 -6.222962737083435059e-01 1.000000000000000000e+01
4.963344097137451172e+00 -6.551992893218994141e-01 -6.147089600563049316e-01 1.000000000000000000e+01
6.601144313812255859e+00 -8.725736737251281738e-01 -5.825489759445190430e-01 5.000000000000000000e+00
1.022245121002197088e+01 -1.354887604713439941e+00 -5.404210686683654785e-01 2.000000000000000000e+00
3.331004333496093750e+01 -4.420842170715332031e+00 7.757662296295166016e+00 9.000000000000000000e+00
2.015172958374023082e+01 -2.678076267242432085e+00 -3.548423349857329767e-01 3.000000000000000000e+00
3.507541275024414062e+01 -4.661368370056152344e+00 9.481059074401855469e+00 7.000000000000000000e+00
2.376090288162231001e+00 -3.191488087177277166e-01 -6.423888802528381348e-01 1.800000000000000000e+01
2.757903814315795898e+00 -3.714129030704497736e-01 -6.424602270126342773e-01 1.400000000000000000e+01
3.212257862091064009e+00 -4.331725835800170898e-01 -6.300513148307800293e-01 1.200000000000000000e+01
3.881851673126221147e+00 -5.248469114303588867e-01 -6.204190850257873535e-01 1.000000000000000000e+01
3.603812789916992188e+01 -4.878951072692871094e+00 4.465292930603027344e+00 1.900000000000000000e+01
4.966928005218505859e+00 -6.733205914497375488e-01 -6.154401898384094238e-01 1.200000000000000000e+01
3.503876113891602273e+01 -4.749881267547607422e+00 5.600353717803955078e+00 1.300000000000000000e+01
6.586212635040283203e+00 -8.940027356147766113e-01 -5.815030932426452637e-01 6.000000000000000000e+00
1.027702999114990057e+01 -1.398642301559448020e+00 -5.435612201690673828e-01 2.000000000000000000e+00
3.337936782836914062e+01 -4.548666477203369141e+00 7.777457714080811435e+00 9.000000000000000000e+00
3.495365142822266336e+01 -4.769411087036132812e+00 9.452589035034179688e+00 1.400000000000000000e+01
2.386386632919311968e+00 -3.294405937194824219e-01 -6.454946994781494141e-01 1.900000000000000000e+01
2.760384559631348100e+00 -3.820529580116271973e-01 -6.433600187301635742e-01 1.400000000000000000e+01
3.232039928436278853e+00 -4.479076564311981201e-01 -6.342490911483764648e-01 1.200000000000000000e+01
3.879901885986328125e+00 -5.390710830688476562e-01 -6.204190850257873535e-01 1.000000000000000000e+01
4.989985942840576172e+00 -6.950810551643371582e-01 -6.186087727546691895e-01 1.000000000000000000e+01
6.590785026550292969e+00 -9.192372560501098633e-01 -5.822003483772277832e-01 6.000000000000000000e+00
1.025601005554199041e+01 -1.434087514877318892e+00 -5.427238941192626953e-01 2.000000000000000000e+00
3.465087890625000000e+01 -4.857529640197753906e+00 9.375460624694824219e+00 7.000000000000000000e+00
2.392873287200928178e+00 -3.388520777225493830e-01 -6.475652456283569336e-01 1.900000000000000000e+01
5.974327087402343750e+01 -8.470813751220703125e+00 1.053252696990967019e+00 6.200000000000000000e+01
2.743599176406859907e+00 -3.894949257373809814e-01 -6.397607922554016113e-01 1.300000000000000000e+01
3.234344244003295898e+00 -4.597394466400145929e-01 -6.350123286247253418e-01 1.200000000000000000e+01
3.881907701492310014e+00 -5.531685352325439453e-01 -6.210448145866394043e-01 1.000000000000000000e+01
3.911515426635742188e+01 -5.580841541290283203e+00 4.851374626159667969e+00 2.000000000000000000e+01
4.979669094085693359e+00 -7.113721966743469238e-01 -6.176338195800781250e-01 1.000000000000000000e+01
6.591480731964111328e+00 -9.428020119667053223e-01 -5.825489759445190430e-01 4.000000000000000000e+00
3.397303390502929688e+01 -4.865329742431640625e+00 6.671063899993895596e+00 5.900000000000000000e+01
1.025094223022460938e+01 -1.469878911972045898e+00 -5.427238941192626953e-01 2.000000000000000000e+00
3.566843414306641336e+01 -5.120837688446044922e+00 8.319139480590820312e+00 1.000000000000000000e+01
2.044668960571289062e+01 -2.939127922058105025e+00 -3.605667054653167725e-01 3.000000000000000000e+00
3.443206405639647727e+01 -4.955602169036865234e+00 9.321108818054199219e+00 1.300000000000000000e+01
2.391675949096680132e+00 -3.472027182579041082e-01 -6.475652456283569336e-01 2.000000000000000000e+01
2.751864910125731978e+00 -4.004727005958557129e-01 -6.420103311538696289e-01 1.400000000000000000e+01
3.215235233306885210e+00 -4.684789776802062988e-01 -6.315777897834777832e-01 1.300000000000000000e+01
3.889726400375366211e+00 -5.681430697441101074e-01 -6.226091980934143066e-01 1.100000000000000000e+01
4.967334747314453125e+00 -7.273122072219848633e-01 -6.164151430130004883e-01 9.000000000000000000e+00
3.524330139160156250e+01 -5.166572570800781250e+00 5.641652584075927734e+00 1.300000000000000000e+01
6.611805438995361328e+00 -9.692727327346801758e-01 -5.846407413482666016e-01 5.000000000000000000e+00
3.427051925659179688e+01 -5.030075073242188388e+00 6.732886314392089844e+00 5.900000000000000000e+01
1.028922080993651988e+01 -1.512040853500365989e+00 -5.450266599655151367e-01 2.000000000000000000e+00
3.583157348632813211e+01 -5.271977424621582031e+00 8.361431121826171875e+00 1.000000000000000000e+01
2.050752639770508168e+01 -3.020973682403564009e+00 -3.618232905864716131e-01 3.000000000000000000e+00
3.473844146728516336e+01 -5.117336750030517578e+00 9.408590316772460938e+00 7.000000000000000000e+00
2.380895137786864790e+00 -3.541280329227448065e-01 -6.449770331382751465e-01 1.900000000000000000e+01
2.750450134277344194e+00 -4.100760519504547119e-01 -6.420103311538696289e-01 1.400000000000000000e+01
3.209696769714355025e+00 -4.791196882724761963e-01 -6.308145523071289062e-01 1.300000000000000000e+01
3.893580436706542969e+00 -5.825942158699035645e-01 -6.235477924346923828e-01 1.000000000000000000e+01
4.968691825866699219e+00 -7.452358603477478027e-01 -6.169025897979736328e-01 1.000000000000000000e+01
3.529146957397460938e+01 -5.299536705017089844e+00 5.652289867401123047e+00 1.300000000000000000e+01
6.608381748199462891e+00 -9.923462867736816406e-01 -5.846407413482666016e-01 5.000000000000000000e+00
1.030363082885742010e+01 -1.550920605659485085e+00 -5.460733771324157715e-01 2.000000000000000000e+00
3.996752548217772727e+01 -6.023115634918212891e+00 9.331419944763183594e+00 1.200000000000000000e+01
4.205183410644531250e+01 -6.344727993011474609e+00 1.139528465270995916e+01 1.100000000000000000e+01
2.375888109207152876e+00 -3.614403307437896729e-01 -6.439417600631713867e-01 1.900000000000000000e+01
3.772908782958983664e+01 -5.746407508850097656e+00 6.661583781242370605e-01 3.100000000000000000e+01
2.752928256988524947e+00 -4.197821319103240967e-01 -6.429101228713989258e-01 1.400000000000000000e+01
3.210031032562255859e+00 -4.900570809841156006e-01 -6.311961412429809570e-01 1.200000000000000000e+01
3.879911184310913086e+00 -5.937098264694213867e-01 -6.216705441474914551e-01 1.000000000000000000e+01
3.658716583251953125e+01 -5.605158329010009766e+00 4.544751644134520596e+00 1.900000000000000000e+01
4.974041938781738281e+00 -7.629123926162719727e-01 -6.178775429725646973e-01 9.000000000000000000e+00
6.601116180419921875e+00 -1.013650178909301980e+00 -5.842921137809753418e-01 8.000000000000000000e+00
3.423548507690429688e+01 -5.263228416442871094e+00 6.732886314392089844e+00 5.900000000000000000e+01
1.031817150115966975e+01 -1.588118433952331987e+00 -5.471200942993164062e-01 2.000000000000000000e+00
4.207638549804688211e+01 -6.491211414337158203e+00 1.140770816802979049e+01 1.100000000000000000e+01
2.380338430404663086e+00 -3.706231713294982910e-01 -6.454946994781494141e-01 2.000000000000000000e+01
3.757839202880858664e+01 -5.857744216918945312e+00 6.638546586036682129e-01 3.100000000000000000e+01
2.743744373321533203e+00 -4.281871616840363104e-01 -6.411104798316955566e-01 1.400000000000000000e+01
3.223818778991699219e+00 -5.036836862564086914e-01 -6.342490911483764648e-01 1.300000000000000000e+01
3.873911857604980025e+00 -6.066384315490722656e-01 -6.210448145866394043e-01 1.000000000000000000e+01
4.998803615570068359e+00 -7.845795750617980957e-01 -6.212899088859558105e-01 9.000000000000000000e+00
3.564486694335938211e+01 -5.600960254669188565e+00 5.714863777160645419e+00 1.300000000000000000e+01
6.601473808288574219e+00 -1.037304759025573953e+00 -5.846407413482666016e-01 6.000000000000000000e+00
1.036780738830566051e+01 -1.632825970649719016e+00 -5.500509142875671387e-01 2.000000000000000000e+00
2.060174560546875000e+01 -3.251939296722412109e+00 -3.640572130680084229e-01 3.000000000000000000e+00
2.382978200912476030e+00 -3.787057995796204168e-01 -6.465299725532531738e-01 1.800000000000000000e+01
2.736612081527709961e+00 -4.358851909637451172e-01 -6.397607922554016113e-01 1.500000000000000000e+01
3.231914281845093218e+00 -5.153548717498779297e-01 -6.361572146415710449e-01 1.100000000000000000e+01
3.879789352416992188e+00 -6.200526356697082520e-01 -6.222962737083435059e-01 1.000000000000000000e+01
4.984553337097167969e+00 -7.983961105346679688e-01 -6.198275089263916016e-01 9.000000000000000000e+00
6.606051445007324219e+00 -1.059300661087035911e+00 -5.853379964828491211e-01 6.000000000000000000e+00
1.034685039520264027e+01 -1.662853956222533958e+00 -5.492135286331176758e-01 2.000000000000000000e+00
3.486860275268554688e+01 -5.610015392303466797e+00 8.153575897216796875e+00 1.000000000000000000e+01
3.631441497802733664e+01 -5.849134445190429688e+00 9.855829238891601562e+00 7.000000000000000000e+00
2.389269113540648970e+00 -3.882610797882080078e-01 -6.486005187034606934e-01 1.700000000000000000e+01
2.735074043273925781e+00 -4.454350769519805908e-01 -6.397607922554016113e-01 1.200000000000000000e+01
3.216531991958618164e+00 -5.244218111038208008e-01 -6.334858536720275879e-01 1.100000000000000000e+01
3.871752738952637163e+00 -6.326361894607543945e-01 -6.213576793670654297e-01 1.100000000000000000e+01
4.966063976287841797e+00 -8.132241964340209961e-01 -6.178775429725646973e-01 9.000000000000000000e+00
3.643736267089843750e+01 -5.973377227783203125e+00 5.848145961761474609e+00 1.300000000000000000e+01
6.612144470214843750e+00 -1.083965182304382102e+00 -5.862095355987548828e-01 6.000000000000000000e+00
1.035674953460693004e+01 -1.701551556587219016e+00 -5.500509142875671387e-01 2.000000000000000000e+00
3.477958297729492188e+01 -5.720309734344482422e+00 8.137379646301269531e+00 1.000000000000000000e+01
2.072179031372069957e+01 -3.411894083023070845e+00 -3.665703535079956055e-01 3.000000000000000000e+00
3.481838607788085938e+01 -5.732933521270751953e+00 9.455177307128906250e+00 7.000000000000000000e+00
2.382181882858275923e+00 -3.956492841243743896e-01 -6.470476388931274414e-01 1.600000000000000000e+01
2.748880863189696822e+00 -4.575392305850983221e-01 -6.433600187301635742e-01 1.200000000000000000e+01
3.780026245117188211e+01 -6.298469066619873047e+00 2.008339881896973100e+00 2.100000000000000000e+01
3.204998970031737837e+00 -5.340330004692077637e-01 -6.315777897834777832e-01 1.200000000000000000e+01
3.794282913208007812e+01 -6.329030513763427734e+00 3.365431785583496094e+00 5.000000000000000000e+01
3.887056589126586914e+00 -6.490754485130310059e-01 -6.241735219955444336e-01 1.000000000000000000e+01
3.742965316772460938e+01 -6.256860733032226562e+00 4.659552574157714844e+00 4.000000000000000000e+01
4.971026897430419922e+00 -8.318645954132080078e-01 -6.188524961471557617e-01 9.000000000000000000e+00
3.535359191894531250e+01 -5.916162014007568359e+00 5.677319526672363281e+00 1.300000000000000000e+01
6.624040603637695312e+00 -1.109672784805298074e+00 -5.876040458679199219e-01 6.000000000000000000e+00
3.686749267578125000e+01 -6.182733058929443359e+00 7.266387939453125000e+00 6.200000000000000000e+01
1.039408016204833984e+01 -1.744967818260193093e+00 -5.523536801338195801e-01 2.000000000000000000e+00
2.093456077575683949e+01 -3.522027254104613814e+00 -3.705494999885559082e-01 3.000000000000000000e+00
3.480666732788085938e+01 -5.862115383148193359e+00 9.457765579223632812e+00 1.400000000000000000e+01
2.373167991638184038e+00 -4.026695489883422852e-01 -6.449770331382751465e-01 1.500000000000000000e+01
5.968590545654296875e+01 -1.013798046112061080e+01 1.056743264198303001e+00 6.200000000000000000e+01
2.751109361648560014e+00 -4.677851498126984198e-01 -6.442598104476928711e-01 1.300000000000000000e+01
3.212792396545410156e+00 -5.468644499778747559e-01 -6.334858536720275879e-01 1.100000000000000000e+01
3.880872726440430132e+00 -6.619755625724792480e-01 -6.235477924346923828e-01 1.000000000000000000e+01
3.741345596313477273e+01 -6.388478755950927734e+00 4.660283565521240234e+00 2.000000000000000000e+01
4.977876186370849609e+00 -8.508839607238769531e-01 -6.200712323188781738e-01 1.000000000000000000e+01
6.614234924316406250e+00 -1.131780028343200906e+00 -5.870810747146606445e-01 5.000000000000000000e+00
1.038792610168457031e+01 -1.781239271163939986e+00 -5.523536801338195801e-01 2.000000000000000000e+00
3.427400207519531250e+01 -5.883192539215087891e+00 8.028503417968750000e+00 1.000000000000000000e+01
2.092214012145996094e+01 -3.595081090927124023e+00 -3.705494999885559082e-01 3.000000000000000000e+00
3.488309097290039062e+01 -6.000279426574707031e+00 9.484165191650390625e+00 7.000000000000000000e+00
2.377458333969116211e+00 -4.119404554367064875e-01 -6.465299725532531738e-01 1.500000000000000000e+01
5.974866485595703125e+01 -1.036334896087645951e+01 1.058488488197327104e+00 6.100000000000000000e+01
2.751379728317261186e+00 -4.777188301086425781e-01 -6.447097063064575195e-01 1.300000000000000000e+01
3.218600988388061968e+00 -5.594206452369689941e-01 -6.350123286247253418e-01 1.100000000000000000e+01
3.886322498321533203e+00 -6.768740415573120117e-01 -6.247992515563964844e-01 1.000000000000000000e+01
3.851343917846679688e+01 -6.714744567871093750e+00 4.800189495086669922e+00 2.000000000000000000e+01
4.988564491271972656e+00 -8.706439137458801270e-01 -6.217774152755737305e-01 9.000000000000000000e+00
3.880637359619141336e+01 -6.772796630859375000e+00 6.239232063293457031e+00 1.400000000000000000e+01
6.620057582855224609e+00 -1.156575679779052956e+00 -5.879526138305664062e-01 8.000000000000000000e+00
1.044066524505615057e+01 -1.827821493148803933e+00 -5.554938316345214844e-01 2.000000000000000000e+00
3.452582550048828125e+01 -6.050561904907226562e+00 8.092389106750488281e+00 1.000000000000000000e+01
2.091340255737305043e+01 -3.668781995773314986e+00 -3.706192970275878906e-01 3.000000000000000000e+00
3.473825454711914062e+01 -6.100288867950438565e+00 9.450518608093261719e+00 1.400000000000000000e+01
2.385517597198485884e+00 -4.219191074371337891e-01 -6.491181850433349609e-01 1.600000000000000000e+01
2.736263513565063032e+00 -4.849395453929901123e-01 -6.415604352951049805e-01 1.200000000000000000e+01
3.216628551483153853e+00 -5.706522464752197266e-01 -6.350123286247253418e-01 1.200000000000000000e+01
3.881991386413574219e+00 -6.900900006294250488e-01 -6.244863867759704590e-01 9.000000000000000000e+00
3.854058074951171875e+01 -6.858182907104492188e+00 4.806527137756347656e+00 2.000000000000000000e+01
4.973769187927246094e+00 -8.859632015228271484e-01 -6.203149557113647461e-01 9.000000000000000000e+00
3.590813446044921875e+01 -6.396213054656982422e+00 5.776812076568604404e+00 1.300000000000000000e+01
6.649324417114257812e+00 -1.185622453689574973e+00 -5.909159183502197266e-01 5.000000000000000000e+00
1.039096641540526988e+01 -1.856526970863342063e+00 -5.531910657882690430e-01 2.000000000000000000e+00
3.425895309448242188e+01 -6.127128124237061435e+00 8.034801483154296875e+00 1.000000000000000000e+01
2.082960510253905895e+01 -3.729074716567993164e+00 -3.693627417087554932e-01 7.000000000000000000e+00
3.534236145019531250e+01 -6.333625316619873047e+00 9.620821952819824219e+00 7.000000000000000000e+00
2.382129192352294922e+00 -4.299004673957825262e-01 -6.486005187034606934e-01 1.800000000000000000e+01
2.734554052352904829e+00 -4.944879412651062012e-01 -6.415604352951049805e-01 1.200000000000000000e+01
