4.455307960510253906e+00 3.523643493652344194e+00 -4.969620406627655029e-01 1.300000000000000000e+01
6.476284980773925781e+00 5.118333339691162109e+00 -4.326090216636658270e-01 2.000000000000000000e+00
1.057089710235596058e+01 8.348391532897949219e+00 -2.351188212633132935e-01 2.000000000000000000e+00
1.766651511192321999e+00 1.391216516494750977e+00 -6.025307178497314453e-01 1.900000000000000000e+01
2.018425941467285156e+00 1.588344573974608931e+00 -5.929709672927856445e-01 1.100000000000000000e+01
2.337718963623046875e+00 1.838942885398864968e+00 -5.781512856483459473e-01 1.500000000000000000e+01
2.782980918884276900e+00 2.187631607055664062e+00 -5.606611371040344238e-01 9.000000000000000000e+00
3.448401689529418945e+00 2.708755254745482954e+00 -5.384187698364257812e-01 9.000000000000000000e+00
4.462879657745361328e+00 3.504378557205200195e+00 -4.964390993118286133e-01 1.100000000000000000e+01
6.494112014770507812e+00 5.095695972442626953e+00 -4.326090216636658270e-01 2.000000000000000000e+00
1.059997367858887074e+01 8.311441421508789062e+00 -2.351188212633132935e-01 2.000000000000000000e+00
1.766931295394897017e+00 1.381471514701843040e+00 -6.009778380393981934e-01 1.900000000000000000e+01
2.017815351486206055e+00 1.576490163803101030e+00 -5.911713838577270508e-01 1.200000000000000000e+01
2.348765611648560014e+00 1.834396839141845925e+00 -5.792961120605468750e-01 1.300000000000000000e+01
2.796829223632812944e+00 2.182765245437622070e+00 -5.619125962257385254e-01 9.000000000000000000e+00
3.445313453674315962e+00 2.686935186386107954e+00 -5.364688634872436523e-01 1.000000000000000000e+01
4.476656436920166016e+00 3.490003824234008789e+00 -4.966134130954741877e-01 1.100000000000000000e+01
6.511859893798828125e+00 5.072996139526367188e+00 -4.326090216636658270e-01 2.000000000000000000e+00
1.065101242065430043e+01 8.291586875915527344e+00 -2.356074899435043057e-01 2.000000000000000000e+00
1.782666563987731934e+00 1.383276343345642090e+00 -6.046012639999389648e-01 1.700000000000000000e+01
2.023580074310303178e+00 1.569083929061890093e+00 -5.911713838577270508e-01 1.100000000000000000e+01
2.353921651840209961e+00 1.824573040008544922e+00 -5.789144635200500488e-01 1.300000000000000000e+01
2.807934284210205078e+00 2.174918889999390093e+00 -5.625383257865905762e-01 9.000000000000000000e+00
3.549788665771483664e+01 2.748540115356444957e+01 5.512393951416015625e+00 3.700000000000000000e+01
3.461417436599731001e+00 2.679149627685546875e+00 -5.374438166618347168e-01 9.000000000000000000e+00
4.495720863342285156e+00 3.478449583053588867e+00 -4.973106682300568182e-01 1.100000000000000000e+01
6.514608860015869141e+00 5.036878108978270596e+00 -4.315623044967650812e-01 2.000000000000000000e+00
1.065917778015137074e+01 8.235377311706542969e+00 -2.351188212633132935e-01 2.000000000000000000e+00
1.787484169006348100e+00 1.377045154571532981e+00 -6.046012639999389648e-01 1.900000000000000000e+01
2.035221576690673828e+00 1.566765785217284934e+00 -5.929709672927856445e-01 1.100000000000000000e+01
2.355608701705933061e+00 1.812753319740294966e+00 -5.777696371078491211e-01 1.200000000000000000e+01
2.815508842468262163e+00 2.165104150772095171e+00 -5.625383257865905762e-01 9.000000000000000000e+00
3.473896503448485884e+00 2.669469833374022993e+00 -5.379312634468078613e-01 9.000000000000000000e+00
4.504675388336181641e+00 3.460308074951171875e+00 -4.969620406627655029e-01 9.000000000000000000e+00
6.544825553894042969e+00 5.023836612701416016e+00 -4.323996603488922119e-01 1.000000000000000000e+00
1.068151283264159979e+01 8.193251609802246094e+00 -2.349791973829269132e-01 2.000000000000000000e+00
1.781538724899291992e+00 1.362581968307494895e+00 -6.009778380393981934e-01 1.900000000000000000e+01
2.043774843215941939e+00 1.562018632888793945e+00 -5.938707590103149414e-01 1.200000000000000000e+01
2.357241868972777876e+00 1.800943970680237038e+00 -5.766248106956481934e-01 1.300000000000000000e+01
2.821479320526123047e+00 2.154064416885375977e+00 -5.622254610061645508e-01 1.000000000000000000e+01
3.483193635940552202e+00 2.657327413558959961e+00 -5.379312634468078613e-01 9.000000000000000000e+00
4.537322044372558594e+00 3.460269212722777876e+00 -4.992280900478363037e-01 9.000000000000000000e+00
6.597270488739013672e+00 5.027593135833740234e+00 -4.347024559974669855e-01 2.000000000000000000e+00
1.072595691680908025e+01 8.168030738830566406e+00 -2.353282421827316007e-01 2.000000000000000000e+00
3.591831207275391336e+01 2.735251617431640980e+01 1.209720230102539062e+01 1.200000000000000000e+01
1.784745573997498003e+00 1.355186700820923074e+00 -6.004601716995239258e-01 2.000000000000000000e+01
2.044557571411132812e+00 1.551341176033020020e+00 -5.925210714340209961e-01 1.300000000000000000e+01
2.372899055480957031e+00 1.799823284149169922e+00 -5.789144635200500488e-01 1.200000000000000000e+01
2.819535493850708008e+00 2.137042999267578125e+00 -5.603482723236083984e-01 8.000000000000000000e+00
3.503525257110596147e+00 2.653542280197143999e+00 -5.396374464035034180e-01 9.000000000000000000e+00
4.533488273620604581e+00 3.432383298873900923e+00 -4.974849820137023926e-01 9.000000000000000000e+00
6.582924365997313565e+00 4.980432987213134766e+00 -4.326090216636658270e-01 2.000000000000000000e+00
1.077354431152343928e+01 8.145011901855468750e+00 -2.357470989227294922e-01 2.000000000000000000e+00
1.795163154602051003e+00 1.354226708412169966e+00 -6.025307178497314453e-01 1.800000000000000000e+01
2.044752597808837891e+00 1.541391253471374956e+00 -5.911713838577270508e-01 1.100000000000000000e+01
2.380109548568726030e+00 1.793541193008423074e+00 -5.792961120605468750e-01 1.100000000000000000e+01
2.830969333648682085e+00 2.131739616394042969e+00 -5.612868666648864746e-01 1.000000000000000000e+01
3.502326965332030806e+00 2.635361194610596147e+00 -5.381750464439392090e-01 9.000000000000000000e+00
4.596793174743652344e+00 3.457646846771239790e+00 -5.032372474670410156e-01 9.000000000000000000e+00
6.611310958862304688e+00 4.969327926635742188e+00 -4.334463775157927912e-01 2.000000000000000000e+00
1.082466220855713068e+01 8.130340576171875000e+00 -2.363055795431137085e-01 2.000000000000000000e+00
1.806064486503601074e+00 1.352584362030029075e+00 -6.046012639999389648e-01 1.800000000000000000e+01
2.050120592117310014e+00 1.534244298934936968e+00 -5.911713838577270508e-01 1.100000000000000000e+01
2.389499902725220171e+00 1.787574291229248047e+00 -5.800593495368957520e-01 1.100000000000000000e+01
2.844722032546997070e+00 2.126575469970703125e+00 -5.625383257865905762e-01 9.000000000000000000e+00
3.516275882720946822e+00 2.626683712005614790e+00 -5.389062166213989258e-01 9.000000000000000000e+00
4.608834743499755859e+00 3.441580057144165039e+00 -5.032372474670410156e-01 9.000000000000000000e+00
6.615810871124267578e+00 4.936664104461669922e+00 -4.326090216636658270e-01 1.000000000000000000e+00
1.082091426849365057e+01 8.068599700927734375e+00 -2.356074899435043057e-01 2.000000000000000000e+00
3.216160202026367188e+01 2.397251892089844105e+01 1.074823760986327947e+01 9.000000000000000000e+00
1.804807782173156960e+00 1.341346263885498047e+00 -6.025307178497314453e-01 1.800000000000000000e+01
2.058859109878540039e+00 1.529043793678283913e+00 -5.920711755752563477e-01 1.100000000000000000e+01
2.389730215072631836e+00 1.774123191833496094e+00 -5.785328745841979980e-01 1.100000000000000000e+01
2.860429525375366211e+00 2.122019529342650923e+00 -5.641027092933654785e-01 1.000000000000000000e+01
3.527474164962768999e+00 2.614960432052611861e+00 -5.391499996185302734e-01 7.000000000000000000e+00
4.603809356689453125e+00 3.411616086959838867e+00 -5.013198256492614746e-01 9.000000000000000000e+00
6.656331539154052734e+00 4.929022789001464844e+00 -4.340744316577910822e-01 2.000000000000000000e+00
3.148431205749512074e+01 2.330567169189453125e+01 9.043481826782226562e+00 1.200000000000000000e+01
1.085684490203857067e+01 8.033642768859863281e+00 -2.357470989227294922e-01 2.000000000000000000e+00
3.219228363037108664e+01 2.382103729248046875e+01 1.073063755035400035e+01 9.000000000000000000e+00
1.806369900703429954e+00 1.332744240760803001e+00 -6.014954447746276855e-01 1.800000000000000000e+01
2.070458173751831055e+00 1.526473283767699973e+00 -5.938707590103149414e-01 1.200000000000000000e+01
2.392747640609741211e+00 1.763441205024719016e+00 -5.777696371078491211e-01 1.100000000000000000e+01
2.858275890350341797e+00 2.104993581771851030e+00 -5.622254610061645508e-01 1.000000000000000000e+01
3.533383131027222124e+00 2.600278139114379883e+00 -5.386624932289123535e-01 9.000000000000000000e+00
4.628529071807861328e+00 3.404970169067382812e+00 -5.027143359184265137e-01 9.000000000000000000e+00
6.670278072357177734e+00 4.903391838073729581e+00 -4.338650703430175781e-01 2.000000000000000000e+00
3.150265884399414062e+01 2.314946937561035156e+01 9.025485992431640625e+00 1.200000000000000000e+01
1.091060733795166016e+01 8.014637947082519531e+00 -2.363055795431137085e-01 2.000000000000000000e+00
3.228560638427733664e+01 2.370746040344237926e+01 1.073270797729492010e+01 9.000000000000000000e+00
1.807893872261046919e+00 1.324147701263427956e+00 -6.004601716995239258e-01 1.700000000000000000e+01
2.082064151763916016e+00 1.523840546607970969e+00 -5.956704020500183105e-01 1.100000000000000000e+01
2.403642177581787109e+00 1.758555889129638894e+00 -5.789144635200500488e-01 1.200000000000000000e+01
2.867200851440430132e+00 2.096169233322143999e+00 -5.625383257865905762e-01 1.200000000000000000e+01
3.550452709197998047e+00 2.593783617019652876e+00 -5.398811697959899902e-01 9.000000000000000000e+00
4.567980766296386719e+00 3.335916280746459961e+00 -4.948703050613402765e-01 9.000000000000000000e+00
6.674446582794188565e+00 4.870659828186035156e+00 -4.330277144908905029e-01 2.000000000000000000e+00
3.161161231994628906e+01 2.306003570556640980e+01 9.033584594726562500e+00 1.200000000000000000e+01
1.093851661682129084e+01 7.976503849029541016e+00 -2.363055795431137085e-01 2.000000000000000000e+00
3.232345962524414062e+01 2.357067298889160156e+01 1.071924972534180043e+01 9.000000000000000000e+00
1.828130125999450906e+00 1.329189538955688032e+00 -6.056365370750427246e-01 1.900000000000000000e+01
2.071604967117310014e+00 1.505109071731566939e+00 -5.911713838577270508e-01 1.100000000000000000e+01
2.411354541778564009e+00 1.751308560371398926e+00 -5.792961120605468750e-01 1.100000000000000000e+01
2.869704246520996094e+00 2.082667350769042969e+00 -5.615997314453125000e-01 1.400000000000000000e+01
3.561092138290404829e+00 2.582539796829224077e+00 -5.401249527931213379e-01 1.000000000000000000e+01
4.637669086456298828e+00 3.362049579620360884e+00 -5.011455416679382324e-01 9.000000000000000000e+00
6.684937953948974609e+00 4.842645168304443359e+00 -4.326090216636658270e-01 2.000000000000000000e+00
3.175820541381835938e+01 2.299755477905273082e+01 9.052480697631835938e+00 1.200000000000000000e+01
1.095333480834960938e+01 7.928892135620117188e+00 -2.360263466835021973e-01 2.000000000000000000e+00
3.217393875122070312e+01 2.329004669189453125e+01 1.064263916015625000e+01 9.000000000000000000e+00
1.824696421623229980e+00 1.317465543746948020e+00 -6.030483841896057129e-01 1.900000000000000000e+01
2.076584577560424805e+00 1.498231172561645952e+00 -5.911713838577270508e-01 1.000000000000000000e+01
2.418740987777709961e+00 1.744451045989990012e+00 -5.796777009963989258e-01 1.200000000000000000e+01
2.891017913818358931e+00 2.083534240722655806e+00 -5.644155740737915039e-01 1.400000000000000000e+01
3.558360576629639116e+00 2.562596082687377930e+00 -5.384187698364257812e-01 9.000000000000000000e+00
3.158233642578125000e+01 2.273602867126464844e+01 6.163517951965332031e+00 1.400000000000000000e+01
4.715088367462158203e+00 3.394378185272216797e+00 -5.082923173904418945e-01 9.000000000000000000e+00
6.717173099517822266e+00 4.832113742828369141e+00 -4.336557388305664062e-01 2.000000000000000000e+00
3.193555068969726918e+01 2.296492958068848012e+01 9.081274032592773438e+00 1.200000000000000000e+01
1.099255752563476918e+01 7.901863098144531250e+00 -2.363055795431137085e-01 2.000000000000000000e+00
1.833994746208190918e+00 1.314464330673217995e+00 -6.046012639999389648e-01 1.800000000000000000e+01
2.083386182785034180e+00 1.492108106613158958e+00 -5.916212797164916992e-01 1.200000000000000000e+01
2.420026540756226030e+00 1.732568860054015891e+00 -5.785328745841979980e-01 1.300000000000000000e+01
2.895060062408446822e+00 2.071131229400635210e+00 -5.637897849082946777e-01 1.500000000000000000e+01
3.568898916244506836e+00 2.551313877105712891e+00 -5.386624932289123535e-01 1.000000000000000000e+01
4.718803405761718750e+00 3.372106552124022993e+00 -5.074207186698913574e-01 8.000000000000000000e+00
6.750253200531005859e+00 4.820243835449218750e+00 -4.347024559974669855e-01 2.000000000000000000e+00
1.099402809143066051e+01 7.844859600067138672e+00 -2.357470989227294922e-01 2.000000000000000000e+00
1.832502961158751997e+00 1.303254961967468040e+00 -6.025307178497314453e-01 1.900000000000000000e+01
2.096783399581909180e+00 1.490106344223022017e+00 -5.938707590103149414e-01 1.300000000000000000e+01
2.424760103225708008e+00 1.722550392150878906e+00 -5.781512856483459473e-01 1.200000000000000000e+01
2.904242515563964844e+00 2.061649799346923828e+00 -5.641027092933654785e-01 1.400000000000000000e+01
3.587940692901610884e+00 2.545107126235961914e+00 -5.401249527931213379e-01 1.000000000000000000e+01
3.158308410644530895e+01 2.239518928527832031e+01 6.132231235504150391e+00 1.400000000000000000e+01
4.742507934570313388e+00 3.362855911254882812e+00 -5.086408853530883789e-01 8.000000000000000000e+00
6.754837989807128906e+00 4.786232948303222656e+00 -4.338650703430175781e-01 2.000000000000000000e+00
3.241393280029296875e+01 2.295883941650390980e+01 9.170354843139648438e+00 1.200000000000000000e+01
1.106513977050781072e+01 7.834556102752686435e+00 -2.366546243429183960e-01 2.000000000000000000e+00
1.837041020393372026e+00 1.296850442886352983e+00 -6.025307178497314453e-01 1.900000000000000000e+01
2.100379705429077148e+00 1.481654882431030051e+00 -5.934208631515502930e-01 1.200000000000000000e+01
2.438780307769774947e+00 1.719732880592345969e+00 -5.800593495368957520e-01 1.200000000000000000e+01
2.900117874145507812e+00 2.043534755706787109e+00 -5.619125962257385254e-01 1.100000000000000000e+01
3.248896408081054688e+01 2.288449287414551137e+01 4.879404544830322266e+00 2.100000000000000000e+01
3.585441112518310991e+00 2.524567604064940962e+00 -5.384187698364257812e-01 9.000000000000000000e+00
4.772139549255371094e+00 3.358895540237427202e+00 -5.105583667755126953e-01 8.000000000000000000e+00
3.169703292846680043e+01 2.230185127258301137e+01 7.533520698547363281e+00 6.300000000000000000e+01
6.781305789947509766e+00 4.769518852233886719e+00 -4.344930946826934814e-01 1.000000000000000000e+00
3.146085739135741832e+01 2.211926460266112926e+01 8.878818511962890625e+00 1.200000000000000000e+01
1.110223674774169922e+01 7.802782535552979404e+00 -2.368640601634978970e-01 2.000000000000000000e+00
3.210717010498046875e+01 2.256529617309569957e+01 1.051529979705811080e+01 9.000000000000000000e+00
1.847432971000670943e+00 1.295509457588196023e+00 -6.046012639999389648e-01 2.000000000000000000e+01
2.092256546020507812e+00 1.466102480888366921e+00 -5.898216366767883301e-01 1.300000000000000000e+01
2.448995113372803178e+00 1.715441823005676047e+00 -5.812041759490966797e-01 1.200000000000000000e+01
2.903286933898925781e+00 2.032148361206055132e+00 -5.612868666648864746e-01 1.100000000000000000e+01
3.606368064880371094e+00 2.522392988204956055e+00 -5.403686761856079102e-01 9.000000000000000000e+00
3.183064460754394887e+01 2.226322937011719105e+01 6.152254581451416016e+00 1.400000000000000000e+01
4.781035423278808594e+00 3.342745065689086914e+00 -5.103840231895446777e-01 6.000000000000000000e+00
6.783158302307128906e+00 4.739040374755859375e+00 -4.336557388305664062e-01 2.000000000000000000e+00
3.023607254028319957e+01 2.111652183532714844e+01 8.514397621154785156e+00 1.100000000000000000e+01
1.111685752868651988e+01 7.760997295379638672e+00 -2.366546243429183960e-01 2.000000000000000000e+00
3.257390594482421875e+01 2.274077987670898082e+01 1.064470958709716975e+01 9.000000000000000000e+00
1.855114936828613059e+00 1.291260123252869096e+00 -6.056365370750427246e-01 2.000000000000000000e+01
2.106960535049438032e+00 1.465466618537903054e+00 -5.925210714340209961e-01 1.300000000000000000e+01
2.450132369995117188e+00 1.703520655632019043e+00 -5.800593495368957520e-01 1.100000000000000000e+01
2.916851758956909180e+00 2.026510000228881836e+00 -5.625383257865905762e-01 1.200000000000000000e+01
3.605366945266724077e+00 2.502996683120727983e+00 -5.389062166213989258e-01 9.000000000000000000e+00
4.789401054382324219e+00 3.323764085769652876e+00 -5.100353956222534180e-01 9.000000000000000000e+00
6.802941799163818359e+00 4.717609882354736328e+00 -4.338650703430175781e-01 2.000000000000000000e+00
3.036725425720214844e+01 2.105081748962401988e+01 8.530593872070312500e+00 1.100000000000000000e+01
1.114388084411620916e+01 7.722145080566406250e+00 -2.366546243429183960e-01 2.000000000000000000e+00
3.257763290405272727e+01 2.256623649597167969e+01 1.061882781982422053e+01 9.000000000000000000e+00
1.853476762771606001e+00 1.280060887336730957e+00 -6.035659909248352051e-01 1.800000000000000000e+01
2.110713481903076172e+00 1.456627607345581055e+00 -5.920711755752563477e-01 1.400000000000000000e+01
2.446663379669189009e+00 1.687840104103087935e+00 -5.777696371078491211e-01 1.100000000000000000e+01
2.930765390396118164e+00 2.020290136337279829e+00 -5.637897849082946777e-01 1.100000000000000000e+01
3.621055841445922852e+00 2.494269847869873047e+00 -5.398811697959899902e-01 9.000000000000000000e+00
4.817960739135742188e+00 3.317487001419066939e+00 -5.117785334587097168e-01 9.000000000000000000e+00
6.833350181579589844e+00 4.701701164245604581e+00 -4.347024559974669855e-01 2.000000000000000000e+00
3.043457221984862926e+01 2.093274688720703125e+01 8.527894020080566406e+00 1.100000000000000000e+01
1.118199539184569957e+01 7.688046455383300781e+00 -2.368640601634978970e-01 2.000000000000000000e+00
3.243334197998046875e+01 2.229915237426758168e+01 1.054635810852050959e+01 9.000000000000000000e+00
1.853153467178344949e+00 1.270306468009948953e+00 -6.020131111145019531e-01 1.800000000000000000e+01
2.122216224670410156e+00 1.453655958175658958e+00 -5.938707590103149414e-01 1.300000000000000000e+01
2.463879585266112837e+00 1.687053561210632102e+00 -5.804409384727478027e-01 1.200000000000000000e+01
2.937799453735352007e+00 2.010047435760498047e+00 -5.637897849082946777e-01 1.100000000000000000e+01
3.260477828979492188e+01 2.229989242553710938e+01 4.850156307220458984e+00 2.000000000000000000e+01
3.639572620391846147e+00 2.488337039947510210e+00 -5.413436293601989746e-01 9.000000000000000000e+00
3.288513183593750000e+01 2.247479057312012074e+01 6.308689117431640625e+00 1.400000000000000000e+01
4.821287155151367188e+00 3.295027971267700195e+00 -5.109069347381591797e-01 9.000000000000000000e+00
6.859616756439208984e+00 4.684577941894531250e+00 -4.353304803371428888e-01 2.000000000000000000e+00
3.057505416870116832e+01 2.087252998352051137e+01 8.546790122985839844e+00 1.100000000000000000e+01
1.120876407623291016e+01 7.648967266082763672e+00 -2.368640601634978970e-01 2.000000000000000000e+00
3.250460052490233664e+01 2.218144798278808949e+01 1.054428768157958984e+01 9.000000000000000000e+00
1.859173655509948953e+00 1.264916658401489036e+00 -6.025307178497314453e-01 1.900000000000000000e+01
2.127277612686156782e+00 1.446239113807678001e+00 -5.938707590103149414e-01 1.400000000000000000e+01
2.461634635925292969e+00 1.672925114631653054e+00 -5.785328745841979980e-01 1.100000000000000000e+01
2.939895391464232954e+00 1.996451139450073020e+00 -5.628511905670166016e-01 1.000000000000000000e+01
3.298462677001953125e+01 2.239109039306640980e+01 4.895004272460938388e+00 2.100000000000000000e+01
3.644951343536376953e+00 2.473388195037841797e+00 -5.408561229705810547e-01 9.000000000000000000e+00
3.181527900695801137e+01 2.158918762207030895e+01 6.089680671691895419e+00 1.400000000000000000e+01
4.845950126647949219e+00 3.287126064300537109e+00 -5.123014450073242188e-01 9.000000000000000000e+00
6.866007328033447266e+00 4.653881549835205078e+00 -4.347024559974669855e-01 2.000000000000000000e+00
3.067031288146973012e+01 2.078097915649414062e+01 8.553089141845703125e+00 1.100000000000000000e+01
1.125857448577881037e+01 7.625494003295898438e+00 -2.373527288436889926e-01 2.000000000000000000e+00
1.865178704261780007e+00 1.259500384330749956e+00 -6.030483841896057129e-01 1.800000000000000000e+01
2.125851392745972124e+00 1.434444785118103027e+00 -5.920711755752563477e-01 1.300000000000000000e+01
2.480480194091796875e+00 1.673105001449584961e+00 -5.815858244895935059e-01 1.100000000000000000e+01
2.945208549499512163e+00 1.985072731971740945e+00 -5.625383257865905762e-01 9.000000000000000000e+00
3.653562784194945845e+00 2.460649728775023970e+00 -5.408561229705810547e-01 9.000000000000000000e+00
3.189419364929198863e+01 2.147243309020996094e+01 6.089680671691895419e+00 1.400000000000000000e+01
4.849131107330322266e+00 3.264626979827880859e+00 -5.114299058914184570e-01 9.000000000000000000e+00
6.882210731506347656e+00 4.629886150360107422e+00 -4.347024559974669855e-01 2.000000000000000000e+00
3.225950241088867188e+01 2.169383621215819957e+01 8.975096702575683594e+00 1.200000000000000000e+01
1.128180503845215021e+01 7.583916664123535156e+00 -2.372829169034957886e-01 2.000000000000000000e+00
1.885611534118651900e+00 1.263737201690674050e+00 -6.082247495651245117e-01 1.800000000000000000e+01
2.130845546722412109e+00 1.427015423774719016e+00 -5.920711755752563477e-01 1.100000000000000000e+01
2.473253726959228960e+00 1.655699133872986062e+00 -5.785328745841979980e-01 1.100000000000000000e+01
2.958687305450439009e+00 1.979173183441162109e+00 -5.637897849082946777e-01 1.000000000000000000e+01
3.660479545593262163e+00 2.446778297424315962e+00 -5.406123995780944824e-01 1.000000000000000000e+01
4.877063274383544922e+00 3.258749723434447798e+00 -5.131729841232299805e-01 9.000000000000000000e+00
6.898330211639404297e+00 4.605834484100341797e+00 -4.347024559974669855e-01 2.000000000000000000e+00
3.206920623779296875e+01 2.140367889404296875e+01 8.901312828063964844e+00 1.200000000000000000e+01
1.131818962097167969e+01 7.551148414611816406e+00 -2.374923527240752896e-01 2.000000000000000000e+00
1.873926162719727007e+00 1.246448397636414018e+00 -6.030483841896057129e-01 1.800000000000000000e+01
3.244646835327147727e+01 2.157371139526366832e+01 6.801202893257141113e-01 3.300000000000000000e+01
2.137436628341674805e+00 1.420647382736206055e+00 -5.925210714340209961e-01 1.300000000000000000e+01
2.479018211364746094e+00 1.647055745124816895e+00 -5.785328745841979980e-01 1.200000000000000000e+01
2.972160816192626953e+00 1.973203778266906960e+00 -5.650413036346435547e-01 9.000000000000000000e+00
3.675614833831787109e+00 2.438375473022460938e+00 -5.415873527526855469e-01 1.000000000000000000e+01
4.888409137725830078e+00 3.241705656051636186e+00 -5.131729841232299805e-01 9.000000000000000000e+00
6.931014537811279297e+00 4.592759132385253906e+00 -4.357491731643676758e-01 2.000000000000000000e+00
1.133780956268311080e+01 7.507178783416748047e+00 -2.373527288436889926e-01 2.000000000000000000e+00
3.290191268920897727e+01 2.177730178833008168e+01 1.057224082946776988e+01 9.000000000000000000e+00
1.868592143058777078e+00 1.233513832092284934e+00 -5.999425649642944336e-01 1.700000000000000000e+01
2.150516271591186968e+00 1.418542861938477007e+00 -5.947706103324890137e-01 1.100000000000000000e+01
2.488030433654785156e+00 1.640553832054137962e+00 -5.792961120605468750e-01 1.300000000000000000e+01
2.974081754684447798e+00 1.959556460380553977e+00 -5.641027092933654785e-01 1.000000000000000000e+01
3.500822830200195312e+01 2.305738258361816051e+01 5.147029876708984375e+00 2.800000000000000000e+01
3.679129838943481001e+00 2.422255516052246094e+00 -5.408561229705810547e-01 9.000000000000000000e+00
4.896366119384765625e+00 3.222431421279906782e+00 -5.128244161605834961e-01 9.000000000000000000e+00
6.926979064941406250e+00 4.555368423461914062e+00 -4.344930946826934814e-01 2.000000000000000000e+00
3.238069152832031250e+01 2.128632164001464844e+01 8.946303367614746094e+00 1.200000000000000000e+01
1.138399982452392933e+01 7.480734825134277344e+00 -2.377715855836868009e-01 2.000000000000000000e+00
3.310633468627929688e+01 2.175506973266601918e+01 1.061468696594237926e+01 9.000000000000000000e+00
1.885814189910888894e+00 1.235452890396117942e+00 -6.040836572647094727e-01 1.800000000000000000e+01
2.152194023132324219e+00 1.408892750740051047e+00 -5.938707590103149414e-01 1.000000000000000000e+01
2.500313043594359907e+00 1.636158943176269975e+00 -5.808225870132446289e-01 1.300000000000000000e+01
2.977597236633300781e+00 1.947000861167907937e+00 -5.634769201278686523e-01 1.000000000000000000e+01
3.697533607482910156e+00 2.415913105010985884e+00 -5.423185825347900391e-01 9.000000000000000000e+00
4.910921096801757812e+00 3.207499504089355025e+00 -5.131729841232299805e-01 8.000000000000000000e+00
6.962908744812011719e+00 4.544260025024414062e+00 -4.357491731643676758e-01 2.000000000000000000e+00
3.253640365600585938e+01 2.122640037536621094e+01 8.968798637390136719e+00 1.200000000000000000e+01
1.139999294281006037e+01 7.434397697448729581e+00 -2.375621497631072998e-01 2.000000000000000000e+00
1.894759058952331987e+00 1.232352375984191895e+00 -6.056365370750427246e-01 1.900000000000000000e+01
2.148684263229370117e+00 1.396438479423522949e+00 -5.916212797164916992e-01 1.000000000000000000e+01
2.512310266494750977e+00 1.632136821746825950e+00 -5.823490619659423828e-01 1.400000000000000000e+01
2.987351179122924805e+00 1.939267277717590110e+00 -5.641027092933654785e-01 1.000000000000000000e+01
3.702193975448607954e+00 2.401477813720703125e+00 -5.418310761451721191e-01 1.000000000000000000e+01
3.291968154907227273e+01 2.135379409790039062e+01 6.214828491210938388e+00 1.400000000000000000e+01
4.924873828887938565e+00 3.193364381790161133e+00 -5.135216116905212402e-01 8.000000000000000000e+00
3.091780853271484020e+01 2.003992271423339844e+01 7.161824703216552734e+00 6.100000000000000000e+01
6.947768688201904297e+00 4.501596450805664062e+00 -4.338650703430175781e-01 2.000000000000000000e+00
1.146487045288085938e+01 7.422635555267333984e+00 -2.383998781442641934e-01 2.000000000000000000e+00
3.262120437622070312e+01 2.111976051330566051e+01 1.041280746459960938e+01 8.000000000000000000e+00
1.897426128387450950e+00 1.224683284759521040e+00 -6.051189303398132324e-01 1.800000000000000000e+01
2.155183315277100053e+00 1.389985799789428933e+00 -5.920711755752563477e-01 1.100000000000000000e+01
2.514692068099976030e+00 1.621229648590087891e+00 -5.815858244895935059e-01 1.300000000000000000e+01
3.000744581222534180e+00 1.933106780052185059e+00 -5.653541684150695801e-01 9.000000000000000000e+00
3.700539112091064009e+00 2.382093191146851030e+00 -5.403686761856079102e-01 9.000000000000000000e+00
4.932639598846436435e+00 3.173997879028319868e+00 -5.131729841232299805e-01 9.000000000000000000e+00
6.980239391326904297e+00 4.488118648529052734e+00 -4.349117875099182129e-01 2.000000000000000000e+00
3.095882987976073863e+01 1.989811325073241832e+01 8.496401786804199219e+00 1.100000000000000000e+01
1.151762866973876953e+01 7.399864673614501953e+00 -2.389583438634871881e-01 2.000000000000000000e+00
3.269839477539063211e+01 2.100005531311035156e+01 1.041280746459960938e+01 8.000000000000000000e+00
1.904942989349365012e+00 1.220136523246764915e+00 -6.061542034149169922e-01 2.000000000000000000e+01
2.163304805755614790e+00 1.384555339813231978e+00 -5.929709672927856445e-01 1.100000000000000000e+01
2.508759498596190962e+00 1.605035662651062012e+00 -5.789144635200500488e-01 1.300000000000000000e+01
3.012467145919799805e+00 1.925812482833862083e+00 -5.662927627563476562e-01 7.000000000000000000e+00
3.712177276611328125e+00 2.371298789978026900e+00 -5.408561229705810547e-01 9.000000000000000000e+00
4.938651561737061435e+00 3.153543472290039062e+00 -5.126500725746154785e-01 9.000000000000000000e+00
7.016067981719970703e+00 4.476617336273193359e+00 -4.361678659915924072e-01 2.000000000000000000e+00
3.092951774597167969e+01 1.972705078125000000e+01 8.469407081604003906e+00 1.100000000000000000e+01
1.151303768157958984e+01 7.340265274047851562e+00 -2.383300662040709894e-01 2.000000000000000000e+00
1.902668952941894975e+00 1.209334492683411089e+00 -6.040836572647094727e-01 1.900000000000000000e+01
2.171414613723754883e+00 1.379085183143615945e+00 -5.938707590103149414e-01 1.000000000000000000e+01
2.522634029388428178e+00 1.601529955863953081e+00 -5.808225870132446289e-01 1.400000000000000000e+01
2.989146232604980025e+00 1.896238207817078081e+00 -5.606611371040344238e-01 7.000000000000000000e+00
3.607363891601563211e+01 2.287536621093750000e+01 5.244769096374511719e+00 3.000000000000000000e+01
3.728815317153931108e+00 2.363640308380126953e+00 -5.420748591423034668e-01 1.000000000000000000e+01
4.947946071624755859e+00 3.135218858718872070e+00 -5.124757885932922363e-01 9.000000000000000000e+00
7.035026550292968750e+00 4.454236507415770596e+00 -4.363771975040435791e-01 2.000000000000000000e+00
3.115626907348633168e+01 1.971901512145996094e+01 8.512598037719726562e+00 1.100000000000000000e+01
1.155210876464843928e+01 7.308585643768311435e+00 -2.386092990636826117e-01 2.000000000000000000e+00
1.906878709793091042e+00 1.202685594558716042e+00 -6.040836572647094727e-01 1.800000000000000000e+01
2.172918081283568892e+00 1.369419097900391069e+00 -5.929709672927856445e-01 1.100000000000000000e+01
2.531531333923339844e+00 1.594807505607604980e+00 -5.815858244895935059e-01 1.400000000000000000e+01
3.009121179580688032e+00 1.894211292266845925e+00 -5.631640553474426270e-01 9.000000000000000000e+00
3.743764400482178178e+00 2.354837656021118164e+00 -5.430498123168945312e-01 1.000000000000000000e+01
3.120809555053710938e+01 1.962997436523437855e+01 5.839385509490966797e+00 1.300000000000000000e+01
4.968980312347412109e+00 3.124291181564331055e+00 -5.135216116905212402e-01 9.000000000000000000e+00
7.033619880676270419e+00 4.419027328491210938e+00 -4.353304803371428888e-01 2.000000000000000000e+00
3.103347778320312855e+01 1.948991584777832031e+01 8.460409164428710938e+00 1.100000000000000000e+01
1.163513374328612926e+01 7.304366111755371094e+00 -2.397960573434829989e-01 2.000000000000000000e+00
3.248423004150391336e+01 2.039312362670898082e+01 1.027718639373778942e+01 8.000000000000000000e+00
1.919253110885619895e+00 1.201146364212035911e+00 -6.066718697547912598e-01 1.900000000000000000e+01
2.171075820922852007e+00 1.357692837715148926e+00 -5.911713838577270508e-01 1.100000000000000000e+01
2.550400972366333008e+00 1.594286322593688965e+00 -5.846387743949890137e-01 1.400000000000000000e+01
3.014039278030395952e+00 1.882649421691894975e+00 -5.628511905670166016e-01 1.300000000000000000e+01
3.164236068725585938e+01 1.975698661804198863e+01 4.580337524414063388e+00 1.900000000000000000e+01
3.750277519226074219e+00 2.340703964233397993e+00 -5.428060293197631836e-01 9.000000000000000000e+00
3.117257308959960938e+01 1.944853973388671875e+01 5.819362163543701172e+00 1.300000000000000000e+01
4.968022823333740234e+00 3.099544763565063032e+00 -5.123014450073242188e-01 9.000000000000000000e+00
3.088636589050292969e+01 1.926248550415039062e+01 7.075579166412354404e+00 6.100000000000000000e+01
7.042222976684570312e+00 4.390222072601318359e+00 -4.349117875099182129e-01 2.000000000000000000e+00
1.161982440948485973e+01 7.238332271575927734e+00 -2.389583438634871881e-01 2.000000000000000000e+00
3.277194595336914062e+01 2.040667533874512074e+01 1.034447956085205078e+01 8.000000000000000000e+00
1.931430697441101074e+00 1.199872493743896040e+00 -6.092600226402282715e-01 1.900000000000000000e+01
2.185500383377075195e+00 1.356652379035949929e+00 -5.938707590103149414e-01 1.100000000000000000e+01
2.540659904479980025e+00 1.576503992080688032e+00 -5.812041759490966797e-01 1.400000000000000000e+01
3.026981353759766069e+00 1.876807928085326926e+00 -5.641027092933654785e-01 1.300000000000000000e+01
3.175494766235351918e+01 1.968123054504394887e+01 4.587162017822265625e+00 1.900000000000000000e+01
3.758018970489501953e+00 2.328254938125609907e+00 -5.428060293197631836e-01 9.000000000000000000e+00
3.134099006652832031e+01 1.941709327697753906e+01 5.839385509490966797e+00 1.300000000000000000e+01
4.976580142974854404e+00 3.082004308700561968e+00 -5.121271610260009766e-01 6.000000000000000000e+00
7.087313652038574219e+00 4.385762691497802734e+00 -4.367958903312683105e-01 1.000000000000000000e+00
3.125491523742676137e+01 1.933358573913573863e+01 8.484704017639160156e+00 1.100000000000000000e+01
1.165736961364745916e+01 7.208173274993895596e+00 -2.392375916242598932e-01 2.000000000000000000e+00
3.274059295654296875e+01 2.024469184875487926e+01 1.031445693969726918e+01 8.000000000000000000e+00
1.935607194900512917e+00 1.193123221397399902e+00 -6.092600226402282715e-01 2.000000000000000000e+01
2.186904191970825195e+00 1.346971392631530984e+00 -5.929709672927856445e-01 1.100000000000000000e+01
2.546147584915161133e+00 1.567625761032104048e+00 -5.812041759490966797e-01 1.300000000000000000e+01
3.043609142303466797e+00 1.872440814971924050e+00 -5.659798979759216309e-01 1.300000000000000000e+01
3.188094711303710938e+01 1.960561943054198863e+01 4.595448970794677734e+00 1.900000000000000000e+01
3.761049985885620117e+00 2.312004089355469194e+00 -5.420748591423034668e-01 1.000000000000000000e+01
3.144560623168944957e+01 1.932277679443359020e+01 5.845643043518066406e+00 1.300000000000000000e+01
4.989005565643311435e+00 3.065657138824462891e+00 -5.123014450073242188e-01 8.000000000000000000e+00
3.260599517822266336e+01 2.002797698974609020e+01 7.438116073608398438e+00 6.200000000000000000e+01
7.102579593658447266e+00 4.360996723175048828e+00 -4.367958903312683105e-01 2.000000000000000000e+00
3.147169113159180043e+01 1.931611251831055043e+01 8.525195121765136719e+00 1.100000000000000000e+01
1.170973110198974965e+01 7.184168815612792969e+00 -2.397960573434829989e-01 2.000000000000000000e+00
3.251814270019531250e+01 1.994276237487792969e+01 1.022128200531006037e+01 8.000000000000000000e+00
1.926575779914855957e+00 1.178295731544495073e+00 -6.051189303398132324e-01 1.900000000000000000e+01
2.198243856430054155e+00 1.343394160270690918e+00 -5.947706103324890137e-01 1.100000000000000000e+01
2.551604032516479048e+00 1.558728575706481934e+00 -5.812041759490966797e-01 1.300000000000000000e+01
3.048440456390380859e+00 1.860776066780090110e+00 -5.656670331954956055e-01 1.100000000000000000e+01
3.774181604385375977e+00 2.301962375640869141e+00 -5.428060293197631836e-01 9.000000000000000000e+00
5.006481170654296875e+00 3.052372217178345171e+00 -5.129987001419067383e-01 9.000000000000000000e+00
3.225659561157227273e+01 1.965861320495605113e+01 7.342711925506591797e+00 6.200000000000000000e+01
7.124581336975097656e+00 4.340333938598632812e+00 -4.372145831584929865e-01 1.000000000000000000e+00
3.177527046203612926e+01 1.935006332397460938e+01 8.589080810546875000e+00 1.100000000000000000e+01
1.173473739624023082e+01 7.143250465393066406e+00 -2.397960573434829989e-01 2.000000000000000000e+00
1.932328581809998003e+00 1.172565817832946999e+00 -6.056365370750427246e-01 2.100000000000000000e+01
2.202919721603393999e+00 1.335712671279907005e+00 -5.947706103324890137e-01 1.100000000000000000e+01
2.563745260238647017e+00 1.553882718086242898e+00 -5.827306509017944336e-01 1.300000000000000000e+01
3.048158645629882812e+00 1.846030473709106001e+00 -5.644155740737915039e-01 1.100000000000000000e+01
3.404803848266602273e+01 2.061210250854491832e+01 4.886960506439208984e+00 2.100000000000000000e+01
3.797478914260863814e+00 2.298023700714110884e+00 -5.449997186660766602e-01 1.000000000000000000e+01
5.011991024017333984e+00 3.031784057617187944e+00 -5.124757885932922363e-01 9.000000000000000000e+00
7.132851600646972656e+00 4.311305522918701172e+00 -4.367958903312683105e-01 2.000000000000000000e+00
3.183928489685058949e+01 1.923701477050780895e+01 8.588181495666503906e+00 1.100000000000000000e+01
1.180752944946289062e+01 7.131191730499267578e+00 -2.407733947038651068e-01 2.000000000000000000e+00
3.349815750122070312e+01 2.023130989074707031e+01 1.048579502105713068e+01 9.000000000000000000e+00
1.939719915390015093e+00 1.167806386947632058e+00 -6.066718697547912598e-01 2.100000000000000000e+01
2.207568883895874023e+00 1.328014850616455078e+00 -5.947706103324890137e-01 1.100000000000000000e+01
2.569153547286986861e+00 1.544924139976501021e+00 -5.827306509017944336e-01 1.200000000000000000e+01
3.064743280410767046e+00 1.841483473777770996e+00 -5.662927627563476562e-01 1.100000000000000000e+01
3.406872558593750000e+01 2.046246528625487926e+01 4.879648685455322266e+00 2.100000000000000000e+01
3.795265913009643999e+00 2.278623104095458984e+00 -5.435372591018676758e-01 1.000000000000000000e+01
5.015709877014160156e+00 3.010169267654418945e+00 -5.117785334587097168e-01 9.000000000000000000e+00
7.147857189178466797e+00 4.286380767822265625e+00 -4.367958903312683105e-01 2.000000000000000000e+00
1.180147361755370916e+01 7.071431636810302734e+00 -2.401451170444489081e-01 2.000000000000000000e+00
3.366137313842772727e+01 2.016986083984375000e+01 1.051478290557860973e+01 9.000000000000000000e+00
1.947101593017577903e+00 1.163009643554687944e+00 -6.077071428298950195e-01 2.100000000000000000e+01
2.212191104888916016e+00 1.320300936698914018e+00 -5.947706103324890137e-01 1.200000000000000000e+01
2.577902793884276900e+00 1.537958383560181108e+00 -5.834938883781433105e-01 1.300000000000000000e+01
3.069455862045288086e+00 1.829762816429137962e+00 -5.659798979759216309e-01 1.200000000000000000e+01
3.396941757202147727e+01 2.024180221557616832e+01 4.855274677276611328e+00 2.000000000000000000e+01
3.792963981628417969e+00 2.259266138076781782e+00 -5.420748591423034668e-01 1.000000000000000000e+01
3.180398368835448863e+01 1.893641662597655895e+01 5.862537860870361328e+00 1.300000000000000000e+01
5.036458492279052734e+00 2.998758792877196822e+00 -5.128244161605834961e-01 9.000000000000000000e+00
7.155910491943359375e+00 4.257319450378417969e+00 -4.363771975040435791e-01 2.000000000000000000e+00
3.230109405517578125e+01 1.920949935913085938e+01 8.676362037658691406e+00 1.100000000000000000e+01
1.186734008789063033e+01 7.054717540740966797e+00 -2.409828305244446078e-01 2.000000000000000000e+00
3.711306381225585938e+01 2.205364990234375000e+01 1.156765842437743963e+01 1.100000000000000000e+01
1.957797288894653098e+00 1.160145282745361106e+00 -6.097776889801025391e-01 2.100000000000000000e+01
2.221816778182982954e+00 1.315549492835998979e+00 -5.961202979087829590e-01 1.300000000000000000e+01
2.566360473632812944e+00 1.518950819969177024e+00 -5.796777009963989258e-01 1.300000000000000000e+01
3.087726116180419922e+00 1.826076149940490945e+00 -5.681699514389038086e-01 1.100000000000000000e+01
3.198927307128905895e+01 1.891086769104003906e+01 4.562788009643554688e+00 1.900000000000000000e+01
3.802536010742187944e+00 2.247022390365601030e+00 -5.423185825347900391e-01 9.000000000000000000e+00
3.182907104492187855e+01 1.880117225646973012e+01 5.855029106140136719e+00 1.300000000000000000e+01
5.043464660644531250e+00 2.979133367538452148e+00 -5.124757885932922363e-01 9.000000000000000000e+00
3.324810409545897727e+01 1.963155555725098012e+01 7.505280971527099609e+00 6.300000000000000000e+01
7.194807529449462891e+00 4.246527194976806641e+00 -4.378426074981688898e-01 2.000000000000000000e+00
1.186777877807617010e+01 6.999028205871582031e+00 -2.404941618442535123e-01 2.000000000000000000e+00
3.729248809814453125e+01 2.199326515197753906e+01 1.160078716278075994e+01 1.100000000000000000e+01
1.950177192687988059e+00 1.146450996398926003e+00 -6.061542034149169922e-01 2.000000000000000000e+01
2.228075742721558061e+00 1.308772921562195046e+00 -5.965701937675476074e-01 1.200000000000000000e+01
2.578418970108031782e+00 1.513959527015686035e+00 -5.812041759490966797e-01 1.300000000000000000e+01
3.077043533325194868e+00 1.805290818214416948e+00 -5.650413036346435547e-01 1.200000000000000000e+01
3.820631742477416992e+00 2.239758968353271040e+00 -5.437809824943542480e-01 1.000000000000000000e+01
3.180928993225098012e+01 1.864001846313476918e+01 5.839385509490966797e+00 1.300000000000000000e+01
5.045238018035888672e+00 2.956473588943481001e+00 -5.116041898727416992e-01 9.000000000000000000e+00
3.335708236694335938e+01 1.953919410705566051e+01 7.514440059661865234e+00 6.300000000000000000e+01
7.219928264617919922e+00 4.227441787719726562e+00 -4.384706318378447931e-01 1.000000000000000000e+00
1.193010902404784979e+01 6.979774951934813565e+00 -2.412620633840560913e-01 2.000000000000000000e+00
3.345721435546875000e+01 1.957432556152344105e+01 1.038640785217284979e+01 8.000000000000000000e+00
1.959173560142517090e+00 1.142556309700011985e+00 -6.077071428298950195e-01 2.100000000000000000e+01
2.227579355239868164e+00 1.298044085502624956e+00 -5.952205061912536621e-01 1.300000000000000000e+01
2.585384368896483931e+00 1.505938053131103960e+00 -5.815858244895935059e-01 1.200000000000000000e+01
3.083326578140258789e+00 1.794538855552672896e+00 -5.650413036346435547e-01 1.100000000000000000e+01
3.225091934204102273e+01 1.876294898986816051e+01 4.581312179565429688e+00 1.900000000000000000e+01
3.845586776733397993e+00 2.236388206481934038e+00 -5.462183952331542969e-01 1.000000000000000000e+01
3.215097427368164062e+01 1.869729423522948863e+01 5.890696048736572266e+00 1.300000000000000000e+01
5.064139842987061435e+00 2.943850994110106978e+00 -5.124757885932922363e-01 1.100000000000000000e+01
7.207007884979248047e+00 4.186163425445556641e+00 -4.367958903312683105e-01 2.000000000000000000e+00
3.281731414794921875e+01 1.905415344238280895e+01 8.760943412780761719e+00 1.100000000000000000e+01
1.193710517883300959e+01 6.928050994873046875e+00 -2.409130185842514038e-01 2.000000000000000000e+00
3.727803802490233664e+01 2.163540840148926137e+01 1.154902362823485973e+01 1.100000000000000000e+01
1.966494321823119895e+00 1.137645244598388894e+00 -6.087424159049987793e-01 2.100000000000000000e+01
2.227035522460937944e+00 1.287334680557250977e+00 -5.938707590103149414e-01 1.300000000000000000e+01
2.607624292373656782e+00 1.506726384162903054e+00 -5.854020118713378906e-01 1.300000000000000000e+01
3.094704151153564009e+00 1.786728262901305930e+00 -5.659798979759216309e-01 1.100000000000000000e+01
3.224400711059570312e+01 1.860858345031737926e+01 4.571075439453125000e+00 1.900000000000000000e+01
3.837894439697266069e+00 2.214023351669311968e+00 -5.440247654914855957e-01 1.000000000000000000e+01
5.081288814544677734e+00 2.930136919021606001e+00 -5.131729841232299805e-01 8.000000000000000000e+00
7.214653968811035156e+00 4.156991958618164062e+00 -4.363771975040435791e-01 2.000000000000000000e+00
3.290388870239257812e+01 1.895115470886230113e+01 8.766342163085937500e+00 1.100000000000000000e+01
1.197161388397216975e+01 6.892326831817626953e+00 -2.411224544048309049e-01 2.000000000000000000e+00
1.973606824874877930e+00 1.133041620254517046e+00 -6.097776889801025391e-01 2.100000000000000000e+01
2.244815111160277876e+00 1.287699818611145020e+00 -5.974699854850769043e-01 1.200000000000000000e+01
2.598981380462646040e+00 1.490258336067199929e+00 -5.823490619659423828e-01 1.100000000000000000e+01
3.104039907455443892e+00 1.778419971466064009e+00 -5.666056275367736816e-01 1.000000000000000000e+01
3.241922760009766336e+01 1.856666755676269887e+01 4.587162017822265625e+00 1.900000000000000000e+01
3.848660707473754883e+00 2.203256845474243164e+00 -5.445122122764587402e-01 1.000000000000000000e+01
5.097894668579101562e+00 2.917228937149047852e+00 -5.138702392578125000e-01 8.000000000000000000e+00
7.242270469665527344e+00 4.140975475311279297e+00 -4.372145831584929865e-01 2.000000000000000000e+00
3.357225036621093750e+01 1.918812179565430043e+01 8.927407264709472656e+00 1.200000000000000000e+01
1.198051357269286932e+01 6.844654083251953125e+00 -2.408432066440581998e-01 5.000000000000000000e+00
3.709231567382813211e+01 2.119141769409180043e+01 1.144653129577637074e+01 1.100000000000000000e+01
1.975871086120605025e+00 1.125189542770385964e+00 -6.092600226402282715e-01 1.900000000000000000e+01
2.244215011596680132e+00 1.276964783668518066e+00 -5.961202979087829590e-01 1.100000000000000000e+01
2.595634698867797852e+00 1.476323962211609109e+00 -5.804409384727478027e-01 1.000000000000000000e+01
3.122250795364379883e+00 1.774406194686890093e+00 -5.687957406044006348e-01 9.000000000000000000e+00
3.856328010559082031e+00 2.189809083938599077e+00 -5.445122122764587402e-01 1.000000000000000000e+01
5.109779357910156250e+00 2.900399684906005859e+00 -5.140445828437805176e-01 8.000000000000000000e+00
7.267104625701904297e+00 4.121582031250000000e+00 -4.378426074981688898e-01 2.000000000000000000e+00
3.371022415161132812e+01 1.911118125915526988e+01 8.946303367614746094e+00 1.200000000000000000e+01
1.199389457702637074e+01 6.796876907348632812e+00 -2.406337857246398926e-01 5.000000000000000000e+00
3.723665237426757812e+01 2.110181427001953125e+01 1.146827220916748047e+01 1.100000000000000000e+01
1.969500184059143066e+00 1.112928628921509011e+00 -6.061542034149169922e-01 2.000000000000000000e+01
2.258618831634521040e+00 1.275264501571655051e+00 -5.988197326660156250e-01 1.200000000000000000e+01
2.602226018905640093e+00 1.468673348426819070e+00 -5.808225870132446289e-01 1.200000000000000000e+01
3.124676465988159180e+00 1.762102007865905984e+00 -5.681699514389038086e-01 9.000000000000000000e+00
3.873945236206055132e+00 2.182855844497681108e+00 -5.459746718406677246e-01 1.000000000000000000e+01
5.107217311859130859e+00 2.876594781875609907e+00 -5.128244161605834961e-01 9.000000000000000000e+00
7.280732631683349609e+00 4.097460746765136719e+00 -4.378426074981688898e-01 2.000000000000000000e+00
1.205122852325438920e+01 6.776669025421142578e+00 -2.413318753242492953e-01 2.000000000000000000e+00
3.255433273315429688e+01 1.829853630065917969e+01 1.000646209716797053e+01 8.000000000000000000e+00
1.973373055458069070e+00 1.106047034263611062e+00 -6.061542034149169922e-01 1.900000000000000000e+01
2.256255626678466797e+00 1.263563871383666992e+00 -5.970200896263122559e-01 1.100000000000000000e+01
2.622754573822021040e+00 1.468211889266967995e+00 -5.842571258544921875e-01 1.200000000000000000e+01
3.117016315460205078e+00 1.743469715118407981e+00 -5.656670331954956055e-01 9.000000000000000000e+00
3.879808425903319868e+00 2.168351650238037109e+00 -5.457309484481811523e-01 1.000000000000000000e+01
3.242094039916992188e+01 1.811202621459960938e+01 5.881936073303222656e+00 1.300000000000000000e+01
5.138099670410156250e+00 2.870410203933715820e+00 -5.149161219596862793e-01 8.000000000000000000e+00
7.305454730987548828e+00 4.077862262725830078e+00 -4.384706318378447931e-01 2.000000000000000000e+00
3.383953094482421875e+01 1.888128280639648082e+01 8.946303367614746094e+00 1.200000000000000000e+01
1.207481002807617010e+01 6.734561443328857422e+00 -2.413318753242492953e-01 2.000000000000000000e+00
3.266188049316406250e+01 1.820924568176269887e+01 1.001992034912109020e+01 8.000000000000000000e+00
1.985856890678405984e+00 1.103498578071594016e+00 -6.087424159049987793e-01 1.900000000000000000e+01
2.250649213790893999e+00 1.249610066413878950e+00 -5.943207144737243652e-01 1.200000000000000000e+01
2.629834890365601030e+00 1.459541797637939009e+00 -5.846387743949890137e-01 1.300000000000000000e+01
3.140660762786864790e+00 1.741613388061522993e+00 -5.687957406044006348e-01 9.000000000000000000e+00
3.284891891479492188e+01 1.820845413208008168e+01 4.611536026000976562e+00 1.900000000000000000e+01
3.879047870635985884e+00 2.149306297302246094e+00 -5.445122122764587402e-01 1.000000000000000000e+01
