-3.282358884811400923e+00 8.954892158508300781e-01 -6.613439917564392090e-01 1.300000000000000000e+01
-4.024513244628906250e+00 1.099472403526305930e+00 -6.607791781425476074e-01 1.000000000000000000e+01
-5.213824748992919922e+00 1.426341056823730025e+00 -6.637004613876342773e-01 9.000000000000000000e+00
-7.402319908142089844e+00 2.026434183120727983e+00 -6.714478135108947754e-01 2.000000000000000000e+00
-3.374629592895507812e+01 9.263603210449218750e+00 -6.108342409133911133e-01 7.000000000000000000e+00
-2.394930839538574219e+00 6.605733633041381836e-01 -6.656825542449951172e-01 1.800000000000000000e+01
-2.766897439956665039e+00 7.642091512680053711e-01 -6.627057790756225586e-01 1.400000000000000000e+01
-3.273694276809691939e+00 9.047999382019042969e-01 -6.601991057395935059e-01 1.400000000000000000e+01
-4.017037391662597656e+00 1.111758351325988992e+00 -6.601534485816955566e-01 9.000000000000000000e+00
-5.207153320312500000e+00 1.443092703819274902e+00 -6.634566783905029297e-01 1.100000000000000000e+01
-7.399398803710938388e+00 2.052034854888916016e+00 -6.717964410781860352e-01 1.000000000000000000e+00
-3.372309875488281250e+01 9.377601623535156250e+00 -6.109738349914550781e-01 1.400000000000000000e+01
-2.392610311508179155e+00 6.689292192459106445e-01 -6.656825542449951172e-01 1.900000000000000000e+01
-2.771719455718994141e+00 7.759642004966735840e-01 -6.645054221153259277e-01 1.400000000000000000e+01
-3.266735076904296875e+00 9.151625633239746094e-01 -6.594358682632446289e-01 1.400000000000000000e+01
-4.020740032196044922e+00 1.127907872200011985e+00 -6.614049077033996582e-01 1.000000000000000000e+01
-5.196350574493408203e+00 1.459649801254272017e+00 -6.627255082130432129e-01 1.100000000000000000e+01
-7.388354778289794922e+00 2.076772928237915039e+00 -6.714478135108947754e-01 2.000000000000000000e+00
-1.273693370819091975e+01 3.584988355636597124e+00 -6.934514045715332031e-01 4.000000000000000000e+00
-3.358622360229492188e+01 9.465967178344726562e+00 -6.090889573097229004e-01 6.000000000000000000e+00
-2.378991127014160156e+00 6.745321750640869141e-01 -6.625767350196838379e-01 1.900000000000000000e+01
-2.772605895996094194e+00 7.871823310852050781e-01 -6.654052138328552246e-01 1.400000000000000000e+01
-3.261470317840576172e+00 9.265930652618408203e-01 -6.590542793273925781e-01 1.500000000000000000e+01
-4.005179405212402344e+00 1.139393925666809082e+00 -6.595277190208435059e-01 9.000000000000000000e+00
-5.196693420410156250e+00 1.480317115783690962e+00 -6.634566783905029297e-01 1.100000000000000000e+01
-7.365365028381347656e+00 2.099469184875487837e+00 -6.700533628463745117e-01 2.000000000000000000e+00
-1.265456867218017933e+01 3.611913204193114790e+00 -6.896832585334777832e-01 4.000000000000000000e+00
-3.360898590087891336e+01 9.605488777160644531e+00 -6.101361513137817383e-01 1.400000000000000000e+01
-2.380335569381713867e+00 6.838992238044738770e-01 -6.636120080947875977e-01 1.900000000000000000e+01
-2.767968416213988814e+00 7.963169813156127930e-01 -6.649553179740905762e-01 1.500000000000000000e+01
-3.256329536437987837e+00 9.374289512634277344e-01 -6.586726307868957520e-01 1.400000000000000000e+01
-3.993585348129272017e+00 1.151179194450377974e+00 -6.582762002944946289e-01 9.000000000000000000e+00
-5.185772895812988281e+00 1.496796369552612083e+00 -6.627255082130432129e-01 1.100000000000000000e+01
-7.327365398406982422e+00 2.116320848464965820e+00 -6.672643423080444336e-01 2.000000000000000000e+00
-1.261502265930175959e+01 3.648295640945435014e+00 -6.882178187370300293e-01 4.000000000000000000e+00
-3.350994491577147727e+01 9.703835487365722656e+00 -6.089493632316589355e-01 6.000000000000000000e+00
-2.385474205017089844e+00 6.939474344253540039e-01 -6.656825542449951172e-01 2.000000000000000000e+01
-2.752215623855590820e+00 8.016765713691711426e-01 -6.618059873580932617e-01 1.400000000000000000e+01
-3.264511823654174805e+00 9.515184164047241211e-01 -6.609623432159423828e-01 1.300000000000000000e+01
-3.993538379669189009e+00 1.165522933006287065e+00 -6.589019894599914551e-01 9.000000000000000000e+00
-5.173159122467041016e+00 1.511757493019104004e+00 -6.617505550384521484e-01 9.000000000000000000e+00
-7.331780910491943359e+00 2.143962621688843218e+00 -6.683102250099182129e-01 2.000000000000000000e+00
-1.250701618194580078e+01 3.662046909332274947e+00 -6.829842329025268555e-01 4.000000000000000000e+00
-3.348525619506835938e+01 9.817155838012695312e+00 -6.090889573097229004e-01 6.000000000000000000e+00
-2.383037328720093218e+00 7.022700309753417969e-01 -6.656825542449951172e-01 2.000000000000000000e+01
-2.749400615692139116e+00 8.112787604331970215e-01 -6.618059873580932617e-01 1.400000000000000000e+01
-3.249873161315917969e+00 9.595721960067749023e-01 -6.586726307868957520e-01 1.200000000000000000e+01
-6.094486236572266336e+01 1.800642013549805043e+01 5.559839248657226562e+00 5.200000000000000000e+01
-3.997022867202758789e+00 1.181696057319640891e+00 -6.601534485816955566e-01 9.000000000000000000e+00
-5.167850494384765625e+00 1.529806017875670943e+00 -6.617505550384521484e-01 9.000000000000000000e+00
-7.324252128601074219e+00 2.169542312622069868e+00 -6.683102250099182129e-01 1.000000000000000000e+00
-1.249415683746338068e+01 3.705682277679442915e+00 -6.829842329025268555e-01 4.000000000000000000e+00
-3.345845413208007812e+01 9.936258316040039062e+00 -6.092286109924316406e-01 1.300000000000000000e+01
-2.373167037963867188e+00 7.083739042282104492e-01 -6.636120080947875977e-01 2.000000000000000000e+01
-2.748419046401977983e+00 8.214290142059326172e-01 -6.622558832168579102e-01 1.600000000000000000e+01
-3.242742061614989790e+00 9.697854518890380859e-01 -6.579093933105468750e-01 1.300000000000000000e+01
-3.996658325195312944e+00 1.196774363517761008e+00 -6.607791781425476074e-01 1.000000000000000000e+01
-5.149168968200683594e+00 1.543845176696776900e+00 -6.600443720817565918e-01 1.100000000000000000e+01
-7.289917469024658203e+00 2.187080144882202148e+00 -6.658698916435241699e-01 2.000000000000000000e+00
-1.251940155029297053e+01 3.760764360427856001e+00 -6.850776672363281250e-01 4.000000000000000000e+00
-3.348867416381835938e+01 1.007257270812987926e+01 -6.104153394699096680e-01 7.000000000000000000e+00
-2.368830680847167969e+00 7.160944938659667969e-01 -6.630944013595581055e-01 1.900000000000000000e+01
-2.743669748306273970e+00 8.304532766342163086e-01 -6.618059873580932617e-01 1.400000000000000000e+01
-3.237457990646361861e+00 9.805297851562500000e-01 -6.575278043746948242e-01 1.200000000000000000e+01
-3.981114387512207031e+00 1.207278490066528098e+00 -6.589019894599914551e-01 9.000000000000000000e+00
-5.141849040985107422e+00 1.561232924461364968e+00 -6.598006486892700195e-01 1.100000000000000000e+01
-7.270800590515136719e+00 2.209038257598876953e+00 -6.648240089416503906e-01 2.000000000000000000e+00
-1.246798229217528942e+01 3.792816877365111861e+00 -6.829842329025268555e-01 4.000000000000000000e+00
-3.348391723632813211e+01 1.019873142242431996e+01 -6.109738349914550781e-01 1.400000000000000000e+01
-2.364216566085814986e+00 7.246187329292297363e-01 -6.625767350196838379e-01 2.000000000000000000e+01
-2.738597869873046875e+00 8.404103517532348633e-01 -6.613560914993286133e-01 1.300000000000000000e+01
-3.243052959442139116e+00 9.958349466323852539e-01 -6.594358682632446289e-01 1.200000000000000000e+01
-3.972672939300537109e+00 1.221394896507262962e+00 -6.582762002944946289e-01 9.000000000000000000e+00
-5.141508102416992188e+00 1.582716703414916992e+00 -6.605318188667297363e-01 1.100000000000000000e+01
-7.247032165527343750e+00 2.232247591018677202e+00 -6.634294986724853516e-01 2.000000000000000000e+00
-1.240370464324950994e+01 3.825358629226685014e+00 -6.802627444267272949e-01 4.000000000000000000e+00
-3.362029266357421875e+01 1.038150405883789062e+01 -6.141850948333740234e-01 1.400000000000000000e+01
-2.367208003997803178e+00 7.345846295356750488e-01 -6.641296744346618652e-01 1.900000000000000000e+01
-2.724481821060181108e+00 8.464954495429992676e-01 -6.586567163467407227e-01 1.500000000000000000e+01
-3.224559307098389116e+00 1.002486467361449973e+00 -6.563829183578491211e-01 1.200000000000000000e+01
-6.087117385864257812e+01 1.893595314025878906e+01 5.577270507812500000e+00 5.100000000000000000e+01
-3.957068681716918945e+00 1.231732010841370073e+00 -6.563990116119384766e-01 9.000000000000000000e+00
-5.128371238708496094e+00 1.598291754722594993e+00 -6.595568656921386719e-01 1.100000000000000000e+01
-7.227783679962158203e+00 2.253972053527832031e+00 -6.623836159706115723e-01 2.000000000000000000e+00
-1.234451961517333984e+01 3.854346036911011186e+00 -6.777506470680236816e-01 3.000000000000000000e+00
-3.370600128173828125e+01 1.053698348999023082e+01 -6.164190173149108887e-01 1.400000000000000000e+01
-2.363045215606689009e+00 7.414394617080688477e-01 -6.636120080947875977e-01 2.000000000000000000e+01
-2.723668098449707031e+00 8.556345105171203613e-01 -6.591066122055053711e-01 1.400000000000000000e+01
-3.223266839981079102e+00 1.013200521469115989e+00 -6.567645668983459473e-01 1.200000000000000000e+01
-3.953179597854613814e+00 1.244157433509827104e+00 -6.563990116119384766e-01 9.000000000000000000e+00
-5.111964702606201172e+00 1.610815525054932085e+00 -6.580944657325744629e-01 1.100000000000000000e+01
-7.243469238281250000e+00 2.283857107162476030e+00 -6.644753813743591309e-01 2.000000000000000000e+00
-1.235901451110840021e+01 3.901525974273682085e+00 -6.792160272598266602e-01 3.000000000000000000e+00
-3.363840866088867188e+01 1.063197422027588068e+01 -6.157907247543334961e-01 1.400000000000000000e+01
-2.360442638397216797e+00 7.496834993362426758e-01 -6.636120080947875977e-01 1.900000000000000000e+01
-2.728093147277832031e+00 8.674988150596618652e-01 -6.609061956405639648e-01 1.400000000000000000e+01
-3.208485364913939986e+00 1.020874023437500000e+00 -6.544748544692993164e-01 1.200000000000000000e+01
-3.961987733840941939e+00 1.262146234512329102e+00 -6.585891246795654297e-01 8.000000000000000000e+00
-5.102528572082520419e+00 1.627443313598633035e+00 -6.576069593429565430e-01 1.100000000000000000e+01
-7.235452651977539062e+00 2.309127569198607954e+00 -6.644753813743591309e-01 2.000000000000000000e+00
-1.231868553161620916e+01 3.936132669448852983e+00 -6.777506470680236816e-01 3.000000000000000000e+00
-3.357061767578125000e+01 1.073958015441895064e+01 -6.152322292327880859e-01 1.400000000000000000e+01
-2.337449312210083008e+00 7.518231868743896484e-01 -6.579180359840393066e-01 1.600000000000000000e+01
-2.730460166931151900e+00 8.792839646339416504e-01 -6.622558832168579102e-01 1.500000000000000000e+01
-3.206590890884398970e+00 1.033228993415832964e+00 -6.548564434051513672e-01 1.200000000000000000e+01
-3.957335233688354048e+00 1.276659131050110085e+00 -6.585891246795654297e-01 9.000000000000000000e+00
-5.104085445404052734e+00 1.648574709892272949e+00 -6.585819125175476074e-01 1.100000000000000000e+01
-7.181440830230712891e+00 2.320926427841186968e+00 -6.602919101715087891e-01 1.000000000000000000e+00
-1.233078002929688033e+01 3.989864587783813032e+00 -6.792160272598266602e-01 3.000000000000000000e+00
-3.358429718017578125e+01 1.087980651855468928e+01 -6.162095665931701660e-01 7.000000000000000000e+00
-2.345832824707030806e+00 7.635654211044311523e-01 -6.610238552093505859e-01 1.900000000000000000e+01
-6.079319000244141336e+01 1.979983711242676137e+01 1.116011619567871094e+00 5.100000000000000000e+01
-2.719962835311890093e+00 8.863945007324218750e-01 -6.604562997817993164e-01 1.500000000000000000e+01
-3.201098203659058061e+00 1.043807148933411089e+00 -6.544748544692993164e-01 1.100000000000000000e+01
-3.941587686538695845e+00 1.286786794662476030e+00 -6.567118763923645020e-01 8.000000000000000000e+00
-5.094525814056395596e+00 1.665147781372070090e+00 -6.580944657325744629e-01 1.100000000000000000e+01
-7.158145904541015625e+00 2.341025590896606001e+00 -6.588973999023437500e-01 2.000000000000000000e+00
-1.229020404815674006e+01 4.024181842803955078e+00 -6.777506470680236816e-01 3.000000000000000000e+00
-3.358411788940429688e+01 1.100942993164063033e+01 -6.169076561927795410e-01 1.400000000000000000e+01
-2.341452836990356001e+00 7.707362771034240723e-01 -6.605061888694763184e-01 2.000000000000000000e+01
-6.072719573974608664e+01 2.000132560729980113e+01 1.116011619567871094e+00 5.100000000000000000e+01
-2.707754373550415039e+00 8.923595547676086426e-01 -6.582067608833312988e-01 1.400000000000000000e+01
-3.206941604614257812e+00 1.057490706443787065e+00 -6.563829183578491211e-01 1.100000000000000000e+01
-3.933547258377075195e+00 1.298611879348755105e+00 -6.560861468315124512e-01 9.000000000000000000e+00
-5.088975906372070312e+00 1.682032704353332964e+00 -6.580944657325744629e-01 1.100000000000000000e+01
-7.165476322174072266e+00 2.369754791259766069e+00 -6.602919101715087891e-01 1.000000000000000000e+00
-3.349427795410156250e+01 1.110311985015868963e+01 -6.159303188323974609e-01 1.400000000000000000e+01
-2.346079587936400923e+00 7.813464999198913574e-01 -6.625767350196838379e-01 2.000000000000000000e+01
-6.084672164916992188e+01 2.027640151977539062e+01 1.119502067565917969e+00 5.000000000000000000e+01
-2.706471681594849077e+00 9.024223685264587402e-01 -6.586567163467407227e-01 1.500000000000000000e+01
-3.192056655883789062e+00 1.064950704574584961e+00 -6.540932655334472656e-01 1.200000000000000000e+01
-3.925243139266968218e+00 1.311082959175110085e+00 -6.554604172706604004e-01 9.000000000000000000e+00
-5.064247608184813565e+00 1.693490743637084961e+00 -6.556570529937744141e-01 1.100000000000000000e+01
-7.149602890014648438e+00 2.392223834991455078e+00 -6.595946550369262695e-01 2.000000000000000000e+00
-1.216783618927001953e+01 4.076024532318115234e+00 -6.725170612335205078e-01 3.000000000000000000e+00
-3.342498016357421875e+01 1.120979595184325994e+01 -6.153718233108520508e-01 1.400000000000000000e+01
-2.339676380157471147e+00 7.882974147796630859e-01 -6.615414619445800781e-01 1.800000000000000000e+01
-6.077557373046875000e+01 2.048867225646973012e+01 1.119502067565917969e+00 5.000000000000000000e+01
-2.705151796340941939e+00 9.124870896339416504e-01 -6.591066122055053711e-01 1.400000000000000000e+01
-3.173438549041748047e+00 1.071063995361327903e+00 -6.510403156280517578e-01 1.100000000000000000e+01
-3.933742523193358931e+00 1.329203128814697044e+00 -6.576504707336425781e-01 9.000000000000000000e+00
-5.050783634185791016e+00 1.708613514900207964e+00 -6.546820998191833496e-01 1.100000000000000000e+01
-7.122336864471436435e+00 2.410778045654296875e+00 -6.578515172004699707e-01 2.000000000000000000e+00
-1.215353393554688033e+01 4.118473529815673828e+00 -6.725170612335205078e-01 3.000000000000000000e+00
-3.334777450561522727e+01 1.131355381011963068e+01 -6.146737337112426758e-01 1.400000000000000000e+01
-2.331424951553345171e+00 7.945899963378906250e-01 -6.599885821342468262e-01 1.900000000000000000e+01
-2.703794479370117188e+00 9.225535392761230469e-01 -6.595565080642700195e-01 1.500000000000000000e+01
-3.190118074417113814e+00 1.089112281799315962e+00 -6.552380919456481934e-01 1.300000000000000000e+01
-3.915994405746459961e+00 1.338454246520996094e+00 -6.554604172706604004e-01 9.000000000000000000e+00
-5.067327022552490234e+00 1.733945727348328081e+00 -6.576069593429565430e-01 1.100000000000000000e+01
-7.110108375549316406e+00 2.434334278106689009e+00 -6.575029492378234863e-01 1.000000000000000000e+00
-3.327781677246093750e+01 1.141950511932373047e+01 -6.141152977943420410e-01 1.400000000000000000e+01
-2.326810598373413086e+00 8.020937442779541016e-01 -6.594709157943725586e-01 2.000000000000000000e+01
-6.082009506225585938e+01 2.097766685485839844e+01 1.122992515563965066e+00 5.000000000000000000e+01
-2.698715448379517046e+00 9.313502311706542969e-01 -6.591066122055053711e-01 1.400000000000000000e+01
-3.180729866027832031e+00 1.098318815231323020e+00 -6.540932655334472656e-01 1.200000000000000000e+01
-3.896362781524658203e+00 1.346952199935913086e+00 -6.529574394226074219e-01 9.000000000000000000e+00
-5.049987792968750000e+00 1.747728109359740989e+00 -6.561445593833923340e-01 1.100000000000000000e+01
-7.078975200653076172e+00 2.451314926147460938e+00 -6.554111838340759277e-01 2.000000000000000000e+00
-1.212448596954346058e+01 4.203219890594482422e+00 -6.725170612335205078e-01 3.000000000000000000e+00
-3.326797866821289062e+01 1.154608726501465021e+01 -6.146737337112426758e-01 7.000000000000000000e+00
-2.329469203948975053e+00 8.121188282966613770e-01 -6.610238552093505859e-01 2.100000000000000000e+01
-6.084090805053710938e+01 2.122277069091796875e+01 1.124737739562988059e+00 5.000000000000000000e+01
-2.684408664703369141e+00 9.369118213653564453e-01 -6.564071774482727051e-01 1.400000000000000000e+01
-3.178730010986328125e+00 1.110062241554260032e+00 -6.544748544692993164e-01 1.300000000000000000e+01
-3.899096012115478960e+00 1.363152503967284934e+00 -6.542089581489562988e-01 9.000000000000000000e+00
-6.091222000122070312e+01 2.130728912353515980e+01 7.923457145690917969e+00 6.300000000000000000e+01
-5.040109157562255859e+00 1.764033555984497070e+00 -6.556570529937744141e-01 1.100000000000000000e+01
-7.051571369171142578e+00 2.469425201416016069e+00 -6.536680459976196289e-01 1.000000000000000000e+00
-3.338974380493164062e+01 1.171909713745117010e+01 -6.176755428314208984e-01 1.400000000000000000e+01
-2.332229375839232954e+00 8.217651844024658203e-01 -6.625767350196838379e-01 1.900000000000000000e+01
-6.086449050903320312e+01 2.145765495300292969e+01 1.126483082771301047e+00 4.900000000000000000e+01
-2.681287050247191939e+00 9.458085298538208008e-01 -6.564071774482727051e-01 1.400000000000000000e+01
-6.083556747436522727e+01 2.145939445495605113e+01 3.380798101425170898e+00 4.900000000000000000e+01
-3.169477462768555132e+00 1.118636965751647949e+00 -6.533300280570983887e-01 1.300000000000000000e+01
-3.888966560363769975e+00 1.374100565910338911e+00 -6.532703042030334473e-01 9.000000000000000000e+00
-6.084122848510742188e+01 2.150916481018066051e+01 7.923457145690917969e+00 6.300000000000000000e+01
-5.019259929656982422e+00 1.775441646575927956e+00 -6.537071466445922852e-01 1.100000000000000000e+01
-7.039587020874023438e+00 2.491466045379639116e+00 -6.533194184303283691e-01 2.000000000000000000e+00
-3.334315872192382812e+01 1.182708263397216975e+01 -6.175359487533569336e-01 1.400000000000000000e+01
-2.329346656799315962e+00 8.299011588096618652e-01 -6.625767350196838379e-01 1.800000000000000000e+01
-6.078921890258789062e+01 2.166998100280762074e+01 1.126483082771301047e+00 4.900000000000000000e+01
-2.687146663665771040e+00 9.584355354309082031e-01 -6.586567163467407227e-01 1.500000000000000000e+01
-3.158157110214232954e+00 1.127054214477539062e+00 -6.518035531044006348e-01 1.200000000000000000e+01
-3.891587257385253906e+00 1.390325665473937988e+00 -6.545218229293823242e-01 9.000000000000000000e+00
-5.020508289337158203e+00 1.795625329017638938e+00 -6.546820998191833496e-01 1.100000000000000000e+01
-7.030847549438476562e+00 2.516023397445679155e+00 -6.533194184303283691e-01 2.000000000000000000e+00
-1.189253711700438920e+01 4.260486602783203125e+00 -6.620498299598693848e-01 3.000000000000000000e+00
-3.329037857055664062e+01 1.193935012817382990e+01 -6.173264980316162109e-01 7.000000000000000000e+00
-2.317348003387451172e+00 8.347535133361816406e-01 -6.599885821342468262e-01 1.900000000000000000e+01
-2.689284086227416992e+00 9.697927832603454590e-01 -6.600064039230346680e-01 1.400000000000000000e+01
-3.143123388290404829e+00 1.134073495864867942e+00 -6.495138406753540039e-01 1.200000000000000000e+01
-3.879278898239136186e+00 1.401216983795166016e+00 -6.532703042030334473e-01 9.000000000000000000e+00
-5.019810199737548828e+00 1.815164327621459961e+00 -6.554133296012878418e-01 1.300000000000000000e+01
-6.995792388916015625e+00 2.531060695648192915e+00 -6.508790850639343262e-01 2.000000000000000000e+00
-1.197148704528808949e+01 4.335981369018554688e+00 -6.672834157943725586e-01 3.000000000000000000e+00
-3.322969818115233664e+01 1.204866600036620916e+01 -6.169774532318115234e-01 1.400000000000000000e+01
-2.307159185409545898e+00 8.401932716369628906e-01 -6.579180359840393066e-01 1.900000000000000000e+01
-6.082434082031250000e+01 2.216229629516601918e+01 1.129973530769347922e+00 4.900000000000000000e+01
-2.674897432327270952e+00 9.751694202423095703e-01 -6.573069691658020020e-01 1.300000000000000000e+01
-3.150212049484252930e+00 1.149074673652648926e+00 -6.518035531044006348e-01 1.200000000000000000e+01
-3.868797540664672852e+00 1.412716984748840110e+00 -6.523317098617553711e-01 8.000000000000000000e+00
-5.007850170135498047e+00 1.830631017684936968e+00 -6.546820998191833496e-01 1.100000000000000000e+01
-6.975687980651854581e+00 2.551358699798583984e+00 -6.498332023620605469e-01 2.000000000000000000e+00
-1.186250400543213068e+01 4.343407630920410156e+00 -6.620498299598693848e-01 3.000000000000000000e+00
-3.320245742797852273e+01 1.217009162902832031e+01 -6.172567009925842285e-01 7.000000000000000000e+00
-2.309650897979735884e+00 8.502438068389892578e-01 -6.594709157943725586e-01 2.000000000000000000e+01
-2.664163112640380859e+00 9.818052053451538086e-01 -6.555073857307434082e-01 1.300000000000000000e+01
-3.148023843765258789e+00 1.160743117332458052e+00 -6.521851420402526855e-01 1.300000000000000000e+01
-3.856430053710937944e+00 1.423476815223694070e+00 -6.510802507400512695e-01 8.000000000000000000e+00
-4.982809543609619141e+00 1.841220140457153098e+00 -6.522447466850280762e-01 8.000000000000000000e+00
-7.015327453613281250e+00 2.593656539916992188e+00 -6.543653011322021484e-01 1.000000000000000000e+00
-1.184727001190186080e+01 4.384788990020751953e+00 -6.620498299598693848e-01 3.000000000000000000e+00
-3.315227508544921875e+01 1.228313636779784979e+01 -6.171171069145202637e-01 7.000000000000000000e+00
-2.313911199569702148e+00 8.609956502914428711e-01 -6.615414619445800781e-01 1.900000000000000000e+01
-2.658893585205078125e+00 9.904186725616455078e-01 -6.550574898719787598e-01 1.300000000000000000e+01
-3.138433933258057085e+00 1.169667840003967063e+00 -6.510403156280517578e-01 1.200000000000000000e+01
-3.862542152404785156e+00 1.441072583198546919e+00 -6.529574394226074219e-01 8.000000000000000000e+00
-4.980071067810058594e+00 1.859991192817687988e+00 -6.527321934700012207e-01 3.000000000000000000e+00
-6.968904018402099609e+00 2.604180335998535156e+00 -6.508790850639343262e-01 2.000000000000000000e+00
-3.313166809082031250e+01 1.240719985961914062e+01 -6.175359487533569336e-01 1.400000000000000000e+01
-2.303658962249755859e+00 8.663473725318908691e-01 -6.594709157943725586e-01 1.900000000000000000e+01
-6.077608489990233664e+01 2.286844444274901988e+01 1.133463978767395020e+00 4.800000000000000000e+01
-2.653596401214600053e+00 9.990072846412658691e-01 -6.546075940132141113e-01 1.100000000000000000e+01
-3.128820180892943892e+00 1.178539752960205078e+00 -6.498954296112060547e-01 1.200000000000000000e+01
-6.095412445068358664e+01 2.297187805175780895e+01 5.698939800262451172e+00 4.700000000000000000e+01
-3.839004993438721147e+00 1.447577118873595969e+00 -6.498287916183471680e-01 8.000000000000000000e+00
-4.999548912048339844e+00 1.887178063392638938e+00 -6.561445593833923340e-01 8.000000000000000000e+00
-6.944860458374023438e+00 2.622859001159667969e+00 -6.494845747947692871e-01 2.000000000000000000e+00
-1.181637001037598012e+01 4.467391014099121094e+00 -6.620498299598693848e-01 3.000000000000000000e+00
-3.309189987182617188e+01 1.252419090270995916e+01 -6.176057457923889160e-01 7.000000000000000000e+00
-2.289785861968994141e+00 8.702653646469116211e-01 -6.563650965690612793e-01 1.900000000000000000e+01
-6.087906265258789062e+01 2.315010643005371094e+01 1.136884689331054910e+00 4.700000000000000000e+01
-2.653735637664794922e+00 1.009649872779845969e+00 -6.555073857307434082e-01 1.000000000000000000e+01
-3.128356933593750000e+00 1.190851092338562012e+00 -6.506586670875549316e-01 1.200000000000000000e+01
-3.841312170028686968e+00 1.463782548904418945e+00 -6.510802507400512695e-01 8.000000000000000000e+00
-4.998495101928710938e+00 1.906740784645081010e+00 -6.568757891654968262e-01 1.100000000000000000e+01
-6.935662746429443359e+00 2.647084951400756836e+00 -6.494845747947692871e-01 2.000000000000000000e+00
-1.170741748809813920e+01 4.472969532012938565e+00 -6.568162441253662109e-01 3.000000000000000000e+00
-3.301435852050781250e+01 1.262676906585693004e+01 -6.169774532318115234e-01 7.000000000000000000e+00
-2.292144298553466797e+00 8.803308010101318359e-01 -6.579180359840393066e-01 1.900000000000000000e+01
-6.079788208007813211e+01 2.336247253417969105e+01 1.136884689331054910e+00 4.700000000000000000e+01
-2.648376226425170898e+00 1.018207669258117898e+00 -6.550574898719787598e-01 9.000000000000000000e+00
-3.122348546981811968e+00 1.201058983802794966e+00 -6.502770781517028809e-01 1.200000000000000000e+01
-3.821431875228881836e+00 1.471503496170043945e+00 -6.485772728919982910e-01 8.000000000000000000e+00
-4.999217987060546875e+00 1.927033066749572976e+00 -6.578507423400878906e-01 9.000000000000000000e+00
-6.911508560180664062e+00 2.665543556213378906e+00 -6.480901241302490234e-01 2.000000000000000000e+00
-1.165074253082275035e+01 4.497983455657958984e+00 -6.545134782791137695e-01 3.000000000000000000e+00
-3.310065078735352273e+01 1.279239368438721058e+01 -6.194208264350891113e-01 1.400000000000000000e+01
-2.292659521102904829e+00 8.897243738174438477e-01 -6.589533090591430664e-01 1.900000000000000000e+01
-6.080916595458983664e+01 2.361074447631835938e+01 1.138629913330077903e+00 4.700000000000000000e+01
-2.632090568542480025e+00 1.022506475448607954e+00 -6.519081592559814453e-01 8.000000000000000000e+00
-3.121796846389770952e+00 1.213373184204102007e+00 -6.510403156280517578e-01 1.100000000000000000e+01
-3.827317714691162109e+00 1.489131450653075950e+00 -6.504545211791992188e-01 8.000000000000000000e+00
-4.981362342834472656e+00 1.940149188041687012e+00 -6.563882827758789062e-01 9.000000000000000000e+00
-6.894736289978027344e+00 2.686759233474731001e+00 -6.473928689956665039e-01 2.000000000000000000e+00
-1.164985561370849965e+01 4.544431686401367188e+00 -6.553508639335632324e-01 3.000000000000000000e+00
-3.302598953247070312e+01 1.289622116088867010e+01 -6.188623309135437012e-01 7.000000000000000000e+00
-2.289539813995360884e+00 8.977218270301818848e-01 -6.589533090591430664e-01 1.900000000000000000e+01
-6.081945800781250000e+01 2.385937881469726918e+01 1.140375137329102007e+00 4.700000000000000000e+01
-2.626691341400146040e+00 1.030975937843322976e+00 -6.514582633972167969e-01 6.000000000000000000e+00
-3.108405351638793945e+00 1.220674872398376021e+00 -6.491321921348571777e-01 1.000000000000000000e+01
-3.818419456481934038e+00 1.501036882400512917e+00 -6.498287916183471680e-01 8.000000000000000000e+00
-4.959782123565673828e+00 1.951710462570189986e+00 -6.544383764266967773e-01 9.000000000000000000e+00
-6.883461952209472656e+00 2.710080146789550781e+00 -6.472185254096984863e-01 3.000000000000000000e+00
-1.156702804565430043e+01 4.558705806732177734e+00 -6.515826582908630371e-01 3.000000000000000000e+00
-3.294356918334960938e+01 1.299674701690674006e+01 -6.181642413139343262e-01 7.000000000000000000e+00
-2.284595966339110884e+00 9.049968719482421875e-01 -6.584356427192687988e-01 1.800000000000000000e+01
-6.082875442504882812e+01 2.410837173461914062e+01 1.142120361328125000e+00 4.600000000000000000e+01
-2.632133960723876953e+00 1.043730139732361062e+00 -6.537077426910400391e-01 7.000000000000000000e+00
-3.098650932312012163e+00 1.229345798492432085e+00 -6.479873657226562500e-01 1.000000000000000000e+01
-3.813156604766846147e+00 1.514356493949889915e+00 -6.498287916183471680e-01 8.000000000000000000e+00
-4.947404861450195312e+00 1.966811418533324973e+00 -6.537071466445922852e-01 1.100000000000000000e+01
-6.864703655242919922e+00 2.730409622192382812e+00 -6.463469862937927246e-01 2.000000000000000000e+00
-1.155104446411132990e+01 4.599054336547851562e+00 -6.515826582908630371e-01 3.000000000000000000e+00
-3.292772293090820312e+01 1.312350845336914062e+01 -6.187227368354797363e-01 1.400000000000000000e+01
-2.272614002227783203e+00 9.089807271957397461e-01 -6.558474898338317871e-01 1.600000000000000000e+01
-6.084130096435546875e+01 2.434710311889648082e+01 1.143865585327147993e+00 4.600000000000000000e+01
-2.626849412918090820e+00 1.051728487014770952e+00 -6.532578468322753906e-01 9.000000000000000000e+00
-3.092734813690185991e+00 1.238884449005126953e+00 -6.476057171821594238e-01 1.000000000000000000e+01
-3.808113813400268999e+00 1.526993036270142046e+00 -6.498287916183471680e-01 9.000000000000000000e+00
-4.940855503082275391e+00 1.983206748962401900e+00 -6.537071466445922852e-01 1.100000000000000000e+01
-6.838971614837645596e+00 2.746476411819458008e+00 -6.447781920433044434e-01 3.000000000000000000e+00
-1.153573036193848012e+01 4.637333869934082031e+00 -6.515826582908630371e-01 3.000000000000000000e+00
-3.290257644653320312e+01 1.324009323120117010e+01 -6.190717816352844238e-01 1.400000000000000000e+01
-2.274800777435303178e+00 9.190791249275207520e-01 -6.574003696441650391e-01 2.000000000000000000e+01
-2.619548797607421875e+00 1.059430241584778054e+00 -6.523580551147460938e-01 1.300000000000000000e+01
-3.090211391448975053e+00 1.250409007072448953e+00 -6.479873657226562500e-01 1.100000000000000000e+01
-3.786282300949097124e+00 1.533602237701416016e+00 -6.470129489898681641e-01 9.000000000000000000e+00
-4.943100929260253906e+00 2.004170894622803178e+00 -6.549258232116699219e-01 9.000000000000000000e+00
-6.820111751556395596e+00 2.766587257385253906e+00 -6.439066529273986816e-01 3.000000000000000000e+00
-1.144915294647216975e+01 4.649018764495849609e+00 -6.476051211357116699e-01 3.000000000000000000e+00
-3.287838745117188211e+01 1.336390018463134943e+01 -6.194906234741210938e-01 2.100000000000000000e+01
-2.271578550338745117e+00 9.270140528678894043e-01 -6.574003696441650391e-01 1.800000000000000000e+01
-2.612226724624633789e+00 1.067093849182128906e+00 -6.514582633972167969e-01 1.500000000000000000e+01
-3.100366353988647017e+00 1.267130136489867942e+00 -6.510403156280517578e-01 1.100000000000000000e+01
-3.780905961990356001e+00 1.546809554100037065e+00 -6.470129489898681641e-01 9.000000000000000000e+00
-4.917704582214354581e+00 2.013890266418457031e+00 -6.524884700775146484e-01 9.000000000000000000e+00
-6.821474552154541016e+00 2.794909477233887163e+00 -6.449524760246276855e-01 2.000000000000000000e+00
-1.141068077087401988e+01 4.679861068725585938e+00 -6.463490724563598633e-01 3.000000000000000000e+00
-3.289443588256835938e+01 1.350440692901610973e+01 -6.206774115562438965e-01 1.400000000000000000e+01
-2.264756679534912109e+00 9.334653615951538086e-01 -6.563650965690612793e-01 1.700000000000000000e+01
-2.612088918685913086e+00 1.077692151069640891e+00 -6.523580551147460938e-01 1.500000000000000000e+01
-3.085036039352416992e+00 1.273450255393981934e+00 -6.487506031990051270e-01 1.100000000000000000e+01
-3.771832227706909180e+00 1.558489203453063965e+00 -6.463872194290161133e-01 9.000000000000000000e+00
-4.892301082611083984e+00 2.023457050323485884e+00 -6.500510573387145996e-01 1.100000000000000000e+01
-6.793267250061035156e+00 2.811085700988769975e+00 -6.432093977928161621e-01 2.000000000000000000e+00
-1.130201435089110973e+01 4.681447505950927734e+00 -6.411154866218566895e-01 3.000000000000000000e+00
-3.285448455810546875e+01 1.362221050262450994e+01 -6.208170056343078613e-01 1.400000000000000000e+01
-2.265051603317261186e+00 9.428499937057495117e-01 -6.574003696441650391e-01 1.800000000000000000e+01
-2.606512308120727983e+00 1.086053967475890891e+00 -6.519081592559814453e-01 1.400000000000000000e+01
-3.066075325012207031e+00 1.278167963027954102e+00 -6.456976532936096191e-01 1.100000000000000000e+01
-3.777307271957397017e+00 1.576210141181946023e+00 -6.482644081115722656e-01 9.000000000000000000e+00
-4.876049518585205078e+00 2.036696434020996094e+00 -6.488323807716369629e-01 1.100000000000000000e+01
-6.772383213043212891e+00 2.830172061920166016e+00 -6.421635150909423828e-01 2.000000000000000000e+00
-3.285100173950195312e+01 1.375534725189208984e+01 -6.216546893119812012e-01 1.400000000000000000e+01
-2.251061201095581055e+00 9.462590217590332031e-01 -6.542945504188537598e-01 1.800000000000000000e+01
-2.611686468124390093e+00 1.098924756050110085e+00 -6.541576385498046875e-01 1.500000000000000000e+01
-3.068832635879517046e+00 1.291909694671631081e+00 -6.472241282463073730e-01 1.200000000000000000e+01
-3.760860204696654829e+00 1.584783315658568892e+00 -6.463872194290161133e-01 9.000000000000000000e+00
-4.879884719848632812e+00 2.058333635330200195e+00 -6.502948403358459473e-01 1.100000000000000000e+01
-6.764298439025878906e+00 2.854569435119628906e+00 -6.423377990722656250e-01 3.000000000000000000e+00
-3.281015396118164062e+01 1.387305068969726918e+01 -6.217943429946899414e-01 7.000000000000000000e+00
-2.247744321823120117e+00 9.541109204292297363e-01 -6.542945504188537598e-01 1.900000000000000000e+01
-6.087024688720703125e+01 2.585042572021484020e+01 1.154337048530579057e+00 4.400000000000000000e+01
-2.602453947067261186e+00 1.105748414993285911e+00 -6.528079509735107422e-01 1.400000000000000000e+01
-3.069724798202515093e+00 1.304918169975280984e+00 -6.483689546585083008e-01 1.200000000000000000e+01
-3.748034715652465820e+00 1.594807863235474077e+00 -6.451357603073120117e-01 9.000000000000000000e+00
-4.865364551544188565e+00 2.072243690490723100e+00 -6.493198871612548828e-01 1.100000000000000000e+01
-6.757958889007568359e+00 2.879725933074951172e+00 -6.426864266395568848e-01 3.000000000000000000e+00
-1.125237083435058949e+01 4.799542903900145596e+00 -6.411154866218566895e-01 3.000000000000000000e+00
-3.280934524536132812e+01 1.400790977478026988e+01 -6.227018833160400391e-01 1.400000000000000000e+01
-2.247951507568358931e+00 9.634732604026794434e-01 -6.553298234939575195e-01 1.800000000000000000e+01
-6.077964401245117188e+01 2.606274604797362926e+01 1.154337048530579057e+00 4.400000000000000000e+01
-2.578878402709960938e+00 1.106374502182007058e+00 -6.478590369224548340e-01 1.300000000000000000e+01
-3.072367429733275923e+00 1.318722963333130105e+00 -6.498954296112060547e-01 1.200000000000000000e+01
-3.742444992065430132e+00 1.607881188392638938e+00 -6.451357603073120117e-01 9.000000000000000000e+00
-4.861748695373535156e+00 2.090782880783081055e+00 -6.498073339462280273e-01 1.100000000000000000e+01
-6.735054492950438565e+00 2.897786140441894975e+00 -6.414662599563598633e-01 2.000000000000000000e+00
-1.123554897308349965e+01 4.838791847229003906e+00 -6.411154866218566895e-01 3.000000000000000000e+00
-3.281901168823242188e+01 1.414768218994140980e+01 -6.238188147544860840e-01 1.400000000000000000e+01
-2.248120546340941939e+00 9.728486537933349609e-01 -6.563650965690612793e-01 1.800000000000000000e+01
-2.582153558731079102e+00 1.118467926979064941e+00 -6.496586203575134277e-01 1.500000000000000000e+01
-3.044327497482299805e+00 1.319291114807128906e+00 -6.449344158172607422e-01 1.200000000000000000e+01
-3.740433931350708008e+00 1.622507214546204057e+00 -6.457614898681640625e-01 9.000000000000000000e+00
-4.834391593933104581e+00 2.099044084548950195e+00 -6.471261978149414062e-01 9.000000000000000000e+00
-6.706624031066895419e+00 2.913339853286743164e+00 -6.397231221199035645e-01 3.000000000000000000e+00
-1.121858978271484020e+01 4.877981662750244141e+00 -6.411154866218566895e-01 3.000000000000000000e+00
-3.275842666625977273e+01 1.425736713409424006e+01 -6.236093640327453613e-01 7.000000000000000000e+00
-2.248251676559447798e+00 9.822369813919067383e-01 -6.574003696441650391e-01 1.800000000000000000e+01
-2.585375547409058061e+00 1.130597710609436035e+00 -6.514582633972167969e-01 1.500000000000000000e+01
-3.041502475738524947e+00 1.330696702003479004e+00 -6.453160047531127930e-01 1.100000000000000000e+01
-3.736557006835937944e+00 1.636346220970154031e+00 -6.460743546485900879e-01 1.000000000000000000e+01
-6.092166137695313211e+01 2.669202804565430043e+01 8.166707992553710938e+00 6.300000000000000000e+01
-4.821580886840820312e+00 2.113515615463256836e+00 -6.463949680328369141e-01 1.100000000000000000e+01
-6.696413516998291016e+00 2.936732530593872070e+00 -6.397231221199035645e-01 3.000000000000000000e+00
-1.120149421691895064e+01 4.917112350463867188e+00 -6.411154866218566895e-01 3.000000000000000000e+00
-3.263888931274414062e+01 1.434106063842773082e+01 -6.222829818725585938e-01 7.000000000000000000e+00
-2.227133512496947798e+00 9.822829365730285645e-01 -6.522240042686462402e-01 1.900000000000000000e+01
-2.584978818893433061e+00 1.141189575195312944e+00 -6.523580551147460938e-01 1.500000000000000000e+01
-6.092461013793945312e+01 2.690906906127930043e+01 3.490494251251221147e+00 4.300000000000000000e+01
-3.042226552963256836e+00 1.343685030937195046e+00 -6.464608907699584961e-01 1.100000000000000000e+01
-3.725402355194091797e+00 1.646983146667480025e+00 -6.451357603073120117e-01 9.000000000000000000e+00
-6.094430541992188211e+01 2.695591163635253906e+01 8.182307243347167969e+00 6.300000000000000000e+01
-4.815989017486572266e+00 2.131136417388916016e+00 -6.466387510299682617e-01 9.000000000000000000e+00
-6.678834438323974609e+00 2.956863403320312944e+00 -6.390259265899658203e-01 2.000000000000000000e+00
-1.118426227569580078e+01 4.956182956695556641e+00 -6.411154866218566895e-01 3.000000000000000000e+00
-3.274948883056641336e+01 1.452625465393066051e+01 -6.253546476364135742e-01 7.000000000000000000e+00
-2.223691225051879883e+00 9.900510907173156738e-01 -6.522240042686462402e-01 1.800000000000000000e+01
-2.575639724731444868e+00 1.147826075553894043e+00 -6.510083675384521484e-01 1.400000000000000000e+01
-3.033931493759154829e+00 1.352697253227234109e+00 -6.456976532936096191e-01 1.100000000000000000e+01
-3.705199480056763139e+00 1.653536915779113992e+00 -6.426327824592590332e-01 9.000000000000000000e+00
-4.804895877838134766e+00 2.146315097808837891e+00 -6.461512446403503418e-01 9.000000000000000000e+00
-6.624816417694091797e+00 2.960648775100708008e+00 -6.348424553871154785e-01 2.000000000000000000e+00
-1.107573509216308949e+01 4.954415798187255859e+00 -6.358818411827087402e-01 3.000000000000000000e+00
-3.277888870239257812e+01 1.467643928527832031e+01 -6.268904209136962891e-01 1.500000000000000000e+01
-2.232906341552733931e+00 1.002571225166321023e+00 -6.558474898338317871e-01 1.900000000000000000e+01
-6.087222290039063211e+01 2.734429168701171875e+01 1.164808511734009011e+00 4.200000000000000000e+01
-2.556023597717285156e+00 1.148722529411315918e+00 -6.469592452049255371e-01 1.500000000000000000e+01
-3.031457662582397017e+00 1.363027095794677956e+00 -6.460792422294616699e-01 1.000000000000000000e+01
-3.696383714675902876e+00 1.663547635078429954e+00 -6.420070528984069824e-01 9.000000000000000000e+00
-4.781839847564697266e+00 2.154061794281005859e+00 -6.439576148986816406e-01 1.300000000000000000e+01
-6.640912532806395596e+00 2.992907285690308061e+00 -6.372827887535095215e-01 2.000000000000000000e+00
-1.103462791442870916e+01 4.977689266204833984e+00 -6.344164609909057617e-01 3.000000000000000000e+00
-3.275084304809570312e+01 1.478757381439208984e+01 -6.272394657135009766e-01 7.000000000000000000e+00
-2.229393243789672852e+00 1.010359406471251997e+00 -6.558474898338317871e-01 1.900000000000000000e+01
-2.550223588943481001e+00 1.156832695007323997e+00 -6.465093493461608887e-01 1.400000000000000000e+01
-3.021317958831787109e+00 1.371166467666625977e+00 -6.449344158172607422e-01 1.100000000000000000e+01
-3.701345443725585938e+00 1.681342124938965066e+00 -6.438842415809631348e-01 9.000000000000000000e+00
-4.761641979217529297e+00 2.164988994598389116e+00 -6.422514319419860840e-01 9.000000000000000000e+00
-6.626797676086425781e+00 3.014420270919799805e+00 -6.369341611862182617e-01 2.000000000000000000e+00
-1.101718521118164062e+01 5.016176700592041016e+00 -6.344164609909057617e-01 3.000000000000000000e+00
-3.272814178466796875e+01 1.491507339477539062e+01 -6.277979612350463867e-01 7.000000000000000000e+00
-2.216891765594481978e+00 1.014504313468933105e+00 -6.532592773437500000e-01 1.800000000000000000e+01
-2.551281452178955078e+00 1.168606519699096902e+00 -6.478590369224548340e-01 1.300000000000000000e+01
-3.009132862091064009e+00 1.378959417343140093e+00 -6.434079408645629883e-01 1.100000000000000000e+01
-3.687976121902465820e+00 1.691602706909179910e+00 -6.426327824592590332e-01 9.000000000000000000e+00
-4.753674983978270596e+00 2.182426691055297852e+00 -6.422514319419860840e-01 1.100000000000000000e+01
-6.612083911895751953e+00 3.037025213241577148e+00 -6.365855336189270020e-01 3.000000000000000000e+00
-1.093339824676514027e+01 5.026489257812500000e+00 -6.306482553482055664e-01 3.000000000000000000e+00
-3.274955368041992188e+01 1.507003688812256037e+01 -6.292639374732971191e-01 7.000000000000000000e+00
-2.209829330444335938e+00 1.020616531372070090e+00 -6.522240042686462402e-01 1.900000000000000000e+01
-2.556031227111815962e+00 1.181593656539916992e+00 -6.501085758209228516e-01 1.400000000000000000e+01
-3.007864952087401900e+00 1.391103029251099077e+00 -6.441711783409118652e-01 1.100000000000000000e+01
-3.692804574966431108e+00 1.709444761276244895e+00 -6.445099711418151855e-01 9.000000000000000000e+00
-4.740624427795410156e+00 2.196503162384033203e+00 -6.415202021598815918e-01 1.100000000000000000e+01
-6.590596675872802734e+00 3.055059671401977983e+00 -6.355396509170532227e-01 2.000000000000000000e+00
-1.091578578948974965e+01 5.064623355865479404e+00 -6.306482553482055664e-01 3.000000000000000000e+00
-3.275478744506835938e+01 1.521121406555175959e+01 -6.303809285163879395e-01 7.000000000000000000e+00
-2.215188503265380859e+00 1.032018065452575906e+00 -6.548121571540832520e-01 1.600000000000000000e+01
-2.545034170150756836e+00 1.186768889427185059e+00 -6.483089327812194824e-01 1.300000000000000000e+01
-2.999676942825316939e+00 1.399409770965575950e+00 -6.434079408645629883e-01 1.200000000000000000e+01
-3.665637254714965820e+00 1.711651921272278054e+00 -6.407555937767028809e-01 9.000000000000000000e+00
-4.744104862213134766e+00 2.217254638671875000e+00 -6.429826617240905762e-01 1.100000000000000000e+01
-6.584039211273193359e+00 3.078585863113402876e+00 -6.358882784843444824e-01 2.000000000000000000e+00
-1.089893054962158025e+01 5.100793838500976562e+00 -6.306482553482055664e-01 3.000000000000000000e+00
-3.270416259765625000e+01 1.531974983215332031e+01 -6.303809285163879395e-01 7.000000000000000000e+00
-2.202831029891968218e+00 1.035634636878967063e+00 -6.522240042686462402e-01 1.700000000000000000e+01
-2.535586357116699219e+00 1.193156361579895020e+00 -6.469592452049255371e-01 1.500000000000000000e+01
-3.001878976821898970e+00 1.413217067718506081e+00 -6.449344158172607422e-01 1.100000000000000000e+01
-3.656066179275513139e+00 1.722752928733825906e+00 -6.401298046112060547e-01 9.000000000000000000e+00
-4.718381881713867188e+00 2.225333452224731001e+00 -6.405452489852905273e-01 1.100000000000000000e+01
-6.548026561737061435e+00 3.089646816253662109e+00 -6.334479451179504395e-01 2.000000000000000000e+00
-1.088105869293213068e+01 5.138806819915770596e+00 -6.306482553482055664e-01 3.000000000000000000e+00
-2.204438924789429155e+00 1.045801639556884988e+00 -6.537768840789794922e-01 1.900000000000000000e+01
-2.526124715805054155e+00 1.199492216110229048e+00 -6.456094980239868164e-01 1.400000000000000000e+01
-2.993381023406981978e+00 1.422002077102660911e+00 -6.441711783409118652e-01 1.100000000000000000e+01
-3.657166242599486861e+00 1.738897442817687988e+00 -6.413813233375549316e-01 9.000000000000000000e+00
-4.698038101196289062e+00 2.235818862915039062e+00 -6.388391256332397461e-01 9.000000000000000000e+00
-6.522810459136962891e+00 3.105633020401000977e+00 -6.320534348487854004e-01 2.000000000000000000e+00
-1.079814720153808949e+01 5.145825862884520596e+00 -6.268801093101501465e-01 3.000000000000000000e+00
-2.188577413558959961e+00 1.047651410102844016e+00 -6.501534581184387207e-01 1.800000000000000000e+01
-6.090738677978516336e+01 2.916886138916015980e+01 1.178770422935486062e+00 4.000000000000000000e+01
-2.528952121734619141e+00 1.211670875549315962e+00 -6.474091410636901855e-01 1.400000000000000000e+01
-2.979547023773192915e+00 1.428199291229248047e+00 -6.422630548477172852e-01 1.200000000000000000e+01
-3.654636144638061968e+00 1.753361701965332031e+00 -6.420070528984069824e-01 9.000000000000000000e+00
-4.695573329925537109e+00 2.254782199859619141e+00 -6.395702958106994629e-01 1.000000000000000000e+01
-6.497562885284423828e+00 3.121480941772460938e+00 -6.306589841842651367e-01 2.000000000000000000e+00
-1.066491985321044922e+01 5.128095149993895596e+00 -6.201810836791992188e-01 3.000000000000000000e+00
-2.182983398437500000e+00 1.054825425148010032e+00 -6.496357917785644531e-01 1.900000000000000000e+01
-2.531511545181273970e+00 1.224325656890868919e+00 -6.492087244987487793e-01 1.400000000000000000e+01
-2.972525358200072798e+00 1.438255190849303977e+00 -6.418814659118652344e-01 1.100000000000000000e+01
-3.644629478454589844e+00 1.765022873878479004e+00 -6.413813233375549316e-01 1.000000000000000000e+01
-4.687277793884277344e+00 2.271977186203002930e+00 -6.395702958106994629e-01 1.000000000000000000e+01
-6.491456508636474609e+00 3.147882699966431108e+00 -6.311818957328796387e-01 3.000000000000000000e+00
-1.064605331420898082e+01 5.167149543762207031e+00 -6.201810836791992188e-01 3.000000000000000000e+00
-2.181024551391602007e+00 1.063285589218140093e+00 -6.501534581184387207e-01 1.800000000000000000e+01
-6.087683486938477273e+01 2.969161605834960938e+01 1.182260870933532937e+00 3.900000000000000000e+01
-2.514962911605834961e+00 1.227172732353210005e+00 -6.460594534873962402e-01 1.300000000000000000e+01
-2.969250917434691939e+00 1.449483633041382058e+00 -6.422630548477172852e-01 1.200000000000000000e+01
-3.620697736740111861e+00 1.769062399864196999e+00 -6.382526159286499023e-01 1.000000000000000000e+01
-4.677535057067871094e+00 2.287452936172484907e+00 -6.393265724182128906e-01 1.000000000000000000e+01
-6.473269939422607422e+00 3.167020559310913086e+00 -6.304846405982971191e-01 3.000000000000000000e+00
-1.067817592620849965e+01 5.228873729705811435e+00 -6.231119036674499512e-01 3.000000000000000000e+00
-2.184233903884888139e+00 1.074302792549133079e+00 -6.522240042686462402e-01 2.000000000000000000e+01
-2.512412309646606001e+00 1.236804842948914018e+00 -6.465093493461608887e-01 1.400000000000000000e+01
-2.969456911087036133e+00 1.462441682815551980e+00 -6.434079408645629883e-01 1.200000000000000000e+01
-3.603869676589965820e+00 1.776449918746948020e+00 -6.363754272460937500e-01 9.000000000000000000e+00
-4.655280113220214844e+00 2.296740293502808061e+00 -6.373766660690307617e-01 9.000000000000000000e+00
-6.453242778778076172e+00 3.185188055038452148e+00 -6.296131014823913574e-01 3.000000000000000000e+00
-1.060972023010254084e+01 5.241346359252929688e+00 -6.201810836791992188e-01 3.000000000000000000e+00
-2.189123153686522993e+00 1.086213946342468040e+00 -6.548121571540832520e-01 1.900000000000000000e+01
-2.501098394393920898e+00 1.242100119590759055e+00 -6.447097063064575195e-01 1.300000000000000000e+01
-2.957301139831542969e+00 1.469303965568542036e+00 -6.418814659118652344e-01 1.100000000000000000e+01
-3.608259201049805132e+00 1.794296264648437944e+00 -6.382526159286499023e-01 1.000000000000000000e+01
-4.633017539978027344e+00 2.305900335311890093e+00 -6.354267597198486328e-01 1.000000000000000000e+01
-6.467054367065429688e+00 3.220127582550048828e+00 -6.320534348487854004e-01 3.000000000000000000e+00
-1.059136009216308949e+01 5.278349399566650391e+00 -6.201810836791992188e-01 3.000000000000000000e+00
-2.176870822906494141e+00 1.089145421981811968e+00 -6.522240042686462402e-01 1.900000000000000000e+01
-6.092550277709960938e+01 3.049592018127441051e+01 1.189241886138916016e+00 3.800000000000000000e+01
