-2.909306526184082031e+00 -1.105141878128051980e+00 -7.184936404228210449e-01 1.400000000000000000e+01
-3.474454402923583984e+00 -1.319127559661865012e+00 -7.224028706550598145e-01 1.100000000000000000e+01
-4.373695850372313565e+00 -1.658791184425354004e+00 -7.408736348152160645e-01 1.200000000000000000e+01
-5.864145755767822266e+00 -2.221725940704346147e+00 -7.699705362319946289e-01 1.100000000000000000e+01
-8.966087341308593750e+00 -3.395157098770142046e+00 -8.387868404388427734e-01 1.000000000000000000e+00
-1.384432220458984020e+01 -5.236856937408447266e+00 -7.757235169410705566e-01 2.100000000000000000e+01
-5.445666122436522727e+01 -2.058831977844237926e+01 1.344082546234131037e+01 1.900000000000000000e+01
-4.910707473754882812e+01 -1.855601692199707031e+01 -9.163211584091186523e-01 1.400000000000000000e+01
-2.506013870239257812e+00 -9.429471492767333984e-01 -7.174463868141174316e-01 2.000000000000000000e+01
-2.914970636367797852e+00 -1.095665454864501953e+00 -7.189435958862304688e-01 1.300000000000000000e+01
-3.480875492095946822e+00 -1.307681798934936968e+00 -7.227844595909118652e-01 1.100000000000000000e+01
-4.385007858276367188e+00 -1.645596146583556907e+00 -7.418122291564941406e-01 1.100000000000000000e+01
-5.875582695007324219e+00 -2.202636480331420898e+00 -7.704579830169677734e-01 1.100000000000000000e+01
-8.921912193298339844e+00 -3.342867374420166016e+00 -8.335575461387634277e-01 1.000000000000000000e+00
-1.384755420684813920e+01 -5.182898521423339844e+00 -7.748861908912658691e-01 1.700000000000000000e+01
-4.933263015747070312e+01 -1.844471359252930043e+01 -9.193229675292968750e-01 1.400000000000000000e+01
-2.502048254013061968e+00 -9.314976930618286133e-01 -7.153758406639099121e-01 1.600000000000000000e+01
-2.926083564758300781e+00 -1.088200688362122026e+00 -7.207431793212890625e-01 1.200000000000000000e+01
-3.490939855575561968e+00 -1.297575354576111062e+00 -7.239293456077575684e-01 1.200000000000000000e+01
-4.383317947387695312e+00 -1.627529263496398926e+00 -7.405607700347900391e-01 1.200000000000000000e+01
-5.879513263702392578e+00 -2.180732727050780806e+00 -7.699705362319946289e-01 1.100000000000000000e+01
-8.944735527038574219e+00 -3.315859079360961914e+00 -8.346033692359924316e-01 1.000000000000000000e+00
-1.387492656707764027e+01 -5.137997627258300781e+00 -7.754095196723937988e-01 1.300000000000000000e+01
-5.115612030029296875e+01 -1.892322349548339844e+01 1.461499404907226918e+01 1.800000000000000000e+01
-2.508910179138184038e+00 -9.240936636924743652e-01 -7.164111137390136719e-01 1.300000000000000000e+01
-2.907917737960814986e+00 -1.069905400276184082e+00 -7.153443694114685059e-01 1.200000000000000000e+01
-3.495447874069213867e+00 -1.285381793975830078e+00 -7.239293456077575684e-01 1.100000000000000000e+01
-4.377846717834472656e+00 -1.608131885528564009e+00 -7.386835217475891113e-01 1.100000000000000000e+01
-5.868453502655029297e+00 -2.153357982635498047e+00 -7.675331234931945801e-01 1.100000000000000000e+01
-8.945032119750976562e+00 -3.280499696731566939e+00 -8.335575461387634277e-01 3.000000000000000000e+00
-1.400717449188232067e+01 -5.131443023681640625e+00 -7.817944884300231934e-01 8.000000000000000000e+00
-5.135939025878906250e+01 -1.878470420837401988e+01 1.465329933166504084e+01 1.800000000000000000e+01
-2.506515741348267046e+00 -9.137836694717407227e-01 -7.148581743240356445e-01 1.600000000000000000e+01
-2.915111780166625977e+00 -1.061590194702147993e+00 -7.162441611289978027e-01 1.300000000000000000e+01
-3.490466833114624023e+00 -1.270426034927367942e+00 -7.220212221145629883e-01 1.200000000000000000e+01
-4.396150588989257812e+00 -1.598330378532409890e+00 -7.408736348152160645e-01 1.200000000000000000e+01
-5.862501144409179688e+00 -2.129142045974731001e+00 -7.658269405364990234e-01 1.100000000000000000e+01
-8.914659500122070312e+00 -3.235863208770751953e+00 -8.297226428985595703e-01 1.000000000000000000e+00
-1.415930461883544922e+01 -5.133983612060546875e+00 -7.893308997154235840e-01 9.000000000000000000e+00
-5.271998977661132812e+01 -1.910518646240234020e+01 1.294593334197998047e+01 1.800000000000000000e+01
-2.504238367080688032e+00 -9.030627012252807617e-01 -7.133052945137023926e-01 2.000000000000000000e+01
-2.920633077621459961e+00 -1.052068471908568892e+00 -7.166940569877624512e-01 1.200000000000000000e+01
-3.491185903549193892e+00 -1.256904244422913042e+00 -7.212579846382141113e-01 1.100000000000000000e+01
-4.401703357696533203e+00 -1.582975268363953081e+00 -7.408736348152160645e-01 1.200000000000000000e+01
-5.871765613555908203e+00 -2.109336376190185991e+00 -7.660706639289855957e-01 1.100000000000000000e+01
-8.929650306701660156e+00 -3.206072092056273970e+00 -8.300712704658508301e-01 1.000000000000000000e+00
-1.442529964447020951e+01 -5.173528194427490234e+00 -8.031476140022277832e-01 9.000000000000000000e+00
-2.501916646957397017e+00 -8.923687934875488281e-01 -7.117523550987243652e-01 2.400000000000000000e+01
-2.933466196060181108e+00 -1.045137286186218040e+00 -7.189435958862304688e-01 1.300000000000000000e+01
-3.502949953079224077e+00 -1.247344374656677024e+00 -7.227844595909118652e-01 1.100000000000000000e+01
-4.399757385253906250e+00 -1.564952850341797097e+00 -7.396221756935119629e-01 1.200000000000000000e+01
-5.892186641693115234e+00 -2.093479394912720171e+00 -7.677768468856811523e-01 1.100000000000000000e+01
-8.933277130126953125e+00 -3.172215461730957031e+00 -8.293740749359130859e-01 1.000000000000000000e+00
-1.454115295410156072e+01 -5.157862663269042969e+00 -8.085905313491821289e-01 1.300000000000000000e+01
-5.135697937011718750e+01 -1.820663833618164062e+01 1.257971286773681996e+01 1.700000000000000000e+01
-5.251929092407227273e+01 -1.860837173461914062e+01 1.492971801757813033e+01 1.900000000000000000e+01
-2.503194332122803178e+00 -8.829873800277709961e-01 -7.112347483634948730e-01 2.600000000000000000e+01
-2.937096595764160156e+00 -1.034891247749329057e+00 -7.189435958862304688e-01 1.300000000000000000e+01
-3.505430936813354048e+00 -1.234457135200500044e+00 -7.224028706550598145e-01 1.200000000000000000e+01
-4.397739410400390625e+00 -1.546963334083556907e+00 -7.383706569671630859e-01 1.200000000000000000e+01
-5.893839836120604581e+00 -2.070924758911132812e+00 -7.670456767082214355e-01 1.100000000000000000e+01
-8.917978286743164062e+00 -3.131771087646483931e+00 -8.269336819648742676e-01 1.000000000000000000e+00
-1.464576339721680043e+01 -5.137484073638916016e+00 -8.134054541587829590e-01 1.300000000000000000e+01
-2.515228509902954102e+00 -8.778645992279052734e-01 -7.138229012489318848e-01 2.400000000000000000e+01
-2.922111034393310991e+00 -1.018730521202086958e+00 -7.144445776939392090e-01 1.200000000000000000e+01
-3.507651329040526900e+00 -1.222179889678955078e+00 -7.220212221145629883e-01 1.100000000000000000e+01
-4.400979518890380859e+00 -1.531722068786621094e+00 -7.380577921867370605e-01 1.200000000000000000e+01
-5.893174648284912109e+00 -2.048761367797852007e+00 -7.660706639289855957e-01 1.100000000000000000e+01
-8.905730247497558594e+00 -3.094333648681641069e+00 -8.248419761657714844e-01 1.000000000000000000e+00
-1.472121238708495916e+01 -5.109189033508300781e+00 -8.166502714157104492e-01 1.300000000000000000e+01
-2.516451358795166016e+00 -8.684492707252502441e-01 -7.133052945137023926e-01 2.300000000000000000e+01
-2.929333925247191939e+00 -1.009794473648071067e+00 -7.153443694114685059e-01 1.300000000000000000e+01
-3.504471302032471147e+00 -1.207370519638061968e+00 -7.204947471618652344e-01 1.100000000000000000e+01
-4.413771152496337891e+00 -1.518921613693237083e+00 -7.393093109130859375e-01 1.100000000000000000e+01
-5.881517410278320312e+00 -2.021724939346313032e+00 -7.636333107948303223e-01 1.100000000000000000e+01
-8.950394630432128906e+00 -3.074880361557006836e+00 -8.279795646667480469e-01 1.000000000000000000e+00
-1.480507659912109020e+01 -5.080460548400878906e+00 -8.203137516975402832e-01 9.000000000000000000e+00
-2.517938852310181108e+00 -8.581572175025939941e-01 -7.127876281738281250e-01 2.200000000000000000e+01
-2.929500102996826172e+00 -9.972832202911376953e-01 -7.144445776939392090e-01 1.200000000000000000e+01
-3.501646995544434038e+00 -1.191375970840454102e+00 -7.189682722091674805e-01 1.100000000000000000e+01
-4.417700290679931641e+00 -1.501327157020569070e+00 -7.389963865280151367e-01 1.200000000000000000e+01
-5.896756172180175781e+00 -2.001678943634033203e+00 -7.646082639694213867e-01 1.100000000000000000e+01
-8.916852951049804688e+00 -3.025128126144409180e+00 -8.237960934638977051e-01 1.000000000000000000e+00
-1.495121192932129084e+01 -5.066523551940917969e+00 -8.273267745971679688e-01 1.300000000000000000e+01
-2.504442453384398970e+00 -8.438113331794738770e-01 -7.081289291381835938e-01 2.100000000000000000e+01
-2.951432943344116211e+00 -9.932669401168823242e-01 -7.189435958862304688e-01 1.300000000000000000e+01
-3.505784273147583008e+00 -1.179145693778991921e+00 -7.189682722091674805e-01 1.100000000000000000e+01
-4.404188632965087891e+00 -1.479606509208678977e+00 -7.358677387237548828e-01 1.200000000000000000e+01
-5.911235332489013672e+00 -1.983609318733215110e+00 -7.655832171440124512e-01 1.100000000000000000e+01
-8.927357673645019531e+00 -2.993983983993529829e+00 -8.237960934638977051e-01 1.000000000000000000e+00
-1.502372741699218928e+01 -5.032701015472412109e+00 -8.303622603416442871e-01 9.000000000000000000e+00
-2.505393981933594194e+00 -8.348909020423889160e-01 -7.076112627983093262e-01 1.800000000000000000e+01
-2.945465564727783203e+00 -9.803969860076904297e-01 -7.166940569877624512e-01 1.300000000000000000e+01
-3.513401031494141069e+00 -1.168753027915955034e+00 -7.197315096855163574e-01 1.100000000000000000e+01
-4.412820339202880859e+00 -1.466239333152770996e+00 -7.364934682846069336e-01 1.300000000000000000e+01
-5.914012432098388672e+00 -1.962745547294616921e+00 -7.650957107543945312e-01 1.100000000000000000e+01
-8.918326377868652344e+00 -2.958091020584106001e+00 -8.220529556274414062e-01 1.000000000000000000e+00
-1.504791736602783025e+01 -4.985365390777587891e+00 -8.307809829711914062e-01 9.000000000000000000e+00
-2.517467498779296875e+00 -8.291621208190917969e-01 -7.101994752883911133e-01 1.900000000000000000e+01
-2.935911893844604048e+00 -9.658465385437011719e-01 -7.135447263717651367e-01 1.300000000000000000e+01
-3.517459392547606978e+00 -1.156481742858886941e+00 -7.197315096855163574e-01 1.100000000000000000e+01
-4.417911529541015625e+00 -1.450826764106750044e+00 -7.364934682846069336e-01 1.200000000000000000e+01
-5.913282871246337891e+00 -1.939615011215209961e+00 -7.641207575798034668e-01 1.100000000000000000e+01
-8.970249176025390625e+00 -2.940596342086791992e+00 -8.258877992630004883e-01 1.000000000000000000e+00
-1.530249023437500000e+01 -5.010494709014892578e+00 -8.438649773597717285e-01 1.400000000000000000e+01
-2.525713920593262163e+00 -8.226041197776794434e-01 -7.117523550987243652e-01 1.800000000000000000e+01
-2.944658041000366211e+00 -9.579139351844787598e-01 -7.148944735527038574e-01 1.300000000000000000e+01
-3.521275043487548828e+00 -1.144811153411865012e+00 -7.197315096855163574e-01 1.200000000000000000e+01
-4.422698497772216797e+00 -1.436168432235717995e+00 -7.364934682846069336e-01 1.200000000000000000e+01
-5.900799751281738281e+00 -1.913870811462401900e+00 -7.616834044456481934e-01 1.100000000000000000e+01
-8.938255310058593750e+00 -2.897317886352539062e+00 -8.220529556274414062e-01 1.000000000000000000e+00
-1.537412643432617010e+01 -4.977562904357910156e+00 -8.469004631042480469e-01 9.000000000000000000e+00
-2.526731014251708984e+00 -8.131908774375915527e-01 -7.112347483634948730e-01 1.900000000000000000e+01
-2.949839115142821822e+00 -9.482256770133972168e-01 -7.153443694114685059e-01 1.300000000000000000e+01
-3.521511316299438032e+00 -1.131311655044556108e+00 -7.189682722091674805e-01 1.100000000000000000e+01
-4.423923015594482422e+00 -1.419514536857604980e+00 -7.358677387237548828e-01 1.200000000000000000e+01
-5.905553817749023438e+00 -1.892655611038208008e+00 -7.614396810531616211e-01 9.000000000000000000e+00
-8.944519042968750000e+00 -2.864884376525878906e+00 -8.217043280601501465e-01 3.000000000000000000e+00
-1.532672977447509943e+01 -4.903175830841063565e+00 -8.433415889739990234e-01 1.400000000000000000e+01
-2.513124465942382812e+00 -7.986585497856140137e-01 -7.065759897232055664e-01 1.700000000000000000e+01
-2.949579954147338867e+00 -9.362284541130065918e-01 -7.144445776939392090e-01 1.300000000000000000e+01
-3.520020246505736861e+00 -1.116616129875183105e+00 -7.178234457969665527e-01 1.200000000000000000e+01
-4.429095745086669922e+00 -1.403290510177612083e+00 -7.358677387237548828e-01 1.200000000000000000e+01
-5.920021533966063565e+00 -1.873393654823303001e+00 -7.624146342277526855e-01 9.000000000000000000e+00
-5.283862686157227273e+01 -1.672080802917480113e+01 8.777851104736328125e+00 2.600000000000000000e+01
-8.943561553955078125e+00 -2.828477144241333008e+00 -8.206584453582763672e-01 1.000000000000000000e+00
-1.534459781646729049e+01 -4.846967697143554688e+00 -8.433415889739990234e-01 4.000000000000000000e+00
-3.203824615478516336e+01 -1.010776805877686080e+01 -5.864008665084838867e-01 6.000000000000000000e+00
-2.514053821563721147e+00 -7.893025875091552734e-01 -7.060583829879760742e-01 1.900000000000000000e+01
-2.958408355712891069e+00 -9.276760220527648926e-01 -7.157942652702331543e-01 1.300000000000000000e+01
-3.522022962570189986e+00 -1.103735089302062988e+00 -7.174417972564697266e-01 1.200000000000000000e+01
-4.422656059265136719e+00 -1.384281158447266069e+00 -7.339904904365539551e-01 1.200000000000000000e+01
-5.926525115966796875e+00 -1.852717518806457964e+00 -7.624146342277526855e-01 9.000000000000000000e+00
-8.960987091064453125e+00 -2.799617528915404829e+00 -8.213557004928588867e-01 1.000000000000000000e+00
-1.533473110198974965e+01 -4.785046577453613281e+00 -8.418762087821960449e-01 9.000000000000000000e+00
-3.230624771118164062e+01 -1.006846141815186080e+01 -5.906592607498168945e-01 6.000000000000000000e+00
-2.531417846679687944e+00 -7.855417728424072266e-01 -7.101994752883911133e-01 1.900000000000000000e+01
-2.946577310562133789e+00 -9.132452607154846191e-01 -7.121950387954711914e-01 1.400000000000000000e+01
-3.533165216445922852e+00 -1.094373106956481934e+00 -7.189682722091674805e-01 1.100000000000000000e+01
-4.419673919677734375e+00 -1.367272257804871050e+00 -7.327390313148498535e-01 1.200000000000000000e+01
-5.928843021392822266e+00 -1.831882238388061968e+00 -7.619271278381347656e-01 9.000000000000000000e+00
-8.943570137023925781e+00 -2.761656761169434038e+00 -8.189153671264648438e-01 1.000000000000000000e+00
-1.589636135101318004e+01 -4.902510166168212891e+00 -8.718123435974121094e-01 1.000000000000000000e+01
-3.243501281738281250e+01 -9.990707397460937500e+00 -5.924044847488403320e-01 1.300000000000000000e+01
-2.537838697433472124e+00 -7.778329253196716309e-01 -7.112347483634948730e-01 1.900000000000000000e+01
-2.953473806381226030e+00 -9.040949940681457520e-01 -7.130948305130004883e-01 1.300000000000000000e+01
-3.536963701248168945e+00 -1.082033395767211914e+00 -7.189682722091674805e-01 1.100000000000000000e+01
-4.439532756805419922e+00 -1.356454133987426980e+00 -7.352420091629028320e-01 1.200000000000000000e+01
-5.923809528350830078e+00 -1.807699203491210938e+00 -7.604647278785705566e-01 9.000000000000000000e+00
-8.953155517578125000e+00 -2.730421066284180132e+00 -8.189153671264648438e-01 1.000000000000000000e+00
-1.604711914062500000e+01 -4.887727260589599609e+00 -8.791393637657165527e-01 5.000000000000000000e+00
-3.253090667724608664e+01 -9.896050453186035156e+00 -5.935214161872863770e-01 6.000000000000000000e+00
-2.531426906585692915e+00 -7.657293677330017090e-01 -7.086465358734130859e-01 1.900000000000000000e+01
-2.960498571395874023e+00 -8.943910598754882812e-01 -7.139946222305297852e-01 1.400000000000000000e+01
-3.529628992080688032e+00 -1.065657854080199973e+00 -7.166785597801208496e-01 1.100000000000000000e+01
-4.442583560943604404e+00 -1.339603066444396973e+00 -7.349291443824768066e-01 1.100000000000000000e+01
-5.930395126342773438e+00 -1.785975217819214089e+00 -7.604647278785705566e-01 9.000000000000000000e+00
-8.970734596252441406e+00 -2.699884653091431108e+00 -8.196126222610473633e-01 3.000000000000000000e+00
-1.630210304260253906e+01 -4.900170803070068359e+00 -8.921186923980712891e-01 5.000000000000000000e+00
-2.526680231094359907e+00 -7.546768784523010254e-01 -7.065759897232055664e-01 1.900000000000000000e+01
-2.971072435379027876e+00 -8.862797617912292480e-01 -7.157942652702331543e-01 1.400000000000000000e+01
-3.548378944396973100e+00 -1.057817697525023970e+00 -7.197315096855163574e-01 1.100000000000000000e+01
-4.437766075134277344e+00 -1.321269035339355025e+00 -7.333647608757019043e-01 1.200000000000000000e+01
-5.934690475463867188e+00 -1.764697551727294922e+00 -7.602209448814392090e-01 7.000000000000000000e+00
-8.968645095825195312e+00 -2.665149211883544922e+00 -8.185667395591735840e-01 3.000000000000000000e+00
-1.661780357360839844e+01 -4.931883811950683594e+00 -9.084475040435791016e-01 1.100000000000000000e+01
-2.532874822616577148e+00 -7.473874092102050781e-01 -7.076112627983093262e-01 2.000000000000000000e+01
-2.968387126922606978e+00 -8.747699260711669922e-01 -7.144445776939392090e-01 1.500000000000000000e+01
-3.548100709915161133e+00 -1.044935703277587891e+00 -7.189682722091674805e-01 1.100000000000000000e+01
-4.426962375640869141e+00 -1.302086353302001953e+00 -7.308618426322937012e-01 1.200000000000000000e+01
-5.940509796142578125e+00 -1.745007753372191939e+00 -7.602209448814392090e-01 7.000000000000000000e+00
-5.317448806762695312e+01 -1.561985301971436080e+01 8.777851104736328125e+00 2.600000000000000000e+01
-8.943022727966308594e+00 -2.625291824340819868e+00 -8.154291510581970215e-01 1.000000000000000000e+00
-1.673756217956542969e+01 -4.907092571258544922e+00 -9.140998125076293945e-01 1.100000000000000000e+01
-2.539177656173706055e+00 -7.396219968795776367e-01 -7.086465358734130859e-01 1.900000000000000000e+01
-2.958324432373046875e+00 -8.605926036834716797e-01 -7.112952470779418945e-01 1.400000000000000000e+01
-3.551726579666138139e+00 -1.032544136047363059e+00 -7.189682722091674805e-01 1.200000000000000000e+01
-4.435274600982666016e+00 -1.287726998329163042e+00 -7.314875721931457520e-01 1.200000000000000000e+01
-5.937031745910645419e+00 -1.721496701240539995e+00 -7.590022683143615723e-01 5.000000000000000000e+00
-8.959786415100097656e+00 -2.596276998519897017e+00 -8.161263465881347656e-01 1.000000000000000000e+00
-1.661645507812500000e+01 -4.808662891387938565e+00 -9.065634608268737793e-01 5.000000000000000000e+00
-2.549170494079589844e+00 -7.328892946243286133e-01 -7.107170820236206055e-01 1.900000000000000000e+01
-2.961310386657714844e+00 -8.502609133720397949e-01 -7.112952470779418945e-01 1.400000000000000000e+01
-3.540212154388428178e+00 -1.015808224678039995e+00 -7.159153223037719727e-01 1.100000000000000000e+01
-4.439742565155029297e+00 -1.272237181663512962e+00 -7.314875721931457520e-01 1.200000000000000000e+01
-5.935370922088623047e+00 -1.698577523231505904e+00 -7.580273151397705078e-01 5.000000000000000000e+00
-8.991782188415527344e+00 -2.571559667587279829e+00 -8.182181119918823242e-01 1.000000000000000000e+00
-1.668307113647460938e+01 -4.764892578125000000e+00 -9.092848896980285645e-01 1.100000000000000000e+01
-2.551713228225708008e+00 -7.239865064620971680e-01 -7.107170820236206055e-01 2.300000000000000000e+01
-2.973634958267211914e+00 -8.425751328468322754e-01 -7.135447263717651367e-01 1.500000000000000000e+01
-3.543736457824707031e+00 -1.003444433212280051e+00 -7.159153223037719727e-01 1.100000000000000000e+01
-4.455561637878417969e+00 -1.259956955909729004e+00 -7.333647608757019043e-01 1.200000000000000000e+01
-5.941264152526854581e+00 -1.677848815917968972e+00 -7.580273151397705078e-01 5.000000000000000000e+00
-8.939343452453613281e+00 -2.522840023040771040e+00 -8.126401305198669434e-01 3.000000000000000000e+00
-1.692644119262694957e+01 -4.770561218261718750e+00 -9.216361641883850098e-01 1.100000000000000000e+01
-3.322379684448242188e+01 -9.351302146911621094e+00 -6.024570465087890625e-01 6.000000000000000000e+00
-2.541326761245727983e+00 -7.109857797622680664e-01 -7.070936560630798340e-01 2.100000000000000000e+01
-2.978579998016356978e+00 -8.321949243545532227e-01 -7.139946222305297852e-01 1.400000000000000000e+01
-3.543608665466309038e+00 -9.893932938575744629e-01 -7.151521444320678711e-01 1.200000000000000000e+01
-4.444927215576171875e+00 -1.239373564720154031e+00 -7.308618426322937012e-01 1.200000000000000000e+01
-5.941636562347412109e+00 -1.654464244842529075e+00 -7.572960853576660156e-01 7.000000000000000000e+00
-8.948530197143554688e+00 -2.490058898925780806e+00 -8.126401305198669434e-01 1.000000000000000000e+00
-1.680525970458984020e+01 -4.669988632202148438e+00 -9.140998125076293945e-01 5.000000000000000000e+00
-2.540068626403809038e+00 -7.010825872421264648e-01 -7.060583829879760742e-01 2.100000000000000000e+01
-2.981466770172119141e+00 -8.217926621437072754e-01 -7.139946222305297852e-01 1.400000000000000000e+01
-3.548933506011962891e+00 -9.775391221046447754e-01 -7.155337333679199219e-01 1.200000000000000000e+01
-4.426370620727539062e+00 -1.217563509941101074e+00 -7.271074056625366211e-01 1.100000000000000000e+01
-5.949289798736572266e+00 -1.634239792823791948e+00 -7.575398683547973633e-01 5.000000000000000000e+00
-8.968695640563964844e+00 -2.461971998214722124e+00 -8.136860132217407227e-01 1.000000000000000000e+00
-1.684842681884765980e+01 -4.618691444396972656e+00 -9.155651926994323730e-01 5.000000000000000000e+00
-2.551699161529541016e+00 -6.951946020126342773e-01 -7.086465358734130859e-01 1.900000000000000000e+01
-4.514367675781250000e+01 -1.229065036773681996e+01 8.166679143905639648e-01 5.400000000000000000e+01
-2.972893238067626953e+00 -8.088316917419433594e-01 -7.112952470779418945e-01 1.400000000000000000e+01
-4.514306640625000000e+01 -1.227356052398681996e+01 2.451730251312255859e+00 3.900000000000000000e+01
-3.555944442749022993e+00 -9.667952060699462891e-01 -7.162969708442687988e-01 1.200000000000000000e+01
-4.438009262084960938e+00 -1.204948782920836958e+00 -7.283588647842407227e-01 1.100000000000000000e+01
-5.943181037902832031e+00 -1.611385464668273926e+00 -7.560774087905883789e-01 7.000000000000000000e+00
-8.980656623840332031e+00 -2.433259248733520952e+00 -8.140346407890319824e-01 1.000000000000000000e+00
-1.698703765869140980e+01 -4.596179485321044922e+00 -9.222642183303833008e-01 1.100000000000000000e+01
-2.554110288619995117e+00 -6.862832903861999512e-01 -7.086465358734130859e-01 2.000000000000000000e+01
-4.516698837280272727e+01 -1.212780952453612926e+01 8.163188695907592773e-01 5.400000000000000000e+01
-2.981344938278197798e+00 -7.999644875526428223e-01 -7.126449346542358398e-01 1.500000000000000000e+01
-4.516634368896483664e+01 -1.211073493957520064e+01 2.450683593750000000e+00 3.800000000000000000e+01
-3.553608894348144975e+00 -9.528514146804809570e-01 -7.151521444320678711e-01 1.100000000000000000e+01
-4.442188262939453125e+00 -1.189449906349181907e+00 -7.283588647842407227e-01 1.100000000000000000e+01
-5.946851730346679688e+00 -1.590117335319519043e+00 -7.558336853981018066e-01 9.000000000000000000e+00
-8.985245704650878906e+00 -2.400867462158203125e+00 -8.136860132217407227e-01 3.000000000000000000e+00
-1.716893577575683949e+01 -4.581137657165527344e+00 -9.312660098075866699e-01 6.000000000000000000e+00
-4.512642669677733664e+01 -1.202408218383789062e+01 -8.151670098304748535e-01 1.200000000000000000e+01
-2.552637338638306108e+00 -6.768195629119873047e-01 -7.076112627983093262e-01 2.000000000000000000e+01
-4.515670013427733664e+01 -1.196464729309082031e+01 8.154113292694091797e-01 5.400000000000000000e+01
-2.982097625732421875e+00 -7.895748019218444824e-01 -7.121950387954711914e-01 1.300000000000000000e+01
-4.515605545043945312e+01 -1.194760799407958984e+01 2.447962045669556108e+00 3.800000000000000000e+01
-3.549157381057738814e+00 -9.390532970428466797e-01 -7.136256694793701172e-01 1.200000000000000000e+01
-4.442288875579833984e+00 -1.173703312873840110e+00 -7.277331352233886719e-01 1.100000000000000000e+01
-5.955931186676025391e+00 -1.571400880813599077e+00 -7.563211321830749512e-01 7.000000000000000000e+00
-8.962333679199218750e+00 -2.362931013107299805e+00 -8.108970522880554199e-01 1.000000000000000000e+00
-1.765530395507812855e+01 -4.648253917694091797e+00 -9.568059444427490234e-01 1.200000000000000000e+01
-2.541901111602783203e+00 -6.644849181175231934e-01 -7.039877772331237793e-01 2.200000000000000000e+01
-4.512853622436522727e+01 -1.178875350952148082e+01 8.141547441482543945e-01 5.300000000000000000e+01
-2.988606691360474077e+00 -7.801449298858642578e-01 -7.130948305130004883e-01 1.400000000000000000e+01
-4.518588638305664062e+01 -1.178688716888427912e+01 2.447334051132202148e+00 3.800000000000000000e+01
-3.561912059783935991e+00 -9.291363954544067383e-01 -7.155337333679199219e-01 1.200000000000000000e+01
-4.450181961059570312e+00 -1.159185528755187988e+00 -7.283588647842407227e-01 1.100000000000000000e+01
-5.957537651062011719e+00 -1.549601793289185014e+00 -7.558336853981018066e-01 7.000000000000000000e+00
-8.989809989929199219e+00 -2.336644411087036133e+00 -8.126401305198669434e-01 1.000000000000000000e+00
-1.776614952087401988e+01 -4.611183166503906250e+00 -9.619348645210266113e-01 1.900000000000000000e+01
-3.374765396118164062e+01 -8.746591567993164062e+00 -6.085305213928222656e-01 6.000000000000000000e+00
-2.542334318161011186e+00 -6.551259160041809082e-01 -7.034701704978942871e-01 1.800000000000000000e+01
-4.512293624877929688e+01 -1.161918544769286932e+01 8.133170604705810547e-01 5.300000000000000000e+01
-2.993198871612548828e+00 -7.701936364173889160e-01 -7.135447263717651367e-01 1.500000000000000000e+01
-4.518033218383789062e+01 -1.161715030670166016e+01 2.444821834564208984e+00 3.800000000000000000e+01
-3.555626630783081055e+00 -9.142528176307678223e-01 -7.136256694793701172e-01 1.100000000000000000e+01
-4.431241035461425781e+00 -1.137749314308166948e+00 -7.246044278144836426e-01 1.100000000000000000e+01
-5.951373100280761719e+00 -1.525838732719420943e+00 -7.543712258338928223e-01 7.000000000000000000e+00
-8.940010070800781250e+00 -2.290415525436400923e+00 -8.074107766151428223e-01 1.000000000000000000e+00
-1.779955101013183949e+01 -4.553594589233398438e+00 -9.628769159317016602e-01 6.000000000000000000e+00
-2.553967714309691939e+00 -6.486251354217529297e-01 -7.060583829879760742e-01 2.200000000000000000e+01
-4.516321945190429688e+01 -1.146160602569580078e+01 8.133170604705810547e-01 5.300000000000000000e+01
-2.982646465301514116e+00 -7.563875317573547363e-01 -7.103954553604125977e-01 1.300000000000000000e+01
-4.518188858032227273e+01 -1.144955825805664062e+01 2.442728519439696822e+00 3.800000000000000000e+01
-3.574021100997924805e+00 -9.056939482688903809e-01 -7.166785597801208496e-01 1.100000000000000000e+01
-4.444760799407958984e+00 -1.124697446823119895e+00 -7.261688113212585449e-01 1.200000000000000000e+01
-5.952813625335693359e+00 -1.504082679748534934e+00 -7.538837790489196777e-01 7.000000000000000000e+00
-8.917042732238769531e+00 -2.251391410827637163e+00 -8.046218156814575195e-01 1.000000000000000000e+00
-1.794703102111816051e+01 -4.524636268615722656e+00 -9.699946045875549316e-01 1.300000000000000000e+01
-2.778088188171387074e+01 -6.993541240692138672e+00 -5.000463724136352539e-01 4.000000000000000000e+00
-2.558090209960937944e+00 -6.401752233505249023e-01 -7.065759897232055664e-01 1.900000000000000000e+01
-4.515251541137695312e+01 -1.129127407073974965e+01 8.124095201492309570e-01 5.300000000000000000e+01
-2.973924875259398970e+00 -7.431369423866271973e-01 -7.076960206031799316e-01 1.300000000000000000e+01
-4.514019393920897727e+01 -1.127145195007324041e+01 2.438332319259643999e+00 3.800000000000000000e+01
-3.561922550201416016e+00 -8.894078135490417480e-01 -7.136256694793701172e-01 1.200000000000000000e+01
-4.442909717559813565e+00 -1.107741713523864968e+00 -7.252301573753356934e-01 1.100000000000000000e+01
-5.946469783782958984e+00 -1.480416893959044966e+00 -7.524213194847106934e-01 7.000000000000000000e+00
-8.955781936645507812e+00 -2.227947235107421875e+00 -8.074107766151428223e-01 3.000000000000000000e+00
-1.814492034912109020e+01 -4.507221698760986328e+00 -9.798337817192077637e-01 6.000000000000000000e+00
-2.558433771133422852e+00 -6.307794451713562012e-01 -7.060583829879760742e-01 2.100000000000000000e+01
-4.514505386352539062e+01 -1.112211322784424006e+01 8.115717768669128418e-01 5.300000000000000000e+01
-2.991638898849486861e+00 -7.364780902862548828e-01 -7.112952470779418945e-01 1.400000000000000000e+01
-4.517538452148438211e+01 -1.111286067962645951e+01 2.438122749328612837e+00 3.800000000000000000e+01
-3.559286117553710938e+00 -8.755620121955871582e-01 -7.124807834625244141e-01 1.200000000000000000e+01
-4.450585842132568359e+00 -1.093168735504149947e+00 -7.258559465408325195e-01 1.100000000000000000e+01
-5.936177730560302734e+00 -1.455868124961853027e+00 -7.504714131355285645e-01 7.000000000000000000e+00
-8.951893806457519531e+00 -2.193826675415039062e+00 -8.063649535179138184e-01 1.000000000000000000e+00
-3.403354644775391336e+01 -8.315365791320800781e+00 -6.115323305130004883e-01 7.000000000000000000e+00
-2.549356222152709961e+00 -6.191096305847167969e-01 -7.029525041580200195e-01 2.200000000000000000e+01
-4.517583084106445312e+01 -1.096257400512694957e+01 8.114321827888488770e-01 5.300000000000000000e+01
-2.990403652191162109e+00 -7.251124382019042969e-01 -7.103954553604125977e-01 1.300000000000000000e+01
-4.515954971313477273e+01 -1.094193267822265980e+01 2.435192108154296875e+00 3.800000000000000000e+01
-3.569952964782714844e+00 -8.649817109107971191e-01 -7.140072584152221680e-01 1.200000000000000000e+01
-4.456294536590576172e+00 -1.078091144561768022e+00 -7.261688113212585449e-01 1.200000000000000000e+01
-5.956660270690917969e+00 -1.438866972923279031e+00 -7.524213194847106934e-01 9.000000000000000000e+00
-8.959497451782226562e+00 -2.162565469741820845e+00 -8.063649535179138184e-01 1.000000000000000000e+00
-1.771382904052734020e+01 -4.269066333770751953e+00 -9.549218416213989258e-01 6.000000000000000000e+00
-3.405847549438477273e+01 -8.195580482482910156e+00 -6.114625334739685059e-01 7.000000000000000000e+00
-2.553380727767943892e+00 -6.106562614440917969e-01 -7.034701704978942871e-01 1.900000000000000000e+01
-4.517103195190429688e+01 -1.079458808898925959e+01 8.106642961502075195e-01 5.300000000000000000e+01
-2.998602867126464844e+00 -7.160273790359497070e-01 -7.117451429367065430e-01 1.500000000000000000e+01
-4.518192672729492188e+01 -1.078052139282226918e+01 2.434354782104492188e+00 3.800000000000000000e+01
-3.567221641540526900e+00 -8.511480689048767090e-01 -7.128624320030212402e-01 1.100000000000000000e+01
-4.438893318176270419e+00 -1.057493567466736062e+00 -7.227272391319274902e-01 1.100000000000000000e+01
-5.948127746582031250e+00 -1.414849996566772017e+00 -7.507151365280151367e-01 9.000000000000000000e+00
-8.959238052368164062e+00 -2.129434823989868164e+00 -8.056676983833312988e-01 3.000000000000000000e+00
-1.794238471984862926e+01 -4.257936000823974609e+00 -9.664357900619506836e-01 1.300000000000000000e+01
-3.404407119750977273e+01 -8.066500663757324219e+00 -6.106945872306823730e-01 7.000000000000000000e+00
-2.557377099990845171e+00 -6.021823883056640625e-01 -7.039877772331237793e-01 2.100000000000000000e+01
-4.517340087890625000e+01 -1.062860298156737926e+01 8.100360035896301270e-01 5.300000000000000000e+01
-2.989701986312866211e+00 -7.028799653053283691e-01 -7.090457081794738770e-01 1.500000000000000000e+01
-4.521928405761718750e+01 -1.062274074554443004e+01 2.434354782104492188e+00 3.800000000000000000e+01
-3.581638336181641069e+00 -8.413848280906677246e-01 -7.151521444320678711e-01 1.200000000000000000e+01
-4.446403980255126953e+00 -1.042894601821898970e+00 -7.233529686927795410e-01 1.100000000000000000e+01
-5.962694644927979404e+00 -1.396341681480407937e+00 -7.519338726997375488e-01 9.000000000000000000e+00
-8.954976081848144531e+00 -2.095424652099608931e+00 -8.046218156814575195e-01 1.000000000000000000e+00
-1.802715301513671875e+01 -4.211637020111083984e+00 -9.702039361000061035e-01 1.300000000000000000e+01
-3.419665527343750000e+01 -7.976687908172607422e+00 -6.129285097122192383e-01 7.000000000000000000e+00
-2.568873405456542969e+00 -5.954328775405883789e-01 -7.065759897232055664e-01 1.900000000000000000e+01
-4.517126083374022727e+01 -1.046182918548583984e+01 8.093379139900207520e-01 5.300000000000000000e+01
-2.992137193679810014e+00 -6.924396753311157227e-01 -7.090457081794738770e-01 1.500000000000000000e+01
-4.515879058837891336e+01 -1.044233322143555043e+01 2.429121017456055132e+00 3.800000000000000000e+01
-3.569251298904418945e+00 -8.253390192985534668e-01 -7.120991945266723633e-01 1.200000000000000000e+01
-4.461565494537354404e+00 -1.030033588409424050e+00 -7.252301573753356934e-01 1.100000000000000000e+01
-5.926910400390625000e+00 -1.366156101226807085e+00 -7.468153238296508789e-01 7.000000000000000000e+00
-8.981652259826660156e+00 -2.068624973297119141e+00 -8.063649535179138184e-01 1.000000000000000000e+00
-1.830257034301758168e+01 -4.208661556243895596e+00 -9.842299818992614746e-01 1.300000000000000000e+01
-3.426327133178710938e+01 -7.866219997406005859e+00 -6.136265993118286133e-01 7.000000000000000000e+00
-2.557853698730469194e+00 -5.830082893371582031e-01 -7.029525041580200195e-01 1.900000000000000000e+01
-4.514691162109375000e+01 -1.028198814392090021e+01 8.082209229469299316e-01 5.200000000000000000e+01
-3.002255678176879883e+00 -6.831979155540466309e-01 -7.108453512191772461e-01 1.500000000000000000e+01
-4.518328094482421875e+01 -1.028197669982909979e+01 2.428493022918701172e+00 3.800000000000000000e+01
-3.568423509597777876e+00 -8.113809227943420410e-01 -7.113359570503234863e-01 1.200000000000000000e+01
-4.457605361938476562e+00 -1.011924982070923074e+00 -7.239786982536315918e-01 1.100000000000000000e+01
-5.953173637390136719e+00 -1.349250316619873047e+00 -7.494964599609375000e-01 7.000000000000000000e+00
-8.942537307739257812e+00 -2.025130271911621094e+00 -8.021814823150634766e-01 1.000000000000000000e+00
-1.841527748107910156e+01 -4.163573265075683594e+00 -9.894635677337646484e-01 2.000000000000000000e+01
-3.428016662597656250e+01 -7.737944126129150391e+00 -6.134172081947326660e-01 7.000000000000000000e+00
-2.554218053817749023e+00 -5.728079080581665039e-01 -7.013996243476867676e-01 2.000000000000000000e+01
-4.514740371704102273e+01 -1.011646366119384943e+01 8.075926303863525391e-01 5.200000000000000000e+01
-3.004622220993041992e+00 -6.727139353752136230e-01 -7.108453512191772461e-01 1.500000000000000000e+01
-4.520507049560546875e+01 -1.011281490325927912e+01 2.427655696868896040e+00 3.700000000000000000e+01
-3.575065851211547852e+00 -7.997770309448242188e-01 -7.120991945266723633e-01 1.100000000000000000e+01
-4.464966297149658203e+00 -9.972200393676757812e-01 -7.246044278144836426e-01 1.100000000000000000e+01
-5.952034950256347656e+00 -1.327165603637695090e+00 -7.487652301788330078e-01 7.000000000000000000e+00
-8.937883377075195312e+00 -1.991303086280822976e+00 -8.011355996131896973e-01 1.000000000000000000e+00
-1.855837440490723012e+01 -4.127887248992919922e+00 -9.963719248771667480e-01 1.300000000000000000e+01
-3.421717071533203125e+01 -7.598296165466308594e+00 -6.118115782737731934e-01 7.000000000000000000e+00
-2.552330732345581055e+00 -5.635017156600952148e-01 -7.003643512725830078e-01 1.600000000000000000e+01
-4.515726852416992188e+01 -9.961524009704589844e+00 8.071737885475158691e-01 5.200000000000000000e+01
-2.999224185943603960e+00 -6.610687375068664551e-01 -7.090457081794738770e-01 1.600000000000000000e+01
-4.516640090942382812e+01 -9.955272674560546875e+00 2.423887491226195845e+00 3.700000000000000000e+01
-3.589202165603638139e+00 -7.904508113861083984e-01 -7.143889069557189941e-01 1.100000000000000000e+01
-4.445096969604492188e+00 -9.773179888725280762e-01 -7.208499908447265625e-01 1.100000000000000000e+01
-5.946708202362061435e+00 -1.305292725563049094e+00 -7.475465536117553711e-01 7.000000000000000000e+00
-8.944437980651855469e+00 -1.961652994155884011e+00 -8.011355996131896973e-01 1.000000000000000000e+00
-1.863049125671387074e+01 -4.079138278961181641e+00 -9.995120763778686523e-01 6.000000000000000000e+00
-3.420701599121093750e+01 -7.477099895477294922e+00 -6.111832857131958008e-01 7.000000000000000000e+00
-2.565609216690063032e+00 -5.570483803749084473e-01 -7.034701704978942871e-01 1.600000000000000000e+01
-4.515658950805664062e+01 -9.796204566955566406e+00 8.065454959869384766e-01 5.200000000000000000e+01
-2.993895530700684038e+00 -6.489441990852355957e-01 -7.072461247444152832e-01 1.500000000000000000e+01
-4.517354965209960938e+01 -9.791628837585449219e+00 2.422422170639038086e+00 3.700000000000000000e+01
-3.584264278411864790e+00 -7.762551307678222656e-01 -7.128624320030212402e-01 1.100000000000000000e+01
-4.444620132446289062e+00 -9.609608650207519531e-01 -7.202242612838745117e-01 1.100000000000000000e+01
-5.957049846649169922e+00 -1.285783290863037109e+00 -7.482777833938598633e-01 9.000000000000000000e+00
-8.962916374206542969e+00 -1.932939291000365989e+00 -8.021814823150634766e-01 1.000000000000000000e+00
-3.420553588867188211e+01 -7.351766586303710938e+00 -6.106945872306823730e-01 7.000000000000000000e+00
-2.561870336532593218e+00 -5.468794107437133789e-01 -7.019172310829162598e-01 1.700000000000000000e+01
-4.517877578735352273e+01 -9.636015892028808594e+00 8.063361048698425293e-01 5.200000000000000000e+01
-3.001860380172729048e+00 -6.397081017494201660e-01 -7.085958123207092285e-01 1.400000000000000000e+01
-4.518960189819335938e+01 -9.621833801269531250e+00 2.421375274658203125e+00 3.700000000000000000e+01
-3.577351093292235884e+00 -7.616947293281555176e-01 -7.109543085098266602e-01 1.200000000000000000e+01
-4.455676078796386719e+00 -9.470832347869873047e-01 -7.214757800102233887e-01 1.100000000000000000e+01
-5.942082881927490234e+00 -1.260861039161681907e+00 -7.458403706550598145e-01 9.000000000000000000e+00
-8.954016685485839844e+00 -1.898335337638854980e+00 -8.007869720458984375e-01 1.000000000000000000e+00
-3.418794631958007812e+01 -7.223227977752686435e+00 -6.099267005920410156e-01 7.000000000000000000e+00
-2.565654277801514116e+00 -5.383301973342895508e-01 -7.024348974227905273e-01 1.900000000000000000e+01
-4.518473815917968750e+01 -9.472509384155273438e+00 8.058474063873291016e-01 5.200000000000000000e+01
-3.000260353088378906e+00 -6.284267306327819824e-01 -7.076960206031799316e-01 1.400000000000000000e+01
-4.515479660034179688e+01 -9.458005905151367188e+00 2.417816400527954102e+00 3.700000000000000000e+01
-3.578066587448120117e+00 -7.488006353378295898e-01 -7.105727195739746094e-01 1.200000000000000000e+01
-4.466689586639404297e+00 -9.331400394439697266e-01 -7.227272391319274902e-01 1.100000000000000000e+01
-5.946448326110839844e+00 -1.240111589431762917e+00 -7.458403706550598145e-01 1.100000000000000000e+01
-8.948884963989257812e+00 -1.864629864692687988e+00 -7.997410893440246582e-01 1.000000000000000000e+00
-3.444007110595703125e+01 -7.151004314422607422e+00 -6.139756441116333008e-01 7.000000000000000000e+00
-2.558057546615601030e+00 -5.274205803871154785e-01 -6.998466849327087402e-01 1.800000000000000000e+01
-4.518619155883789062e+01 -9.308272361755371094e+00 8.052889108657836914e-01 5.200000000000000000e+01
-3.006253242492675781e+00 -6.187357306480407715e-01 -7.085958123207092285e-01 1.400000000000000000e+01
-4.518362045288085938e+01 -9.299523353576660156e+00 2.417607069015502930e+00 3.700000000000000000e+01
-3.572966575622559038e+00 -7.347245216369628906e-01 -7.090462446212768555e-01 1.300000000000000000e+01
-4.466049671173095703e+00 -9.167482852935791016e-01 -7.221015095710754395e-01 1.100000000000000000e+01
-5.950740814208984375e+00 -1.219347119331360085e+00 -7.458403706550598145e-01 9.000000000000000000e+00
-8.943628311157226562e+00 -1.830983519554137962e+00 -7.986952066421508789e-01 2.000000000000000000e+00
-3.428848266601563211e+01 -6.994769096374511719e+00 -6.108342409133911133e-01 7.000000000000000000e+00
-2.559882879257202148e+00 -5.184881091117858887e-01 -6.998466849327087402e-01 1.800000000000000000e+01
-4.515176773071289062e+01 -9.137001037597656250e+00 8.041021823883056641e-01 5.200000000000000000e+01
-3.000754356384276900e+00 -6.066934466361999512e-01 -7.067962288856506348e-01 1.400000000000000000e+01
-4.518448638916016336e+01 -9.135413169860839844e+00 2.415932416915893999e+00 3.700000000000000000e+01
-3.585131406784058061e+00 -7.241916656494140625e-01 -7.109543085098266602e-01 1.300000000000000000e+01
-4.449858188629150391e+00 -8.972488045692443848e-01 -7.189728021621704102e-01 1.100000000000000000e+01
-5.962745189666748047e+00 -1.200134396553039995e+00 -7.468153238296508789e-01 1.100000000000000000e+01
-8.926525115966796875e+00 -1.795039772987365945e+00 -7.966035008430480957e-01 1.000000000000000000e+00
-3.430876922607421875e+01 -6.874251842498779297e+00 -6.107644438743591309e-01 7.000000000000000000e+00
-2.571061611175537109e+00 -5.118824243545532227e-01 -7.024348974227905273e-01 1.900000000000000000e+01
-4.517005157470703125e+01 -8.984881401062011719e+00 8.038927316665649414e-01 5.200000000000000000e+01
-2.997015476226807085e+00 -5.955997109413146973e-01 -7.054464817047119141e-01 1.500000000000000000e+01
-4.520277786254882812e+01 -8.983190536499023438e+00 2.415304422378540039e+00 3.700000000000000000e+01
-3.591364383697510210e+00 -7.130636572837829590e-01 -7.117175459861755371e-01 1.300000000000000000e+01
-4.464435100555419922e+00 -8.847917914390563965e-01 -7.208499908447265625e-01 1.100000000000000000e+01
-5.951113224029541016e+00 -1.177272796630858931e+00 -7.448654174804687500e-01 1.100000000000000000e+01
-8.901155471801757812e+00 -1.759247541427612083e+00 -7.938144803047180176e-01 2.000000000000000000e+00
-3.443340301513671875e+01 -6.780532360076904297e+00 -6.125794649124145508e-01 7.000000000000000000e+00
-2.574728727340697798e+00 -5.032752752304077148e-01 -7.029525041580200195e-01 1.900000000000000000e+01
-4.516973876953125000e+01 -8.821022033691406250e+00 8.033342957496643066e-01 5.200000000000000000e+01
-2.995250940322875977e+00 -5.843881964683532715e-01 -7.045466899871826172e-01 1.500000000000000000e+01
-4.519857406616210938e+01 -8.818464279174804688e+00 2.413420200347899947e+00 3.700000000000000000e+01
-3.576488733291625977e+00 -6.971426010131835938e-01 -7.082830071449279785e-01 1.200000000000000000e+01
-4.459740638732910156e+00 -8.676935434341430664e-01 -7.195985317230224609e-01 1.100000000000000000e+01
-5.933750629425048828e+00 -1.152329564094543013e+00 -7.421842813491821289e-01 1.100000000000000000e+01
-8.891594886779785156e+00 -1.725130200386046919e+00 -7.924200296401977539e-01 2.000000000000000000e+00
-3.443330001831054688e+01 -6.655742168426513672e+00 -6.121606230735778809e-01 7.000000000000000000e+00
-2.567069292068481001e+00 -4.920167624950408936e-01 -7.003643512725830078e-01 1.900000000000000000e+01
-4.518605041503906250e+01 -8.652398109436035156e+00 8.030550479888916016e-01 5.200000000000000000e+01
-3.001200914382935014e+00 -5.741384625434875488e-01 -7.054464817047119141e-01 1.500000000000000000e+01
-4.520463562011718750e+01 -8.639600753784179688e+00 2.411954879760742188e+00 3.700000000000000000e+01
-3.579019784927368164e+00 -6.840294003486633301e-01 -7.082830071449279785e-01 1.200000000000000000e+01
-4.462890625000000000e+00 -8.513419628143310547e-01 -7.195985317230224609e-01 1.100000000000000000e+01
-5.934034347534179688e+00 -1.129830956459044966e+00 -7.416968345642089844e-01 9.000000000000000000e+00
-8.882200241088867188e+00 -1.689550757408142090e+00 -7.910255193710327148e-01 2.000000000000000000e+00
-3.440245056152343750e+01 -6.519068717956542969e+00 -6.111832857131958008e-01 7.000000000000000000e+00
-2.563075542449951172e+00 -4.819819629192351740e-01 -6.988114118576049805e-01 2.000000000000000000e+01
-4.520811843872070312e+01 -8.493140220642089844e+00 8.029153943061828613e-01 5.200000000000000000e+01
-3.010847806930541992e+00 -5.650966763496398926e-01 -7.072461247444152832e-01 1.500000000000000000e+01
-4.516384887695313211e+01 -8.468502998352050781e+00 2.408186674118041992e+00 3.700000000000000000e+01
-3.575596809387207031e+00 -6.704466938972473145e-01 -7.071381211280822754e-01 1.300000000000000000e+01
-4.458068847656250000e+00 -8.343048691749572754e-01 -7.183470726013183594e-01 1.100000000000000000e+01
-5.943796157836914062e+00 -1.110203862190247026e+00 -7.424280643463134766e-01 9.000000000000000000e+00
-8.876292228698730469e+00 -1.656342983245850053e+00 -7.899796366691589355e-01 1.000000000000000000e+00
-3.439353942871093750e+01 -6.393094539642333984e+00 -6.106247901916503906e-01 1.400000000000000000e+01
-2.564659595489501953e+00 -4.734798371791840155e-01 -6.988114118576049805e-01 1.900000000000000000e+01
-4.514163970947266336e+01 -8.325768470764160156e+00 8.012399673461914062e-01 5.100000000000000000e+01
-3.006955862045288086e+00 -5.540499091148376465e-01 -7.058964371681213379e-01 1.600000000000000000e+01
-4.520346832275391336e+01 -8.320857048034667969e+00 2.408814668655395952e+00 3.700000000000000000e+01
-3.597108602523804155e+00 -6.621400713920593262e-01 -7.109543085098266602e-01 1.300000000000000000e+01
-4.447210788726806641e+00 -8.170182704925537109e-01 -7.161569595336914062e-01 1.100000000000000000e+01
-5.955255031585693359e+00 -1.091919541358947976e+00 -7.434030175209045410e-01 9.000000000000000000e+00
-8.862137794494628906e+00 -1.623309135437011941e+00 -7.882365584373474121e-01 2.000000000000000000e+00
-3.436734008789063211e+01 -6.270392417907714844e+00 -6.097871065139770508e-01 1.400000000000000000e+01
-2.573900699615478960e+00 -4.659009873867034912e-01 -7.008819580078125000e-01 1.900000000000000000e+01
-4.511532974243164062e+01 -8.158180236816406250e+00 8.002626299858093262e-01 5.100000000000000000e+01
-2.995447635650635210e+00 -5.411252975463867188e-01 -7.027471065521240234e-01 1.500000000000000000e+01
-4.519686126708983664e+01 -8.156632423400878906e+00 2.406930685043334961e+00 3.700000000000000000e+01
-3.591669797897338867e+00 -6.481850743293762207e-01 -7.094278335571289062e-01 1.300000000000000000e+01
-4.461700439453125000e+00 -8.035905361175537109e-01 -7.180342078208923340e-01 1.200000000000000000e+01
-5.943399906158447266e+00 -1.068315625190735085e+00 -7.414531111717224121e-01 9.000000000000000000e+00
-8.867750167846679688e+00 -1.592364668846129927e+00 -7.882365584373474121e-01 2.000000000000000000e+00
-3.449925231933593750e+01 -6.170104980468750000e+00 -6.117417216300964355e-01 1.400000000000000000e+01
-2.569804906845093218e+00 -4.559012055397034247e-01 -6.993290781974792480e-01 1.900000000000000000e+01
-4.515140914916992188e+01 -8.002044677734375000e+00 8.004022836685180664e-01 5.100000000000000000e+01
-2.999237060546875000e+00 -5.310056209564208984e-01 -7.031970024108886719e-01 1.400000000000000000e+01
-4.520145416259766336e+01 -7.994641780853270596e+00 2.405674457550048828e+00 3.700000000000000000e+01
-3.578444480895996094e+00 -6.329084038734436035e-01 -7.063748836517333984e-01 1.200000000000000000e+01
-4.466423511505126953e+00 -7.883547544479370117e-01 -7.183470726013183594e-01 1.100000000000000000e+01
-5.931453227996826172e+00 -1.044807791709899902e+00 -7.395032048225402832e-01 9.000000000000000000e+00
-8.873254776000976562e+00 -1.561400771141052024e+00 -7.882365584373474121e-01 1.000000000000000000e+00
-3.433148956298828125e+01 -6.016504764556884766e+00 -6.083908677101135254e-01 6.000000000000000000e+00
-2.565670728683472124e+00 -4.459356963634490967e-01 -6.977761387825012207e-01 2.000000000000000000e+01
-4.513965988159179688e+01 -7.837546348571777344e+00 7.997041940689086914e-01 5.100000000000000000e+01
-3.004912376403809038e+00 -5.211991667747497559e-01 -7.040967941284179688e-01 1.400000000000000000e+01
