-1.275302290916443093e+00 1.945159316062927024e+00 -6.232362389564514160e-01 1.600000000000000000e+01
-1.457700014114380105e+00 2.225055456161499023e+00 -6.141163706779479980e-01 1.400000000000000000e+01
-1.696188449859618919e+00 2.590074062347412109e+00 -6.018115878105163574e-01 1.200000000000000000e+01
-2.048633098602294922e+00 3.130639314651488814e+00 -5.925737619400024414e-01 9.000000000000000000e+00
-2.571470022201538086e+00 3.932613611221313032e+00 -5.769294500350952148e-01 1.000000000000000000e+01
-3.383627176284790039e+00 5.176638126373291016e+00 -5.410628318786621094e-01 8.000000000000000000e+00
-5.066561698913574219e+00 7.757284164428710938e+00 -4.855729937553405762e-01 1.000000000000000000e+00
-9.949893951416015625e+00 1.524565124511718928e+01 -3.177734017372130793e-01 3.000000000000000000e+00
-1.267451047897339089e+00 1.947979807853698953e+00 -6.227186322212219238e-01 1.600000000000000000e+01
-1.455235242843627930e+00 2.238299131393433061e+00 -6.163659095764160156e-01 1.300000000000000000e+01
-1.686067223548888938e+00 2.594332933425902876e+00 -6.014299392700195312e-01 1.200000000000000000e+01
-2.024782180786132812e+00 3.117891073226929155e+00 -5.888193249702453613e-01 9.000000000000000000e+00
-2.557727098464965820e+00 3.941565752029418945e+00 -5.769294500350952148e-01 1.000000000000000000e+01
-3.355778455734252930e+00 5.173373699188232422e+00 -5.394940376281738281e-01 6.000000000000000000e+00
-5.026416778564453125e+00 7.754810333251953125e+00 -4.843169450759888250e-01 1.000000000000000000e+00
-9.890093803405761719e+00 1.527021980285645064e+01 -3.175639808177947998e-01 3.000000000000000000e+00
-1.263787388801574929e+00 1.957260966300963911e+00 -6.242715120315551758e-01 1.600000000000000000e+01
-1.434735178947448953e+00 2.223715305328369141e+00 -6.109670400619506836e-01 1.300000000000000000e+01
-1.674872875213623047e+00 2.596902847290039062e+00 -6.006667017936706543e-01 1.100000000000000000e+01
-2.020306825637816939e+00 3.134902477264403853e+00 -5.906965136528015137e-01 9.000000000000000000e+00
-2.543952941894530806e+00 3.950469970703125000e+00 -5.769294500350952148e-01 1.000000000000000000e+01
-3.346326828002930132e+00 5.198458671569824219e+00 -5.408885478973388672e-01 6.000000000000000000e+00
-4.986351490020751953e+00 7.752151489257813388e+00 -4.830608665943145752e-01 1.000000000000000000e+00
-9.821594238281250000e+00 1.528109931945800959e+01 -3.170753121376038153e-01 3.000000000000000000e+00
-1.256247401237488015e+00 1.959814667701720969e+00 -6.237539052963256836e-01 1.600000000000000000e+01
-1.434710741043091042e+00 2.239947795867919922e+00 -6.141163706779479980e-01 1.300000000000000000e+01
-1.666252017021178977e+00 2.602442502975463867e+00 -6.006667017936706543e-01 1.100000000000000000e+01
-2.009900093078612837e+00 3.141584873199462891e+00 -5.906965136528015137e-01 9.000000000000000000e+00
-2.527631044387816939e+00 3.953866720199584961e+00 -5.761982798576354980e-01 8.000000000000000000e+00
-3.329069852828979048e+00 5.209527015686035156e+00 -5.408885478973388672e-01 6.000000000000000000e+00
-4.952017784118652344e+00 7.755177497863770419e+00 -4.822235107421875000e-01 1.000000000000000000e+00
-9.792378425598144531e+00 1.534729957580566051e+01 -3.177734017372130793e-01 3.000000000000000000e+00
-1.251472353935241921e+00 1.967447876930237038e+00 -6.247891783714294434e-01 1.600000000000000000e+01
-1.421656489372252974e+00 2.236718893051147017e+00 -6.118668913841247559e-01 1.300000000000000000e+01
-1.652946352958678977e+00 2.601614713668822798e+00 -5.991402268409729004e-01 1.100000000000000000e+01
-2.003156661987305132e+00 3.155252218246459961e+00 -5.919480323791503906e-01 9.000000000000000000e+00
-2.510623931884766069e+00 3.957636833190917969e+00 -5.754670500755310059e-01 1.000000000000000000e+01
-3.312998771667480025e+00 5.224481105804443359e+00 -5.412371754646301270e-01 6.000000000000000000e+00
-4.924917221069335938e+00 7.772416114807128906e+00 -4.822235107421875000e-01 1.000000000000000000e+00
-9.700236320495605469e+00 1.532056522369384943e+01 -3.165168464183806818e-01 3.000000000000000000e+00
-1.234285593032836914e+00 1.955467939376831055e+00 -6.196128129959106445e-01 1.600000000000000000e+01
-1.416958928108215110e+00 2.246612787246704102e+00 -6.132165789604187012e-01 1.300000000000000000e+01
-1.638619780540466087e+00 2.599065065383911133e+00 -5.972321629524230957e-01 1.100000000000000000e+01
-1.990024685859679954e+00 3.158882617950439009e+00 -5.913223028182983398e-01 9.000000000000000000e+00
-2.501024007797241211e+00 3.973096370697021040e+00 -5.764420032501220703e-01 1.000000000000000000e+01
-3.284130811691284180e+00 5.219150543212890625e+00 -5.394940376281738281e-01 4.000000000000000000e+00
-4.893503665924072266e+00 7.782796382904052734e+00 -4.818048179149628241e-01 1.000000000000000000e+00
-9.567975997924804688e+00 1.522903251647949041e+01 -3.139338791370391846e-01 3.000000000000000000e+00
-1.232579469680785911e+00 1.967950701713562012e+00 -6.222009658813476562e-01 1.900000000000000000e+01
-1.407040476799011008e+00 2.248241424560546875e+00 -6.123167872428894043e-01 1.200000000000000000e+01
-1.634743571281433105e+00 2.613090991973876953e+00 -5.991402268409729004e-01 1.100000000000000000e+01
-1.971656441688538042e+00 3.154084682464600053e+00 -5.891321897506713867e-01 9.000000000000000000e+00
-2.483984947204589844e+00 3.976751327514647993e+00 -5.757107734680175781e-01 8.000000000000000000e+00
-3.256395578384398970e+00 5.215372562408447266e+00 -5.379252433776855469e-01 6.000000000000000000e+00
-4.853620529174804688e+00 7.779496669769287109e+00 -4.805487394332885742e-01 1.000000000000000000e+00
-9.540147781372070312e+00 1.530306434631348012e+01 -3.147715926170349121e-01 3.000000000000000000e+00
-1.229436039924622026e+00 1.979019045829772949e+00 -6.242715120315551758e-01 1.900000000000000000e+01
-1.393651962280272993e+00 2.245104789733887163e+00 -6.100672483444213867e-01 1.300000000000000000e+01
-1.630330801010132058e+00 2.627406120300292969e+00 -6.010483503341674805e-01 1.000000000000000000e+01
-1.959041953086853027e+00 3.159611225128173828e+00 -5.888193249702453613e-01 9.000000000000000000e+00
-2.463119983673096147e+00 3.975703954696654829e+00 -5.742483735084533691e-01 1.000000000000000000e+01
-3.242503404617310014e+00 5.235742092132568359e+00 -5.387967824935913086e-01 6.000000000000000000e+00
-4.816666603088378906e+00 7.783646583557128906e+00 -4.797113835811614990e-01 1.000000000000000000e+00
-9.498719215393066406e+00 1.536174011230468928e+01 -3.152602612972260077e-01 3.000000000000000000e+00
-1.222520470619202104e+00 1.983298420906066895e+00 -6.242715120315551758e-01 1.800000000000000000e+01
-1.387850642204284890e+00 2.253274440765380859e+00 -6.109670400619506836e-01 1.300000000000000000e+01
-1.619090914726257102e+00 2.629737377166748047e+00 -6.002851128578186035e-01 1.200000000000000000e+01
-1.953176259994507058e+00 3.174842596054077148e+00 -5.903836488723754883e-01 9.000000000000000000e+00
-2.445069074630736861e+00 3.977513313293457031e+00 -5.732734203338623047e-01 1.000000000000000000e+01
-3.229423046112060991e+00 5.255516052246093750e+00 -5.396683812141418457e-01 6.000000000000000000e+00
-4.783196926116943359e+00 7.790200233459472656e+00 -4.790833294391632080e-01 1.000000000000000000e+00
-9.399026870727539062e+00 1.531980609893799006e+01 -3.137244582176207941e-01 3.000000000000000000e+00
-1.212249636650085005e+00 1.980538487434386985e+00 -6.222009658813476562e-01 1.700000000000000000e+01
-1.380764842033386008e+00 2.257623434066772017e+00 -6.109670400619506836e-01 1.300000000000000000e+01
-1.606725096702575906e+00 2.628110885620117188e+00 -5.987586379051208496e-01 1.200000000000000000e+01
-1.940103173255919966e+00 3.175905942916870117e+00 -5.894450545310974121e-01 9.000000000000000000e+00
-2.436698198318481001e+00 3.991952419281005859e+00 -5.742483735084533691e-01 8.000000000000000000e+00
-3.204594373703002930e+00 5.252029418945313388e+00 -5.382738709449768066e-01 6.000000000000000000e+00
-4.746223449707031250e+00 7.784725189208984375e+00 -4.778272807598114014e-01 1.000000000000000000e+00
-9.357093811035156250e+00 1.535950469970702947e+01 -3.139338791370391846e-01 3.000000000000000000e+00
-1.201317787170409934e+00 1.978153109550476074e+00 -6.201304197311401367e-01 1.800000000000000000e+01
-1.374897837638854980e+00 2.265761375427246094e+00 -6.118668913841247559e-01 1.200000000000000000e+01
-1.596523404121398926e+00 2.632024765014647993e+00 -5.983769893646240234e-01 1.200000000000000000e+01
-1.929005384445189986e+00 3.182658672332764116e+00 -5.894450545310974121e-01 9.000000000000000000e+00
-2.423777103424071822e+00 4.002131938934326172e+00 -5.744920969009399414e-01 1.000000000000000000e+01
-3.179019212722777876e+00 5.251252651214599609e+00 -5.370537042617797852e-01 8.000000000000000000e+00
-4.719020843505859375e+00 7.801245212554931641e+00 -4.778272807598114014e-01 1.000000000000000000e+00
-9.276527404785156250e+00 1.534757804870604936e+01 -3.130263686180114746e-01 3.000000000000000000e+00
-1.193408370018004927e+00 1.980679750442505105e+00 -6.196128129959106445e-01 1.900000000000000000e+01
-1.363965034484863059e+00 2.265538454055786133e+00 -6.105171442031860352e-01 1.200000000000000000e+01
-1.589350819587707964e+00 2.640945911407471147e+00 -5.991402268409729004e-01 1.100000000000000000e+01
-1.913812160491942915e+00 3.182601451873778853e+00 -5.881935954093933105e-01 9.000000000000000000e+00
-2.411837100982666016e+00 4.013971328735351562e+00 -5.749795436859130859e-01 1.000000000000000000e+01
-3.155540227890015093e+00 5.253777503967285156e+00 -5.361821055412292480e-01 8.000000000000000000e+00
-4.704093933105468750e+00 7.838220119476318359e+00 -4.790833294391632080e-01 1.000000000000000000e+00
-1.189460873603821023e+00 1.989807963371277078e+00 -6.211656928062438965e-01 1.700000000000000000e+01
-1.356048583984375000e+00 2.270285606384276900e+00 -6.105171442031860352e-01 1.300000000000000000e+01
-1.584148287773132102e+00 2.653220176696776900e+00 -6.006667017936706543e-01 1.200000000000000000e+01
-1.896618723869323953e+00 3.179083824157714844e+00 -5.863163471221923828e-01 9.000000000000000000e+00
-2.395778179168701172e+00 4.018955230712890625e+00 -5.744920969009399414e-01 1.000000000000000000e+01
-3.140241622924805132e+00 5.269895076751708984e+00 -5.367050766944885254e-01 6.000000000000000000e+00
-4.660356044769287109e+00 7.827135086059570312e+00 -4.774085879325867254e-01 3.000000000000000000e+00
-3.116884994506835938e+01 5.236932373046875000e+01 1.406978893280028942e+01 2.300000000000000000e+01
-9.169156074523925781e+00 1.541196537017822088e+01 -3.130263686180114746e-01 3.000000000000000000e+00
-1.183145046234131081e+00 1.995815992355346902e+00 -6.216833591461181641e-01 1.900000000000000000e+01
-1.344738960266113059e+00 2.270210504531859907e+00 -6.091674566268920898e-01 1.300000000000000000e+01
-1.569411754608154075e+00 2.650562047958374023e+00 -5.987586379051208496e-01 1.100000000000000000e+01
-1.890989184379578081e+00 3.196214675903319868e+00 -5.881935954093933105e-01 1.000000000000000000e+01
-2.376991033554077148e+00 4.020874023437500000e+00 -5.735171437263488770e-01 1.000000000000000000e+01
-3.121918916702270952e+00 5.283084392547607422e+00 -5.368793606758117676e-01 8.000000000000000000e+00
-4.621481895446777344e+00 7.826965332031250000e+00 -4.763618707656859796e-01 3.000000000000000000e+00
-9.076025962829589844e+00 1.538346672058104936e+01 -3.117697834968566895e-01 3.000000000000000000e+00
-1.175191879272460938e+00 1.998268604278564009e+00 -6.211656928062438965e-01 1.700000000000000000e+01
-1.337793469429015891e+00 2.276571035385131836e+00 -6.096173524856567383e-01 1.100000000000000000e+01
-1.552195191383362038e+00 2.642481565475463867e+00 -5.957056879997253418e-01 1.200000000000000000e+01
-1.885820150375365989e+00 3.213017702102661133e+00 -5.900707840919494629e-01 1.000000000000000000e+01
-2.358924150466918945e+00 4.022297382354736328e+00 -5.725421905517578125e-01 1.000000000000000000e+01
-3.091367006301879883e+00 5.273324012756347656e+00 -5.347876548767089844e-01 8.000000000000000000e+00
-4.604227542877197266e+00 7.860283374786376953e+00 -4.774085879325867254e-01 1.000000000000000000e+00
-8.993989944458007812e+00 1.536673069000243963e+01 -3.107924461364746094e-01 3.000000000000000000e+00
-3.142584609985351918e+01 5.369280242919921875e+01 1.667001724243164062e+01 2.700000000000000000e+01
-1.166262388229369895e+00 1.999021291732788086e+00 -6.201304197311401367e-01 1.900000000000000000e+01
-1.333764433860779031e+00 2.287961006164550781e+00 -6.114169359207153320e-01 1.200000000000000000e+01
-1.549880862236022949e+00 2.659757614135742188e+00 -5.983769893646240234e-01 1.100000000000000000e+01
-1.868629455566406028e+00 3.209338188171387163e+00 -5.881935954093933105e-01 9.000000000000000000e+00
-2.347864151000977007e+00 4.035654544830322266e+00 -5.732734203338623047e-01 8.000000000000000000e+00
-3.064928054809569868e+00 5.270304203033447266e+00 -5.333931446075439453e-01 9.000000000000000000e+00
-4.586796283721923828e+00 7.893576145172119141e+00 -4.784553050994873047e-01 1.000000000000000000e+00
-8.930253982543945312e+00 1.538073921203612926e+01 -3.104434013366699219e-01 3.000000000000000000e+00
-1.154438972473144975e+00 1.994720101356505904e+00 -6.175422668457031250e-01 1.900000000000000000e+01
-1.323818683624268022e+00 2.289228916168212891e+00 -6.105171442031860352e-01 1.300000000000000000e+01
-1.540587067604064941e+00 2.665151357650756836e+00 -5.983769893646240234e-01 1.100000000000000000e+01
-1.854451417922974077e+00 3.210709810256958008e+00 -5.872550010681152344e-01 9.000000000000000000e+00
-2.335747241973876953e+00 4.047264099121093750e+00 -5.737608671188354492e-01 8.000000000000000000e+00
-3.048503637313843218e+00 5.284422397613525391e+00 -5.337417721748352051e-01 8.000000000000000000e+00
-4.557219982147216797e+00 7.906077861785888672e+00 -4.782459735870360773e-01 1.000000000000000000e+00
-8.850562095642089844e+00 1.536676406860351918e+01 -3.095358908176422119e-01 3.000000000000000000e+00
-1.153941273689270020e+00 2.008387327194213867e+00 -6.206480860710144043e-01 1.600000000000000000e+01
-1.311769127845763938e+00 2.284926414489746094e+00 -6.082676649093627930e-01 1.100000000000000000e+01
-1.536115407943726030e+00 2.676789283752440962e+00 -5.999034643173217773e-01 1.100000000000000000e+01
-1.841407775878906028e+00 3.211379051208496094e+00 -5.863163471221923828e-01 9.000000000000000000e+00
-2.322034120559691939e+00 4.052859783172607422e+00 -5.735171437263488770e-01 1.000000000000000000e+01
-3.036838054656981978e+00 5.302618026733398438e+00 -5.346133112907409668e-01 9.000000000000000000e+00
-4.522439956665039062e+00 7.903020858764648438e+00 -4.771992564201354980e-01 1.000000000000000000e+00
-8.802242279052734375e+00 1.539449310302734020e+01 -3.095358908176422119e-01 3.000000000000000000e+00
-1.145967006683350053e+00 2.010724782943726030e+00 -6.201304197311401367e-01 1.700000000000000000e+01
-1.301856517791748047e+00 2.286104440689086914e+00 -6.073678731918334961e-01 1.100000000000000000e+01
-1.524819850921631081e+00 2.678722620010375977e+00 -5.991402268409729004e-01 1.100000000000000000e+01
-1.832139968872070090e+00 3.221221208572388139e+00 -5.869421362876892090e-01 9.000000000000000000e+00
-2.294141292572021040e+00 4.036778450012207031e+00 -5.701047778129577637e-01 1.000000000000000000e+01
-3.007484674453734907e+00 5.294130325317382812e+00 -5.326958894729614258e-01 9.000000000000000000e+00
-4.482994556427001953e+00 7.897915840148925781e+00 -4.759431779384613037e-01 1.000000000000000000e+00
-8.748452186584472656e+00 1.542512512207031072e+01 -3.095358908176422119e-01 3.000000000000000000e+00
-1.137039899826050027e+00 2.011349201202393022e+00 -6.190951466560363770e-01 1.800000000000000000e+01
-1.299619197845458984e+00 2.300815582275391069e+00 -6.100672483444213867e-01 1.400000000000000000e+01
-1.510633707046509011e+00 2.675481081008911133e+00 -5.972321629524230957e-01 1.200000000000000000e+01
-1.818943381309509055e+00 3.224156141281127930e+00 -5.863163471221923828e-01 9.000000000000000000e+00
-2.281985998153686968e+00 4.048220634460449219e+00 -5.705922842025756836e-01 1.000000000000000000e+01
-2.993876695632935014e+00 5.313275337219238281e+00 -5.335674285888671875e-01 8.000000000000000000e+00
-4.467156887054443359e+00 7.934400558471679688e+00 -4.771992564201354980e-01 1.000000000000000000e+00
-8.596510887145996094e+00 1.528128337860107067e+01 -3.060454130172728937e-01 2.000000000000000000e+00
-1.127177596092223899e+00 2.010250806808472124e+00 -6.175422668457031250e-01 1.900000000000000000e+01
-1.297294855117798074e+00 2.315538644790648970e+00 -6.127666831016540527e-01 1.300000000000000000e+01
-1.505122542381287065e+00 2.687589645385742188e+00 -5.987586379051208496e-01 1.200000000000000000e+01
-1.809607148170470969e+00 3.233933448791503906e+00 -5.869421362876892090e-01 9.000000000000000000e+00
-2.270747423171997070e+00 4.061359405517578125e+00 -5.713234543800354004e-01 1.000000000000000000e+01
-2.972395658493041992e+00 5.318475723266601562e+00 -5.330445170402526855e-01 9.000000000000000000e+00
-4.431643009185791016e+00 7.935995578765869141e+00 -4.763618707656859796e-01 1.000000000000000000e+00
-8.578193664550781250e+00 1.537406349182129084e+01 -3.073019683361052912e-01 3.000000000000000000e+00
-1.120388865470886008e+00 2.016252756118773970e+00 -6.180598735809326172e-01 1.800000000000000000e+01
-1.279880642890929954e+00 2.305169105529785156e+00 -6.087175607681274414e-01 1.300000000000000000e+01
-1.491933703422545943e+00 2.688199281692504883e+00 -5.976137518882751465e-01 1.100000000000000000e+01
-1.791428446769713911e+00 3.230492591857910156e+00 -5.850648880004882812e-01 9.000000000000000000e+00
-2.258022546768188032e+00 4.075257778167724609e+00 -5.720546841621398926e-01 1.000000000000000000e+01
-2.940368413925170898e+00 5.308934688568115234e+00 -5.309528112411499023e-01 9.000000000000000000e+00
-4.405006885528563565e+00 7.959943294525145596e+00 -4.767805635929108221e-01 1.000000000000000000e+00
-8.484263420104980469e+00 1.534388828277588068e+01 -3.060454130172728937e-01 2.000000000000000000e+00
-1.116141319274901900e+00 2.025227069854735884e+00 -6.196128129959106445e-01 1.900000000000000000e+01
-1.267126321792602983e+00 2.301087379455565962e+00 -6.064680218696594238e-01 1.200000000000000000e+01
-1.483487844467163086e+00 2.695110559463500977e+00 -5.979954004287719727e-01 1.000000000000000000e+01
-1.782044887542725053e+00 3.240188121795653853e+00 -5.856906175613403320e-01 9.000000000000000000e+00
-2.239959239959716797e+00 4.076155662536621094e+00 -5.710797309875488281e-01 1.000000000000000000e+01
-2.931411266326903853e+00 5.336628913879395419e+00 -5.326958894729614258e-01 9.000000000000000000e+00
-4.356053352355957031e+00 7.936751365661621094e+00 -4.744777679443358820e-01 1.000000000000000000e+00
-8.430651664733886719e+00 1.537341022491455078e+01 -3.060454130172728937e-01 2.000000000000000000e+00
-1.110346198081969993e+00 2.030612230300902876e+00 -6.201304197311401367e-01 1.700000000000000000e+01
-1.259488701820373979e+00 2.305276632308959961e+00 -6.064680218696594238e-01 1.400000000000000000e+01
-1.473601341247559038e+00 2.698292255401610884e+00 -5.976137518882751465e-01 1.200000000000000000e+01
-1.775075078010559082e+00 3.253015756607056108e+00 -5.869421362876892090e-01 9.000000000000000000e+00
-2.216927528381348100e+00 4.066132545471191406e+00 -5.686423778533935547e-01 1.000000000000000000e+01
-2.909884452819824219e+00 5.339322566986083984e+00 -5.319986343383789062e-01 9.000000000000000000e+00
-4.323979377746582031e+00 7.940629005432128906e+00 -4.738497436046599787e-01 1.000000000000000000e+00
-8.379625320434570312e+00 1.540128326416015980e+01 -3.060454130172728937e-01 2.000000000000000000e+00
-1.100488543510437012e+00 2.029381036758422852e+00 -6.185775399208068848e-01 1.900000000000000000e+01
-1.256075859069823997e+00 2.318226099014281782e+00 -6.087175607681274414e-01 1.300000000000000000e+01
-1.460433602333069070e+00 2.696514368057250977e+00 -5.960872769355773926e-01 1.100000000000000000e+01
-1.765589475631714089e+00 3.262666702270507812e+00 -5.875678658485412598e-01 9.000000000000000000e+00
-2.208385467529296875e+00 4.084323406219482422e+00 -5.701047778129577637e-01 1.000000000000000000e+01
-2.895018339157104048e+00 5.356458663940429688e+00 -5.326958894729614258e-01 9.000000000000000000e+00
-4.305725097656250000e+00 7.973247528076171875e+00 -4.748964607715607245e-01 1.000000000000000000e+00
-8.278334617614746094e+00 1.534244632720947088e+01 -3.043001592159271240e-01 2.000000000000000000e+00
-1.089738011360168013e+00 2.026404142379761186e+00 -6.165069937705993652e-01 1.900000000000000000e+01
-1.247053742408751997e+00 2.320879936218262163e+00 -6.082676649093627930e-01 1.300000000000000000e+01
-1.455656886100769043e+00 2.710243701934814009e+00 -5.979954004287719727e-01 1.200000000000000000e+01
-1.746717214584351030e+00 3.254885196685791016e+00 -5.850648880004882812e-01 9.000000000000000000e+00
-2.195053100585937944e+00 4.093756675720214844e+00 -5.703485012054443359e-01 8.000000000000000000e+00
-2.865949869155883789e+00 5.347214698791503906e+00 -5.307784676551818848e-01 9.000000000000000000e+00
-4.253352165222167969e+00 7.942451000213623047e+00 -4.721750020980834961e-01 1.000000000000000000e+00
-8.215294837951660156e+00 1.535361862182617010e+01 -3.039511144161223810e-01 2.000000000000000000e+00
-1.083566904067992942e+00 2.031900405883789062e+00 -6.170246005058288574e-01 1.800000000000000000e+01
-1.239861130714416948e+00 2.326938629150391069e+00 -6.087175607681274414e-01 1.300000000000000000e+01
-1.443418860435486062e+00 2.710109949111938032e+00 -5.968505144119262695e-01 1.200000000000000000e+01
-1.731632947921752930e+00 3.253987312316894975e+00 -5.838134288787841797e-01 9.000000000000000000e+00
-2.179817914962768999e+00 4.099641323089599609e+00 -5.701047778129577637e-01 1.000000000000000000e+01
-2.839786767959595171e+00 5.343111515045166016e+00 -5.293839573860168457e-01 9.000000000000000000e+00
-4.218108177185058594e+00 7.943138122558593750e+00 -4.713376164436339777e-01 1.000000000000000000e+00
-8.124160766601562500e+00 1.531154346466063920e+01 -3.025549054145812988e-01 2.000000000000000000e+00
-1.078273892402648926e+00 2.039085865020751953e+00 -6.180598735809326172e-01 1.800000000000000000e+01
-1.226268887519835982e+00 2.320914268493651900e+00 -6.060181260108947754e-01 1.300000000000000000e+01
-1.440367937088012917e+00 2.727283954620360884e+00 -5.995218753814697266e-01 1.100000000000000000e+01
-1.723951458930969016e+00 3.267000198364257812e+00 -5.850648880004882812e-01 1.000000000000000000e+01
-2.163642644882202148e+00 4.103713512420654297e+00 -5.696173310279846191e-01 1.000000000000000000e+01
-2.824834108352661133e+00 5.360042095184326172e+00 -5.300812125205993652e-01 9.000000000000000000e+00
-4.194077968597412109e+00 7.964882373809813565e+00 -4.717563092708588202e-01 1.000000000000000000e+00
-8.052042007446289062e+00 1.530441474914550959e+01 -3.018568158149719238e-01 2.000000000000000000e+00
-1.073840856552124023e+00 2.047970056533813032e+00 -6.196128129959106445e-01 1.600000000000000000e+01
-1.219968557357788086e+00 2.328632831573485884e+00 -6.069179177284240723e-01 1.200000000000000000e+01
-1.424463629722594993e+00 2.720120668411254883e+00 -5.968505144119262695e-01 1.100000000000000000e+01
-1.713452816009521040e+00 3.274748325347899947e+00 -5.853777527809143066e-01 1.000000000000000000e+01
-2.139188289642333984e+00 4.091889858245849609e+00 -5.669361948966979980e-01 8.000000000000000000e+00
-2.812566280364989790e+00 5.382230758666992188e+00 -5.313013792037963867e-01 1.100000000000000000e+01
-4.145913124084472656e+00 7.940523624420166016e+00 -4.694535136222838800e-01 1.000000000000000000e+00
-7.980072498321533203e+00 1.529696941375732067e+01 -3.011587262153624933e-01 2.000000000000000000e+00
-1.062051296234131081e+00 2.041051149368286133e+00 -6.165069937705993652e-01 1.900000000000000000e+01
-1.216242671012877974e+00 2.339370250701903853e+00 -6.087175607681274414e-01 1.200000000000000000e+01
-1.411384582519531028e+00 2.715872049331665039e+00 -5.949424505233764648e-01 1.100000000000000000e+01
-1.706797599792480025e+00 3.287127733230590820e+00 -5.866292715072631836e-01 1.000000000000000000e+01
-2.128150939941405806e+00 4.102114200592041016e+00 -5.674236416816711426e-01 1.000000000000000000e+01
-2.785554170608520952e+00 5.371583938598632812e+00 -5.293839573860168457e-01 9.000000000000000000e+00
-4.141160964965820312e+00 7.992523193359375000e+00 -4.717563092708588202e-01 1.000000000000000000e+00
-7.933815002441406250e+00 1.532551574707031072e+01 -3.012285232543944757e-01 2.000000000000000000e+00
-1.054034471511841042e+00 2.043029308319091797e+00 -6.159893274307250977e-01 1.900000000000000000e+01
-1.208069324493407981e+00 2.343601465225220171e+00 -6.087175607681274414e-01 1.300000000000000000e+01
-1.402794957160949929e+00 2.722527503967285156e+00 -5.953240394592285156e-01 1.100000000000000000e+01
-1.691696286201477051e+00 3.286040306091309038e+00 -5.853777527809143066e-01 1.000000000000000000e+01
-2.117450952529906782e+00 4.116578578948974609e+00 -5.683985948562622070e-01 8.000000000000000000e+00
-2.761320829391479048e+00 5.370643138885498047e+00 -5.283381342887878418e-01 9.000000000000000000e+00
-4.105935573577880859e+00 7.992717266082763672e+00 -4.709189236164093018e-01 1.000000000000000000e+00
-7.823657035827636719e+00 1.524281597137450994e+01 -2.990644276142119806e-01 2.000000000000000000e+00
-1.043900966644287109e+00 2.041718482971190962e+00 -6.144363880157470703e-01 2.000000000000000000e+01
-1.198584914207458052e+00 2.346277952194213867e+00 -6.082676649093627930e-01 1.100000000000000000e+01
-1.392807006835937944e+00 2.727650642395019975e+00 -5.953240394592285156e-01 1.200000000000000000e+01
-1.672459244728087935e+00 3.278141736984252930e+00 -5.828748345375061035e-01 1.000000000000000000e+01
-2.105053186416625977e+00 4.129617691040039062e+00 -5.691298246383666992e-01 1.000000000000000000e+01
-2.738904237747191939e+00 5.375402450561523438e+00 -5.278151631355285645e-01 1.100000000000000000e+01
-4.063927650451660156e+00 7.982794284820556641e+00 -4.694535136222838800e-01 1.000000000000000000e+00
-7.767736911773681641e+00 1.527138900756835938e+01 -2.990644276142119806e-01 2.000000000000000000e+00
-1.035894274711609109e+00 2.043626785278319868e+00 -6.139187812805175781e-01 2.100000000000000000e+01
-1.182463407516479048e+00 2.334801197052001953e+00 -6.042185425758361816e-01 1.200000000000000000e+01
-1.389484286308289018e+00 2.744756937026977983e+00 -5.979954004287719727e-01 1.200000000000000000e+01
-1.664572477340698020e+00 3.291010618209838867e+00 -5.841262936592102051e-01 1.000000000000000000e+01
-2.080776691436768022e+00 4.117451667785645419e+00 -5.664486885070800781e-01 1.000000000000000000e+01
-2.721920490264893022e+00 5.388486862182617188e+00 -5.281637907028198242e-01 1.100000000000000000e+01
-4.005441188812255859e+00 7.936308383941650391e+00 -4.658946692943572998e-01 1.000000000000000000e+00
-7.732389926910400391e+00 1.533412075042724965e+01 -2.997625470161437988e-01 2.000000000000000000e+00
-1.034826278686522993e+00 2.059313535690308061e+00 -6.175422668457031250e-01 2.000000000000000000e+01
-1.175180673599242942e+00 2.340656042098999023e+00 -6.046684384346008301e-01 1.300000000000000000e+01
-1.373730659484863059e+00 2.737307786941527876e+00 -5.953240394592285156e-01 1.100000000000000000e+01
-1.654845476150512917e+00 3.300332546234130859e+00 -5.847520232200622559e-01 1.000000000000000000e+01
-2.061056375503540039e+00 4.114040851593017578e+00 -5.649862885475158691e-01 1.000000000000000000e+01
-2.703094720840454102e+00 5.397955417633056641e+00 -5.281637907028198242e-01 1.100000000000000000e+01
-3.986650466918944868e+00 7.968102931976318359e+00 -4.669414162635803223e-01 1.000000000000000000e+00
-7.637686252593994141e+00 1.527873992919922053e+01 -2.981569170951843262e-01 2.000000000000000000e+00
-1.029354453086853027e+00 2.066371440887451172e+00 -6.185775399208068848e-01 1.800000000000000000e+01
-1.173949480056762917e+00 2.358700752258300781e+00 -6.082676649093627930e-01 1.300000000000000000e+01
-1.363292813301085982e+00 2.740328550338745117e+00 -5.949424505233764648e-01 1.000000000000000000e+01
-1.644194245338439941e+00 3.307857990264893022e+00 -5.850648880004882812e-01 1.000000000000000000e+01
-2.054629802703856978e+00 4.137211799621582031e+00 -5.671799182891845703e-01 1.000000000000000000e+01
-2.683349847793579102e+00 5.405573368072509766e+00 -5.279895067214965820e-01 1.100000000000000000e+01
-3.957037448883057085e+00 7.978392124176025391e+00 -4.667320549488068182e-01 1.000000000000000000e+00
-7.577204227447509766e+00 1.529097366333007990e+01 -2.978776693344116211e-01 2.000000000000000000e+00
-1.012228608131408913e+00 2.048989295959473100e+00 -6.123658418655395508e-01 1.800000000000000000e+01
-1.166121244430541992e+00 2.362580776214600053e+00 -6.082676649093627930e-01 1.500000000000000000e+01
-1.356804013252258079e+00 2.750116109848022017e+00 -5.960872769355773926e-01 1.100000000000000000e+01
-1.633216023445128950e+00 3.313292026519774947e+00 -5.850648880004882812e-01 9.000000000000000000e+00
-2.040899038314818892e+00 4.144002437591552734e+00 -5.671799182891845703e-01 1.000000000000000000e+01
-2.658370018005371094e+00 5.400141716003417969e+00 -5.265949964523315430e-01 1.100000000000000000e+01
-3.919980525970458984e+00 7.969963550567626953e+00 -4.654760062694550116e-01 1.000000000000000000e+00
-7.522928237915039062e+00 1.530883789062500000e+01 -2.977380454540253241e-01 2.000000000000000000e+00
-1.011017322540282981e+00 2.064655303955078125e+00 -6.159893274307250977e-01 1.900000000000000000e+01
-1.153585195541382058e+00 2.357884407043457031e+00 -6.060181260108947754e-01 1.200000000000000000e+01
-1.343746066093445046e+00 2.747780799865723100e+00 -5.945608019828796387e-01 1.300000000000000000e+01
-1.617304563522339089e+00 3.310098648071289062e+00 -5.835005640983581543e-01 1.000000000000000000e+01
-2.022938013076781782e+00 4.143965721130371094e+00 -5.662049651145935059e-01 1.000000000000000000e+01
-2.642124891281127930e+00 5.414760112762451172e+00 -5.271179080009460449e-01 1.100000000000000000e+01
-3.895637273788452148e+00 7.990779399871826172e+00 -4.658946692943572998e-01 1.000000000000000000e+00
-7.437920570373535156e+00 1.527028465270995916e+01 -2.964814901351929266e-01 2.000000000000000000e+00
-1.003321290016174094e+00 2.066258668899536133e+00 -6.154716610908508301e-01 1.800000000000000000e+01
-1.142357468605041948e+00 2.354683637619018999e+00 -6.042185425758361816e-01 1.100000000000000000e+01
-1.343193054199218972e+00 2.769886970520019975e+00 -5.983769893646240234e-01 1.200000000000000000e+01
-1.602873802185059038e+00 3.308332681655883789e+00 -5.822491049766540527e-01 1.100000000000000000e+01
-2.010049819946289062e+00 4.152437686920166016e+00 -5.664486885070800781e-01 8.000000000000000000e+00
-2.622418880462646040e+00 5.419904708862304688e+00 -5.267692804336547852e-01 1.100000000000000000e+01
-3.863901853561400923e+00 7.992865085601806641e+00 -4.652666449546813965e-01 1.000000000000000000e+00
-7.364629268646240234e+00 1.524804782867431996e+01 -2.955739498138427734e-01 2.000000000000000000e+00
-9.994536638259887695e-01 2.076711416244506836e+00 -6.175422668457031250e-01 1.800000000000000000e+01
-1.134131073951720969e+00 2.358656883239746094e+00 -6.042185425758361816e-01 1.200000000000000000e+01
-1.328413367271422896e+00 2.763941764831542969e+00 -5.960872769355773926e-01 1.100000000000000000e+01
-1.591315746307373047e+00 3.313907623291016069e+00 -5.822491049766540527e-01 1.000000000000000000e+01
-1.993825554847717063e+00 4.155849456787109375e+00 -5.659612417221069336e-01 8.000000000000000000e+00
-2.602622270584106001e+00 5.427229404449462891e+00 -5.265949964523315430e-01 1.100000000000000000e+01
-3.837703943252563032e+00 8.009905815124511719e+00 -4.654760062694550116e-01 1.000000000000000000e+00
-7.333807468414306641e+00 1.532055854797362926e+01 -2.964814901351929266e-01 2.000000000000000000e+00
-9.876785278320312500e-01 2.071641445159912109e+00 -6.149540543556213379e-01 1.900000000000000000e+01
-1.132182836532592995e+00 2.376872777938843218e+00 -6.078177690505981445e-01 1.400000000000000000e+01
-1.313210248947143999e+00 2.758156538009643999e+00 -5.937975645065307617e-01 1.100000000000000000e+01
-1.584250330924988015e+00 3.330420970916748047e+00 -5.841262936592102051e-01 1.000000000000000000e+01
-1.976876020431518999e+00 4.159543514251708984e+00 -5.654737353324890137e-01 8.000000000000000000e+00
-2.584422826766968218e+00 5.440331459045410156e+00 -5.269436240196228027e-01 1.100000000000000000e+01
-3.808320522308350053e+00 8.023918151855468750e+00 -4.654760062694550116e-01 3.000000000000000000e+00
-7.255328655242919922e+00 1.530035781860351918e+01 -2.955739498138427734e-01 2.000000000000000000e+00
-9.771400094032287598e-01 2.068089723587036133e+00 -6.128835082054138184e-01 1.900000000000000000e+01
-1.123047232627869096e+00 2.379047870635985884e+00 -6.073678731918334961e-01 1.300000000000000000e+01
-1.307763457298279031e+00 2.771601200103760210e+00 -5.957056879997253418e-01 1.200000000000000000e+01
-1.574300050735474077e+00 3.339504241943358931e+00 -5.847520232200622559e-01 1.000000000000000000e+01
-1.960652828216552956e+00 4.162827014923095703e+00 -5.649862885475158691e-01 8.000000000000000000e+00
-2.556930541992187944e+00 5.431293487548828125e+00 -5.252004861831665039e-01 1.100000000000000000e+01
-3.788789272308350053e+00 8.055235862731933594e+00 -4.665227234363555908e-01 1.000000000000000000e+00
-7.159352302551270419e+00 1.523509883880615057e+01 -2.938287258148192804e-01 2.000000000000000000e+00
-9.694570899009704590e-01 2.069569349288939986e+00 -6.123658418655395508e-01 2.000000000000000000e+01
-1.115977883338928001e+00 2.384524106979370117e+00 -6.078177690505981445e-01 1.400000000000000000e+01
-1.301060914993285911e+00 2.781257629394530806e+00 -5.968505144119262695e-01 1.100000000000000000e+01
-1.554016828536987083e+00 3.325021266937255859e+00 -5.813104510307312012e-01 9.000000000000000000e+00
-1.945997714996337891e+00 4.167507171630859375e+00 -5.647425651550292969e-01 1.000000000000000000e+01
-2.537220478057860884e+00 5.436131477355957031e+00 -5.248518586158752441e-01 9.000000000000000000e+00
-3.743486642837523970e+00 8.027933120727539062e+00 -4.642199277877808172e-01 1.000000000000000000e+00
-7.117236137390136719e+00 1.527688312530517933e+01 -2.941777706146240234e-01 2.000000000000000000e+00
-9.654805660247802734e-01 2.079949855804442915e+00 -6.144363880157470703e-01 2.000000000000000000e+01
-1.096989154815674050e+00 2.365422487258911133e+00 -6.019690036773681641e-01 1.300000000000000000e+01
-1.290518879890441895e+00 2.784001111984252930e+00 -5.964689254760742188e-01 1.100000000000000000e+01
-1.538250207901000977e+00 3.321463108062744141e+00 -5.797461271286010742e-01 1.000000000000000000e+01
-1.932272076606750044e+00 4.176075935363770419e+00 -5.649862885475158691e-01 8.000000000000000000e+00
-2.524919986724853960e+00 5.459422111511229581e+00 -5.262463688850402832e-01 1.100000000000000000e+01
-3.713765621185303178e+00 8.037324905395507812e+00 -4.640105962753295898e-01 1.000000000000000000e+00
-7.055485248565673828e+00 1.528347778320313033e+01 -2.938287258148192804e-01 2.000000000000000000e+00
-9.610784649848937988e-01 2.090495586395264116e+00 -6.165069937705993652e-01 2.000000000000000000e+01
-1.090752243995666948e+00 2.374739885330200195e+00 -6.033187508583068848e-01 1.100000000000000000e+01
-1.277848958969115989e+00 2.783359766006470171e+00 -5.953240394592285156e-01 1.100000000000000000e+01
-1.534301757812500000e+00 3.345033884048461914e+00 -5.828748345375061035e-01 1.000000000000000000e+01
-1.915299057960510032e+00 4.179521083831787109e+00 -5.644987821578979492e-01 8.000000000000000000e+00
-2.493277311325072798e+00 5.443279743194580078e+00 -5.238060355186462402e-01 9.000000000000000000e+00
-3.684282302856444868e+00 8.050882339477539062e+00 -4.640105962753295898e-01 1.000000000000000000e+00
-6.999421119689941406e+00 1.530923461914063033e+01 -2.938287258148192804e-01 2.000000000000000000e+00
-9.497713446617126465e-01 2.085047245025635210e+00 -6.139187812805175781e-01 1.900000000000000000e+01
-1.085685014724731001e+00 2.385627746582030806e+00 -6.051183342933654785e-01 1.200000000000000000e+01
-1.268125414848328081e+00 2.787803173065185991e+00 -5.953240394592285156e-01 1.200000000000000000e+01
-1.520164132118225098e+00 3.344974040985106978e+00 -5.819361805915832520e-01 9.000000000000000000e+00
-1.892491340637207031e+00 4.168106079101563388e+00 -5.620614290237426758e-01 1.000000000000000000e+01
-2.484142065048218218e+00 5.473721504211425781e+00 -5.258977413177490234e-01 9.000000000000000000e+00
-3.651208639144897017e+00 8.052780151367187500e+00 -4.633825421333312988e-01 1.000000000000000000e+00
-6.957490921020507812e+00 1.535907554626465021e+01 -2.943173944950103760e-01 2.000000000000000000e+00
-9.416927099227905273e-01 2.086589097976685014e+00 -6.134011149406433105e-01 2.000000000000000000e+01
-1.081356048583983931e+00 2.398285627365111861e+00 -6.073678731918334961e-01 1.300000000000000000e+01
-1.258386492729187012e+00 2.792212963104248047e+00 -5.953240394592285156e-01 1.200000000000000000e+01
-1.509289741516113059e+00 3.352061271667480025e+00 -5.822491049766540527e-01 1.000000000000000000e+01
-1.885259747505187988e+00 4.190979957580566406e+00 -5.642550587654113770e-01 1.000000000000000000e+01
-2.456032752990723100e+00 5.462370395660400391e+00 -5.239803194999694824e-01 9.000000000000000000e+00
-3.627987384796143022e+00 8.076407432556152344e+00 -4.640105962753295898e-01 1.000000000000000000e+00
-6.884184837341308594e+00 1.533948230743408025e+01 -2.934796810150145929e-01 2.000000000000000000e+00
-9.359804391860961914e-01 2.093390703201293945e+00 -6.144363880157470703e-01 2.000000000000000000e+01
-1.069003939628601074e+00 2.393149137496947798e+00 -6.051183342933654785e-01 1.300000000000000000e+01
-1.247831702232361062e+00 2.794795751571654829e+00 -5.949424505233764648e-01 1.200000000000000000e+01
-1.491141915321350098e+00 3.342876911163330078e+00 -5.797461271286010742e-01 1.000000000000000000e+01
-1.865770697593688965e+00 4.186655998229979581e+00 -5.627925992012023926e-01 1.000000000000000000e+01
-2.443436145782471147e+00 5.485470294952392578e+00 -5.253748297691345215e-01 9.000000000000000000e+00
-3.604645490646361861e+00 8.099970817565917969e+00 -4.646386206150054932e-01 1.000000000000000000e+00
-6.824099063873291016e+00 1.534880161285400035e+01 -2.932004332542418878e-01 2.000000000000000000e+00
-9.298160672187805176e-01 2.098249197006226030e+00 -6.149540543556213379e-01 1.900000000000000000e+01
-1.058695316314697044e+00 2.391335010528564009e+00 -6.037686467170715332e-01 1.200000000000000000e+01
-1.236968040466309038e+00 2.795327663421630859e+00 -5.941792130470275879e-01 1.000000000000000000e+01
-1.482444524765015093e+00 3.353223323822021040e+00 -5.806847214698791504e-01 1.000000000000000000e+01
-1.845460772514343040e+00 4.178293228149414062e+00 -5.608426928520202637e-01 1.000000000000000000e+01
-2.422013521194458008e+00 5.486252307891845703e+00 -5.246775746345520020e-01 9.000000000000000000e+00
-3.568093299865723100e+00 8.089950561523437500e+00 -4.633825421333312988e-01 1.000000000000000000e+00
-6.769937992095947266e+00 1.536402702331542969e+01 -2.930608093738555908e-01 2.000000000000000000e+00
-9.217095971107482910e-01 2.099713087081909180e+00 -6.144363880157470703e-01 1.900000000000000000e+01
-1.054254889488219993e+00 2.403939485549927202e+00 -6.060181260108947754e-01 1.300000000000000000e+01
-1.227991223335265891e+00 2.801426649093627930e+00 -5.945608019828796387e-01 1.100000000000000000e+01
-1.474692702293395996e+00 3.367424964904785156e+00 -5.822491049766540527e-01 1.000000000000000000e+01
-1.834047317504883035e+00 4.191984176635742188e+00 -5.618176460266113281e-01 1.000000000000000000e+01
-2.407637834548950195e+00 5.505626201629638672e+00 -5.257234573364257812e-01 9.000000000000000000e+00
-3.523840427398682085e+00 8.065752029418945312e+00 -4.612891077995299738e-01 1.000000000000000000e+00
-6.693868160247802734e+00 1.533624839782715021e+01 -2.920834720134735107e-01 2.000000000000000000e+00
-9.112933278083801270e-01 2.095831155776977983e+00 -6.123658418655395508e-01 2.000000000000000000e+01
-1.044304370880126953e+00 2.404030084609984907e+00 -6.051183342933654785e-01 1.200000000000000000e+01
-1.213513493537903054e+00 2.794891119003295898e+00 -5.922711491584777832e-01 1.100000000000000000e+01
-1.465287446975708008e+00 3.377988815307617188e+00 -5.831876993179321289e-01 1.100000000000000000e+01
-1.819403409957885964e+00 4.198360443115234375e+00 -5.618176460266113281e-01 1.000000000000000000e+01
-2.385237455368041992e+00 5.506683826446533203e+00 -5.250262022018432617e-01 8.000000000000000000e+00
-3.500423431396483931e+00 8.089001655578613281e+00 -4.619171619415283203e-01 1.000000000000000000e+00
-6.640293598175048828e+00 1.535952091217041016e+01 -2.920834720134735107e-01 2.000000000000000000e+00
-9.016795754432678223e-01 2.093676567077637163e+00 -6.108129620552062988e-01 2.100000000000000000e+01
-1.036676526069640891e+00 2.409450769424438032e+00 -6.055682301521301270e-01 1.200000000000000000e+01
-1.204525709152221902e+00 2.800913572311400923e+00 -5.926527380943298340e-01 1.200000000000000000e+01
-1.448028802871704102e+00 3.370378255844116211e+00 -5.809975862503051758e-01 1.000000000000000000e+01
-1.807086229324341042e+00 4.210158348083496094e+00 -5.625488758087158203e-01 8.000000000000000000e+00
-2.357360124588013139e+00 5.494835376739501953e+00 -5.231087803840637207e-01 8.000000000000000000e+00
-3.475313425064086914e+00 8.108513832092285156e+00 -4.623358249664307196e-01 1.000000000000000000e+00
-6.614974975585938388e+00 1.544878387451172053e+01 -2.933400571346282959e-01 2.000000000000000000e+00
-8.958562016487121582e-01 2.098275661468505859e+00 -6.113305687904357910e-01 2.000000000000000000e+01
-1.023749947547913042e+00 2.400148153305054155e+00 -6.024188995361328125e-01 1.100000000000000000e+01
-1.198030352592468040e+00 2.810101747512816939e+00 -5.937975645065307617e-01 1.200000000000000000e+01
-1.434337139129638894e+00 3.367641210556029829e+00 -5.797461271286010742e-01 1.000000000000000000e+01
-1.796959638595581055e+00 4.223121166229248047e+00 -5.635238289833068848e-01 8.000000000000000000e+00
-2.342425346374512163e+00 5.507714271545410156e+00 -5.236316919326782227e-01 8.000000000000000000e+00
-3.445136547088623047e+00 8.108362197875976562e+00 -4.617078006267548163e-01 1.000000000000000000e+00
-6.522653102874755859e+00 1.536640834808349965e+01 -2.913853824138640802e-01 2.000000000000000000e+00
-8.900310993194580078e-01 2.104948520660399947e+00 -6.123658418655395508e-01 2.000000000000000000e+01
-1.013849020004272017e+00 2.400116920471190962e+00 -6.015191078186035156e-01 1.100000000000000000e+01
-1.188977599143981934e+00 2.816075086593627930e+00 -5.941792130470275879e-01 1.100000000000000000e+01
-1.420269966125488059e+00 3.367167234420775923e+00 -5.788075327873229980e-01 1.000000000000000000e+01
-1.783748984336853027e+00 4.233026504516601562e+00 -5.640113353729248047e-01 8.000000000000000000e+00
-2.330919265747069868e+00 5.534219264984130859e+00 -5.253748297691345215e-01 9.000000000000000000e+00
-3.401319742202758789e+00 8.083519935607910156e+00 -4.596143662929534912e-01 1.000000000000000000e+00
-6.468974590301513672e+00 1.538908290863036932e+01 -2.913853824138640802e-01 2.000000000000000000e+00
-8.852934241294860840e-01 2.115324974060059038e+00 -6.144363880157470703e-01 2.000000000000000000e+01
-1.007300496101378950e+00 2.409210443496704102e+00 -6.028688549995422363e-01 1.300000000000000000e+01
-1.177134156227112038e+00 2.816791296005249023e+00 -5.934159755706787109e-01 1.200000000000000000e+01
-1.410963296890259011e+00 3.379641771316527876e+00 -5.800589919090270996e-01 1.100000000000000000e+01
-1.762109041213989036e+00 4.224879264831542969e+00 -5.620614290237426758e-01 8.000000000000000000e+00
-2.311386108398437944e+00 5.544564247131347656e+00 -5.255491137504577637e-01 9.000000000000000000e+00
-3.379348039627075195e+00 8.114370346069335938e+00 -4.606610834598541260e-01 1.000000000000000000e+00
-6.398700714111328125e+00 1.537945652008056996e+01 -2.907570898532866877e-01 2.000000000000000000e+00
-8.734665513038635254e-01 2.107694149017333984e+00 -6.113305687904357910e-01 2.000000000000000000e+01
-1.002611875534058061e+00 2.421714544296265093e+00 -6.051183342933654785e-01 1.000000000000000000e+01
-1.161289215087891069e+00 2.806370496749877930e+00 -5.903630256652832031e-01 1.000000000000000000e+01
-1.399912238121032937e+00 3.386371850967406782e+00 -5.803718566894531250e-01 1.000000000000000000e+01
-1.745835185050963911e+00 4.227334499359130859e+00 -5.615739226341247559e-01 8.000000000000000000e+00
-2.285936355590819868e+00 5.537865161895751953e+00 -5.241546630859375000e-01 9.000000000000000000e+00
-3.343388795852661133e+00 8.107652664184570312e+00 -4.596143662929534912e-01 1.000000000000000000e+00
-6.319079875946044922e+00 1.533883476257324041e+01 -2.895703315734862726e-01 2.000000000000000000e+00
-8.624371886253356934e-01 2.101794242858887163e+00 -6.087424159049987793e-01 2.100000000000000000e+01
-9.948915243148803711e-01 2.427002668380736861e+00 -6.055682301521301270e-01 1.200000000000000000e+01
-1.155207753181457964e+00 2.819490432739257812e+00 -5.922711491584777832e-01 1.100000000000000000e+01
-1.388082981109618919e+00 3.391237735748291016e+00 -5.803718566894531250e-01 1.000000000000000000e+01
-1.734073758125304954e+00 4.240752696990966797e+00 -5.625488758087158203e-01 8.000000000000000000e+00
-2.253777503967285156e+00 5.514457702636718750e+00 -5.211913585662841797e-01 8.000000000000000000e+00
-3.321107149124145952e+00 8.134066581726074219e+00 -4.604517519474030096e-01 1.000000000000000000e+00
-6.274561405181884766e+00 1.538301753997802912e+01 -2.899891734123229980e-01 2.000000000000000000e+00
-8.587309122085571289e-01 2.113740682601929155e+00 -6.113305687904357910e-01 2.000000000000000000e+01
-9.827494025230407715e-01 2.421432256698607954e+00 -6.033187508583068848e-01 1.100000000000000000e+01
-1.146834850311279075e+00 2.827144145965576172e+00 -5.930343866348266602e-01 1.200000000000000000e+01
-1.370301723480225053e+00 3.381416320800780806e+00 -5.778689384460449219e-01 1.000000000000000000e+01
-1.722239851951598899e+00 4.254139900207520419e+00 -5.635238289833068848e-01 1.000000000000000000e+01
-2.244230031967163086e+00 5.546301364898681641e+00 -5.234574079513549805e-01 6.000000000000000000e+00
-3.298681735992432085e+00 8.160423278808593750e+00 -4.612891077995299738e-01 1.000000000000000000e+00
-6.214836597442626953e+00 1.538999271392822088e+01 -2.897099554538726807e-01 2.000000000000000000e+00
-8.527891039848327637e-01 2.120310068130493164e+00 -6.123658418655395508e-01 1.900000000000000000e+01
-9.721114039421081543e-01 2.419423103332519975e+00 -6.019690036773681641e-01 1.200000000000000000e+01
-1.139885783195496050e+00 2.838417530059814009e+00 -5.945608019828796387e-01 1.100000000000000000e+01
-1.362903118133544922e+00 3.397179126739501953e+00 -5.797461271286010742e-01 1.000000000000000000e+01
-1.704425692558289018e+00 4.252755165100097656e+00 -5.625488758087158203e-01 8.000000000000000000e+00
-2.219670057296752930e+00 5.541154861450195312e+00 -5.222371816635131836e-01 8.000000000000000000e+00
-3.265724420547484907e+00 8.160761833190917969e+00 -4.606610834598541260e-01 1.000000000000000000e+00
-6.174438953399658203e+00 1.544501590728759943e+01 -2.903382480144500732e-01 2.000000000000000000e+00
-8.468118309974670410e-01 2.126863479614257812e+00 -6.134011149406433105e-01 1.900000000000000000e+01
-9.629399180412292480e-01 2.420990943908690962e+00 -6.015191078186035156e-01 1.400000000000000000e+01
-1.128520369529723899e+00 2.838730335235596147e+00 -5.937975645065307617e-01 1.100000000000000000e+01
-1.348849058151244895e+00 3.396408081054687944e+00 -5.788075327873229980e-01 9.000000000000000000e+00
-1.683714032173156960e+00 4.243917465209960938e+00 -5.605989694595336914e-01 8.000000000000000000e+00
