8.313409239053726196e-02 -1.591607928276062012e+00 4.270514249801635742e-01 1.000000000000000000e+02
8.680426329374313354e-02 -1.713541388511657937e+00 2.994832955300807953e-02 7.400000000000000000e+01
1.634926646947860995e-01 -3.238579511642456055e+00 -7.486370801925659180e-01 1.300000000000000000e+01
8.448651432991027832e-02 -1.673569202423095925e+00 8.781973272562026978e-02 7.200000000000000000e+01
1.954105496406554898e-01 -3.884294748306273970e+00 -7.559852600097656250e-01 1.200000000000000000e+01
8.279992640018463135e-02 -1.651608943939208984e+00 1.446785330772399902e-01 7.000000000000000000e+01
2.455198913812637052e-01 -4.914534091949462891e+00 -7.793564796447753906e-01 9.000000000000000000e+00
8.162615448236465454e-02 -1.639640808105468972e+00 2.015718966722488126e-01 9.100000000000000000e+01
3.494570255279541016e-01 -7.044370174407958984e+00 -8.660035729408264160e-01 1.000000000000000000e+00
7.908227294683456421e-02 -1.594143986701965110e+00 2.527981102466583252e-01 8.500000000000000000e+01
7.804391533136367798e-02 -1.584388494491576926e+00 3.083473443984984796e-01 1.000000000000000000e+02
8.645790070295333862e-02 -1.761459231376647949e+00 -9.242530167102813721e-02 7.900000000000000000e+01
7.748914510011672974e-02 -1.584380626678467019e+00 3.662203252315521240e-01 9.700000000000000000e+01
8.516905456781387329e-02 -1.747659444808959961e+00 -3.054171055555343975e-02 7.800000000000000000e+01
7.720629870891571045e-02 -1.589972376823425071e+00 4.265337884426116943e-01 1.000000000000000000e+02
3.551704064011573792e-02 -7.448484301567077637e-01 -1.998082995414733887e-01 6.000000000000000000e+00
8.113590627908706665e-02 -1.707813262939452903e+00 2.984361536800861012e-02 8.000000000000000000e+01
1.534097194671631137e-01 -3.241023540496826172e+00 -7.490870356559753418e-01 1.200000000000000000e+01
7.959488034248352051e-02 -1.687805414199829102e+00 8.855243772268295288e-02 8.000000000000000000e+01
1.832992136478424072e-01 -3.886850357055664062e+00 -7.563668489456176758e-01 1.100000000000000000e+01
7.714331150054931641e-02 -1.641909956932068093e+00 1.438069790601730069e-01 7.800000000000000000e+01
2.300792336463927945e-01 -4.915281295776367188e+00 -7.793564796447753906e-01 9.000000000000000000e+00
7.647467404603958130e-02 -1.639889121055603027e+00 2.015718966722488126e-01 8.100000000000000000e+01
3.267720341682434082e-01 -7.033535480499267578e+00 -8.645411133766174316e-01 1.000000000000000000e+00
7.407373934984207153e-02 -1.594384551048279031e+00 2.527981102466583252e-01 8.300000000000000000e+01
7.279475033283233643e-02 -1.578742384910583052e+00 3.072024881839752197e-01 1.000000000000000000e+02
8.184015750885009766e-02 -1.781673669815063032e+00 -9.347201883792877197e-02 1.700000000000000000e+01
7.313485443592071533e-02 -1.598243236541748047e+00 3.693696260452271063e-01 8.700000000000000000e+01
8.004245162010192871e-02 -1.755908846855164018e+00 -3.068133071064949036e-02 9.900000000000000000e+01
7.213653624057769775e-02 -1.582475066184998003e+00 4.244632422924041748e-01 1.000000000000000000e+02
3.240515664219856262e-02 -7.333880662918090820e-01 -1.967024803161621094e-01 7.000000000000000000e+00
7.499818503856658936e-02 -1.704090595245361106e+00 2.977380529046059002e-02 8.400000000000000000e+01
1.420955061912536899e-01 -3.241539478302001953e+00 -7.490870356559753418e-01 1.100000000000000000e+01
7.422557473182678223e-02 -1.700045108795166016e+00 8.918046951293945312e-02 8.500000000000000000e+01
1.699017286300658902e-01 -3.891389369964600053e+00 -7.571300864219665527e-01 1.000000000000000000e+01
7.115182280540466309e-02 -1.636197805404663086e+00 1.432840377092360895e-01 8.200000000000000000e+01
2.127493470907211026e-01 -4.912107467651367188e+00 -7.787307500839233398e-01 9.000000000000000000e+00
7.092102617025375366e-02 -1.644112586975098100e+00 2.020593732595444003e-01 7.700000000000000000e+01
3.057969808578491211e-01 -7.117930412292479581e+00 -8.747781515121459961e-01 1.000000000000000000e+00
6.822952628135681152e-02 -1.594645380973815918e+00 2.527981102466583252e-01 9.000000000000000000e+01
6.703272461891174316e-02 -1.573102474212646040e+00 3.060576319694519043e-01 1.000000000000000000e+02
6.854290515184402466e-02 -1.621852755546570046e+00 3.747684657573699951e-01 8.000000000000000000e+01
7.416496425867080688e-02 -1.762171268463134988e+00 -3.078604489564895977e-02 7.800000000000000000e+01
6.674048304557800293e-02 -1.592379570007323997e+00 4.270514249801635742e-01 1.000000000000000000e+02
2.905956283211708069e-02 -7.141941785812377930e-01 -1.915261000394820889e-01 7.000000000000000000e+00
6.921123713254928589e-02 -1.708338141441344993e+00 2.984361536800861012e-02 7.500000000000000000e+01
1.301511824131011963e-01 -3.226438283920288086e+00 -7.454878091812133789e-01 6.000000000000000000e+00
6.789008527994155884e-02 -1.690315604209899902e+00 8.865711092948913574e-02 7.200000000000000000e+01
1.564747840166091919e-01 -3.895882129669189009e+00 -7.578933238983154297e-01 9.000000000000000000e+00
6.607688218355178833e-02 -1.652362585067749023e+00 1.446785330772399902e-01 9.400000000000000000e+01
1.957587748765944879e-01 -4.916767597198486328e+00 -7.793564796447753906e-01 9.000000000000000000e+00
6.455256044864654541e-02 -1.628481864929198997e+00 2.001094669103621881e-01 7.400000000000000000e+01
6.309691816568374634e-02 -1.598810553550719993e+00 2.534238398075103760e-01 8.500000000000000000e+01
6.169462949037551880e-02 -1.577250361442565918e+00 3.068208694458007812e-01 1.000000000000000000e+02
7.064328342676162720e-02 -1.814133524894713911e+00 -9.514676779508590698e-02 2.000000000000000000e+00
6.227726861834526062e-02 -1.606503963470458984e+00 3.711692392826079767e-01 7.300000000000000000e+01
6.978697329759597778e-02 -1.808378219604491965e+00 -3.158885613083838723e-02 6.400000000000000000e+01
6.145958974957466125e-02 -1.592592120170593040e+00 4.270514249801635742e-01 1.000000000000000000e+02
2.800240367650986065e-02 -7.529015541076660156e-01 -2.018788605928421021e-01 6.000000000000000000e+00
6.398734450340270996e-02 -1.728552579879760964e+00 3.019266389310359955e-02 6.800000000000000000e+01
6.873550266027450562e-02 -1.865627288818358931e+00 -4.310062229633330744e-01 1.000000000000000000e+00
6.140387430787085793e-02 -1.674574971199036089e+00 8.781973272562026978e-02 7.100000000000000000e+01
1.426588445901871005e-01 -3.890518665313721147e+00 -7.567484974861145020e-01 9.000000000000000000e+00
6.059930101037024758e-02 -1.660547375679015891e+00 1.453757733106612882e-01 9.400000000000000000e+01
1.784514635801315030e-01 -4.913473129272460938e+00 -7.787307500839233398e-01 1.000000000000000000e+00
5.893940478563308716e-02 -1.630681037902832031e+00 2.003532052040100098e-01 9.600000000000000000e+01
5.695390701293945312e-02 -1.591134667396544966e+00 2.521723508834838867e-01 8.700000000000000000e+01
6.499914079904556274e-02 -1.815896153450011985e+00 -1.589720696210860928e-01 1.000000000000000000e+00
5.625851079821587303e-02 -1.579418182373047097e+00 3.072024881839752197e-01 1.000000000000000000e+02
6.388585269451141357e-02 -1.802393078804015891e+00 -9.451873600482940674e-02 3.500000000000000000e+01
5.605093389749526978e-02 -1.589183807373047097e+00 3.671201169490814209e-01 7.200000000000000000e+01
6.242207437753676674e-02 -1.778633832931518999e+00 -3.106528334319591869e-02 6.900000000000000000e+01
5.589171871542931297e-02 -1.600529432296752930e+00 4.291219711303710938e-01 1.000000000000000000e+02
2.368929609656333923e-02 -7.066607475280761719e-01 -1.894555389881134033e-01 7.000000000000000000e+00
5.811799690127372742e-02 -1.742765545845031960e+00 3.043699637055397034e-02 6.100000000000000000e+01
6.131567433476448059e-02 -1.848337650299072044e+00 -4.269571006298065186e-01 1.600000000000000000e+01
5.552932247519493103e-02 -1.682773470878601074e+00 8.823842555284500122e-02 7.100000000000000000e+01
1.323481500148772916e-01 -4.010708808898925781e+00 -7.800271511077880859e-01 1.000000000000000000e+00
5.464340746402739785e-02 -1.664740920066833052e+00 1.457244008779526034e-01 9.000000000000000000e+01
5.289783328771591187e-02 -1.628902077674865945e+00 2.001094669103621881e-01 8.200000000000000000e+01
5.076175555586814880e-02 -1.571580290794373003e+00 2.490436732769011896e-01 9.200000000000000000e+01
5.795927718281745911e-02 -1.804174065589905007e+00 -1.579262018203735074e-01 2.400000000000000000e+01
5.059466511011123657e-02 -1.583538174629210982e+00 3.079657256603240967e-01 1.000000000000000000e+02
5.715245753526688316e-02 -1.798622608184814009e+00 -9.430938959121704102e-02 5.400000000000000000e+01
5.004125460982322693e-02 -1.583535194396973100e+00 3.657703995704650879e-01 8.000000000000000000e+01
5.540014058351516724e-02 -1.762861013412476030e+00 -3.078604489564895977e-02 6.900000000000000000e+01
5.012244731187819741e-02 -1.594922065734863059e+00 4.275690615177155096e-01 1.000000000000000000e+02
2.238214202225207936e-02 -7.453587651252746582e-01 -1.998082995414733887e-01 6.000000000000000000e+00
5.155687406659126282e-02 -1.726967453956604004e+00 3.015775792300701141e-02 5.500000000000000000e+01
5.468996241688728333e-02 -1.842696785926819070e+00 -4.256073832511901855e-01 4.700000000000000000e+01
5.065635591745377281e-02 -1.716895699501038042e+00 9.001784771680831909e-02 6.300000000000000000e+01
5.431008711457253196e-02 -1.840731620788573997e+00 -3.579576611518859863e-01 1.000000000000000000e+00
4.848157614469528198e-02 -1.652972340583801047e+00 1.446785330772399902e-01 8.400000000000000000e+01
4.778663069009780884e-02 -1.648919463157654031e+00 2.025468498468399048e-01 8.700000000000000000e+01
5.218585208058357239e-02 -1.811637759208678977e+00 -2.225334197282791138e-01 8.000000000000000000e+00
4.511435329914093018e-02 -1.575704932212830034e+00 2.496694028377532959e-01 9.200000000000000000e+01
5.109097063541411660e-02 -1.784449696540832964e+00 -1.561830937862395963e-01 6.500000000000000000e+01
4.517846554517745972e-02 -1.587630152702331987e+00 3.087289631366729736e-01 1.000000000000000000e+02
5.047849938273429871e-02 -1.784835934638977051e+00 -9.357669204473495483e-02 5.800000000000000000e+01
4.467763379216194153e-02 -1.589544177055359109e+00 3.671201169490814209e-01 9.200000000000000000e+01
4.924627020955085754e-02 -1.763043642044066939e+00 -3.078604489564895977e-02 6.700000000000000000e+01
4.411561787128447792e-02 -1.589301705360413042e+00 4.260161519050598145e-01 1.000000000000000000e+02
1.947275362908839832e-02 -7.338452935218811035e-01 -1.967024803161621094e-01 7.000000000000000000e+00
4.489598423242568970e-02 -1.703148841857909934e+00 2.973890118300915111e-02 6.100000000000000000e+01
4.830842837691307068e-02 -1.844824552536010964e+00 -4.260573089122772217e-01 6.300000000000000000e+01
4.461102932691574097e-02 -1.715065479278564009e+00 8.991317451000213623e-02 6.100000000000000000e+01
4.737390950322151184e-02 -1.821284055709839089e+00 -3.541415035724639893e-01 1.300000000000000000e+01
4.281425103545188904e-02 -1.657114982604980025e+00 1.450271606445313055e-01 8.600000000000000000e+01
4.707742482423781655e-02 -1.834520936012268066e+00 -2.906552255153656006e-01 8.000000000000000000e+00
4.152475669980049133e-02 -1.629231691360474077e+00 2.001094669103621881e-01 9.000000000000000000e+01
4.586173593997955322e-02 -1.811808943748473899e+00 -2.225334197282791138e-01 4.600000000000000000e+01
4.008882120251656273e-02 -1.583744764328002930e+00 2.509208917617797852e-01 9.400000000000000000e+01
4.481169581413269043e-02 -1.782625317573546919e+00 -1.560087800025939941e-01 6.100000000000000000e+01
3.924437239766120911e-02 -1.572077035903931108e+00 3.056760132312775213e-01 1.000000000000000000e+02
4.355503246188163757e-02 -1.757048249244689941e+00 -9.211128205060958862e-02 6.300000000000000000e+01
3.951243311166763306e-02 -1.605275630950927956e+00 3.707193434238433838e-01 9.400000000000000000e+01
4.309179633855819702e-02 -1.763204813003540039e+00 -3.078604489564895977e-02 6.700000000000000000e+01
3.884505853056907654e-02 -1.589439272880553977e+00 4.260161519050598145e-01 1.000000000000000000e+02
1.628799922764300953e-02 -7.068700790405273438e-01 -1.894555389881134033e-01 1.500000000000000000e+01
3.872202709317207336e-02 -1.693299293518065962e+00 2.956437692046165119e-02 8.000000000000000000e+01
4.120532050728797913e-02 -1.815758347511291948e+00 -4.193087518215178888e-01 5.800000000000000000e+01
3.794960305094718933e-02 -1.685259461402893066e+00 8.834309130907058716e-02 5.800000000000000000e+01
4.114874824881554344e-02 -1.827326536178589089e+00 -3.552863597869873047e-01 3.500000000000000000e+01
3.711859136819838784e-02 -1.661238074302672896e+00 1.453757733106612882e-01 8.200000000000000000e+01
4.019186273217201233e-02 -1.812950372695923074e+00 -2.872136831283568781e-01 3.300000000000000000e+01
3.579377010464668274e-02 -1.627382159233093040e+00 1.998657286167145053e-01 7.900000000000000000e+01
3.910401836037635803e-02 -1.792111754417418990e+00 -2.200960367918015081e-01 5.900000000000000000e+01
3.445482999086380005e-02 -1.591780781745911089e+00 2.521723508834838867e-01 9.200000000000000000e+01
3.841643780469893715e-02 -1.774803280830383079e+00 -1.553115397691726962e-01 6.500000000000000000e+01
3.379870578646659851e-02 -1.574167251586914062e+00 3.060576319694519043e-01 1.000000000000000000e+02
3.729394823312758706e-02 -1.751199126243591087e+00 -9.179726988077163696e-02 6.000000000000000000e+01
3.390873596072196960e-02 -1.605403780937195046e+00 3.707193434238433838e-01 9.200000000000000000e+01
3.685304522514343262e-02 -1.759346008300781028e+00 -3.071623481810092926e-02 5.900000000000000000e+01
3.309945389628410339e-02 -1.593433856964111106e+00 4.270514249801635742e-01 8.000000000000000000e+01
1.412254944443703045e-02 -7.223744988441467285e-01 -1.935966461896896085e-01 7.000000000000000000e+00
3.319845348596572876e-02 -1.713417410850524902e+00 2.991342544555664062e-02 8.600000000000000000e+01
3.467983752489089966e-02 -1.806149244308471902e+00 -4.170592427253723145e-01 6.000000000000000000e+01
3.176276758313179016e-02 -1.669406414031981978e+00 8.750572055578231812e-02 7.600000000000000000e+01
3.454585745930671692e-02 -1.815681695938109907e+00 -3.529966473579406738e-01 5.300000000000000000e+01
3.128200769424437783e-02 -1.659365534782409890e+00 1.452014744281769076e-01 7.600000000000000000e+01
3.375257551670073769e-02 -1.807154536247252974e+00 -2.862750589847565252e-01 4.800000000000000000e+01
3.029654547572135925e-02 -1.637420892715454102e+00 2.010844200849533081e-01 8.700000000000000000e+01
3.248437494039536216e-02 -1.772389769554137962e+00 -2.176586538553237915e-01 5.800000000000000000e+01
2.910370752215385090e-02 -1.587936162948607954e+00 2.515466213226317804e-01 8.500000000000000000e+01
3.240179643034934998e-02 -1.784886837005615012e+00 -1.561830937862395963e-01 7.600000000000000000e+01
2.812717296183108937e-02 -1.564460873603821023e+00 3.041495382785797119e-01 9.000000000000000000e+01
3.100312687456608166e-02 -1.741333961486815962e+00 -9.127391129732131958e-02 6.100000000000000000e+01
2.785807102918624878e-02 -1.580182671546936035e+00 3.648706078529357910e-01 7.100000000000000000e+01
3.046726062893867146e-02 -1.745468139648437944e+00 -3.047190234065055847e-02 5.800000000000000000e+01
2.761296182870864868e-02 -1.581945538520812988e+00 4.239456057548522949e-01 7.600000000000000000e+01
1.147683244198561062e-02 -7.146929502487182617e-01 -1.915261000394820889e-01 7.000000000000000000e+00
2.734434418380260121e-02 -1.721520543098449929e+00 3.005304373800754894e-02 8.000000000000000000e+01
2.837498672306537975e-02 -1.806259274482727051e+00 -4.170592427253723145e-01 6.000000000000000000e+01
2.590423636138438832e-02 -1.667510151863097922e+00 8.740104734897613525e-02 7.500000000000000000e+01
2.802476659417152058e-02 -1.804013133049011008e+00 -3.507069349288939875e-01 6.500000000000000000e+01
2.539775148034096111e-02 -1.653488159179687944e+00 1.446785330772399902e-01 8.200000000000000000e+01
2.738423645496368061e-02 -1.803310990333556907e+00 -2.856493294239044189e-01 6.100000000000000000e+01
2.469987422227859150e-02 -1.645456194877624956e+00 2.020593732595444003e-01 9.000000000000000000e+01
2.626793459057807922e-02 -1.770507454872130904e+00 -2.174149155616759976e-01 5.500000000000000000e+01
2.320894785225391041e-02 -1.564326167106627974e+00 2.477921992540358942e-01 8.100000000000000000e+01
2.599592879414558064e-02 -1.773036003112792969e+00 -1.551372259855270108e-01 7.900000000000000000e+01
2.275133132934569966e-02 -1.570438742637634055e+00 3.052943944931030273e-01 9.300000000000000000e+01
2.498171292245388031e-02 -1.745425701141356978e+00 -9.148325026035308838e-02 6.300000000000000000e+01
2.220428921282291065e-02 -1.570527553558350053e+00 3.626210987567902166e-01 7.200000000000000000e+01
2.406713366508483887e-02 -1.723569393157958984e+00 -3.008794784545898091e-02 5.400000000000000000e+01
2.198288217186928142e-02 -1.574305653572082964e+00 4.218750298023223877e-01 8.500000000000000000e+01
9.254438802599906921e-03 -7.263172864913940430e-01 -1.946319192647933960e-01 7.000000000000000000e+00
2.156003937125205994e-02 -1.715603232383728027e+00 2.994832955300807953e-02 7.300000000000000000e+01
2.233676426112652172e-02 -1.802446246147155984e+00 -4.161594510078430176e-01 5.100000000000000000e+01
2.054523490369319916e-02 -1.681566596031188965e+00 8.813375234603881836e-02 7.700000000000000000e+01
2.199431881308555950e-02 -1.800169944763184038e+00 -3.499436974525452215e-01 8.100000000000000000e+01
1.981847546994686127e-02 -1.645594358444214089e+00 1.439812928438186923e-01 9.000000000000000000e+01
2.119309827685356140e-02 -1.785614728927612083e+00 -2.828335165977478027e-01 6.600000000000000000e+01
1.926642283797264099e-02 -1.647513985633850098e+00 2.023031115531921109e-01 7.900000000000000000e+01
2.030511200428009033e-02 -1.762645006179810014e+00 -2.164399474859237948e-01 5.500000000000000000e+01
1.779310964047909130e-02 -1.568348169326782005e+00 2.484179288148880005e-01 9.200000000000000000e+01
1.993536576628684998e-02 -1.757174372673034890e+00 -1.537427306175231934e-01 7.600000000000000000e+01
1.767501980066299092e-02 -1.582284331321716087e+00 3.075841069221497137e-01 1.000000000000000000e+02
1.917157508432865143e-02 -1.743501782417296919e+00 -9.137857705354690552e-02 6.600000000000000000e+01
1.705937087535858154e-02 -1.576438426971435991e+00 3.639708161354064941e-01 7.700000000000000000e+01
1.824499107897281994e-02 -1.713641881942749023e+00 -2.991342544555664062e-02 5.600000000000000000e+01
1.672104187309741974e-02 -1.570506334304810014e+00 4.208397567272185724e-01 8.600000000000000000e+01
6.611843127757310867e-03 -7.147545218467712402e-01 -1.915261000394820889e-01 7.000000000000000000e+00
1.544429734349250967e-02 -1.701670646667480025e+00 2.970399521291255951e-02 6.900000000000000000e+01
1.599287986755371094e-02 -1.796667218208312988e+00 -4.148097336292266846e-01 5.200000000000000000e+01
1.465791743248700922e-02 -1.679630875587462935e+00 8.802907913923263550e-02 7.500000000000000000e+01
1.562475692480803056e-02 -1.790419816970824973e+00 -3.480356037616729736e-01 8.800000000000000000e+01
1.404007989913225000e-02 -1.641668796539307085e+00 1.436326652765274048e-01 8.200000000000000000e+01
1.489381492137908936e-02 -1.777776598930359109e+00 -2.815820276737213135e-01 6.300000000000000000e+01
1.356425881385803049e-02 -1.653526306152343972e+00 2.030343264341354093e-01 9.000000000000000000e+01
1.416814513504504984e-02 -1.764690160751342995e+00 -2.166836857795715054e-01 5.700000000000000000e+01
1.238050125539302999e-02 -1.576301932334899902e+00 2.496694028377532959e-01 9.200000000000000000e+01
1.380156166851521059e-02 -1.757233262062072976e+00 -1.537427306175231934e-01 8.200000000000000000e+01
1.200094446539879019e-02 -1.562704443931580034e+00 3.037679195404052734e-01 1.000000000000000000e+02
1.299556717276573008e-02 -1.731574892997741921e+00 -9.075054526329040527e-02 6.600000000000000000e+01
1.159932557493448084e-02 -1.582334518432616965e+00 3.653205037117003839e-01 7.100000000000000000e+01
1.233470067381858999e-02 -1.723693251609802024e+00 -3.008794784545898091e-02 6.900000000000000000e+01
1.097822189331055034e-02 -1.572488903999329057e+00 4.213573932647705078e-01 9.200000000000000000e+01
4.207881167531012621e-03 -7.534103989601135254e-01 -2.018788605928421021e-01 6.000000000000000000e+00
9.185619652271270752e-03 -1.697716593742371050e+00 2.963418699800968170e-02 6.300000000000000000e+01
9.315825067460536957e-03 -1.779175400733947976e+00 -4.107606112957000732e-01 6.700000000000000000e+01
8.481445722281932831e-03 -1.675678849220276101e+00 8.781973272562026978e-02 7.500000000000000000e+01
9.082308970391750336e-03 -1.794391512870789018e+00 -3.487988412380219061e-01 8.800000000000000000e+01
8.022968657314777374e-03 -1.641709208488463911e+00 1.436326652765274048e-01 8.200000000000000000e+01
8.349912241101264954e-03 -1.771893262863158958e+00 -2.806434333324431818e-01 5.800000000000000000e+01
7.431626785546541214e-03 -1.637684345245361106e+00 2.010844200849533081e-01 8.700000000000000000e+01
7.656829431653022766e-03 -1.754804849624634011e+00 -2.154649943113327026e-01 5.900000000000000000e+01
6.619531661272048950e-03 -1.580287456512450950e+00 2.502951323986052912e-01 8.700000000000000000e+01
7.394269574433565140e-03 -1.765241503715514915e+00 -1.544399708509444913e-01 7.900000000000000000e+01
6.296908482909202576e-03 -1.568627595901489036e+00 3.049127757549285889e-01 9.800000000000000000e+01
6.610596552491188049e-03 -1.721624612808227983e+00 -9.022718667984008789e-02 6.900000000000000000e+01
5.806844215840101242e-03 -1.584315061569214089e+00 3.657703995704650879e-01 6.800000000000000000e+01
5.996025633066892624e-03 -1.717727899551392046e+00 -2.998323366045951843e-02 7.100000000000000000e+01
5.522861611098051071e-03 -1.582176923751831055e+00 4.239456057548522949e-01 1.000000000000000000e+02
1.577962539158761935e-03 -7.534204721450805664e-01 -2.018788605928421021e-01 6.000000000000000000e+00
3.244071034714580016e-03 -1.689739465713500977e+00 2.949456684291363109e-02 6.300000000000000000e+01
3.112090053036808968e-03 -1.783094525337219016e+00 -4.116604328155518133e-01 7.800000000000000000e+01
2.607084577903151946e-03 -1.659720182418823020e+00 8.698236197233200073e-02 7.300000000000000000e+01
2.812490798532962799e-03 -1.790485739707946999e+00 -3.480356037616729736e-01 8.800000000000000000e+01
2.297848928719758987e-03 -1.645712018013000044e+00 1.439812928438186923e-01 9.000000000000000000e+01
2.179279690608381791e-03 -1.783763766288757102e+00 -2.825206518173217773e-01 5.600000000000000000e+01
1.723311492241919041e-03 -1.645640611648560014e+00 2.020593732595444003e-01 8.700000000000000000e+01
1.519244280643760941e-03 -1.740925312042236106e+00 -2.137588262557983121e-01 6.400000000000000000e+01
1.103258342482150035e-03 -1.580300927162169966e+00 2.502951323986052912e-01 9.000000000000000000e+01
1.229599933139980056e-03 -1.761271834373473899e+00 -1.540913581848145086e-01 7.900000000000000000e+01
8.244219352491199970e-04 -1.574529767036437988e+00 3.060576319694519043e-01 9.100000000000000000e+01
6.002676091156899929e-04 -1.719639897346497026e+00 -9.012251347303390503e-02 7.400000000000000000e+01
2.761768701020628214e-04 -1.582376956939697044e+00 3.653205037117003839e-01 7.100000000000000000e+01
2.108520571438007927e-16 -1.721737742424011008e+00 -3.005304373800754894e-02 7.100000000000000000e+01
1.947082973834034970e-16 -1.589913964271544966e+00 4.260161519050598145e-01 8.600000000000000000e+01
-8.968765614554286003e-04 -7.341030836105346680e-01 -1.967024803161621094e-01 7.000000000000000000e+00
-2.370493486523627801e-03 -1.697739720344543013e+00 2.963418699800968170e-02 5.700000000000000000e+01
-2.800881396979093985e-03 -1.783095002174376997e+00 -4.116604328155518133e-01 7.900000000000000000e+01
-2.613359130918980078e-03 -1.663714766502379927e+00 8.719170093536376953e-02 7.300000000000000000e+01
-3.111283294856547876e-03 -1.782632231712341087e+00 -3.465091288089752197e-01 8.800000000000000000e+01
-3.167191753163934188e-03 -1.649695396423340066e+00 1.443299055099487027e-01 9.000000000000000000e+01
-3.744180779904127121e-03 -1.787711977958678977e+00 -2.831463813781737726e-01 5.800000000000000000e+01
-3.747351001948118210e-03 -1.651592493057250977e+00 2.027905881404876987e-01 8.200000000000000000e+01
-4.273282364010810852e-03 -1.748861074447632058e+00 -2.147337794303894043e-01 6.100000000000000000e+01
-3.842093748971819878e-03 -1.572395086288451926e+00 2.490436732769011896e-01 9.200000000000000000e+01
-4.605778492987155914e-03 -1.759273767471313032e+00 -1.539170444011687955e-01 8.300000000000000000e+01
-4.440770950168371201e-03 -1.590229868888854980e+00 3.091105818748474121e-01 8.600000000000000000e+01
-5.108193028718233109e-03 -1.721629738807678001e+00 -9.022718667984008789e-02 7.000000000000000000e+01
-4.983420018106698990e-03 -1.586266636848449929e+00 3.662203252315521240e-01 7.400000000000000000e+01
-5.682962946593760577e-03 -1.713729500770569070e+00 -2.991342544555664062e-02 7.300000000000000000e+01
-5.291563458740711212e-03 -1.595700740814208984e+00 4.275690615177155096e-01 9.500000000000000000e+01
-3.532197792083024979e-03 -7.495501041412353516e-01 -2.008435726165770929e-01 6.000000000000000000e+00
-8.169656619429588318e-03 -1.671725392341613992e+00 2.918042428791522980e-02 6.100000000000000000e+01
-9.044754318892955780e-03 -1.786971807479857954e+00 -4.125602245330811102e-01 7.900000000000000000e+01
-8.732075802981853485e-03 -1.667688488960265891e+00 8.740104734897613525e-02 6.800000000000000000e+01
-9.364650584757328033e-03 -1.788500189781188965e+00 -3.476539850234984796e-01 8.500000000000000000e+01
-8.882564492523670197e-03 -1.641704797744750977e+00 1.436326652765274048e-01 9.000000000000000000e+01
-9.918241761624813080e-03 -1.775835990905761941e+00 -2.812691628932952881e-01 5.700000000000000000e+01
-9.581062011420726776e-03 -1.663479804992676003e+00 2.042530179023742953e-01 8.500000000000000000e+01
-1.035436149686574936e-02 -1.744865417480468972e+00 -2.142463028430938998e-01 6.100000000000000000e+01
-9.605184197425842285e-03 -1.572370529174804910e+00 2.490436732769011896e-01 9.400000000000000000e+01
-1.067373808473348964e-02 -1.747292876243591087e+00 -1.528711766004562100e-01 8.600000000000000000e+01
-1.000401750206946980e-02 -1.592167854309082031e+00 3.094922006130219061e-01 8.800000000000000000e+01
-1.113066915422677994e-02 -1.723598599433898926e+00 -9.033185988664627075e-02 7.400000000000000000e+01
-1.055926643311977040e-02 -1.592085719108581987e+00 3.675700128078461248e-01 8.300000000000000000e+01
-1.170579530298710043e-02 -1.719698190689086914e+00 -3.001813963055611004e-02 8.300000000000000000e+01
-1.112657599151133971e-02 -1.593738794326782005e+00 4.270514249801635742e-01 1.000000000000000000e+02
-6.053513381630182266e-03 -7.379425168037414551e-01 -1.977377533912658969e-01 7.000000000000000000e+00
-1.395475957542658026e-02 -1.665687799453734907e+00 2.907570824027061115e-02 6.400000000000000000e+01
-1.526572927832602934e-02 -1.784980654716491921e+00 -4.121103286743164062e-01 7.500000000000000000e+01
-1.429644320160151048e-02 -1.671644687652587891e+00 8.761039376258850098e-02 7.100000000000000000e+01
-1.559049170464276921e-02 -1.786493420600890891e+00 -3.472723662853240967e-01 8.800000000000000000e+01
-1.464859861880541021e-02 -1.645648479461669922e+00 1.439812928438186923e-01 8.800000000000000000e+01
-1.602736674249171864e-02 -1.765913963317871094e+00 -2.797048091888427734e-01 5.500000000000000000e+01
-1.544271782040596008e-02 -1.669391155242919922e+00 2.049842327833175937e-01 9.300000000000000000e+01
-1.642630621790885925e-02 -1.742833614349365012e+00 -2.140025645494461060e-01 5.900000000000000000e+01
-1.520749460905789982e-02 -1.584179162979125977e+00 2.509208917617797852e-01 9.400000000000000000e+01
-1.677286252379417072e-02 -1.747244954109191895e+00 -1.528711766004562100e-01 8.800000000000000000e+01
-1.550409477204084049e-02 -1.586233735084533913e+00 3.083473443984984796e-01 1.000000000000000000e+02
-1.714708283543587078e-02 -1.723549246788024902e+00 -9.033185988664627075e-02 7.500000000000000000e+01
-1.637306436896324158e-02 -1.617371439933777078e+00 3.734187483787537176e-01 9.400000000000000000e+01
-1.754385977983475078e-02 -1.703650116920470969e+00 -2.973890118300915111e-02 7.400000000000000000e+01
-1.647122204303741108e-02 -1.599488377571105957e+00 4.286043345928192139e-01 1.000000000000000000e+02
-8.810096420347690582e-03 -7.533706426620483398e-01 -2.018788605928421021e-01 6.000000000000000000e+00
-1.979274302721023907e-02 -1.667628526687622070e+00 2.911061421036719929e-02 6.800000000000000000e+01
-2.135557495057582855e-02 -1.773224949836730957e+00 -4.094109237194060724e-01 7.500000000000000000e+01
-2.008338086307049145e-02 -1.667590379714966042e+00 8.740104734897613525e-02 6.900000000000000000e+01
-2.192236296832561146e-02 -1.794280529022217019e+00 -3.487988412380219061e-01 8.800000000000000000e+01
-2.039289474487305034e-02 -1.645587325096129927e+00 1.439812928438186923e-01 8.400000000000000000e+01
-2.214181423187255859e-02 -1.761896848678589089e+00 -2.790790796279907227e-01 5.200000000000000000e+01
-2.109284885227679859e-02 -1.655432581901550071e+00 2.032780647277832031e-01 9.600000000000000000e+01
-2.243291772902011871e-02 -1.736810922622681108e+00 -2.132713496685028076e-01 6.400000000000000000e+01
-2.089236117899417877e-02 -1.595967650413512962e+00 2.527981102466583252e-01 9.200000000000000000e+01
-2.287178486585617065e-02 -1.747175812721251997e+00 -1.528711766004562100e-01 8.800000000000000000e+01
-2.111911214888095856e-02 -1.592059254646301047e+00 3.094922006130219061e-01 1.000000000000000000e+02
-2.310960739850997925e-02 -1.719484806060791016e+00 -9.012251347303390503e-02 7.500000000000000000e+01
-2.196558751165866852e-02 -1.613407254219054954e+00 3.725189566612244207e-01 9.400000000000000000e+01
-2.384902536869049072e-02 -1.729572057723999023e+00 -3.019266389310359955e-02 7.800000000000000000e+01
-2.229409851133823048e-02 -1.616806149482727051e+00 4.332630932331085205e-01 1.000000000000000000e+02
-1.143979653716086994e-02 -7.533352971076965332e-01 -2.018788605928421021e-01 6.000000000000000000e+00
-2.576729096472262989e-02 -1.677546501159667969e+00 2.928513847291469921e-02 7.500000000000000000e+01
-2.775704115629196167e-02 -1.786779165267943892e+00 -4.125602245330811102e-01 7.900000000000000000e+01
-2.588155493140220989e-02 -1.647535443305969016e+00 8.635433018207550049e-02 7.500000000000000000e+01
-2.809292450547217976e-02 -1.788304090499877930e+00 -3.476539850234984796e-01 8.200000000000000000e+01
-2.613694220781325947e-02 -1.645506024360656960e+00 1.439812928438186923e-01 9.000000000000000000e+01
-2.848215214908123016e-02 -1.773659586906433105e+00 -2.809562981128693182e-01 5.900000000000000000e+01
-2.690347842872143139e-02 -1.657333731651305930e+00 2.035218030214309970e-01 9.300000000000000000e+01
-2.836511842906475067e-02 -1.728782653808593972e+00 -2.122963964939116877e-01 6.800000000000000000e+01
-2.611985057592391968e-02 -1.591939330101012962e+00 2.521723508834838867e-01 8.700000000000000000e+01
-2.910256013274193157e-02 -1.755053758621216042e+00 -1.535684168338775912e-01 8.600000000000000000e+01
-2.680788002908229828e-02 -1.599827766418457031e+00 3.110186755657196045e-01 1.000000000000000000e+02
-2.904396690428256989e-02 -1.715399622917175071e+00 -8.991317451000213623e-02 7.700000000000000000e+01
-2.739731594920158039e-02 -1.601630091667175071e+00 3.698195219039916992e-01 9.400000000000000000e+01
-2.960981056094169964e-02 -1.713483095169066939e+00 -2.991342544555664062e-02 8.200000000000000000e+01
-2.832098677754402161e-02 -1.622508287429810014e+00 4.348160028457642157e-01 1.000000000000000000e+02
-1.399720739573239933e-02 -7.494277358055114746e-01 -2.008435726165770929e-01 6.000000000000000000e+00
-3.181131929159163735e-02 -1.687443137168884055e+00 2.945966273546218872e-02 7.400000000000000000e+01
-3.395682573318480751e-02 -1.784722924232482910e+00 -4.121103286743164062e-01 7.700000000000000000e+01
-3.130684420466423035e-02 -1.645443677902221902e+00 8.624965697526931763e-02 7.700000000000000000e+01
-3.410896286368370056e-02 -1.776417732238769975e+00 -3.453642725944519043e-01 7.800000000000000000e+01
-3.203505650162696838e-02 -1.653372883796691895e+00 1.446785330772399902e-01 8.800000000000000000e+01
-3.459598124027252197e-02 -1.769599318504333052e+00 -2.803305685520172119e-01 6.400000000000000000e+01
-3.284507989883422852e-02 -1.665168523788451926e+00 2.044967561960220059e-01 9.000000000000000000e+01
-3.443901613354682922e-02 -1.730657815933227983e+00 -2.125401347875595093e-01 7.000000000000000000e+01
-3.171655163168907166e-02 -1.579982995986938032e+00 2.502951323986052912e-01 9.200000000000000000e+01
-3.498874232172966003e-02 -1.742989540100098100e+00 -1.525225490331650058e-01 8.300000000000000000e+01
-3.247164562344551086e-02 -1.603650093078613059e+00 3.117819130420684814e-01 1.000000000000000000e+02
-3.511321544647216797e-02 -1.719281554222106934e+00 -9.012251347303390503e-02 7.400000000000000000e+01
-3.290762007236480713e-02 -1.597627997398376021e+00 3.689197301864624023e-01 1.000000000000000000e+02
-3.525856509804726341e-02 -1.697375178337096946e+00 -2.963418699800968170e-02 8.200000000000000000e+01
-3.386305272579193115e-02 -1.616605162620543990e+00 4.332630932331085205e-01 1.000000000000000000e+02
-1.631240174174309124e-02 -7.416516542434692383e-01 -1.987730264663696012e-01 6.000000000000000000e+00
-3.731826692819595337e-02 -1.683329939842223899e+00 2.938985265791416168e-02 7.300000000000000000e+01
-4.013618081808090210e-02 -1.796290040016174094e+00 -4.148097336292266846e-01 7.300000000000000000e+01
-3.676315769553185203e-02 -1.645330786705017090e+00 8.624965697526931763e-02 8.000000000000000000e+01
-3.995539247989655235e-02 -1.774332165718079057e+00 -3.449826538562775213e-01 6.300000000000000000e+01
-3.733685612678527832e-02 -1.645290017127990945e+00 1.439812928438186923e-01 8.400000000000000000e+01
-4.055431485176085732e-02 -1.773424625396728960e+00 -2.809562981128693182e-01 7.700000000000000000e+01
-3.868690133094788292e-02 -1.678942441940308061e+00 2.062029242515563965e-01 8.500000000000000000e+01
-4.017789661884307861e-02 -1.730534195899962935e+00 -2.125401347875595093e-01 7.000000000000000000e+01
-3.695515170693398216e-02 -1.591724634170532005e+00 2.521723508834838867e-01 8.500000000000000000e+01
-4.030258581042289734e-02 -1.722945570945739968e+00 -1.507794409990310947e-01 8.600000000000000000e+01
-3.765060380101203918e-02 -1.597645521163939986e+00 3.106370568275452215e-01 1.000000000000000000e+02
-4.095657542347908020e-02 -1.725145697593688965e+00 -9.043653309345245361e-02 8.200000000000000000e+01
-3.848491609096527100e-02 -1.609199166297913042e+00 3.716191351413726807e-01 9.400000000000000000e+01
-4.098339006304740906e-02 -1.701247215270996094e+00 -2.970399521291255951e-02 8.400000000000000000e+01
-3.889568522572516701e-02 -1.602964997291564941e+00 4.296396076679229736e-01 1.000000000000000000e+02
-1.890114881098270069e-02 -7.415902018547058105e-01 -1.987730264663696012e-01 6.000000000000000000e+00
-4.314265772700309753e-02 -1.681190371513366921e+00 2.935494855046271931e-02 7.700000000000000000e+01
-4.625516384840012291e-02 -1.790294766426085982e+00 -4.134600460529326837e-01 5.600000000000000000e+01
-4.271255061030387878e-02 -1.653178811073303001e+00 8.666834235191345215e-02 7.700000000000000000e+01
-4.645501822233200073e-02 -1.785957455635071023e+00 -3.472723662853240967e-01 6.200000000000000000e+01
-4.307975992560386658e-02 -1.645149707794189009e+00 1.439812928438186923e-01 8.200000000000000000e+01
-4.601572081446648338e-02 -1.745626568794250044e+00 -2.765761315822600763e-01 8.200000000000000000e+01
-4.449461400508881309e-02 -1.676812767982482910e+00 2.059591859579086026e-01 9.000000000000000000e+01
-4.632434993982315063e-02 -1.734352111816406028e+00 -2.130276113748550137e-01 7.000000000000000000e+01
-4.288028553128241799e-02 -1.605408668518065962e+00 2.543624341487885077e-01 7.700000000000000000e+01
-4.647717624902725220e-02 -1.728769302368164062e+00 -1.513023674488067905e-01 7.800000000000000000e+01
-4.301477596163749695e-02 -1.589654207229614036e+00 3.091105818748474121e-01 1.000000000000000000e+02
-4.692383483052253723e-02 -1.722995758056641069e+00 -9.033185988664627075e-02 7.400000000000000000e+01
-4.447557777166367271e-02 -1.622691154479980025e+00 3.747684657573699951e-01 8.500000000000000000e+01
-4.725242406129837036e-02 -1.713087439537047896e+00 -2.991342544555664062e-02 8.600000000000000000e+01
-4.475885629653930664e-02 -1.612475037574768066e+00 4.322278201580048163e-01 9.700000000000000000e+01
-2.208832651376723896e-02 -7.530983090400695801e-01 -2.018788605928421021e-01 6.000000000000000000e+00
-4.936173185706139305e-02 -1.673017024993896040e+00 2.921532839536666870e-02 7.700000000000000000e+01
-5.312904343008995056e-02 -1.790103912353516069e+00 -4.134600460529326837e-01 3.100000000000000000e+01
-4.911922290921211243e-02 -1.654999017715454102e+00 8.677301555871963501e-02 7.500000000000000000e+01
-5.319507420063018799e-02 -1.781841039657592995e+00 -3.465091288089752197e-01 6.600000000000000000e+01
-4.975515976548194885e-02 -1.656921148300170898e+00 1.450271606445313055e-01 8.200000000000000000e+01
-5.295663326978682778e-02 -1.753334999084473100e+00 -2.778276205062866211e-01 7.500000000000000000e+01
-5.081221461296082237e-02 -1.672661185264586958e+00 2.054717093706130981e-01 9.300000000000000000e+01
-5.280156061053276062e-02 -1.728209018707274947e+00 -2.122963964939116877e-01 6.800000000000000000e+01
-4.928557947278022766e-02 -1.613129973411560059e+00 2.556139230728148859e-01 7.700000000000000000e+01
-5.305362492799758911e-02 -1.726586699485779031e+00 -1.511280536651611051e-01 7.200000000000000000e+01
-4.905764013528823853e-02 -1.587514996528625044e+00 3.087289631366729736e-01 1.000000000000000000e+02
-5.310503020882607200e-02 -1.708828806877136008e+00 -8.959915488958358765e-02 7.000000000000000000e+01
-5.052330717444419861e-02 -1.616665005683898926e+00 3.734187483787537176e-01 8.500000000000000000e+01
-5.408108979463577271e-02 -1.720888137817383035e+00 -3.005304373800754894e-02 8.200000000000000000e+01
-5.078993737697601318e-02 -1.616161942481995073e+00 4.332630932331085205e-01 9.700000000000000000e+01
-2.446348778903483998e-02 -7.452933788299560547e-01 -1.998082995414733887e-01 6.000000000000000000e+00
-5.559705942869185707e-02 -1.684826135635375977e+00 2.942475676536560059e-02 7.500000000000000000e+01
-5.918351560831069946e-02 -1.784064531326293945e+00 -4.121103286743164062e-01 4.900000000000000000e+01
-5.463107302784919739e-02 -1.646832823753356934e+00 8.635433018207550049e-02 7.200000000000000000e+01
-5.941453576087951660e-02 -1.781644582748413086e+00 -3.465091288089752197e-01 7.800000000000000000e+01
-5.593910813331604004e-02 -1.668684959411621094e+00 1.460730284452438077e-01 8.200000000000000000e+01
-5.960881337523459694e-02 -1.768933415412903054e+00 -2.803305685520172119e-01 7.700000000000000000e+01
-5.665058270096778870e-02 -1.672473669052124023e+00 2.054717093706130981e-01 9.000000000000000000e+01
-5.883381143212317727e-02 -1.728014111518860085e+00 -2.122963964939116877e-01 6.100000000000000000e+01
-5.505058914422988892e-02 -1.616896629333496094e+00 2.562396526336669922e-01 7.500000000000000000e+01
-5.901207029819489219e-02 -1.724399805068969949e+00 -1.509537398815155029e-01 7.600000000000000000e+01
-5.507122725248336792e-02 -1.601068735122681108e+00 3.114002943038939875e-01 1.000000000000000000e+02
-5.906963348388671875e-02 -1.708633065223694070e+00 -8.959915488958358765e-02 7.000000000000000000e+01
-5.589553341269493103e-02 -1.608688592910767046e+00 3.716191351413726807e-01 8.300000000000000000e+01
-5.945968627929688194e-02 -1.702702641487122026e+00 -2.973890118300915111e-02 8.000000000000000000e+01
-5.711967125535011292e-02 -1.627548933029175027e+00 4.363689124584197998e-01 1.000000000000000000e+02
-2.736031077802180897e-02 -7.606576681137084961e-01 -2.039494067430495938e-01 6.000000000000000000e+00
-6.103427335619925759e-02 -1.688639998435973899e+00 2.949456684291363109e-02 7.500000000000000000e+01
-6.507093459367752075e-02 -1.791659712791443093e+00 -4.139099419116973877e-01 2.100000000000000000e+01
-6.009186431765556335e-02 -1.646642565727234109e+00 8.635433018207550049e-02 7.100000000000000000e+01
-6.451024860143661499e-02 -1.767715454101562944e+00 -3.438377976417542059e-01 6.800000000000000000e+01
-6.118115410208702087e-02 -1.668501019477844016e+00 1.460730284452438077e-01 8.400000000000000000e+01
-6.516578048467636108e-02 -1.768737435340880904e+00 -2.803305685520172119e-01 8.100000000000000000e+01
-6.234512850642204285e-02 -1.684189796447753906e+00 2.069341391324996948e-01 8.700000000000000000e+01
-6.426223367452621460e-02 -1.727820754051208052e+00 -2.122963964939116877e-01 5.700000000000000000e+01
-5.968942493200302124e-02 -1.604871630668639915e+00 2.543624341487885077e-01 7.500000000000000000e+01
-6.420593708753585815e-02 -1.718232870101928933e+00 -1.504308134317398071e-01 8.600000000000000000e+01
-6.002720072865486145e-02 -1.598925948143004927e+00 3.110186755657196045e-01 8.700000000000000000e+01
-6.488882750272750854e-02 -1.720414042472838911e+00 -9.022718667984008789e-02 6.700000000000000000e+01
-6.094909459352493286e-02 -1.608505010604857954e+00 3.716191351413726807e-01 8.300000000000000000e+01
-6.488464772701263428e-02 -1.704505681991576926e+00 -2.977380529046059002e-02 8.200000000000000000e+01
-6.187495961785315773e-02 -1.625441789627074973e+00 4.358512759208679199e-01 1.000000000000000000e+02
-2.894879877567290913e-02 -7.335326075553894043e-01 -1.967024803161621094e-01 7.000000000000000000e+00
-6.684914976358413696e-02 -1.686418533325195090e+00 2.945966273546218872e-02 7.400000000000000000e+01
-3.845326229929924011e-02 -9.658098816871643066e-01 -2.231514453887938898e-01 1.000000000000000000e+00
-6.663740426301956177e-02 -1.666379451751708984e+00 8.740104734897613525e-02 7.200000000000000000e+01
-7.130790501832962036e-02 -1.783172965049744096e+00 -3.468907475471497137e-01 5.800000000000000000e+01
-6.652519106864929199e-02 -1.656332492828368919e+00 1.450271606445313055e-01 8.200000000000000000e+01
-7.149866968393325806e-02 -1.772446751594543013e+00 -2.809562981128693182e-01 7.900000000000000000e+01
-6.830402463674545288e-02 -1.685945391654968040e+00 2.071778774261474887e-01 8.500000000000000000e+01
-7.158432155847549438e-02 -1.759321093559264915e+00 -2.161962091922760010e-01 4.200000000000000000e+01
-6.613574922084808350e-02 -1.618458151817321999e+00 2.565525174140930176e-01 7.000000000000000000e+01
-6.987790763378143311e-02 -1.710035324096679910e+00 -1.497335731983185092e-01 9.600000000000000000e+01
-6.625213474035263062e-02 -1.614399433135986106e+00 3.140715956687927246e-01 9.800000000000000000e+01
-7.072930783033370972e-02 -1.716185927391052024e+00 -9.001784771680831909e-02 7.000000000000000000e+01
-6.704696267843246460e-02 -1.619964957237244096e+00 3.743185400962830145e-01 7.400000000000000000e+01
-7.066800445318222046e-02 -1.700272798538208008e+00 -2.970399521291255951e-02 8.200000000000000000e+01
-6.710704416036605835e-02 -1.607832551002501997e+00 4.311925172805786133e-01 1.000000000000000000e+02
-3.067994117736816059e-02 -7.141264081001281738e-01 -1.915261000394820889e-01 7.000000000000000000e+00
-7.256308197975158691e-02 -1.682179212570189986e+00 2.938985265791416168e-02 7.400000000000000000e+01
-3.693358600139617920e-02 -8.527487516403198242e-01 -1.970571279525757113e-01 1.600000000000000000e+01
-7.262729108333587646e-02 -1.670127391815185991e+00 8.761039376258850098e-02 7.300000000000000000e+01
-7.787308096885681152e-02 -1.790758848190308061e+00 -3.484172224998474121e-01 4.700000000000000000e+01
-7.230646163225173950e-02 -1.656090259552001953e+00 1.450271606445313055e-01 8.000000000000000000e+01
-7.716616988182067871e-02 -1.760345458984375000e+00 -2.790790796279907227e-01 6.600000000000000000e+01
-7.436321675777435303e-02 -1.689663052558898926e+00 2.076653540134429932e-01 8.500000000000000000e+01
-7.903946191072463989e-02 -1.788807868957519975e+00 -2.198522984981536865e-01 8.000000000000000000e+00
-7.167678326368331909e-02 -1.622176885604857954e+00 2.571782469749451239e-01 6.700000000000000000e+01
-7.584661245346069336e-02 -1.709781050682068093e+00 -1.497335731983185092e-01 9.000000000000000000e+01
-7.092621177434921265e-02 -1.592584013938904031e+00 3.098738193511962891e-01 9.100000000000000000e+01
-7.654106616973876953e-02 -1.711938023567199929e+00 -8.980850130319595337e-02 6.900000000000000000e+01
-7.296343147754669189e-02 -1.625561356544495073e+00 3.756682574748992920e-01 7.200000000000000000e+01
-7.714272290468215942e-02 -1.712001800537108931e+00 -2.991342544555664062e-02 8.600000000000000000e+01
-7.252539694309234619e-02 -1.609531164169311968e+00 4.317101538181304932e-01 9.500000000000000000e+01
-3.281389921903610229e-02 -7.062958478927612305e-01 -1.894555389881134033e-01 7.000000000000000000e+00
-7.880715280771255493e-02 -1.689905762672424094e+00 2.952947095036507000e-02 7.400000000000000000e+01
-3.991000726819037697e-02 -8.526146411895751953e-01 -1.970571279525757113e-01 3.300000000000000000e+01
-7.864415645599365234e-02 -1.673853874206542969e+00 8.781973272562026978e-02 7.100000000000000000e+01
-8.412352204322814941e-02 -1.790476083755492942e+00 -3.484172224998474121e-01 9.000000000000000000e+00
-7.902539521455764771e-02 -1.675729513168334961e+00 1.467702686786651889e-01 7.300000000000000000e+01
-8.368404209613800049e-02 -1.767958045005797896e+00 -2.803305685520172119e-01 4.700000000000000000e+01
-7.969557493925094604e-02 -1.677496075630187988e+00 2.062029242515563965e-01 8.200000000000000000e+01
-3.391468226909636896e-01 -7.112444877624511719e+00 -8.742906451225280762e-01 1.000000000000000000e+00
-7.866060733795166016e-02 -1.643607616424560991e+00 2.606198191642761230e-01 6.300000000000000000e+01
-8.257635682821273804e-02 -1.725426793098449929e+00 -1.511280536651611051e-01 7.500000000000000000e+01
-7.733267545700073242e-02 -1.609975576400757058e+00 3.133083581924437921e-01 9.800000000000000000e+01
-8.213169127702713013e-02 -1.703680634498595969e+00 -8.938981592655181885e-02 6.900000000000000000e+01
-7.816637307405471802e-02 -1.615564465522765891e+00 3.734187483787537176e-01 8.000000000000000000e+01
-8.331222832202911377e-02 -1.715716838836669922e+00 -2.998323366045951843e-02 8.400000000000000000e+01
-7.964657247066497803e-02 -1.634338736534119096e+00 4.384394586086273193e-01 8.600000000000000000e+01
-3.727279603481292725e-02 -7.408940792083740234e-01 -1.987730264663696012e-01 6.000000000000000000e+00
-8.569861948490142822e-02 -1.697579264640808105e+00 2.966909110546112061e-02 7.400000000000000000e+01
-1.636635363101958951e-01 -3.230765819549560991e+00 -7.468374967575073242e-01 2.000000000000000000e+00
-8.486790955066680908e-02 -1.669550180435181108e+00 8.761039376258850098e-02 7.100000000000000000e+01
-1.963479816913605014e-01 -3.862623929977416992e+00 -7.517874240875244141e-01 9.000000000000000000e+00
-8.566213399171829224e-02 -1.679393410682678001e+00 1.471188962459563931e-01 7.200000000000000000e+01
-8.654335886240005493e-02 -1.685107588768004927e+00 2.071778774261474887e-01 7.900000000000000000e+01
-3.654324710369110107e-01 -7.091265678405761719e+00 -8.718532919883728027e-01 1.000000000000000000e+00
-8.387091010808944702e-02 -1.627526164054871050e+00 2.581168711185454767e-01 5.800000000000000000e+01
-8.940666168928146362e-02 -1.729076385498047097e+00 -1.514766812324523926e-01 3.600000000000000000e+01
-8.371739834547042847e-02 -1.613588094711303933e+00 3.140715956687927246e-01 8.500000000000000000e+01
-8.836123347282409668e-02 -1.697369098663330078e+00 -8.907579630613327026e-02 7.400000000000000000e+01
-8.447075635194778442e-02 -1.617198467254638894e+00 3.738686442375183105e-01 9.200000000000000000e+01
-8.927154541015625000e-02 -1.703402519226073997e+00 -2.977380529046059002e-02 8.200000000000000000e+01
-8.624282479286193848e-02 -1.645611166954040971e+00 4.415452778339385986e-01 8.000000000000000000e+01
-3.882078081369400024e-02 -7.214688658714294434e-01 -1.935966461896896085e-01 7.000000000000000000e+00
