1.797420978546143022e+00 1.826516389846801980e+00 -5.916212797164916992e-01 1.400000000000000000e+01
2.074190616607666016e+00 2.107030630111693892e+00 -5.747166872024536133e-01 1.100000000000000000e+01
2.470351219177246094e+00 2.507711887359619141e+00 -5.575324296951293945e-01 9.000000000000000000e+00
3.051966190338135210e+00 3.095960617065430132e+00 -5.337877273559570312e-01 1.000000000000000000e+01
3.974451780319213867e+00 4.030336856842041016e+00 -4.952189326286315918e-01 8.000000000000000000e+00
5.685863971710205078e+00 5.761788845062255859e+00 -4.242352545261383057e-01 2.000000000000000000e+00
9.442176818847656250e+00 9.561582565307617188e+00 -2.345603406429291049e-01 2.000000000000000000e+00
1.575745105743407981e+00 1.590666651725769043e+00 -5.999425649642944336e-01 1.500000000000000000e+01
1.799987554550170898e+00 1.815764307975769043e+00 -5.902715921401977539e-01 1.200000000000000000e+01
2.076369762420653853e+00 2.093837976455688032e+00 -5.731902122497558594e-01 1.200000000000000000e+01
2.485091447830200195e+00 2.504249334335327148e+00 -5.587838888168334961e-01 1.000000000000000000e+01
3.068888187408446822e+00 3.090388059616088867e+00 -5.347626805305480957e-01 1.000000000000000000e+01
3.980772256851195845e+00 4.007261753082275391e+00 -4.941730499267578125e-01 8.000000000000000000e+00
5.726656913757324219e+00 5.760740756988525391e+00 -4.257006645202637274e-01 2.000000000000000000e+00
9.468696594238281250e+00 9.518404960632324219e+00 -2.343509197235106867e-01 2.000000000000000000e+00
4.075241088867188211e+01 4.095205307006835938e+01 1.548048496246338068e+01 2.000000000000000000e+01
1.571737527847290039e+00 1.575582623481750044e+00 -5.963190793991088867e-01 1.500000000000000000e+01
1.811821818351746050e+00 1.814986824989319070e+00 -5.920711755752563477e-01 1.300000000000000000e+01
2.087827682495117188e+00 2.090744972229003906e+00 -5.743350982666015625e-01 1.300000000000000000e+01
2.486836194992064986e+00 2.488573074340819868e+00 -5.572195649147033691e-01 1.000000000000000000e+01
3.086675167083739790e+00 3.086675167083739790e+00 -5.359813570976257324e-01 1.000000000000000000e+01
3.987690448760985884e+00 3.986298799514770952e+00 -4.933015108108521063e-01 6.000000000000000000e+00
5.760860919952392578e+00 5.754831314086914062e+00 -4.267473816871643066e-01 2.000000000000000000e+00
9.479221343994140625e+00 9.462691307067871094e+00 -2.337924391031264981e-01 2.000000000000000000e+00
1.582429170608520952e+00 1.575814604759216087e+00 -5.983896255493164062e-01 1.600000000000000000e+01
1.817830562591552956e+00 1.808968663215636985e+00 -5.920711755752563477e-01 1.200000000000000000e+01
2.098925113677978960e+00 2.087963819503784180e+00 -5.754799246788024902e-01 1.300000000000000000e+01
2.493674039840697798e+00 2.478919982910155806e+00 -5.569067001342773438e-01 1.000000000000000000e+01
3.096894025802611861e+00 3.076422452926636186e+00 -5.359813570976257324e-01 9.000000000000000000e+00
4.009369850158691406e+00 3.981476545333861861e+00 -4.943473637104033869e-01 6.000000000000000000e+00
5.799760818481445312e+00 5.755391597747802734e+00 -4.282127916812896729e-01 1.000000000000000000e+00
9.521907806396484375e+00 9.442469596862792969e+00 -2.340716719627380094e-01 2.000000000000000000e+00
1.597535610198975053e+00 1.579789876937865989e+00 -6.020131111145019531e-01 1.600000000000000000e+01
1.808886647224426047e+00 1.787544846534729004e+00 -5.871222615242004395e-01 1.100000000000000000e+01
2.108994007110596147e+00 2.083383798599243164e+00 -5.762431621551513672e-01 1.300000000000000000e+01
2.507935047149658203e+00 2.475751399993896040e+00 -5.581581592559814453e-01 9.000000000000000000e+00
3.633261489868164062e+01 3.585385131835938211e+01 6.267496585845947266e+00 5.400000000000000000e+01
3.111853361129761186e+00 3.069775819778441939e+00 -5.367125868797302246e-01 1.000000000000000000e+01
4.017569065093994141e+00 3.961861133575439009e+00 -4.936501383781433105e-01 6.000000000000000000e+00
5.788518428802490234e+00 5.704270362854003906e+00 -4.259100258350371759e-01 1.000000000000000000e+00
9.563359260559082031e+00 9.417593002319335938e+00 -2.342811077833175937e-01 2.000000000000000000e+00
1.604143738746643066e+00 1.575837373733520952e+00 -6.025307178497314453e-01 1.600000000000000000e+01
1.825929641723633035e+00 1.792457818984984907e+00 -5.907214879989624023e-01 1.200000000000000000e+01
2.114489793777465820e+00 2.075003623962401900e+00 -5.758615732192993164e-01 1.200000000000000000e+01
2.513310432434082031e+00 2.464654922485352007e+00 -5.575324296951293945e-01 9.000000000000000000e+00
3.110673666000366211e+00 3.048324584960937944e+00 -5.347626805305480957e-01 1.000000000000000000e+01
4.050610542297363281e+00 3.968036174774169922e+00 -4.960905015468596857e-01 8.000000000000000000e+00
5.847364902496337891e+00 5.724164009094238281e+00 -4.288408160209655762e-01 1.000000000000000000e+00
9.623125076293945312e+00 9.413795471191406250e+00 -2.349791973829269132e-01 2.000000000000000000e+00
1.606868982315063032e+00 1.567530274391174094e+00 -6.014954447746276855e-01 1.700000000000000000e+01
1.832175374031066895e+00 1.786073207855225053e+00 -5.907214879989624023e-01 1.100000000000000000e+01
2.113283872604370117e+00 2.059388875961304155e+00 -5.735718607902526855e-01 1.200000000000000000e+01
2.527559280395507812e+00 2.461379528045653853e+00 -5.587838888168334961e-01 9.000000000000000000e+00
3.126986026763916016e+00 3.042985439300537109e+00 -5.357376337051391602e-01 1.000000000000000000e+01
4.051583766937255859e+00 3.941369295120238814e+00 -4.945216774940490723e-01 9.000000000000000000e+00
5.861582279205322266e+00 5.698149204254150391e+00 -4.284221231937407892e-01 1.000000000000000000e+00
9.661664009094238281e+00 9.385720252990722656e+00 -2.351188212633132935e-01 2.000000000000000000e+00
1.599842905998229980e+00 1.549814343452454057e+00 -5.968367457389831543e-01 1.600000000000000000e+01
1.845399618148803933e+00 1.786443948745727983e+00 -5.929709672927856445e-01 1.200000000000000000e+01
2.121870279312133789e+00 2.053364992141724077e+00 -5.739534497261047363e-01 1.300000000000000000e+01
2.533295631408690962e+00 2.449795246124268022e+00 -5.581581592559814453e-01 9.000000000000000000e+00
3.141871213912963867e+00 3.036190032958983931e+00 -5.364688634872436523e-01 1.000000000000000000e+01
4.058152198791503906e+00 3.920281171798706055e+00 -4.936501383781433105e-01 9.000000000000000000e+00
5.867067337036132812e+00 5.663782119750976562e+00 -4.273754060268402100e-01 1.000000000000000000e+00
9.645435333251953125e+00 9.304733276367187500e+00 -2.339320629835129062e-01 2.000000000000000000e+00
1.612204194068908913e+00 1.550916910171509011e+00 -5.994248986244201660e-01 1.700000000000000000e+01
1.847409605979918990e+00 1.775939822196960005e+00 -5.916212797164916992e-01 1.100000000000000000e+01
2.134687423706055132e+00 2.051387071609497070e+00 -5.754799246788024902e-01 1.300000000000000000e+01
2.538981914520264116e+00 2.438200950622559038e+00 -5.575324296951293945e-01 9.000000000000000000e+00
3.156747341156005859e+00 3.029327869415283203e+00 -5.372000932693481445e-01 1.000000000000000000e+01
4.084752082824707031e+00 3.918505191802978960e+00 -4.952189326286315918e-01 9.000000000000000000e+00
5.892568588256835938e+00 5.648796558380126953e+00 -4.277940988540648859e-01 2.000000000000000000e+00
9.703848838806152344e+00 9.295907974243164062e+00 -2.345603406429291049e-01 2.000000000000000000e+00
1.620401859283447044e+00 1.547948718070984109e+00 -6.004601716995239258e-01 1.700000000000000000e+01
1.853597521781920943e+00 1.769480347633362038e+00 -5.916212797164916992e-01 1.100000000000000000e+01
2.150357007980347124e+00 2.052055358886719194e+00 -5.777696371078491211e-01 1.300000000000000000e+01
2.547477483749390093e+00 2.429323434829711914e+00 -5.575324296951293945e-01 9.000000000000000000e+00
3.164428234100341797e+00 3.015551328659058061e+00 -5.367125868797302246e-01 1.000000000000000000e+01
4.095520019531250000e+00 3.901474475860596147e+00 -4.948703050613402765e-01 8.000000000000000000e+00
5.897784709930419922e+00 5.614422321319580078e+00 -4.267473816871643066e-01 2.000000000000000000e+00
9.736238479614257812e+00 9.261978149414062500e+00 -2.345603406429291049e-01 2.000000000000000000e+00
1.625795364379883035e+00 1.542283058166503906e+00 -6.004601716995239258e-01 1.800000000000000000e+01
1.861177086830138938e+00 1.764339923858643022e+00 -5.920711755752563477e-01 1.300000000000000000e+01
2.153231620788574219e+00 2.040485620498656782e+00 -5.766248106956481934e-01 1.300000000000000000e+01
2.558810472488402876e+00 2.423132896423339844e+00 -5.581581592559814453e-01 9.000000000000000000e+00
3.169167757034302202e+00 2.999029159545897993e+00 -5.357376337051391602e-01 1.000000000000000000e+01
4.116350650787354404e+00 3.894000530242919922e+00 -4.957418739795684814e-01 9.000000000000000000e+00
5.931860923767089844e+00 5.607521057128906250e+00 -4.277940988540648859e-01 2.000000000000000000e+00
9.797582626342773438e+00 9.255400657653808594e+00 -2.352584451436995905e-01 2.000000000000000000e+00
1.628356695175170898e+00 1.533949255943297896e+00 -5.994248986244201660e-01 1.600000000000000000e+01
1.865905523300170898e+00 1.756496787071228027e+00 -5.916212797164916992e-01 1.100000000000000000e+01
2.150332927703856978e+00 2.023538827896118164e+00 -5.739534497261047363e-01 1.300000000000000000e+01
2.573009252548218218e+00 2.419599056243896040e+00 -5.594096183776855469e-01 9.000000000000000000e+00
3.178170442581177202e+00 2.986589193344116211e+00 -5.354939103126525879e-01 9.000000000000000000e+00
4.129918098449707031e+00 3.879608154296875000e+00 -4.957418739795684814e-01 9.000000000000000000e+00
5.960135936737061435e+00 5.594982624053955078e+00 -4.284221231937407892e-01 1.000000000000000000e+00
9.791911125183105469e+00 9.185572624206542969e+00 -2.343509197235106867e-01 2.000000000000000000e+00
1.630879640579224077e+00 1.525616407394408958e+00 -5.983896255493164062e-01 1.600000000000000000e+01
1.886261463165282981e+00 1.763280630111693892e+00 -5.961202979087829590e-01 1.300000000000000000e+01
2.171727657318114790e+00 2.029424905776977983e+00 -5.777696371078491211e-01 1.200000000000000000e+01
2.582883358001708984e+00 2.411951065063477007e+00 -5.597225427627563477e-01 1.000000000000000000e+01
3.190027713775635210e+00 2.976831436157227007e+00 -5.357376337051391602e-01 1.000000000000000000e+01
4.140521526336669922e+00 3.862450122833251953e+00 -4.953932464122772217e-01 9.000000000000000000e+00
5.979629516601563388e+00 5.574143886566162109e+00 -4.284221231937407892e-01 2.000000000000000000e+00
9.832694053649902344e+00 9.159514427185058594e+00 -2.345603406429291049e-01 2.000000000000000000e+00
1.635929822921752930e+00 1.520199775695801003e+00 -5.983896255493164062e-01 1.700000000000000000e+01
1.879246354103087935e+00 1.745081424713134988e+00 -5.920711755752563477e-01 1.300000000000000000e+01
2.174129009246826172e+00 2.018204927444458008e+00 -5.766248106956481934e-01 1.300000000000000000e+01
2.574937105178833008e+00 2.388595104217528853e+00 -5.562809705734252930e-01 9.000000000000000000e+00
3.207160711288452148e+00 2.972984075546265093e+00 -5.369563102722167969e-01 1.000000000000000000e+01
4.147461414337158203e+00 3.843281745910644975e+00 -4.946959912776947021e-01 9.000000000000000000e+00
5.998081207275390625e+00 5.554284095764160156e+00 -4.284221231937407892e-01 2.000000000000000000e+00
9.842466354370117188e+00 9.107843399047851562e+00 -2.340716719627380094e-01 2.000000000000000000e+00
1.644065856933593972e+00 1.517100334167480025e+00 -5.994248986244201660e-01 1.800000000000000000e+01
1.878163218498229980e+00 1.731905698776244895e+00 -5.898216366767883301e-01 1.100000000000000000e+01
2.182604074478148970e+00 2.011934280395507812e+00 -5.770063996315002441e-01 1.300000000000000000e+01
2.583259105682373047e+00 2.379592418670653853e+00 -5.562809705734252930e-01 9.000000000000000000e+00
3.218979358673096147e+00 2.963115215301514116e+00 -5.372000932693481445e-01 1.000000000000000000e+01
4.176979064941406250e+00 3.843621015548706055e+00 -4.966134130954741877e-01 9.000000000000000000e+00
6.014492511749267578e+00 5.530609130859375000e+00 -4.282127916812896729e-01 2.000000000000000000e+00
9.924261093139648438e+00 9.119434356689453125e+00 -2.352584451436995905e-01 2.000000000000000000e+00
1.656473040580749956e+00 1.517877936363219993e+00 -6.020131111145019531e-01 1.900000000000000000e+01
1.887071728706360085e+00 1.727971196174622026e+00 -5.907214879989624023e-01 1.200000000000000000e+01
2.192510128021239790e+00 2.006954431533813032e+00 -5.777696371078491211e-01 1.300000000000000000e+01
2.597379922866820845e+00 2.375893592834473100e+00 -5.575324296951293945e-01 9.000000000000000000e+00
3.224907398223876953e+00 2.947843074798583984e+00 -5.364688634872436523e-01 1.000000000000000000e+01
4.193312168121337891e+00 3.831705331802368164e+00 -4.969620406627655029e-01 9.000000000000000000e+00
6.042610645294188565e+00 5.517661571502686435e+00 -4.288408160209655762e-01 2.000000000000000000e+00
9.926490783691406250e+00 9.057779312133789062e+00 -2.345603406429291049e-01 2.000000000000000000e+00
3.925503921508789062e+01 3.581965637207031250e+01 1.423918819427490057e+01 1.700000000000000000e+01
1.658903598785399947e+00 1.509486198425292969e+00 -6.009778380393981934e-01 1.900000000000000000e+01
1.898859143257140891e+00 1.726617693901062012e+00 -5.925210714340209961e-01 1.300000000000000000e+01
2.187880039215087891e+00 1.988724589347838911e+00 -5.747166872024536133e-01 1.300000000000000000e+01
2.617355346679687944e+00 2.377438068389893022e+00 -5.600354075431823730e-01 9.000000000000000000e+00
3.236647367477416992e+00 2.937902212142943892e+00 -5.367125868797302246e-01 1.000000000000000000e+01
4.202235221862792969e+00 3.813028097152709961e+00 -4.964390993118286133e-01 9.000000000000000000e+00
6.070711612701416016e+00 5.504584789276123047e+00 -4.294688701629639227e-01 2.000000000000000000e+00
9.958047866821289062e+00 9.023074150085449219e+00 -2.345603406429291049e-01 2.000000000000000000e+00
1.664162635803223100e+00 1.503686308860779031e+00 -6.009778380393981934e-01 2.100000000000000000e+01
1.907767415046691895e+00 1.722590804100037065e+00 -5.934208631515502930e-01 1.400000000000000000e+01
2.196265935897827148e+00 1.982390761375427024e+00 -5.750983357429504395e-01 1.300000000000000000e+01
2.616837024688721147e+00 2.360348939895629883e+00 -5.581581592559814453e-01 9.000000000000000000e+00
3.245408296585083008e+00 2.925257205963135210e+00 -5.364688634872436523e-01 9.000000000000000000e+00
4.206638813018798828e+00 3.790334224700928178e+00 -4.953932464122772217e-01 9.000000000000000000e+00
6.083951950073242188e+00 5.478014945983886719e+00 -4.290501773357390802e-01 2.000000000000000000e+00
9.977591514587402344e+00 8.977559089660644531e+00 -2.342811077833175937e-01 2.000000000000000000e+00
1.662211775779723899e+00 1.491417407989501953e+00 -5.983896255493164062e-01 1.900000000000000000e+01
1.913768768310547097e+00 1.715921044349669966e+00 -5.934208631515502930e-01 1.400000000000000000e+01
2.204634428024291992e+00 1.976022720336914062e+00 -5.754799246788024902e-01 1.400000000000000000e+01
2.622117280960083008e+00 2.348564147949219194e+00 -5.575324296951293945e-01 9.000000000000000000e+00
3.261516332626343218e+00 2.919206380844116211e+00 -5.374438166618347168e-01 9.000000000000000000e+00
4.227267742156982422e+00 3.782269716262816939e+00 -4.962647855281829834e-01 8.000000000000000000e+00
6.100059032440186435e+00 5.454082012176513672e+00 -4.288408160209655762e-01 2.000000000000000000e+00
9.999920845031738281e+00 8.934681892395019531e+00 -2.340716719627380094e-01 2.000000000000000000e+00
1.672656774520874023e+00 1.491330504417418990e+00 -6.004601716995239258e-01 2.000000000000000000e+01
1.906054973602294922e+00 1.698233008384705034e+00 -5.893717408180236816e-01 1.300000000000000000e+01
2.210831403732299805e+00 1.969086885452270952e+00 -5.754799246788024902e-01 1.500000000000000000e+01
2.632433891296387163e+00 2.342941761016846147e+00 -5.581581592559814453e-01 9.000000000000000000e+00
3.266221284866333008e+00 2.904987812042235884e+00 -5.367125868797302246e-01 1.000000000000000000e+01
4.231684207916259766e+00 3.762351512908935991e+00 -4.953932464122772217e-01 9.000000000000000000e+00
6.117163181304931641e+00 5.434891223907470703e+00 -4.288408160209655762e-01 2.000000000000000000e+00
1.003392219543457031e+01 8.908533096313476562e+00 -2.342112958431243896e-01 2.000000000000000000e+00
1.687977313995361106e+00 1.494446873664855957e+00 -6.040836572647094727e-01 1.900000000000000000e+01
1.919268846511841042e+00 1.698025703430176003e+00 -5.916212797164916992e-01 1.300000000000000000e+01
2.223573923110961914e+00 1.966560244560241921e+00 -5.770063996315002441e-01 1.400000000000000000e+01
2.645036697387694868e+00 2.337662935256958008e+00 -5.590967535972595215e-01 1.000000000000000000e+01
3.262950420379639116e+00 2.881742477416992188e+00 -5.345189571380615234e-01 1.000000000000000000e+01
4.268689155578613281e+00 3.768655300140380859e+00 -4.981822371482849121e-01 9.000000000000000000e+00
6.133101940155029297e+00 5.410862922668457031e+00 -4.286314845085144043e-01 2.000000000000000000e+00
1.015495681762694957e+01 8.952798843383789062e+00 -2.363055795431137085e-01 2.000000000000000000e+00
3.610271835327147727e+01 3.181762886047362926e+01 1.289436435699463068e+01 1.400000000000000000e+01
1.684478282928467019e+00 1.480892419815063032e+00 -6.009778380393981934e-01 1.900000000000000000e+01
1.923720359802246094e+00 1.690029621124268022e+00 -5.911713838577270508e-01 1.200000000000000000e+01
2.218623638153076172e+00 1.948422551155090110e+00 -5.739534497261047363e-01 1.300000000000000000e+01
2.651695728302001953e+00 2.327112913131713867e+00 -5.587838888168334961e-01 9.000000000000000000e+00
3.284929513931273970e+00 2.880805969238280806e+00 -5.364688634872436523e-01 1.000000000000000000e+01
4.266836166381835938e+00 3.740597724914550781e+00 -4.964390993118286133e-01 9.000000000000000000e+00
6.169979572296142578e+00 5.405214309692382812e+00 -4.298875331878662109e-01 2.000000000000000000e+00
1.013198089599609020e+01 8.869878768920898438e+00 -2.350490093231200894e-01 2.000000000000000000e+00
1.685271382331847922e+00 1.471192121505737083e+00 -5.994248986244201660e-01 1.800000000000000000e+01
1.934013485908508079e+00 1.687147498130797896e+00 -5.925210714340209961e-01 1.100000000000000000e+01
2.225411415100098100e+00 1.940666198730468972e+00 -5.739534497261047363e-01 1.400000000000000000e+01
2.665759801864624023e+00 2.323033571243286133e+00 -5.600354075431823730e-01 9.000000000000000000e+00
3.294965505599976030e+00 2.869321823120117188e+00 -5.364688634872436523e-01 9.000000000000000000e+00
4.276862144470214844e+00 3.723064661026000977e+00 -4.960905015468596857e-01 9.000000000000000000e+00
6.197851181030273438e+00 5.391509532928466797e+00 -4.305155873298645020e-01 2.000000000000000000e+00
1.695978879928589089e+00 1.470657944679260032e+00 -6.014954447746276855e-01 1.800000000000000000e+01
1.941070318222045898e+00 1.682000994682312012e+00 -5.929709672927856445e-01 1.200000000000000000e+01
2.242222309112548828e+00 1.942273736000061035e+00 -5.766248106956481934e-01 1.200000000000000000e+01
2.664487361907958984e+00 2.306423902511597124e+00 -5.581581592559814453e-01 9.000000000000000000e+00
3.664832305908203125e+01 3.171220207214355113e+01 5.950636386871337891e+00 4.900000000000000000e+01
3.307465076446533203e+00 2.860976934432982954e+00 -5.369563102722167969e-01 1.000000000000000000e+01
4.307269573211669922e+00 3.724499702453612837e+00 -4.981822371482849121e-01 8.000000000000000000e+00
6.194538593292236328e+00 5.352644920349121094e+00 -4.290501773357390802e-01 2.000000000000000000e+00
1.018909358978270951e+01 8.798093795776367188e+00 -2.349791973829269132e-01 2.000000000000000000e+00
3.581422805786132812e+01 3.091401290893555043e+01 1.267695713043213068e+01 1.400000000000000000e+01
1.704029917716979980e+00 1.467249989509582964e+00 -6.025307178497314453e-01 1.700000000000000000e+01
1.939543843269347922e+00 1.668859958648682085e+00 -5.907214879989624023e-01 1.200000000000000000e+01
2.251965045928955078e+00 1.936995625495911089e+00 -5.773880481719970703e-01 1.200000000000000000e+01
2.677016258239746094e+00 2.300971746444702148e+00 -5.590967535972595215e-01 1.000000000000000000e+01
3.690936279296875000e+01 3.171345138549805043e+01 5.975010395050048828e+00 4.900000000000000000e+01
3.329478502273560014e+00 2.859761714935303178e+00 -5.389062166213989258e-01 9.000000000000000000e+00
4.305128097534179688e+00 3.696462869644165039e+00 -4.964390993118286133e-01 9.000000000000000000e+00
6.219248294830322266e+00 5.336191654205322266e+00 -4.294688701629639227e-01 2.000000000000000000e+00
1.023188781738281072e+01 8.772886276245117188e+00 -2.352584451436995905e-01 2.000000000000000000e+00
3.595125579833983664e+01 3.081395339965819957e+01 1.268730926513672053e+01 1.400000000000000000e+01
1.712077856063842995e+00 1.463803768157958984e+00 -6.035659909248352051e-01 1.800000000000000000e+01
1.940912604331969993e+00 1.658281922340393066e+00 -5.893717408180236816e-01 1.200000000000000000e+01
2.248262643814086914e+00 1.920197725296020952e+00 -5.747166872024536133e-01 1.100000000000000000e+01
2.686534166336060014e+00 2.292895555496215820e+00 -5.594096183776855469e-01 1.600000000000000000e+01
3.327357769012451172e+00 2.837816953659058061e+00 -5.369563102722167969e-01 9.000000000000000000e+00
4.330133914947509766e+00 3.691753625869750977e+00 -4.978336095809937079e-01 9.000000000000000000e+00
6.234796524047851562e+00 5.311859607696533203e+00 -4.292595088481903076e-01 2.000000000000000000e+00
1.019849777221680043e+01 8.682671546936035156e+00 -2.337924391031264981e-01 2.000000000000000000e+00
3.605859756469727273e+01 3.068827247619628906e+01 1.268730926513672053e+01 1.400000000000000000e+01
1.706868171691894975e+00 1.449066638946532981e+00 -5.999425649642944336e-01 1.600000000000000000e+01
1.955605387687683105e+00 1.659060955047606978e+00 -5.920711755752563477e-01 1.200000000000000000e+01
2.247465133666992188e+00 1.905989050865172896e+00 -5.728086233139038086e-01 8.000000000000000000e+00
2.712605714797974077e+00 2.298829555511475053e+00 -5.631640553474426270e-01 1.100000000000000000e+01
3.328154087066649947e+00 2.818487644195557085e+00 -5.354939103126525879e-01 9.000000000000000000e+00
4.339952945709229404e+00 3.674041509628295898e+00 -4.974849820137023926e-01 9.000000000000000000e+00
6.280747413635253906e+00 5.313282489776611328e+00 -4.311436116695404053e-01 2.000000000000000000e+00
1.023179817199707031e+01 8.649601936340332031e+00 -2.338622510433197021e-01 2.000000000000000000e+00
3.646060943603516336e+01 3.081160354614258168e+01 1.279083728790283025e+01 1.400000000000000000e+01
1.707484722137450950e+00 1.439364314079284890e+00 -5.983896255493164062e-01 1.800000000000000000e+01
1.968836784362792969e+00 1.658501863479614036e+00 -5.943207144737243652e-01 1.300000000000000000e+01
2.258609771728516069e+00 1.901926159858704057e+00 -5.739534497261047363e-01 7.000000000000000000e+00
2.714567661285399947e+00 2.284259319305419922e+00 -5.619125962257385254e-01 1.100000000000000000e+01
3.351646184921265093e+00 2.818351268768310991e+00 -5.376875400543212891e-01 1.000000000000000000e+01
4.349700927734375000e+00 3.656305789947510210e+00 -4.971363544464110773e-01 9.000000000000000000e+00
6.299255847930908203e+00 5.291326522827148438e+00 -4.311436116695404053e-01 2.000000000000000000e+00
1.024661254882813033e+01 8.600976943969726562e+00 -2.335131913423537930e-01 2.000000000000000000e+00
1.724349856376647949e+00 1.443315029144287109e+00 -6.025307178497314453e-01 2.000000000000000000e+01
1.968634963035583052e+00 1.646618127822875977e+00 -5.925210714340209961e-01 1.100000000000000000e+01
2.259210586547852007e+00 1.888993144035338911e+00 -5.724269747734069824e-01 7.000000000000000000e+00
2.708881855010985884e+00 2.263370513916016069e+00 -5.590967535972595215e-01 1.000000000000000000e+01
3.361463546752930132e+00 2.806634664535522017e+00 -5.376875400543212891e-01 1.000000000000000000e+01
4.357848644256591797e+00 3.637270212173461914e+00 -4.966134130954741877e-01 9.000000000000000000e+00
6.323822975158691406e+00 5.274422645568847656e+00 -4.315623044967650812e-01 2.000000000000000000e+00
1.031036758422851918e+01 8.593323707580566406e+00 -2.342811077833175937e-01 2.000000000000000000e+00
3.608411026000977273e+01 3.006414604187012074e+01 1.258481693267822088e+01 1.400000000000000000e+01
1.726656436920166016e+00 1.434516191482543945e+00 -6.014954447746276855e-01 1.900000000000000000e+01
1.965660691261291948e+00 1.631922960281372070e+00 -5.898216366767883301e-01 1.200000000000000000e+01
2.272161722183227983e+00 1.885715246200561968e+00 -5.739534497261047363e-01 9.000000000000000000e+00
2.717159271240233931e+00 2.253426790237427202e+00 -5.590967535972595215e-01 1.000000000000000000e+01
3.373256206512451172e+00 2.795562267303466797e+00 -5.379312634468078613e-01 9.000000000000000000e+00
4.377287864685058594e+00 3.626357555389403853e+00 -4.973106682300568182e-01 9.000000000000000000e+00
6.333881378173828125e+00 5.243567466735839844e+00 -4.309342503547667902e-01 2.000000000000000000e+00
1.036644744873047053e+01 8.575870513916015625e+00 -2.348395884037018100e-01 2.000000000000000000e+00
3.633470535278320312e+01 3.005868339538573863e+01 1.263554573059082031e+01 1.400000000000000000e+01
1.743575215339661089e+00 1.438314914703368919e+00 -6.056365370750427246e-01 1.700000000000000000e+01
1.975856304168700950e+00 1.628770232200623003e+00 -5.911713838577270508e-01 1.300000000000000000e+01
2.286305904388428178e+00 1.884015083312988059e+00 -5.758615732192993164e-01 1.200000000000000000e+01
2.737207889556885210e+00 2.253973960876464844e+00 -5.615997314453125000e-01 1.000000000000000000e+01
3.373796939849853960e+00 2.776202201843262163e+00 -5.364688634872436523e-01 9.000000000000000000e+00
4.403767585754395419e+00 3.622447252273560014e+00 -4.988794624805449884e-01 9.000000000000000000e+00
6.367575168609619141e+00 5.234108924865722656e+00 -4.319809973239899237e-01 2.000000000000000000e+00
1.038395786285400035e+01 8.529479026794433594e+00 -2.345603406429291049e-01 2.000000000000000000e+00
3.641477203369141336e+01 2.990078926086426137e+01 1.262519264221191051e+01 1.400000000000000000e+01
1.742108821868896040e+00 1.427931666374206987e+00 -6.035659909248352051e-01 1.800000000000000000e+01
1.986993789672852007e+00 1.627494096755981001e+00 -5.929709672927856445e-01 1.300000000000000000e+01
2.295251369476317915e+00 1.879310607910156028e+00 -5.766248106956481934e-01 1.300000000000000000e+01
2.748862028121947798e+00 2.249116420745850053e+00 -5.625383257865905762e-01 1.100000000000000000e+01
3.391722917556763139e+00 2.773128509521483931e+00 -5.379312634468078613e-01 1.000000000000000000e+01
4.410498142242431641e+00 3.604812145233153853e+00 -4.983565509319304865e-01 9.000000000000000000e+00
6.383987426757813388e+00 5.214078426361083984e+00 -4.319809973239899237e-01 2.000000000000000000e+00
1.042619419097900035e+01 8.509458541870117188e+00 -2.349093854427337924e-01 2.000000000000000000e+00
3.626985168457031250e+01 2.960205841064453125e+01 1.254444122314452947e+01 1.300000000000000000e+01
1.739590883255005105e+00 1.415744781494141069e+00 -6.009778380393981934e-01 1.900000000000000000e+01
1.998710274696350098e+00 1.625466465950011985e+00 -5.947706103324890137e-01 1.400000000000000000e+01
2.301797628402709961e+00 1.871287226676940918e+00 -5.766248106956481934e-01 1.300000000000000000e+01
2.750563383102416992e+00 2.234525203704833984e+00 -5.612868666648864746e-01 9.000000000000000000e+00
3.401382207870482954e+00 2.761272430419921875e+00 -5.379312634468078613e-01 1.000000000000000000e+01
4.419960498809813565e+00 3.586883544921875000e+00 -4.980079233646392822e-01 1.100000000000000000e+01
6.395943641662597656e+00 5.186730384826660156e+00 -4.315623044967650812e-01 1.000000000000000000e+00
3.675689697265625000e+01 2.979702949523926137e+01 1.092407321929931996e+01 1.300000000000000000e+01
1.041544055938721058e+01 8.440279006958007812e+00 -2.340018600225448886e-01 2.000000000000000000e+00
3.649519348144531250e+01 2.956377220153808949e+01 1.258481693267822088e+01 1.400000000000000000e+01
1.743019461631774902e+00 1.408449649810791016e+00 -6.004601716995239258e-01 1.900000000000000000e+01
1.992242693901062012e+00 1.608685731887816939e+00 -5.911713838577270508e-01 1.100000000000000000e+01
2.315953969955443892e+00 1.869406700134276900e+00 -5.785328745841979980e-01 1.400000000000000000e+01
2.750658750534058061e+00 2.218709230422974077e+00 -5.597225427627563477e-01 1.000000000000000000e+01
3.411000013351439986e+00 2.749382495880126953e+00 -5.379312634468078613e-01 9.000000000000000000e+00
4.441762447357177734e+00 3.578933715820312944e+00 -4.990537762641906738e-01 1.100000000000000000e+01
6.429566383361816406e+00 5.176898479461669922e+00 -4.326090216636658270e-01 1.000000000000000000e+00
3.686068344116210938e+01 2.966854095458984020e+01 1.092407321929931996e+01 1.300000000000000000e+01
1.050092697143555043e+01 8.448999404907226562e+00 -2.352584451436995905e-01 2.000000000000000000e+00
1.753952622413635032e+00 1.407192587852478027e+00 -6.025307178497314453e-01 2.000000000000000000e+01
1.997845888137816939e+00 1.601721644401550071e+00 -5.911713838577270508e-01 1.200000000000000000e+01
2.327061176300048828e+00 1.864994406700134055e+00 -5.796777009963989258e-01 1.500000000000000000e+01
2.758386850357056108e+00 2.209094285964965820e+00 -5.597225427627563477e-01 1.000000000000000000e+01
3.425225973129272017e+00 2.741180181503295898e+00 -5.386624932289123535e-01 1.000000000000000000e+01
4.468230724334716797e+00 3.574609041213988814e+00 -5.006225705146789551e-01 9.000000000000000000e+00
6.438237667083740234e+00 5.146941184997558594e+00 -4.319809973239899237e-01 2.000000000000000000e+00
1.052410602569580078e+01 8.407299995422363281e+00 -2.351188212633132935e-01 2.000000000000000000e+00
1.761875987052917036e+00 1.403468847274780051e+00 -6.035659909248352051e-01 2.000000000000000000e+01
2.000375509262084961e+00 1.592310786247252974e+00 -5.902715921401977539e-01 1.100000000000000000e+01
2.322803258895874023e+00 1.848303198814392090e+00 -5.770063996315002441e-01 1.400000000000000000e+01
2.776904344558715820e+00 2.208058118820189986e+00 -5.619125962257385254e-01 9.000000000000000000e+00
3.422340154647827148e+00 2.719327688217163086e+00 -5.367125868797302246e-01 1.000000000000000000e+01
4.469759941101074219e+00 3.550315618515015093e+00 -4.994024038314818781e-01 1.100000000000000000e+01
6.462422370910645419e+00 5.129402637481688565e+00 -4.323996603488922119e-01 2.000000000000000000e+00
1.055965614318848012e+01 8.375483512878417969e+00 -2.352584451436995905e-01 2.000000000000000000e+00
3.770279312133789062e+01 2.990430068969726918e+01 1.289436435699463068e+01 1.400000000000000000e+01
1.759188175201416016e+00 1.391318321228026900e+00 -6.009778380393981934e-01 1.900000000000000000e+01
2.015094757080078125e+00 1.592568397521973100e+00 -5.929709672927856445e-01 1.200000000000000000e+01
2.332321882247924805e+00 1.842617869377136008e+00 -5.777696371078491211e-01 1.400000000000000000e+01
2.786145448684691939e+00 2.199575662612915039e+00 -5.622254610061645508e-01 1.000000000000000000e+01
3.439604043960570845e+00 2.713512420654296875e+00 -5.379312634468078613e-01 9.000000000000000000e+00
4.458659172058104581e+00 3.516185522079468218e+00 -4.967877268791198730e-01 1.300000000000000000e+01
6.495975017547607422e+00 5.119175434112548828e+00 -4.334463775157927912e-01 2.000000000000000000e+00
1.057311725616455078e+01 8.326200485229492188e+00 -2.349093854427337924e-01 2.000000000000000000e+00
1.762514591217041016e+00 1.383976101875304954e+00 -6.004601716995239258e-01 1.800000000000000000e+01
2.026774168014525923e+00 1.590336680412292036e+00 -5.947706103324890137e-01 1.100000000000000000e+01
2.331015825271606001e+00 1.828407049179076926e+00 -5.758615732192993164e-01 1.300000000000000000e+01
2.789142131805419922e+00 2.186180830001831055e+00 -5.612868666648864746e-01 9.000000000000000000e+00
3.449054956436156782e+00 2.701489448547362837e+00 -5.379312634468078613e-01 1.000000000000000000e+01
4.464631080627441406e+00 3.495687246322631836e+00 -4.960905015468596857e-01 1.100000000000000000e+01
6.501220703125000000e+00 5.086623191833496094e+00 -4.326090216636658270e-01 2.000000000000000000e+00
1.063362312316895064e+01 8.313876152038574219e+00 -2.356074899435043057e-01 2.000000000000000000e+00
3.851940536499022727e+01 3.011631774902344105e+01 1.310142040252686080e+01 1.500000000000000000e+01
1.768858432769774947e+00 1.379003047943115012e+00 -6.009778380393981934e-01 1.600000000000000000e+01
2.023089170455933061e+00 1.576066493988037109e+00 -5.920711755752563477e-01 1.100000000000000000e+01
2.345128774642943892e+00 1.826290488243103027e+00 -5.777696371078491211e-01 1.400000000000000000e+01
2.796756505966186968e+00 2.176431655883789062e+00 -5.612868666648864746e-01 9.000000000000000000e+00
3.466299057006835938e+00 2.695526599884033203e+00 -5.391499996185302734e-01 1.000000000000000000e+01
4.468940734863281250e+00 3.473967552185059038e+00 -4.952189326286315918e-01 1.100000000000000000e+01
6.522090911865234375e+00 5.066349506378173828e+00 -4.328183531761168878e-01 2.000000000000000000e+00
1.066889858245849965e+01 8.281612396240234375e+00 -2.357470989227294922e-01 2.000000000000000000e+00
1.778244376182555930e+00 1.376367568969727007e+00 -6.025307178497314453e-01 1.800000000000000000e+01
2.028578519821166992e+00 1.568994998931884988e+00 -5.920711755752563477e-01 1.100000000000000000e+01
2.356148958206177202e+00 1.821695923805237038e+00 -5.789144635200500488e-01 1.300000000000000000e+01
2.805899620056151900e+00 2.167863607406616211e+00 -5.615997314453125000e-01 1.000000000000000000e+01
3.553144073486328125e+01 2.744201278686523082e+01 5.512393951416015625e+00 3.700000000000000000e+01
3.470973253250122070e+00 2.679771184921265093e+00 -5.384187698364257812e-01 9.000000000000000000e+00
4.504699230194091797e+00 3.476606369018555132e+00 -4.978336095809937079e-01 1.100000000000000000e+01
6.542899608612061435e+00 5.045991420745849609e+00 -4.330277144908905029e-01 2.000000000000000000e+00
3.901419067382813211e+01 3.007752609252930043e+01 1.137307548522949041e+01 1.400000000000000000e+01
1.069140529632568004e+01 8.239438056945800781e+00 -2.356074899435043057e-01 2.000000000000000000e+00
1.786101579666137917e+00 1.372506141662598100e+00 -6.035659909248352051e-01 1.900000000000000000e+01
2.030951738357543945e+00 1.559530615806580034e+00 -5.911713838577270508e-01 1.100000000000000000e+01
2.360936164855957031e+00 1.812264800071716087e+00 -5.785328745841979980e-01 1.300000000000000000e+01
2.813449859619141069e+00 2.158056020736693892e+00 -5.615997314453125000e-01 1.000000000000000000e+01
3.474004268646239790e+00 2.662808418273925781e+00 -5.374438166618347168e-01 9.000000000000000000e+00
4.526296138763427734e+00 3.468131542205810991e+00 -4.988794624805449884e-01 9.000000000000000000e+00
6.573159694671630859e+00 5.032835483551025391e+00 -4.338650703430175781e-01 1.000000000000000000e+00
1.073280715942382990e+01 8.211788177490234375e+00 -2.358867228031157892e-01 2.000000000000000000e+00
3.592539596557617188e+01 2.747697448730469105e+01 1.211894321441650035e+01 1.200000000000000000e+01
1.787809848785399947e+00 1.363919615745543990e+00 -6.025307178497314453e-01 1.800000000000000000e+01
2.039482593536376953e+00 1.554794669151305930e+00 -5.920711755752563477e-01 1.100000000000000000e+01
2.361001729965209961e+00 1.799252629280090110e+00 -5.770063996315002441e-01 1.200000000000000000e+01
2.822537422180175781e+00 2.149418830871582031e+00 -5.619125962257385254e-01 1.000000000000000000e+01
3.480118513107299805e+00 2.648261308670043945e+00 -5.369563102722167969e-01 9.000000000000000000e+00
4.557403564453125000e+00 3.466785907745360884e+00 -5.009711980819702148e-01 9.000000000000000000e+00
6.587507724761962891e+00 5.007442951202392578e+00 -4.336557388305664062e-01 2.000000000000000000e+00
1.073592758178710938e+01 8.154920578002929688e+00 -2.353282421827316007e-01 2.000000000000000000e+00
1.778699874877929910e+00 1.347173213958740012e+00 -5.978720188140869141e-01 1.600000000000000000e+01
2.048005104064940962e+00 1.550018191337585005e+00 -5.929709672927856445e-01 1.200000000000000000e+01
2.370399236679077148e+00 1.793369293212891069e+00 -5.777696371078491211e-01 1.100000000000000000e+01
2.836325883865356001e+00 2.144318342208861861e+00 -5.631640553474426270e-01 9.000000000000000000e+00
3.503596782684326172e+00 2.646866798400878906e+00 -5.391499996185302734e-01 7.000000000000000000e+00
4.558347702026367188e+00 3.442451238632202148e+00 -4.997510313987731934e-01 9.000000000000000000e+00
6.598569869995117188e+00 4.979605197906494141e+00 -4.332370460033416748e-01 2.000000000000000000e+00
1.076113510131835938e+01 8.114987373352050781e+00 -2.352584451436995905e-01 2.000000000000000000e+00
3.795943450927733664e+01 2.862526512145996094e+01 1.273907375335693004e+01 1.400000000000000000e+01
1.787789106369018999e+00 1.344751238822937012e+00 -5.994248986244201660e-01 1.600000000000000000e+01
2.056249380111693892e+00 1.545560002326965110e+00 -5.938707590103149414e-01 1.100000000000000000e+01
2.381042003631591797e+00 1.789036870002747026e+00 -5.789144635200500488e-01 1.100000000000000000e+01
2.837102413177489790e+00 2.130156755447388139e+00 -5.619125962257385254e-01 9.000000000000000000e+00
3.520294189453125000e+00 2.641190528869628906e+00 -5.403686761856079102e-01 9.000000000000000000e+00
4.601616382598876953e+00 3.451225042343140093e+00 -5.032372474670410156e-01 9.000000000000000000e+00
6.621439456939697266e+00 4.962487220764160156e+00 -4.336557388305664062e-01 2.000000000000000000e+00
1.081039428710938033e+01 8.096039772033691406e+00 -2.357470989227294922e-01 2.000000000000000000e+00
1.804855465888977051e+00 1.347749471664428933e+00 -6.035659909248352051e-01 1.700000000000000000e+01
2.052260875701903853e+00 1.531380295753479004e+00 -5.911713838577270508e-01 1.100000000000000000e+01
2.395140886306763139e+00 1.786583781242371050e+00 -5.808225870132446289e-01 1.100000000000000000e+01
2.855607509613037109e+00 2.128504276275635210e+00 -5.641027092933654785e-01 1.000000000000000000e+01
3.519940137863159180e+00 2.621771574020386186e+00 -5.389062166213989258e-01 9.000000000000000000e+00
4.594458580017089844e+00 3.420863151550292969e+00 -5.011455416679382324e-01 9.000000000000000000e+00
6.629106998443604404e+00 4.932190895080566406e+00 -4.330277144908905029e-01 1.000000000000000000e+00
3.144698905944823863e+01 2.338867568969726918e+01 9.047981262207031250e+00 1.200000000000000000e+01
1.086426544189452947e+01 8.077344894409179688e+00 -2.363055795431137085e-01 2.000000000000000000e+00
3.218263626098632812e+01 2.391836929321289062e+01 1.074409580230713068e+01 9.000000000000000000e+00
1.804893255233765093e+00 1.337989807128906028e+00 -6.020131111145019531e-01 1.900000000000000000e+01
2.057593822479248047e+00 1.524207234382628950e+00 -5.911713838577270508e-01 1.100000000000000000e+01
2.388740301132202148e+00 1.768865585327147993e+00 -5.777696371078491211e-01 1.100000000000000000e+01
2.851904392242432085e+00 2.110298395156859907e+00 -5.619125962257385254e-01 1.000000000000000000e+01
3.521089553833007812e+00 2.603567600250244141e+00 -5.376875400543212891e-01 7.000000000000000000e+00
4.617587089538574219e+00 3.413094520568848100e+00 -5.023657083511352539e-01 9.000000000000000000e+00
6.646283149719238281e+00 4.909020900726318359e+00 -4.330277144908905029e-01 1.000000000000000000e+00
3.152216911315917969e+01 2.327413368225098012e+01 9.046181678771972656e+00 1.200000000000000000e+01
1.085377979278563920e+01 8.010871887207031250e+00 -2.354678660631180087e-01 2.000000000000000000e+00
3.230529785156250000e+01 2.384363937377930043e+01 1.075858974456786932e+01 9.000000000000000000e+00
1.811108589172363059e+00 1.332826375961303933e+00 -6.025307178497314453e-01 1.800000000000000000e+01
2.069181680679320845e+00 1.521633625030518022e+00 -5.929709672927856445e-01 1.200000000000000000e+01
2.394900321960449219e+00 1.760516643524169922e+00 -5.777696371078491211e-01 1.100000000000000000e+01
2.871989488601685014e+00 2.109686136245727983e+00 -5.644155740737915039e-01 1.100000000000000000e+01
3.533356666564940962e+00 2.593610048294066939e+00 -5.381750464439392090e-01 9.000000000000000000e+00
4.642323493957520419e+00 3.406384706497191939e+00 -5.037602186203002930e-01 9.000000000000000000e+00
6.660156726837158203e+00 4.883429050445556641e+00 -4.328183531761168878e-01 2.000000000000000000e+00
3.156863975524901988e+01 2.313861274719237926e+01 9.036283493041992188e+00 1.200000000000000000e+01
1.088167762756348012e+01 7.972936630249023438e+00 -2.354678660631180087e-01 2.000000000000000000e+00
3.175564765930176137e+01 2.326716423034667969e+01 1.054842853546142933e+01 9.000000000000000000e+00
1.812630176544189009e+00 1.324217200279236062e+00 -6.014954447746276855e-01 1.800000000000000000e+01
2.074480533599853960e+00 1.514401555061340110e+00 -5.929709672927856445e-01 1.100000000000000000e+01
2.401031017303466797e+00 1.752146124839782937e+00 -5.777696371078491211e-01 1.100000000000000000e+01
2.869759798049927202e+00 2.092664718627930132e+00 -5.625383257865905762e-01 1.200000000000000000e+01
3.553618907928466797e+00 2.589443922042847124e+00 -5.398811697959899902e-01 1.000000000000000000e+01
4.589767932891845703e+00 3.343236684799193892e+00 -4.967877268791198730e-01 9.000000000000000000e+00
6.702999114990234375e+00 4.878956794738770419e+00 -4.344930946826934814e-01 2.000000000000000000e+00
3.164921569824219105e+01 2.302827835083008168e+01 9.036283493041992188e+00 1.200000000000000000e+01
1.092884731292724965e+01 7.949018955230712891e+00 -2.358867228031157892e-01 2.000000000000000000e+00
3.180321311950683949e+01 2.312335205078125000e+01 1.053600597381591975e+01 9.000000000000000000e+00
1.821933150291443093e+00 1.321284294128417969e+00 -6.030483841896057129e-01 1.900000000000000000e+01
2.079754114151000977e+00 1.507151126861572044e+00 -5.929709672927856445e-01 1.100000000000000000e+01
2.419852018356322798e+00 1.752968311309814009e+00 -5.808225870132446289e-01 1.200000000000000000e+01
2.869046211242675781e+00 2.076843261718750000e+00 -5.609740018844604492e-01 1.300000000000000000e+01
3.561027765274047852e+00 2.575860261917113814e+00 -5.396374464035034180e-01 1.000000000000000000e+01
4.675678253173828125e+00 3.380897045135498047e+00 -5.048060417175292969e-01 9.000000000000000000e+00
6.703800201416015625e+00 4.843832015991210938e+00 -4.334463775157927912e-01 2.000000000000000000e+00
3.188738250732421875e+01 2.303176498413085938e+01 9.081274032592773438e+00 1.200000000000000000e+01
1.095652866363525035e+01 7.910821914672851562e+00 -2.358867228031157892e-01 2.000000000000000000e+00
3.184144020080566051e+01 2.298167228698730113e+01 1.052202987670898082e+01 1.800000000000000000e+01
1.828331708908081055e+00 1.315726041793823020e+00 -6.035659909248352051e-01 1.800000000000000000e+01
2.075771331787108931e+00 1.492691993713378906e+00 -5.902715921401977539e-01 1.100000000000000000e+01
2.421478271484375000e+00 1.740649580955504927e+00 -5.796777009963989258e-01 1.200000000000000000e+01
2.883056640625000000e+00 2.070923328399658203e+00 -5.622254610061645508e-01 1.300000000000000000e+01
3.727374267578125000e+01 2.676417541503905895e+01 5.634263515472412109e+00 4.000000000000000000e+01
3.567219495773314986e+00 2.560476064682006836e+00 -5.391499996185302734e-01 1.000000000000000000e+01
3.159800338745116832e+01 2.268039131164551137e+01 6.160389423370361328e+00 1.400000000000000000e+01
4.718795776367188388e+00 3.385805845260620117e+00 -5.081179738044738770e-01 9.000000000000000000e+00
6.718262672424316406e+00 4.816901206970214844e+00 -4.332370460033416748e-01 1.000000000000000000e+00
1.100495624542235973e+01 7.884586334228515625e+00 -2.363055795431137085e-01 2.000000000000000000e+00
3.200555801391602273e+01 2.292218017578125000e+01 1.054842853546142933e+01 9.000000000000000000e+00
1.837629199028014915e+00 1.312704801559448020e+00 -6.051189303398132324e-01 1.900000000000000000e+01
2.080969095230102983e+00 1.485437035560607910e+00 -5.902715921401977539e-01 1.100000000000000000e+01
2.430735826492310014e+00 1.734467148780822976e+00 -5.804409384727478027e-01 1.300000000000000000e+01
2.890267848968505859e+00 2.060847043991088867e+00 -5.622254610061645508e-01 1.300000000000000000e+01
3.728611373901367188e+01 2.657629394531250000e+01 5.622076511383056641e+00 4.000000000000000000e+01
3.572902202606201172e+00 2.545704841613769975e+00 -5.386624932289123535e-01 1.000000000000000000e+01
4.737077236175537109e+00 3.373937129974364790e+00 -5.088152289390563965e-01 8.000000000000000000e+00
6.738290309906005859e+00 4.795737266540527344e+00 -4.334463775157927912e-01 2.000000000000000000e+00
1.105196666717528942e+01 7.860031604766845703e+00 -2.367244362831116000e-01 2.000000000000000000e+00
1.838820815086364968e+00 1.304368376731873003e+00 -6.040836572647094727e-01 1.900000000000000000e+01
2.103371858596802202e+00 1.490924358367919922e+00 -5.952205061912536621e-01 1.300000000000000000e+01
2.433270215988159180e+00 1.724126935005187988e+00 -5.796777009963989258e-01 1.200000000000000000e+01
2.905146837234497070e+00 2.056958675384521040e+00 -5.637897849082946777e-01 1.100000000000000000e+01
3.586185932159423828e+00 2.537282228469849077e+00 -5.393937230110168457e-01 9.000000000000000000e+00
4.736852645874023438e+00 3.350156545639038086e+00 -5.075950622558593750e-01 8.000000000000000000e+00
6.760680675506591797e+00 4.777976512908936435e+00 -4.338650703430175781e-01 2.000000000000000000e+00
1.108450412750243963e+01 7.827952861785888672e+00 -2.368640601634978970e-01 2.000000000000000000e+00
3.201485824584960938e+01 2.260911178588866832e+01 1.050184154510498047e+01 9.000000000000000000e+00
1.833885312080383079e+00 1.291268467903136985e+00 -6.009778380393981934e-01 1.900000000000000000e+01
2.105375766754149947e+00 1.481330394744873047e+00 -5.943207144737243652e-01 1.200000000000000000e+01
2.439273834228516069e+00 1.715622663497925027e+00 -5.796777009963989258e-01 1.200000000000000000e+01
2.912309169769287109e+00 2.046805143356322798e+00 -5.637897849082946777e-01 1.100000000000000000e+01
3.251852416992188211e+01 2.284592437744140980e+01 4.879648685455322266e+00 2.100000000000000000e+01
3.595020771026610884e+00 2.524748563766479048e+00 -5.393937230110168457e-01 9.000000000000000000e+00
4.753410339355468750e+00 3.337035655975341797e+00 -5.081179738044738770e-01 8.000000000000000000e+00
6.780587673187255859e+00 4.756642341613770419e+00 -4.340744316577910822e-01 1.000000000000000000e+00
3.145275688171387074e+01 2.205619812011719105e+01 8.868920326232910156e+00 1.200000000000000000e+01
1.110521125793457031e+01 7.784621715545654297e+00 -2.367244362831116000e-01 2.000000000000000000e+00
3.245506286621093750e+01 2.274216651916503906e+01 1.061882781982422053e+01 9.000000000000000000e+00
1.844265103340148926e+00 1.289929747581481934e+00 -6.030483841896057129e-01 1.900000000000000000e+01
2.106824636459351030e+00 1.472476124763488992e+00 -5.934208631515502930e-01 1.300000000000000000e+01
2.451089143753052202e+00 1.712448596954345925e+00 -5.812041759490966797e-01 1.200000000000000000e+01
2.912246227264403853e+00 2.033122777938843218e+00 -5.625383257865905762e-01 1.200000000000000000e+01
3.617587566375731978e+00 2.523663997650146040e+00 -5.415873527526855469e-01 1.000000000000000000e+01
3.185782051086426137e+01 2.222432327270508168e+01 6.152254581451416016e+00 1.400000000000000000e+01
4.763870239257813388e+00 3.322086095809936968e+00 -5.081179738044738770e-01 8.000000000000000000e+00
6.805329322814941406e+00 4.742168426513671875e+00 -4.347024559974669855e-01 2.000000000000000000e+00
3.022986793518066051e+01 2.105728721618651988e+01 8.505399703979492188e+00 1.100000000000000000e+01
1.114274120330811080e+01 7.758836746215820312e+00 -2.370036840438843051e-01 2.000000000000000000e+00
3.249068832397460938e+01 2.262369346618651988e+01 1.060847473144531072e+01 9.000000000000000000e+00
1.851930379867553933e+00 1.285687685012816939e+00 -6.040836572647094727e-01 1.900000000000000000e+01
