3.656013107299804688e+01 7.205950736999511719e+00 5.901959419250488281e+00 1.300000000000000000e+01
5.965993404388427734e+00 1.175889015197753906e+00 -5.319986343383789062e-01 9.000000000000000000e+00
8.742195129394531250e+00 1.719904541969299094e+00 -4.669414162635803223e-01 1.000000000000000000e+00
3.382025527954102273e+01 6.647531032562255859e+00 7.957418441772460938e+00 9.000000000000000000e+00
3.524955368041992188e+01 6.922076702117919922e+00 9.625480651855468750e+00 7.000000000000000000e+00
2.284878730773925781e+00 4.453771114349365234e-01 -6.237539052963256836e-01 1.400000000000000000e+01
2.591940641403197798e+00 5.042917132377624512e-01 -6.096173524856567383e-01 8.000000000000000000e+00
3.052659273147583008e+00 5.933768153190612793e-01 -6.044828891754150391e-01 1.200000000000000000e+01
3.663177013397216797e+00 7.107225656509399414e-01 -5.910094380378723145e-01 1.200000000000000000e+01
4.665629386901854581e+00 9.035266637802124023e-01 -5.835103988647460938e-01 9.000000000000000000e+00
6.001359462738037109e+00 1.161111950874329057e+00 -5.347876548767089844e-01 9.000000000000000000e+00
8.732457160949707031e+00 1.686348557472229004e+00 -4.661040306091309149e-01 1.000000000000000000e+00
3.346056365966796875e+01 6.455602645874023438e+00 7.867438316345214844e+00 9.000000000000000000e+00
1.551206302642822088e+01 2.989960432052611861e+00 -2.757480144500731867e-01 2.000000000000000000e+00
3.328663253784179688e+01 6.409995555877686435e+00 9.082995414733886719e+00 6.000000000000000000e+00
2.292188167572021040e+00 4.380875825881958008e-01 -6.253067851066589355e-01 1.500000000000000000e+01
2.593771696090697798e+00 4.947884082794188898e-01 -6.096173524856567383e-01 8.000000000000000000e+00
3.049027919769287109e+00 5.810816884040832520e-01 -6.033380627632141113e-01 1.200000000000000000e+01
3.669638395309447798e+00 6.980298161506652832e-01 -5.916351675987243652e-01 1.000000000000000000e+01
3.702630996704102273e+01 7.036359786987304688e+00 4.627622604370117188e+00 1.900000000000000000e+01
4.665009498596191406e+00 8.856796622276306152e-01 -5.830229520797729492e-01 9.000000000000000000e+00
6.017319679260253906e+00 1.141335844993591087e+00 -5.358334779739379883e-01 9.000000000000000000e+00
8.746429443359375000e+00 1.655817270278931108e+00 -4.665227234363555908e-01 1.000000000000000000e+00
1.557400608062743963e+01 2.942739009857178178e+00 -2.766555547714232843e-01 2.000000000000000000e+00
3.424275207519531250e+01 6.470234870910645419e+00 9.337673187255859375e+00 7.000000000000000000e+00
2.286108493804932085e+00 4.286595582962036133e-01 -6.232362389564514160e-01 1.500000000000000000e+01
2.608891248703002930e+00 4.882407486438751221e-01 -6.127666831016540527e-01 7.000000000000000000e+00
3.761765289306641336e+01 7.033157348632813388e+00 2.005618572235106978e+00 2.100000000000000000e+01
3.051037788391112837e+00 5.704350471496582031e-01 -6.033380627632141113e-01 1.200000000000000000e+01
3.679820060729980025e+00 6.866655945777893066e-01 -5.928866267204284668e-01 1.000000000000000000e+01
3.692184829711914062e+01 6.883060455322265625e+00 4.611536026000976562e+00 1.900000000000000000e+01
4.679781913757324219e+00 8.715711236000061035e-01 -5.844853520393371582e-01 9.000000000000000000e+00
3.741159439086914062e+01 6.960847854614257812e+00 6.027107238769531250e+00 1.300000000000000000e+01
6.025184631347656250e+00 1.121053457260132058e+00 -5.361821055412292480e-01 9.000000000000000000e+00
8.771792411804199219e+00 1.628922939300537109e+00 -4.675694406032562256e-01 1.000000000000000000e+00
3.436812210083007812e+01 6.375959396362304688e+00 8.069893836975097656e+00 1.000000000000000000e+01
1.560384464263916016e+01 2.892001628875731978e+00 -2.770045995712280273e-01 2.000000000000000000e+00
3.351672363281250000e+01 6.211957454681395596e+00 9.133724212646484375e+00 6.000000000000000000e+00
2.278017759323120117e+00 4.193275272846221924e-01 -6.206480860710144043e-01 1.500000000000000000e+01
2.612412691116333008e+00 4.799387753009796143e-01 -6.132165789604187012e-01 8.000000000000000000e+00
3.056774616241455078e+00 5.610231161117553711e-01 -6.041013002395629883e-01 1.200000000000000000e+01
3.684020042419434038e+00 6.748149991035461426e-01 -5.931994915008544922e-01 1.200000000000000000e+01
3.668281173706054688e+01 6.712703704833984375e+00 4.578875064849854404e+00 1.900000000000000000e+01
4.686551570892333984e+00 8.567615747451782227e-01 -5.849728584289550781e-01 9.000000000000000000e+00
6.024949073791503906e+00 1.100351095199584961e+00 -5.358334779739379883e-01 9.000000000000000000e+00
8.808584213256835938e+00 1.605556011199950950e+00 -4.692441821098328192e-01 1.000000000000000000e+00
1.565269756317139027e+01 2.847399473190308061e+00 -2.777026891708374023e-01 2.000000000000000000e+00
3.350102615356445312e+01 6.094208717346191406e+00 9.123888969421386719e+00 1.300000000000000000e+01
2.292775392532349077e+00 4.137749075889586847e-01 -6.242715120315551758e-01 1.500000000000000000e+01
2.608318567276000977e+00 4.697805643081665039e-01 -6.118668913841247559e-01 8.000000000000000000e+00
3.058714389801024947e+00 5.503495335578918457e-01 -6.041013002395629883e-01 1.200000000000000000e+01
3.668854475021361861e+00 6.588090658187866211e-01 -5.903836488723754883e-01 1.100000000000000000e+01
3.665912628173828125e+01 6.576203823089599609e+00 4.573025226593017578e+00 1.900000000000000000e+01
4.675836086273193359e+00 8.379460573196411133e-01 -5.832666754722595215e-01 1.100000000000000000e+01
3.648587799072266336e+01 6.531980037689208984e+00 5.870672702789306641e+00 1.300000000000000000e+01
6.028753757476806641e+00 1.079313397407531960e+00 -5.358334779739379883e-01 9.000000000000000000e+00
8.794473648071289062e+00 1.571285724639893022e+00 -4.681974649429320734e-01 1.000000000000000000e+00
3.395797729492188211e+01 6.061067581176757812e+00 7.963717460632324219e+00 1.000000000000000000e+01
1.572947502136229936e+01 2.804678916931151900e+00 -2.788894474506378174e-01 2.000000000000000000e+00
3.355356979370117188e+01 5.976800918579101562e+00 9.132171630859375000e+00 1.300000000000000000e+01
2.290330410003662109e+00 4.054959118366240900e-01 -6.232362389564514160e-01 1.500000000000000000e+01
2.611780881881713867e+00 4.614675343036652166e-01 -6.123167872428894043e-01 8.000000000000000000e+00
3.792964172363281250e+01 6.701671600341796875e+00 2.018597841262816939e+00 2.200000000000000000e+01
3.066322565078734907e+00 5.412272214889526367e-01 -6.052461266517639160e-01 1.200000000000000000e+01
3.676855325698852983e+00 6.476671099662780762e-01 -5.913223028182983398e-01 1.100000000000000000e+01
3.790068817138671875e+01 6.669273376464843750e+00 4.725118160247802734e+00 2.000000000000000000e+01
4.694230079650878906e+00 8.251852989196777344e-01 -5.852165818214416504e-01 1.100000000000000000e+01
3.665131378173828125e+01 6.436235427856445312e+00 5.893825054168701172e+00 1.300000000000000000e+01
6.032299518585205078e+00 1.059315443038939986e+00 -5.358334779739379883e-01 9.000000000000000000e+00
8.823243141174316406e+00 1.546250700950623003e+00 -4.694535136222838800e-01 1.000000000000000000e+00
1.574656867980957031e+01 2.753880500793457031e+00 -2.790290713310242254e-01 2.000000000000000000e+00
3.371680450439453125e+01 5.896653175354003906e+00 9.171511650085449219e+00 6.000000000000000000e+00
2.301249027252196822e+00 3.991494476795197088e-01 -6.258244514465332031e-01 1.400000000000000000e+01
2.611455678939818892e+00 4.520155489444733221e-01 -6.118668913841247559e-01 8.000000000000000000e+00
3.783472442626953125e+01 6.548793315887451172e+00 2.012317419052124023e+00 2.100000000000000000e+01
3.068193197250366211e+00 5.305204987525939941e-01 -6.052461266517639160e-01 1.200000000000000000e+01
3.692719936370850053e+00 6.371797919273376465e-01 -5.935123562812805176e-01 1.000000000000000000e+01
3.784548568725585938e+01 6.523446559906005859e+00 4.715368747711181641e+00 2.000000000000000000e+01
4.691212654113770419e+00 8.077837824821472168e-01 -5.844853520393371582e-01 9.000000000000000000e+00
6.051668643951416016e+00 1.040954351425170898e+00 -5.372279882431030273e-01 9.000000000000000000e+00
8.836461067199707031e+00 1.516793966293334961e+00 -4.698722064495087225e-01 1.000000000000000000e+00
3.388320541381835938e+01 5.810023307800292969e+00 7.936723232269287109e+00 9.000000000000000000e+00
1.580338954925536932e+01 2.707000732421875000e+00 -2.798667848110198975e-01 2.000000000000000000e+00
3.449882888793945312e+01 5.909388065338134766e+00 9.378566741943359375e+00 7.000000000000000000e+00
2.298887252807617188e+00 3.900659382343292236e-01 -6.247891783714294434e-01 1.400000000000000000e+01
2.609251976013184038e+00 4.417904019355773926e-01 -6.109670400619506836e-01 8.000000000000000000e+00
3.062373876571654829e+00 5.179618000984191895e-01 -6.037196516990661621e-01 1.200000000000000000e+01
3.704740905761718750e+01 6.259449481964111328e+00 3.287165880203247070e+00 4.800000000000000000e+01
3.695030689239501953e+00 6.236410140991210938e-01 -5.935123562812805176e-01 1.000000000000000000e+01
4.698057174682617188e+00 7.912436127662658691e-01 -5.849728584289550781e-01 9.000000000000000000e+00
6.065267562866210938e+00 1.020419597625731978e+00 -5.380995273590087891e-01 8.000000000000000000e+00
8.857718467712402344e+00 1.487041831016540971e+00 -4.707095921039580744e-01 3.000000000000000000e+00
1.579348278045653942e+01 2.645756483078002930e+00 -2.795177400112152100e-01 2.000000000000000000e+00
3.375912475585938211e+01 5.649339675903320312e+00 9.171511650085449219e+00 6.000000000000000000e+00
2.288800477981566939e+00 3.801398277282714844e-01 -6.216833591461181641e-01 1.500000000000000000e+01
2.628081083297729048e+00 4.355472624301909845e-01 -6.150161623954772949e-01 7.000000000000000000e+00
3.814859008789063211e+01 6.322299003601074219e+00 2.026552915573120117e+00 2.200000000000000000e+01
3.071910858154296875e+00 5.085515379905700684e-01 -6.052461266517639160e-01 1.100000000000000000e+01
3.695235967636107954e+00 6.104171872138977051e-01 -5.931994915008544922e-01 1.100000000000000000e+01
3.666511154174804688e+01 6.050147533416748047e+00 4.562788009643554688e+00 1.900000000000000000e+01
4.690997123718261719e+00 7.732252478599548340e-01 -5.837541818618774414e-01 1.100000000000000000e+01
6.045201301574707031e+00 9.953573346138000488e-01 -5.360078215599060059e-01 9.000000000000000000e+00
3.456593704223632812e+01 5.685171127319335938e+00 6.809209823608398438e+00 5.900000000000000000e+01
8.878622055053710938e+00 1.458703994750977007e+00 -4.715469777584075928e-01 1.000000000000000000e+00
3.347392654418945312e+01 5.493564605712890625e+00 7.831446170806884766e+00 9.000000000000000000e+00
1.592102336883544922e+01 2.610020875930786133e+00 -2.816120386123657227e-01 2.000000000000000000e+00
3.381676864624022727e+01 5.537707805633544922e+00 9.181864738464355469e+00 6.000000000000000000e+00
2.297740697860718218e+00 3.733875751495360773e-01 -6.237539052963256836e-01 1.400000000000000000e+01
2.604578256607056108e+00 4.223161637783051092e-01 -6.091674566268920898e-01 8.000000000000000000e+00
3.811916732788085938e+01 6.180785655975341797e+00 2.023831367492675781e+00 2.200000000000000000e+01
3.073667287826538086e+00 4.978254735469818115e-01 -6.052461266517639160e-01 1.100000000000000000e+01
3.731442260742188211e+01 6.036934375762938565e+00 3.307037591934204102e+00 4.800000000000000000e+01
3.695394277572631836e+00 5.971995592117309570e-01 -5.928866267204284668e-01 1.000000000000000000e+01
3.668600463867188211e+01 5.922125339508056641e+00 4.562788009643554688e+00 1.900000000000000000e+01
4.723064422607421875e+00 7.615860700607299805e-01 -5.874102115631103516e-01 1.100000000000000000e+01
6.076177597045898438e+00 9.786852002143859863e-01 -5.384481549263000488e-01 8.000000000000000000e+00
8.927042961120605469e+00 1.434675097465514915e+00 -4.738497436046599787e-01 1.000000000000000000e+00
3.326200485229492188e+01 5.339619636535645419e+00 7.777457714080811435e+00 9.000000000000000000e+00
1.594978141784667969e+01 2.557596445083618164e+00 -2.819610834121704102e-01 2.000000000000000000e+00
3.715119171142578125e+01 5.950656414031982422e+00 1.008151912689208984e+01 8.000000000000000000e+00
2.304753780364989790e+00 3.662742972373961847e-01 -6.253067851066589355e-01 1.500000000000000000e+01
5.939711761474608664e+01 9.428833961486816406e+00 1.049762248992919922e+00 6.300000000000000000e+01
2.590639114379882812e+00 4.107804298400878906e-01 -6.055682301521301270e-01 8.000000000000000000e+00
3.807738494873046875e+01 6.037678241729736328e+00 2.020481824874877930e+00 2.200000000000000000e+01
3.090898990631103960e+00 4.895503222942351740e-01 -6.082990765571594238e-01 1.100000000000000000e+01
3.730771636962891336e+01 5.902287006378173828e+00 3.304597139358520952e+00 4.800000000000000000e+01
3.701358556747436968e+00 5.849132537841796875e-01 -5.935123562812805176e-01 1.000000000000000000e+01
3.949081039428710938e+01 6.233535766601563388e+00 4.908896923065186435e+00 2.200000000000000000e+01
4.710007190704345703e+00 7.426214814186096191e-01 -5.854603052139282227e-01 9.000000000000000000e+00
3.817468261718750000e+01 6.018959045410156250e+00 6.120967864990234375e+00 1.400000000000000000e+01
6.085461139678955078e+00 9.583992958068847656e-01 -5.389711260795593262e-01 9.000000000000000000e+00
8.880697250366210938e+00 1.395444393157958984e+00 -4.711282849311829168e-01 1.000000000000000000e+00
3.347296142578125000e+01 5.253696918487548828e+00 7.822447776794433594e+00 9.000000000000000000e+00
1.597836780548096058e+01 2.505002737045288086e+00 -2.823101282119750977e-01 2.000000000000000000e+00
3.495776748657227273e+01 5.474240779876708984e+00 9.481059074401855469e+00 7.000000000000000000e+00
2.313591480255126953e+00 3.598169684410095215e-01 -6.273773908615112305e-01 1.700000000000000000e+01
2.461039543151855025e+00 3.818687796592711847e-01 -5.749748945236206055e-01 7.000000000000000000e+00
3.821166992187500000e+01 5.929137706756591797e+00 2.026552915573120117e+00 2.200000000000000000e+01
3.080864906311035156e+00 4.774937033653259277e-01 -6.060093641281127930e-01 1.100000000000000000e+01
3.705229997634888139e+00 5.729377269744873047e-01 -5.938252210617065430e-01 1.100000000000000000e+01
3.868729782104492188e+01 5.975282669067382812e+00 4.806527137756347656e+00 2.000000000000000000e+01
4.710481643676757812e+00 7.266957759857177734e-01 -5.852165818214416504e-01 1.100000000000000000e+01
3.682783508300781250e+01 5.681506156921386719e+00 5.901959419250488281e+00 1.300000000000000000e+01
6.100420475006104404e+00 9.400345087051391602e-01 -5.400170087814331055e-01 9.000000000000000000e+00
8.912912368774414062e+00 1.370236039161681907e+00 -4.725936949253082275e-01 1.000000000000000000e+00
3.360576629638671875e+01 5.160414695739746094e+00 7.849442005157470703e+00 9.000000000000000000e+00
1.601030540466308949e+01 2.455640792846680132e+00 -2.827289700508118231e-01 2.000000000000000000e+00
3.473801422119141336e+01 5.328073501586914062e+00 9.416872024536132812e+00 7.000000000000000000e+00
2.307193517684936968e+00 3.505779802799224854e-01 -6.253067851066589355e-01 1.700000000000000000e+01
4.010060119628906250e+01 6.086124420166015625e+00 7.079743146896362305e-01 3.600000000000000000e+01
2.441163539886475053e+00 3.700629472732543945e-01 -5.700259804725646973e-01 1.000000000000000000e+01
3.882454299926757812e+01 5.885522842407226562e+00 2.057954549789429155e+00 2.200000000000000000e+01
3.072807312011719194e+00 4.652670025825499933e-01 -6.041013002395629883e-01 1.100000000000000000e+01
3.715020418167113814e+00 5.611807703971862793e-01 -5.950766801834106445e-01 1.100000000000000000e+01
4.726730346679688388e+00 7.123194336891174316e-01 -5.869227647781372070e-01 9.000000000000000000e+00
6.115486145019531250e+00 9.205136895179748535e-01 -5.410628318786621094e-01 9.000000000000000000e+00
8.965044021606445312e+00 1.346234083175658958e+00 -4.751058220863341730e-01 1.000000000000000000e+00
3.338460540771483664e+01 5.007234573364257812e+00 7.793654441833496094e+00 9.000000000000000000e+00
1.601482391357421875e+01 2.399147033691405806e+00 -2.826591730117797852e-01 2.000000000000000000e+00
2.304581403732299805e+00 3.419551253318787176e-01 -6.242715120315551758e-01 1.800000000000000000e+01
2.446295976638793945e+00 3.621101379394531250e-01 -5.709257721900939941e-01 9.000000000000000000e+00
3.884585189819335938e+01 5.743184566497802734e+00 2.057954549789429155e+00 2.200000000000000000e+01
3.086065530776977983e+00 4.562608897686005194e-01 -6.063910126686096191e-01 1.000000000000000000e+01
3.707086181640625000e+01 5.474148750305175781e+00 3.278450489044189009e+00 4.700000000000000000e+01
3.715002298355102983e+00 5.479212999343872070e-01 -5.947638154029846191e-01 1.100000000000000000e+01
3.664633560180664062e+01 5.398389816284179688e+00 4.548163890838623047e+00 1.900000000000000000e+01
4.733115673065186435e+00 6.963936090469360352e-01 -5.874102115631103516e-01 9.000000000000000000e+00
6.087122440338134766e+00 8.945261836051940918e-01 -5.382738709449768066e-01 9.000000000000000000e+00
8.969688415527343750e+00 1.314931988716125044e+00 -4.751058220863341730e-01 1.000000000000000000e+00
3.398033523559570312e+01 4.975367069244384766e+00 7.928624629974365234e+00 9.000000000000000000e+00
1.616160774230957031e+01 2.363485336303710938e+00 -2.851025164127349854e-01 2.000000000000000000e+00
3.478583145141602273e+01 5.087105751037597656e+00 9.419978141784667969e+00 7.000000000000000000e+00
2.300025463104248047e+00 3.330779373645781916e-01 -6.227186322212219238e-01 1.600000000000000000e+01
2.447545051574707031e+00 3.535687625408173163e-01 -5.709257721900939941e-01 9.000000000000000000e+00
3.886566543579102273e+01 5.607552051544188565e+00 2.057954549789429155e+00 2.200000000000000000e+01
3.091525554656981978e+00 4.460464417934417725e-01 -6.071542501449584961e-01 1.100000000000000000e+01
3.705160856246947798e+00 5.332617759704589844e-01 -5.928866267204284668e-01 1.100000000000000000e+01
3.709330368041992188e+01 5.332010746002197266e+00 4.601298809051513672e+00 1.900000000000000000e+01
4.743377685546875000e+00 6.809961199760437012e-01 -5.883851647377014160e-01 9.000000000000000000e+00
6.102041244506835938e+00 8.749695420265197754e-01 -5.393197536468505859e-01 9.000000000000000000e+00
8.978178024291992188e+00 1.284179568290710005e+00 -4.753151535987854004e-01 1.000000000000000000e+00
3.397434616088867188e+01 4.853415966033936435e+00 7.923225879669188565e+00 9.000000000000000000e+00
1.616975975036621094e+01 2.307056427001953125e+00 -2.851025164127349854e-01 2.000000000000000000e+00
2.312594175338745117e+00 3.270721435546875000e-01 -6.258244514465332031e-01 1.600000000000000000e+01
5.954969406127929688e+01 8.411562919616699219e+00 1.049762248992919922e+00 6.300000000000000000e+01
2.429407835006713867e+00 3.427282571792603094e-01 -5.664267539978027344e-01 9.000000000000000000e+00
3.102707862854003906e+00 4.371616542339324951e-01 -6.090623140335083008e-01 1.100000000000000000e+01
3.716689586639403853e+00 5.223466753959655762e-01 -5.944509506225585938e-01 1.000000000000000000e+01
3.674120712280272727e+01 5.157101154327392578e+00 4.555476188659667969e+00 1.900000000000000000e+01
4.737746238708496094e+00 6.641604304313659668e-01 -5.874102115631103516e-01 9.000000000000000000e+00
6.132533073425292969e+00 8.585971593856811523e-01 -5.417600870132446289e-01 9.000000000000000000e+00
8.990299224853515625e+00 1.255504727363585982e+00 -4.757338464260100763e-01 1.000000000000000000e+00
3.380110549926757812e+01 4.714345455169677734e+00 7.879135608673095703e+00 9.000000000000000000e+00
1.624069976806640980e+01 2.262251138687133789e+00 -2.862194776535034180e-01 2.000000000000000000e+00
3.535540008544921875e+01 4.924837112426757812e+00 9.564916610717773438e+00 7.000000000000000000e+00
2.321376800537108931e+00 3.200531005859375000e-01 -6.278949975967407227e-01 1.900000000000000000e+01
2.438311576843262163e+00 3.353078961372374933e-01 -5.682263374328613281e-01 9.000000000000000000e+00
3.840826034545897727e+01 5.274936676025390625e+00 2.031786441802978960e+00 2.200000000000000000e+01
3.100325107574462891e+00 4.257942736148834229e-01 -6.082990765571594238e-01 1.100000000000000000e+01
3.728275775909423828e+00 5.107102394104003906e-01 -5.960153341293334961e-01 1.000000000000000000e+01
3.711300277709960938e+01 5.077250480651854581e+00 4.599349021911621094e+00 1.900000000000000000e+01
4.745936393737792969e+00 6.484247446060180664e-01 -5.881414413452148438e-01 8.000000000000000000e+00
6.139441013336181641e+00 8.377241492271423340e-01 -5.421087145805358887e-01 9.000000000000000000e+00
9.006501197814941406e+00 1.225731015205383079e+00 -4.763618707656859796e-01 1.000000000000000000e+00
1.624057006835937855e+01 2.204470872879027876e+00 -2.860798537731171209e-01 2.000000000000000000e+00
3.538469696044921875e+01 4.796776771545410156e+00 9.568022727966308594e+00 7.000000000000000000e+00
2.316790103912353960e+00 3.107721805572509766e-01 -6.263421177864074707e-01 1.600000000000000000e+01
2.453044891357421875e+00 3.281776309013367254e-01 -5.713756680488586426e-01 1.000000000000000000e+01
3.892225265502929688e+01 5.200252056121826172e+00 2.057954549789429155e+00 2.200000000000000000e+01
3.096026897430419922e+00 4.136481881141663153e-01 -6.071542501449584961e-01 1.000000000000000000e+01
3.737954854965209961e+00 4.980856776237487793e-01 -5.972667932510375977e-01 1.000000000000000000e+01
3.709594345092772727e+01 4.936477184295654297e+00 4.594961643218994141e+00 1.900000000000000000e+01
4.750248908996582031e+00 6.312871575355529785e-01 -5.883851647377014160e-01 9.000000000000000000e+00
3.698965454101563211e+01 4.915762424468994141e+00 5.910094261169433594e+00 1.300000000000000000e+01
6.144445419311523438e+00 8.154784440994262695e-01 -5.422830581665039062e-01 9.000000000000000000e+00
9.022813796997070312e+00 1.194284796714782937e+00 -4.769898951053618830e-01 1.000000000000000000e+00
3.546839523315429688e+01 4.688396930694580078e+00 8.259753227233886719e+00 1.000000000000000000e+01
1.627233123779296875e+01 2.148071765899658203e+00 -2.864986956119536798e-01 2.000000000000000000e+00
3.546251296997070312e+01 4.681322574615479404e+00 9.584587097167968750e+00 7.000000000000000000e+00
2.302536010742187944e+00 3.006819486618041992e-01 -6.222009658813476562e-01 1.600000000000000000e+01
5.943758010864257812e+01 7.751242637634277344e+00 1.046271800994873047e+00 6.300000000000000000e+01
2.444513320922852007e+00 3.183545768260955811e-01 -5.691261887550354004e-01 9.000000000000000000e+00
3.101345777511597124e+00 4.033448994159697931e-01 -6.079174876213073730e-01 1.100000000000000000e+01
3.731834888458251953e+00 4.840184450149536133e-01 -5.960153341293334961e-01 1.000000000000000000e+01
3.716807174682617188e+01 4.814097404479979581e+00 4.601786613464354581e+00 1.900000000000000000e+01
4.752423286437988281e+00 6.147018671035766602e-01 -5.883851647377014160e-01 9.000000000000000000e+00
3.715239715576171875e+01 4.798881530761718750e+00 5.933246612548828125e+00 1.300000000000000000e+01
6.137374401092529297e+00 7.927492260932922363e-01 -5.414114594459533691e-01 6.000000000000000000e+00
9.046735763549804688e+00 1.165333628654479980e+00 -4.780366122722625732e-01 3.000000000000000000e+00
1.626386260986328125e+01 2.089219570159912109e+00 -2.862194776535034180e-01 2.000000000000000000e+00
3.631487655639647727e+01 4.658484935760498047e+00 9.810276985168457031e+00 7.000000000000000000e+00
2.316935300827025923e+00 2.947514057159423828e-01 -6.258244514465332031e-01 1.600000000000000000e+01
5.946295928955078125e+01 7.554097652435302734e+00 1.046271800994873047e+00 6.300000000000000000e+01
2.124636888504027876e+00 2.695343494415283203e-01 -4.944424033164978027e-01 1.600000000000000000e+01
3.882993698120117188e+01 4.919133186340332031e+00 2.051255464553833008e+00 2.200000000000000000e+01
3.118247747421265093e+00 3.950321972370148260e-01 -6.109703779220581055e-01 1.000000000000000000e+01
3.721660614013671875e+00 4.701550900936127264e-01 -5.941380858421325684e-01 1.000000000000000000e+01
3.711293029785156250e+01 4.681872844696044922e+00 4.593011856079101562e+00 1.900000000000000000e+01
4.766252994537354404e+00 6.004275679588317871e-01 -5.898476243019104004e-01 9.000000000000000000e+00
3.697129821777343750e+01 4.657450675964354581e+00 5.901959419250488281e+00 1.300000000000000000e+01
6.177528858184813565e+00 7.771174311637878418e-01 -5.447233915328979492e-01 8.000000000000000000e+00
9.038660049438476562e+00 1.133835673332213911e+00 -4.774085879325867254e-01 1.000000000000000000e+00
1.627070236206055043e+01 2.035274982452393022e+00 -2.862194776535034180e-01 2.000000000000000000e+00
3.670121383666992188e+01 4.590893745422363281e+00 9.910698890686035156e+00 7.000000000000000000e+00
2.304529428482056108e+00 2.850022614002227783e-01 -6.222009658813476562e-01 1.500000000000000000e+01
5.948896408081054688e+01 7.346487522125244141e+00 1.046271800994873047e+00 6.300000000000000000e+01
2.083014726638793945e+00 2.568692266941071112e-01 -4.845445752143859863e-01 5.200000000000000000e+01
3.917196655273438211e+01 4.823593139648438388e+00 2.068421602249145952e+00 2.200000000000000000e+01
3.113761901855469194e+00 3.834252357482910156e-01 -6.098255515098571777e-01 1.100000000000000000e+01
3.725239753723144975e+00 4.574019312858582098e-01 -5.944509506225585938e-01 9.000000000000000000e+00
3.708176040649414062e+01 4.546498298645020419e+00 4.587162017822265625e+00 1.900000000000000000e+01
4.766349315643311435e+00 5.835453271865844727e-01 -5.896039009094238281e-01 8.000000000000000000e+00
6.162405014038085938e+00 7.533731460571289062e-01 -5.431545972824096680e-01 9.000000000000000000e+00
9.098075866699218750e+00 1.109044790267943892e+00 -4.803394079208374023e-01 1.000000000000000000e+00
3.595198059082031250e+01 4.376136302947998047e+00 8.361431121826171875e+00 1.000000000000000000e+01
1.636505126953125000e+01 1.989083528518676980e+00 -2.877552807331085205e-01 5.000000000000000000e+00
3.579726028442382812e+01 4.344623565673828125e+00 9.662232398986816406e+00 7.000000000000000000e+00
2.104113817214965820e+00 2.527628540992736816e-01 -5.678489804267883301e-01 2.500000000000000000e+01
5.951424789428710938e+01 7.138787269592285156e+00 1.046271800994873047e+00 6.300000000000000000e+01
2.105182886123656782e+00 2.521458566188812256e-01 -4.894934892654418945e-01 2.900000000000000000e+01
3.941464233398438211e+01 4.713866233825683594e+00 2.080354213714600053e+00 2.200000000000000000e+01
3.115081548690795898e+00 3.725538551807404120e-01 -6.098255515098571777e-01 1.100000000000000000e+01
3.740544080734252930e+00 4.460328817367554266e-01 -5.966410636901855469e-01 1.000000000000000000e+01
3.768875503540039062e+01 4.487440586090087891e+00 4.660283565521240234e+00 2.000000000000000000e+01
4.770328521728515625e+00 5.671384930610656738e-01 -5.898476243019104004e-01 9.000000000000000000e+00
6.188739299774169922e+00 7.346761822700500488e-01 -5.452463030815124512e-01 9.000000000000000000e+00
9.105857849121093750e+00 1.077749371528625044e+00 -4.805487394332885742e-01 1.000000000000000000e+00
3.570383834838867188e+01 4.219509124755859375e+00 8.300244331359863281e+00 1.000000000000000000e+01
1.645927429199219105e+01 1.942257881164551003e+00 -2.892910838127136230e-01 2.000000000000000000e+00
3.679759979248046875e+01 4.342258453369140625e+00 9.928298950195312500e+00 8.000000000000000000e+00
2.053174018859862837e+00 2.393762469291687012e-01 -5.538727641105651855e-01 5.400000000000000000e+01
5.953880310058593750e+01 6.931000232696533203e+00 1.046271800994873047e+00 6.300000000000000000e+01
2.109921455383300781e+00 2.452458590269089023e-01 -4.903933107852935791e-01 1.000000000000000000e+02
3.940308380126953125e+01 4.573030948638916016e+00 2.078888893127440962e+00 2.200000000000000000e+01
3.110512495040893999e+00 3.609989285469055176e-01 -6.086806654930114746e-01 1.300000000000000000e+01
3.749927282333374023e+00 4.338814020156859796e-01 -5.978925228118896484e-01 1.000000000000000000e+01
4.065821075439453125e+01 4.697124481201171875e+00 5.025404453277587891e+00 2.500000000000000000e+01
4.780167102813720703e+00 5.513933300971984863e-01 -5.908225774765014648e-01 9.000000000000000000e+00
6.177411079406738281e+00 7.114732265472412109e-01 -5.440261363983154297e-01 9.000000000000000000e+00
9.125438690185546875e+00 1.047780036926269975e+00 -4.813861250877379816e-01 1.200000000000000000e+01
3.562929153442382812e+01 4.084643840789794922e+00 8.279548645019531250e+00 1.000000000000000000e+01
1.657323646545410156e+01 1.897072792053223100e+00 -2.911759614944458008e-01 2.000000000000000000e+00
3.617531967163085938e+01 4.140845298767089844e+00 9.756443023681640625e+00 7.000000000000000000e+00
2.044399023056029829e+00 2.311227917671203891e-01 -5.512845516204833984e-01 2.300000000000000000e+01
5.956263351440429688e+01 6.723128795623779297e+00 1.046271800994873047e+00 6.300000000000000000e+01
2.116574287414550781e+00 2.385340780019760132e-01 -4.917429983615875244e-01 1.000000000000000000e+02
3.941880416870117188e+01 4.435461044311523438e+00 2.078888893127440962e+00 2.200000000000000000e+01
3.115655422210692915e+00 3.505780398845673163e-01 -6.094439029693603516e-01 1.200000000000000000e+01
3.759271383285522017e+00 4.216698408126831055e-01 -5.991439819335937500e-01 1.000000000000000000e+01
4.801790714263916016e+00 5.369099378585815430e-01 -5.932599902153015137e-01 9.000000000000000000e+00
6.171936511993408203e+00 6.890215277671813965e-01 -5.433288812637329102e-01 9.000000000000000000e+00
9.184620857238769531e+00 1.022105097770690918e+00 -4.843169450759888250e-01 1.000000000000000000e+00
3.587575149536132812e+01 3.986073017120360884e+00 8.333537101745605469e+00 1.000000000000000000e+01
1.657180786132812855e+01 1.838327884674072044e+00 -2.910363376140593927e-01 2.000000000000000000e+00
3.624715423583983664e+01 4.020934581756591797e+00 9.771971702575683594e+00 7.000000000000000000e+00
2.108565568923950195e+00 2.309254854917525968e-01 -5.683666467666625977e-01 3.000000000000000000e+00
5.948634719848632812e+01 6.504307746887207031e+00 1.044526576995850053e+00 6.300000000000000000e+01
2.107707738876343218e+00 2.300870120525360107e-01 -4.894934892654418945e-01 1.000000000000000000e+02
3.120763540267943892e+00 3.401256799697875977e-01 -6.102071404457092285e-01 1.200000000000000000e+01
3.748937368392943892e+00 4.072649180889130194e-01 -5.972667932510375977e-01 1.000000000000000000e+01
3.891778945922852273e+01 4.220952510833740234e+00 4.806527137756347656e+00 2.000000000000000000e+01
4.811530113220214844e+00 5.210000872611999512e-01 -5.942349433898925781e-01 9.000000000000000000e+00
6.190150737762451172e+00 6.691863536834716797e-01 -5.447233915328979492e-01 9.000000000000000000e+00
9.200046539306640625e+00 9.913223981857299805e-01 -4.849449694156646729e-01 1.000000000000000000e+00
3.584682083129882812e+01 3.856233358383179155e+00 8.323638916015625000e+00 1.000000000000000000e+01
1.663777160644530895e+01 1.786876440048217995e+00 -2.920834720134735107e-01 2.000000000000000000e+00
3.600809860229492188e+01 3.860868692398070845e+00 9.703643798828125000e+00 1.500000000000000000e+01
2.163149356842041016e+00 2.292649000883101862e-01 -5.828604698181152344e-01 9.000000000000000000e+00
5.940925979614257812e+01 6.286101341247558594e+00 1.042781233787537065e+00 6.300000000000000000e+01
2.096870422363280806e+00 2.215000689029693881e-01 -4.867940843105316162e-01 1.000000000000000000e+02
3.865431213378906250e+01 4.076374530792236328e+00 2.037020206451416016e+00 2.200000000000000000e+01
3.131694078445435014e+00 3.302595913410186768e-01 -6.121152639389038086e-01 1.300000000000000000e+01
3.742477893829346147e+00 3.933502733707427979e-01 -5.960153341293334961e-01 1.100000000000000000e+01
3.893228912353516336e+01 4.085078239440917969e+00 4.806527137756347656e+00 2.000000000000000000e+01
4.819242000579833984e+00 5.048220157623291016e-01 -5.949661135673522949e-01 1.100000000000000000e+01
3.627554321289063211e+01 3.793510437011719194e+00 5.776812076568604404e+00 1.300000000000000000e+01
6.176596164703369141e+00 6.459168195724487305e-01 -5.433288812637329102e-01 8.000000000000000000e+00
9.171667098999023438e+00 9.558895826339721680e-01 -4.832702279090880793e-01 3.000000000000000000e+00
3.582904815673828125e+01 3.727854490280150923e+00 8.316440582275390625e+00 1.000000000000000000e+01
1.664390754699707031e+01 1.728788852691649947e+00 -2.920834720134735107e-01 2.000000000000000000e+00
3.612830734252929688e+01 3.752617120742797852e+00 9.732631683349609375e+00 7.000000000000000000e+00
2.169701814651488814e+00 2.223034054040909091e-01 -5.844134092330932617e-01 8.000000000000000000e+00
2.103446722030640093e+00 2.147731184959411899e-01 -4.881438016891478937e-01 1.000000000000000000e+02
3.125015258789062944e+00 3.185296058654785156e-01 -6.105887889862060547e-01 1.300000000000000000e+01
3.753654479980469194e+00 3.812823295593262274e-01 -5.975796580314636230e-01 1.200000000000000000e+01
4.807149887084960938e+00 4.865972101688385010e-01 -5.932599902153015137e-01 9.000000000000000000e+00
6.218459129333496094e+00 6.283586621284484863e-01 -5.468151569366455078e-01 8.000000000000000000e+00
9.278283119201660156e+00 9.342739582061767578e-01 -4.887131452560424805e-01 1.000000000000000000e+00
1.668963432312012074e+01 1.674673199653625044e+00 -2.927815616130828857e-01 2.000000000000000000e+00
3.647949218750000000e+01 3.660429477691649947e+00 9.823735237121582031e+00 1.500000000000000000e+01
2.141590595245360884e+00 2.122492641210556030e-01 -5.766488313674926758e-01 4.000000000000000000e+00
5.945067214965820312e+01 5.881573200225830078e+00 1.042781233787537065e+00 6.300000000000000000e+01
2.100268840789794922e+00 2.074136137962341031e-01 -4.872439801692963202e-01 1.000000000000000000e+02
3.954708480834960938e+01 3.905502080917357954e+00 2.082657098770142046e+00 2.300000000000000000e+01
3.128008127212523970e+00 3.083575367927551270e-01 -6.109703779220581055e-01 1.200000000000000000e+01
3.764727830886840820e+00 3.697981834411621094e-01 -5.991439819335937500e-01 1.100000000000000000e+01
4.824542045593261719e+00 4.722003936767578125e-01 -5.952098965644836426e-01 9.000000000000000000e+00
3.610330581665039062e+01 3.533598184585570845e+00 5.745524883270263672e+00 1.300000000000000000e+01
6.218525886535645419e+00 6.075403094291687012e-01 -5.466408133506774902e-01 9.000000000000000000e+00
9.249524116516113281e+00 9.004047513008117676e-01 -4.870384037494658869e-01 1.000000000000000000e+00
1.673490333557128906e+01 1.623180270195007102e+00 -2.934796810150145929e-01 2.000000000000000000e+00
3.646835708618164062e+01 3.537200927734375000e+00 9.817523956298828125e+00 7.000000000000000000e+00
2.109626054763793945e+00 2.016475200653075894e-01 -5.678489804267883301e-01 3.000000000000000000e+00
5.947084045410156250e+01 5.674015522003173828e+00 1.042781233787537065e+00 6.300000000000000000e+01
2.110679864883422852e+00 2.010047882795333862e-01 -4.894934892654418945e-01 8.500000000000000000e+01
3.117338657379149947e+00 2.963221669197083075e-01 -6.086806654930114746e-01 1.200000000000000000e+01
3.767962217330933061e+00 3.568408191204071045e-01 -5.994568467140197754e-01 1.100000000000000000e+01
4.843947887420654297e+00 4.570349156856536865e-01 -5.974035263061523438e-01 1.100000000000000000e+01
6.212674140930175781e+00 5.850826501846313477e-01 -5.459435582160949707e-01 6.000000000000000000e+00
9.399762153625488281e+00 8.819186091423034668e-01 -4.947841167449951172e-01 2.000000000000000000e+00
1.678427124023437855e+01 1.568848967552185059e+00 -2.942475676536560059e-01 2.000000000000000000e+00
3.713121795654296875e+01 3.464169263839722124e+00 9.992486000061035156e+00 8.000000000000000000e+00
2.143020153045653853e+00 1.972930878400802890e-01 -5.766488313674926758e-01 6.000000000000000000e+00
5.949028396606445312e+01 5.466389179229736328e+00 1.042781233787537065e+00 6.300000000000000000e+01
3.950178527832031250e+01 3.622751951217650923e+00 2.078888893127440962e+00 2.200000000000000000e+01
3.137904882431029829e+00 2.872284054756165106e-01 -6.124968528747558594e-01 1.300000000000000000e+01
3.761316061019897017e+00 3.429684937000275213e-01 -5.982053875923156738e-01 1.100000000000000000e+01
3.957798767089843750e+01 3.601879119873046875e+00 4.879648685455322266e+00 2.100000000000000000e+01
4.865283489227294922e+00 4.419192969799041748e-01 -5.998408794403076172e-01 1.100000000000000000e+01
6.212694168090820312e+00 5.632129311561584473e-01 -5.457692742347717285e-01 8.000000000000000000e+00
9.303324699401855469e+00 8.401205539703369141e-01 -4.895505309104918878e-01 1.000000000000000000e+00
1.681354331970214844e+01 1.512401103973388894e+00 -2.946664392948151190e-01 2.000000000000000000e+00
2.118679523468018022e+00 1.875963062047958096e-01 -5.699195265769958496e-01 7.000000000000000000e+00
5.950900268554688211e+01 5.258696079254150391e+00 1.042781233787537065e+00 6.300000000000000000e+01
2.129502534866333008e+00 1.878054738044739047e-01 -4.935426115989685059e-01 1.000000000000000000e+00
3.991209793090820312e+01 3.519935131072998047e+00 2.099823236465454102e+00 2.300000000000000000e+01
3.144755601882935014e+00 2.767897248268126886e-01 -6.136417388916015625e-01 1.300000000000000000e+01
3.760522603988647017e+00 3.296644687652587891e-01 -5.978925228118896484e-01 1.000000000000000000e+01
4.870751380920410156e+00 4.252789318561553955e-01 -6.003283858299255371e-01 1.100000000000000000e+01
6.212637424468994141e+00 5.413501858711242676e-01 -5.455949306488037109e-01 8.000000000000000000e+00
9.306200981140136719e+00 8.076407909393310547e-01 -4.895505309104918878e-01 1.000000000000000000e+00
3.910318756103516336e+01 3.386703252792357954e+00 9.061478614807128906e+00 1.200000000000000000e+01
1.683067512512207031e+01 1.454734921455383079e+00 -2.948758602142333984e-01 2.000000000000000000e+00
3.960212707519531250e+01 3.422952175140380859e+00 1.065092086791992010e+01 9.000000000000000000e+00
2.096222639083861861e+00 1.782355755567550937e-01 -5.637078881263732910e-01 1.000000000000000000e+01
5.952699661254882812e+01 5.050938606262207031e+00 1.042781233787537065e+00 6.300000000000000000e+01
2.110727071762084961e+00 1.787267476320267001e-01 -4.890435934066771906e-01 1.000000000000000000e+00
3.141789913177489790e+00 2.654801905155181885e-01 -6.128785014152526855e-01 1.300000000000000000e+01
3.779366254806518999e+00 3.180265426635742188e-01 -6.007083654403686523e-01 1.100000000000000000e+01
4.068618392944335938e+01 3.416514396667480025e+00 5.013217449188232422e+00 2.400000000000000000e+01
4.868249893188476562e+00 4.079427123069763184e-01 -5.998408794403076172e-01 1.100000000000000000e+01
3.870814132690429688e+01 3.243610143661499023e+00 6.152254581451416016e+00 1.400000000000000000e+01
6.226402282714843750e+00 5.206569433212280273e-01 -5.466408133506774902e-01 6.000000000000000000e+00
9.297020912170410156e+00 7.741567492485046387e-01 -4.889225065708159845e-01 1.000000000000000000e+00
3.887007522583007812e+01 3.229854106903076172e+00 9.004790306091308594e+00 1.200000000000000000e+01
1.693927955627441051e+01 1.404568672180176003e+00 -2.966909110546112061e-01 2.000000000000000000e+00
3.853625488281250000e+01 3.188571453094481978e+00 1.036104393005370916e+01 8.000000000000000000e+00
2.100682973861693892e+00 1.712311953306198120e-01 -5.647431612014770508e-01 1.900000000000000000e+01
5.954426193237304688e+01 4.843120098114013672e+00 1.042781233787537065e+00 6.300000000000000000e+01
2.103568792343140093e+00 1.707272827625274936e-01 -4.872439801692963202e-01 1.000000000000000000e+00
3.134870052337646040e+00 2.538777589797974188e-01 -6.113520264625549316e-01 1.300000000000000000e+01
3.776515245437622070e+00 3.045146167278289795e-01 -6.000826358795166016e-01 1.200000000000000000e+01
4.877559185028076172e+00 3.915823101997374933e-01 -6.008158922195434570e-01 1.100000000000000000e+01
3.879459762573242188e+01 3.107709884643555132e+00 6.164143562316895419e+00 1.400000000000000000e+01
6.234139919281005859e+00 4.993968307971953791e-01 -5.471637248992919922e-01 6.000000000000000000e+00
9.311612129211425781e+00 7.426521182060241699e-01 -4.895505309104918878e-01 1.000000000000000000e+00
3.908702850341796875e+01 3.110539197921752930e+00 9.052480697631835938e+00 1.200000000000000000e+01
1.694407844543457031e+01 1.345430970191956010e+00 -2.966909110546112061e-01 2.000000000000000000e+00
3.852788925170897727e+01 3.052509784698485884e+00 1.035586738586425959e+01 8.000000000000000000e+00
2.064673900604248047e+00 1.610430926084517878e-01 -5.549080371856689453e-01 1.600000000000000000e+01
5.948903274536132812e+01 4.629656791687011719e+00 1.041524767875670943e+00 6.300000000000000000e+01
2.127466678619385210e+00 1.651937514543533048e-01 -4.926428198814392090e-01 1.000000000000000000e+00
3.135737180709838867e+00 2.429334819316864014e-01 -6.113520264625549316e-01 1.700000000000000000e+01
3.781494379043579102e+00 2.916340529918671209e-01 -6.007083654403686523e-01 1.200000000000000000e+01
3.966400527954102273e+01 3.051978826522827148e+00 4.884523391723632812e+00 2.100000000000000000e+01
4.880875587463378906e+00 3.747060000896453857e-01 -6.010596156120300293e-01 9.000000000000000000e+00
3.872984313964843750e+01 2.973299503326416016e+00 6.152254581451416016e+00 1.400000000000000000e+01
6.217966079711914062e+00 4.762631356716156006e-01 -5.455949306488037109e-01 6.000000000000000000e+00
9.326096534729003906e+00 7.110549807548522949e-01 -4.901785552501677912e-01 1.000000000000000000e+00
1.702444267272948863e+01 1.292027354240417036e+00 -2.980172932147979736e-01 2.000000000000000000e+00
3.861921691894531250e+01 2.924129724502563032e+00 1.037760829925536932e+01 8.000000000000000000e+00
2.034399271011352983e+00 1.515390127897263128e-01 -5.466258525848388672e-01 2.300000000000000000e+01
2.128030300140380859e+00 1.577665060758590976e-01 -4.926428198814392090e-01 1.000000000000000000e+00
3.146355628967285156e+00 2.327102869749068936e-01 -6.132600903511047363e-01 1.800000000000000000e+01
3.768698930740356001e+00 2.774172723293303888e-01 -5.985182523727416992e-01 1.100000000000000000e+01
3.943684387207031250e+01 2.896060943603516069e+00 4.855274677276611328e+00 2.000000000000000000e+01
4.886113643646240234e+00 3.579563498497009277e-01 -6.015470623970031738e-01 9.000000000000000000e+00
6.243435382843017578e+00 4.562981724739075262e-01 -5.476866960525512695e-01 8.000000000000000000e+00
9.368362426757812500e+00 6.813942193984985352e-01 -4.922719895839691162e-01 1.000000000000000000e+00
4.394354248046875000e+01 3.188459873199462891e+00 1.017183685302734020e+01 1.300000000000000000e+01
1.703682708740234020e+01 1.233170509338378906e+00 -2.981569170951843262e-01 2.000000000000000000e+00
2.088819980621337891e+00 1.489956229925155917e-01 -5.611196756362915039e-01 1.000000000000000000e+01
5.953837585449218750e+01 4.236430644989013672e+00 1.041873812675476074e+00 6.300000000000000000e+01
2.120739936828612837e+00 1.505284458398818970e-01 -4.908432066440582275e-01 1.000000000000000000e+00
3.149029493331909180e+00 2.229632586240767878e-01 -6.136417388916015625e-01 1.900000000000000000e+01
3.775463342666625977e+00 2.659926712512969971e-01 -5.994568467140197754e-01 1.100000000000000000e+01
4.883253574371337891e+00 3.423268198966979980e-01 -6.010596156120300293e-01 9.000000000000000000e+00
6.248813152313232422e+00 4.369595944881439209e-01 -5.480353236198425293e-01 6.000000000000000000e+00
9.318653106689453125e+00 6.483550667762756348e-01 -4.895505309104918878e-01 1.000000000000000000e+00
1.713238334655762074e+01 1.185994386672974077e+00 -2.997625470161437988e-01 2.000000000000000000e+00
4.126990509033203125e+01 2.856921434402465820e+00 1.108470249176025035e+01 1.000000000000000000e+01
2.114383935928345171e+00 1.434027552604675015e-01 -5.678489804267883301e-01 5.000000000000000000e+01
5.953285217285156250e+01 4.027227401733398438e+00 1.041524767875670943e+00 6.300000000000000000e+01
2.121252536773682085e+00 1.431247591972351074e-01 -4.908432066440582275e-01 1.000000000000000000e+00
3.145870923995972124e+00 2.117060869932174960e-01 -6.128785014152526855e-01 1.900000000000000000e+01
3.790165662765502930e+00 2.537358701229094904e-01 -6.016469597816467285e-01 1.600000000000000000e+01
4.880457401275634766e+00 3.250151872634888250e-01 -6.005721092224121094e-01 9.000000000000000000e+00
6.266204357147216797e+00 4.162008464336395264e-01 -5.494297742843627930e-01 7.000000000000000000e+00
9.360717773437500000e+00 6.184563040733337402e-01 -4.916439652442932129e-01 1.000000000000000000e+00
3.915297317504882812e+01 2.579947471618651900e+00 9.058778762817382812e+00 1.200000000000000000e+01
1.719627952575683949e+01 1.130118012428283913e+00 -3.008096814155579168e-01 2.000000000000000000e+00
3.901696014404296875e+01 2.557306766510010210e+00 1.047699451446533025e+01 9.000000000000000000e+00
2.109087944030762163e+00 1.356493234634399137e-01 -5.662960410118103027e-01 6.500000000000000000e+01
5.961838912963867188e+01 3.824002504348754883e+00 1.042781233787537065e+00 6.300000000000000000e+01
2.148965835571289062e+00 1.374609172344208041e-01 -4.971418380737305243e-01 1.000000000000000000e+00
3.142672300338745117e+00 2.004736959934234897e-01 -6.121152639389038086e-01 1.900000000000000000e+01
3.800885200500487837e+00 2.411295175552367887e-01 -6.032112836837768555e-01 1.900000000000000000e+01
4.873637199401854581e+00 3.074772655963898260e-01 -5.995971560478210449e-01 9.000000000000000000e+00
6.271595954895020419e+00 3.945753872394561768e-01 -5.497784018516540527e-01 6.000000000000000000e+00
9.402687072753906250e+00 5.882717967033386230e-01 -4.937373995780944824e-01 1.000000000000000000e+00
1.720012092590332031e+01 1.070084929466248003e+00 -3.008096814155579168e-01 2.000000000000000000e+00
3.895967102050781250e+01 2.423829078674315962e+00 1.045939540863036932e+01 9.000000000000000000e+00
2.101835489273070845e+00 1.278173625469208041e-01 -5.642254948616027832e-01 5.900000000000000000e+01
2.126090288162231001e+00 1.285474747419357022e-01 -4.917429983615875244e-01 1.000000000000000000e+00
3.155111074447631836e+00 1.902113556861876886e-01 -6.144049763679504395e-01 1.900000000000000000e+01
3.799731969833374023e+00 2.277422994375228882e-01 -6.028984189033508301e-01 1.800000000000000000e+01
4.906386375427246094e+00 2.923524081707000732e-01 -6.034969687461853027e-01 9.000000000000000000e+00
6.282879829406738281e+00 3.732718229293823242e-01 -5.506500005722045898e-01 7.000000000000000000e+00
9.424620628356933594e+00 5.566242933273315430e-01 -4.947841167449951172e-01 2.000000000000000000e+00
3.935289382934570312e+01 2.317315578460692915e+00 9.101069450378417969e+00 1.200000000000000000e+01
1.723169898986816051e+01 1.011679530143738015e+00 -3.012983500957489014e-01 2.000000000000000000e+00
2.106147289276123047e+00 1.203332766890525957e-01 -5.652607679367065430e-01 5.200000000000000000e+01
2.110982418060303178e+00 1.198702678084373058e-01 -4.881438016891478937e-01 1.000000000000000000e+00
3.161667346954346147e+00 1.789789050817489902e-01 -6.155498027801513672e-01 2.000000000000000000e+01
3.792652130126953125e+00 2.133702188730239868e-01 -6.016469597816467285e-01 1.700000000000000000e+01
4.913370609283447266e+00 2.747000753879547119e-01 -6.042281985282897949e-01 1.200000000000000000e+01
6.268290996551513672e+00 3.493544459342957098e-01 -5.492554903030395508e-01 7.000000000000000000e+00
9.426597595214843750e+00 5.220775604248046875e-01 -4.947841167449951172e-01 2.000000000000000000e+00
3.869177627563477273e+01 2.136110782623291016e+00 8.946303367614746094e+00 1.200000000000000000e+01
1.733113098144530895e+01 9.537898302078247070e-01 -3.029737770557404120e-01 2.000000000000000000e+00
4.139104080200195312e+01 2.277886867523192915e+00 1.110747814178466975e+01 1.000000000000000000e+01
2.102696180343627930e+00 1.127737909555435042e-01 -5.642254948616027832e-01 4.000000000000000000e+01
5.955587768554688211e+01 3.183732748031616211e+00 1.041036009788512962e+00 6.300000000000000000e+01
2.105550050735474077e+00 1.121897697448730052e-01 -4.867940843105316162e-01 1.000000000000000000e+00
3.162272930145264116e+00 1.679415255784988126e-01 -6.155498027801513672e-01 2.000000000000000000e+01
3.795346498489379883e+00 2.002341747283936102e-01 -6.019598245620727539e-01 1.900000000000000000e+01
