-8.767392158508300781e+00 -8.689207434654235840e-01 -7.708054184913635254e-01 2.000000000000000000e+00
-3.480058670043945312e+01 -3.424492359161376953e+00 -6.103804707527160645e-01 2.100000000000000000e+01
-2.563129901885985884e+00 -2.486074417829514105e-01 -6.900115609169006348e-01 1.800000000000000000e+01
-3.002660512924193892e+00 -2.901812195777893066e-01 -6.964484453201293945e-01 1.500000000000000000e+01
-3.568338155746459961e+00 -3.442204594612122137e-01 -6.968344449996948242e-01 1.200000000000000000e+01
-4.478896713256835938e+01 -4.312687397003173828e+00 3.936650514602661133e+00 5.400000000000000000e+01
-4.467468738555908203e+00 -4.293813705444335938e-01 -7.108381986618041992e-01 8.000000000000000000e+00
-5.906421661376953125e+00 -5.656026005744934082e-01 -7.285349369049072266e-01 1.100000000000000000e+01
-8.754505157470703125e+00 -8.367949724197387695e-01 -7.694109082221984863e-01 2.000000000000000000e+00
-3.478844070434570312e+01 -3.300728321075439009e+00 -6.099616289138793945e-01 2.100000000000000000e+01
-2.569752454757689986e+00 -2.401982992887496948e-01 -6.915645003318786621e-01 1.900000000000000000e+01
-3.003655195236206055e+00 -2.796981930732727051e-01 -6.964484453201293945e-01 1.500000000000000000e+01
-3.573427677154541016e+00 -3.321259319782257080e-01 -6.975976824760437012e-01 1.200000000000000000e+01
-4.477597427368164062e+01 -4.153741836547851562e+00 3.934210300445557085e+00 5.400000000000000000e+01
-4.472874164581298828e+00 -4.141486287117003839e-01 -7.114639282226562500e-01 8.000000000000000000e+00
-5.914289951324462891e+00 -5.455288887023925781e-01 -7.292661666870117188e-01 1.100000000000000000e+01
-8.749437332153320312e+00 -8.055003285408020020e-01 -7.687136530876159668e-01 2.000000000000000000e+00
-3.481369018554688211e+01 -3.180547475814818892e+00 -6.102059483528137207e-01 1.400000000000000000e+01
-2.570575237274169922e+00 -2.312267273664473932e-01 -6.915645003318786621e-01 2.000000000000000000e+01
-2.987144470214844194e+00 -2.676465809345244806e-01 -6.923993229866027832e-01 1.400000000000000000e+01
-3.582387208938599077e+00 -3.203497529029846191e-01 -6.991241574287414551e-01 1.300000000000000000e+01
-4.478226470947266336e+01 -3.996710538864136186e+00 3.933512926101685014e+00 5.400000000000000000e+01
-4.466422080993652344e+00 -3.978318274021149237e-01 -7.102124691009521484e-01 8.000000000000000000e+00
-5.910226345062255859e+00 -5.243545174598693848e-01 -7.285349369049072266e-01 9.000000000000000000e+00
-8.736318588256835938e+00 -7.735483646392822266e-01 -7.673191428184509277e-01 3.000000000000000000e+00
-3.482258987426757812e+01 -3.058830499649047852e+00 -6.101710200309753418e-01 2.100000000000000000e+01
-2.577101707458496094e+00 -2.232012003660202026e-01 -6.931173801422119141e-01 1.900000000000000000e+01
-3.001606464385985884e+00 -2.589116990566254217e-01 -6.955486536026000977e-01 1.300000000000000000e+01
-3.567781686782836914e+00 -3.071213662624359131e-01 -6.960712075233459473e-01 1.100000000000000000e+01
-4.479130172729492188e+01 -3.847844362258911133e+00 3.933164358139038086e+00 5.400000000000000000e+01
-4.467717170715332031e+00 -3.830184638500214178e-01 -7.102124691009521484e-01 8.000000000000000000e+00
-5.882264137268066406e+00 -5.022196173667907715e-01 -7.248788475990295410e-01 1.100000000000000000e+01
-8.734865188598632812e+00 -7.442351579666137695e-01 -7.669705152511596680e-01 2.000000000000000000e+00
-3.480065917968750000e+01 -2.940643787384033203e+00 -6.096125841140747070e-01 2.100000000000000000e+01
-2.574014663696289062e+00 -2.138841301202774048e-01 -6.920821070671081543e-01 1.900000000000000000e+01
-2.998607635498046875e+00 -2.481111735105515081e-01 -6.946488618850708008e-01 1.500000000000000000e+01
-3.566875219345093218e+00 -2.945040464401245117e-01 -6.956896185874938965e-01 1.200000000000000000e+01
-4.480842971801757812e+01 -3.691797256469727007e+00 3.933512926101685014e+00 5.400000000000000000e+01
-4.476901531219482422e+00 -3.680683076381682794e-01 -7.114639282226562500e-01 8.000000000000000000e+00
-5.895852088928222656e+00 -4.826553761959075928e-01 -7.263413071632385254e-01 9.000000000000000000e+00
-8.709609031677246094e+00 -7.114692330360412598e-01 -7.645301818847656250e-01 2.000000000000000000e+00
-3.481071090698242188e+01 -2.819149017333983931e+00 -6.096125841140747070e-01 2.100000000000000000e+01
-2.567042589187622070e+00 -2.042848318815231046e-01 -6.900115609169006348e-01 1.900000000000000000e+01
-2.999455451965332031e+00 -2.376425713300704956e-01 -6.946488618850708008e-01 1.500000000000000000e+01
-3.565924406051636186e+00 -2.818968296051024836e-01 -6.953079700469970703e-01 1.100000000000000000e+01
-4.476543045043945312e+01 -3.530977487564086914e+00 3.928632259368896040e+00 5.400000000000000000e+01
-4.474220752716063565e+00 -3.521288037300109863e-01 -7.108381986618041992e-01 8.000000000000000000e+00
-5.895522117614746094e+00 -4.619170129299163818e-01 -7.260975241661071777e-01 1.100000000000000000e+01
-8.678272247314453125e+00 -6.784229278564453125e-01 -7.615668773651123047e-01 3.000000000000000000e+00
-3.479442214965820312e+01 -2.695611715316772017e+00 -6.091588139533996582e-01 1.300000000000000000e+01
-2.567739963531494141e+00 -1.953229308128356934e-01 -6.900115609169006348e-01 1.900000000000000000e+01
-2.994437217712401900e+00 -2.267296761274338046e-01 -6.932991743087768555e-01 1.300000000000000000e+01
-3.572759628295897993e+00 -2.698913514614105225e-01 -6.964528560638427734e-01 1.200000000000000000e+01
-4.479337692260742188e+01 -3.375893115997314009e+00 3.930026769638061968e+00 5.400000000000000000e+01
-4.461633682250976562e+00 -3.354719281196594238e-01 -7.086481451988220215e-01 1.000000000000000000e+01
-5.889180183410645419e+00 -4.407424032688140869e-01 -7.251225709915161133e-01 1.100000000000000000e+01
-8.690521240234375000e+00 -6.488676667213439941e-01 -7.624384164810180664e-01 2.000000000000000000e+00
-3.478567123413085938e+01 -2.572812795639038086e+00 -6.088446378707885742e-01 2.000000000000000000e+01
-2.568406105041503906e+00 -1.863586604595184049e-01 -6.900115609169006348e-01 1.900000000000000000e+01
-2.983548164367675781e+00 -2.154336720705032071e-01 -6.905997395515441895e-01 1.300000000000000000e+01
-3.577596426010131836e+00 -2.577005624771118164e-01 -6.972160935401916504e-01 1.200000000000000000e+01
-4.477706909179688211e+01 -3.217515468597412109e+00 3.927586317062377930e+00 5.400000000000000000e+01
-4.460807323455811435e+00 -3.197546601295471191e-01 -7.083352804183959961e-01 1.000000000000000000e+01
-5.882762432098388672e+00 -4.196176826953887939e-01 -7.241476178169250488e-01 1.100000000000000000e+01
-8.660935401916503906e+00 -6.162655949592590332e-01 -7.596494555473327637e-01 2.000000000000000000e+00
-3.476850891113281250e+01 -2.449545383453369141e+00 -6.083908677101135254e-01 1.300000000000000000e+01
-2.584459066390991211e+00 -1.784567385911942083e-01 -6.941526532173156738e-01 1.900000000000000000e+01
-2.980393886566162109e+00 -2.047507017850876132e-01 -6.896999478340148926e-01 1.400000000000000000e+01
-3.558887481689453125e+00 -2.438687086105346957e-01 -6.933999061584472656e-01 1.200000000000000000e+01
-4.481585311889647727e+01 -3.063096761703491211e+00 3.930026769638061968e+00 5.400000000000000000e+01
-4.471750259399414062e+00 -3.048533499240875244e-01 -7.098996043205261230e-01 1.000000000000000000e+01
-5.872308254241943359e+00 -3.982745110988616943e-01 -7.226852178573608398e-01 1.100000000000000000e+01
-8.663034439086914062e+00 -5.860295295715332031e-01 -7.596494555473327637e-01 2.000000000000000000e+00
-3.477285766601563211e+01 -2.327898502349853960e+00 -6.083210706710815430e-01 2.000000000000000000e+01
-2.571572303771973100e+00 -1.685497611761092862e-01 -6.905292272567749023e-01 1.800000000000000000e+01
-2.988868713378905806e+00 -1.948530375957489014e-01 -6.914995312690734863e-01 1.400000000000000000e+01
-3.555799007415771040e+00 -2.311896234750747958e-01 -6.926366686820983887e-01 1.200000000000000000e+01
-4.480639266967772727e+01 -2.905352354049683061e+00 3.928283691406250000e+00 5.400000000000000000e+01
-4.462931156158447266e+00 -2.886047959327697754e-01 -7.083352804183959961e-01 8.000000000000000000e+00
-5.873662471771240234e+00 -3.777739107608795166e-01 -7.226852178573608398e-01 1.100000000000000000e+01
-8.641167640686035156e+00 -5.542559623718261719e-01 -7.575576901435852051e-01 2.000000000000000000e+00
-1.738675117492676137e+01 -1.109115362167357954e+00 -9.130530953407287598e-01 5.000000000000000000e+00
-3.478675842285156250e+01 -2.206884384155272993e+00 -6.084257960319519043e-01 2.000000000000000000e+01
-2.558648109436035156e+00 -1.587349325418472012e-01 -6.869057416915893555e-01 2.200000000000000000e+01
-2.997310876846313032e+00 -1.848987042903899869e-01 -6.932991743087768555e-01 1.400000000000000000e+01
-3.550705671310424805e+00 -2.184145450592041016e-01 -6.914917826652526855e-01 1.200000000000000000e+01
-4.479239654541016336e+01 -2.747467279434204102e+00 3.926191806793212891e+00 5.400000000000000000e+01
-4.448137760162354404e+00 -2.720597386360167902e-01 -7.058323025703430176e-01 8.000000000000000000e+00
-5.886834144592285156e+00 -3.579916656017302912e-01 -7.241476178169250488e-01 1.100000000000000000e+01
-8.645037651062011719e+00 -5.242098569869995117e-01 -7.577320337295532227e-01 3.000000000000000000e+00
-3.474434661865233664e+01 -2.082451343536376953e+00 -6.075531840324401855e-01 1.300000000000000000e+01
-2.563043594360352007e+00 -1.500283926725388128e-01 -6.879410147666931152e-01 2.100000000000000000e+01
-2.990156173706055132e+00 -1.739822179079056064e-01 -6.914995312690734863e-01 1.400000000000000000e+01
-4.497655868530272727e+01 -2.609084367752075195e+00 2.361084222793579102e+00 3.500000000000000000e+01
-3.561246156692504883e+00 -2.065874338150024137e-01 -6.933999061584472656e-01 1.200000000000000000e+01
-4.478977966308593750e+01 -2.590405702590941939e+00 3.925146102905272993e+00 5.400000000000000000e+01
-4.449059963226318359e+00 -2.565312087535858154e-01 -7.058323025703430176e-01 8.000000000000000000e+00
-5.872193336486816406e+00 -3.365319669246674139e-01 -7.221977114677429199e-01 1.100000000000000000e+01
-8.616977691650390625e+00 -4.923251271247863770e-01 -7.551173567771911621e-01 2.000000000000000000e+00
-3.473143768310546875e+01 -1.960031628608704057e+00 -6.072041392326354980e-01 2.000000000000000000e+01
-2.567409515380858931e+00 -1.412930935621261874e-01 -6.889762878417968750e-01 2.200000000000000000e+01
-2.981016159057617188e+00 -1.630115509033203125e-01 -6.892500519752502441e-01 2.200000000000000000e+01
-4.498539352416992188e+01 -2.452070951461791992e+00 2.361084222793579102e+00 3.500000000000000000e+01
-3.558024883270264116e+00 -1.939413994550704956e-01 -6.926366686820983887e-01 1.200000000000000000e+01
-4.480252838134766336e+01 -2.434260606765747070e+00 3.925494670867919922e+00 5.400000000000000000e+01
-4.449928760528563565e+00 -2.409995198249816895e-01 -7.058323025703430176e-01 8.000000000000000000e+00
-5.865403175354003906e+00 -3.156054913997650146e-01 -7.212227582931518555e-01 1.100000000000000000e+01
-8.618643760681152344e+00 -4.622432589530944824e-01 -7.551173567771911621e-01 3.000000000000000000e+00
-1.719796943664551137e+01 -9.163573384284973145e-01 -9.025859236717224121e-01 5.000000000000000000e+00
-3.475604248046875000e+01 -1.839735627174376997e+00 -6.075182557106018066e-01 2.000000000000000000e+01
-2.575604200363159180e+00 -1.327279955148696899e-01 -6.910468339920043945e-01 2.200000000000000000e+01
-2.985459566116333008e+00 -1.528040915727615079e-01 -6.901498436927795410e-01 2.400000000000000000e+01
-4.495378494262695312e+01 -2.292992830276488814e+00 2.358990907669066939e+00 3.400000000000000000e+01
-3.558680295944213867e+00 -1.815203875303267878e-01 -6.926366686820983887e-01 1.200000000000000000e+01
-4.480677032470703125e+01 -2.277653455734252930e+00 3.925146102905272993e+00 5.400000000000000000e+01
-4.442851066589354581e+00 -2.250651419162749967e-01 -7.045808434486389160e-01 1.000000000000000000e+01
-5.850608348846436435e+00 -2.943315804004669189e-01 -7.192728519439697266e-01 1.100000000000000000e+01
-8.620204925537109375e+00 -4.321557581424713135e-01 -7.551173567771911621e-01 2.000000000000000000e+00
-1.720106315612792969e+01 -8.563196659088134766e-01 -9.025859236717224121e-01 5.000000000000000000e+00
-3.474028015136718750e+01 -1.717317223548888938e+00 -6.071343421936035156e-01 1.300000000000000000e+01
-2.566403865814208984e+00 -1.232732161879538935e-01 -6.884586811065673828e-01 1.900000000000000000e+01
-2.989867687225341797e+00 -1.425675898790358942e-01 -6.910496354103088379e-01 2.200000000000000000e+01
-4.494954681396483664e+01 -2.135492324829102007e+00 2.358362913131713867e+00 3.400000000000000000e+01
-3.551447868347167969e+00 -1.687245070934295932e-01 -6.911101937294006348e-01 1.800000000000000000e+01
-4.478658676147460938e+01 -2.119915962219237837e+00 3.922705650329589844e+00 5.400000000000000000e+01
-4.449529170989990234e+00 -2.098344862461090088e-01 -7.055194377899169922e-01 1.000000000000000000e+01
-5.863497734069824219e+00 -2.744642794132233221e-01 -7.207353115081787109e-01 1.100000000000000000e+01
-8.605739593505859375e+00 -4.013204872608184814e-01 -7.537228465080261230e-01 2.000000000000000000e+00
-3.471809768676757812e+01 -1.594755887985229048e+00 -6.066456437110900879e-01 1.300000000000000000e+01
-2.564888477325439009e+00 -1.142280921339988986e-01 -6.879410147666931152e-01 1.900000000000000000e+01
-2.998134613037108931e+00 -1.324742287397384921e-01 -6.928492188453674316e-01 2.200000000000000000e+01
-4.488888549804688211e+01 -1.975590348243712935e+00 2.354804039001464844e+00 3.400000000000000000e+01
-3.553976774215697798e+00 -1.564129292964935025e-01 -6.914917826652526855e-01 1.900000000000000000e+01
-4.482158279418945312e+01 -1.964790344238281028e+00 3.925146102905272993e+00 5.400000000000000000e+01
-4.442340850830078125e+00 -1.939567923545837125e-01 -7.042679786682128906e-01 1.000000000000000000e+01
-5.860453605651854581e+00 -2.538233697414398193e-01 -7.202478051185607910e-01 1.100000000000000000e+01
-8.579219818115234375e+00 -3.700762987136840820e-01 -7.512825131416320801e-01 2.000000000000000000e+00
-3.474343109130858664e+01 -1.474405288696289062e+00 -6.069946885108947754e-01 1.300000000000000000e+01
-2.561411142349243164e+00 -1.051158383488654952e-01 -6.869057416915893555e-01 1.900000000000000000e+01
-4.471786117553710938e+01 -1.827325105667114036e+00 7.812046408653259277e-01 4.800000000000000000e+01
-2.990790128707886186e+00 -1.216910704970359941e-01 -6.910496354103088379e-01 2.400000000000000000e+01
-3.568232536315917969e+00 -1.445626020431519110e-01 -6.941631436347961426e-01 1.800000000000000000e+01
-4.483214950561522727e+01 -1.808482408523560014e+00 3.925494670867919922e+00 5.400000000000000000e+01
-4.427200317382813388e+00 -1.778147369623183927e-01 -7.017650008201599121e-01 1.200000000000000000e+01
-5.853369712829589844e+00 -2.330491393804549893e-01 -7.192728519439697266e-01 1.100000000000000000e+01
-8.588422775268554688e+00 -3.404426574707031250e-01 -7.519797682762145996e-01 3.000000000000000000e+00
-3.470440673828125000e+01 -1.351407170295715110e+00 -6.062268018722534180e-01 1.300000000000000000e+01
-2.561762571334838867e+00 -9.617420285940170288e-02 -6.869057416915893555e-01 2.200000000000000000e+01
-4.473595809936522727e+01 -1.671667575836182085e+00 7.814140319824218750e-01 4.800000000000000000e+01
-2.971722841262816939e+00 -1.105262413620949069e-01 -6.865506172180175781e-01 2.200000000000000000e+01
-3.562829732894897017e+00 -1.318883895874022882e-01 -6.930182576179504395e-01 2.000000000000000000e+01
-4.483420562744141336e+01 -1.651831269264220969e+00 3.925146102905272993e+00 5.400000000000000000e+01
-4.427793979644775391e+00 -1.623598486185074130e-01 -7.017650008201599121e-01 1.600000000000000000e+01
-5.838277339935302734e+00 -2.120392620563507080e-01 -7.173229455947875977e-01 1.100000000000000000e+01
-8.575621604919433594e+00 -3.099576234817504883e-01 -7.507595419883728027e-01 3.000000000000000000e+00
-3.468493270874022727e+01 -1.229408025741576926e+00 -6.058079600334167480e-01 1.300000000000000000e+01
-2.573667049407958984e+00 -8.762580901384353638e-02 -6.900115609169006348e-01 2.100000000000000000e+01
-4.472153472900391336e+01 -1.514822721481323020e+00 7.810649871826171875e-01 4.800000000000000000e+01
-2.981828689575194868e+00 -1.004804745316505016e-01 -6.888001561164855957e-01 2.300000000000000000e+01
-3.549533367156981978e+00 -1.189905479550362050e-01 -6.903469562530517578e-01 1.800000000000000000e+01
-4.481182098388671875e+01 -1.494390964508057085e+00 3.922705650329589844e+00 5.400000000000000000e+01
-4.432282447814941406e+00 -1.470339596271514893e-01 -7.023907303810119629e-01 1.600000000000000000e+01
-5.829061985015869141e+00 -1.913329511880874911e-01 -7.161042690277099609e-01 1.300000000000000000e+01
-8.578642845153808594e+00 -2.800862491130828857e-01 -7.509338855743408203e-01 3.000000000000000000e+00
-3.467702102661132812e+01 -1.107944369316101074e+00 -6.055985093116760254e-01 1.300000000000000000e+01
-2.560440540313721147e+00 -7.822853326797485352e-02 -6.863881349563598633e-01 1.900000000000000000e+01
-4.474654006958007812e+01 -1.359313368797302024e+00 7.814140319824218750e-01 4.800000000000000000e+01
-2.986056804656981978e+00 -9.018899500370025635e-02 -6.896999478340148926e-01 2.300000000000000000e+01
-3.544039964675902876e+00 -1.064228564500808993e-01 -6.892020702362060547e-01 2.000000000000000000e+01
-4.481676483154296875e+01 -1.337959408760071023e+00 3.922705650329589844e+00 5.400000000000000000e+01
-4.432768821716308594e+00 -1.315615028142929077e-01 -7.023907303810119629e-01 1.600000000000000000e+01
-5.819773197174072266e+00 -1.706935763359070102e-01 -7.148855924606323242e-01 1.500000000000000000e+01
-8.555669784545898438e+00 -2.494427263736725131e-01 -7.488421201705932617e-01 3.000000000000000000e+00
-1.701558113098144887e+01 -4.901490509510039728e-01 -8.921186923980712891e-01 5.000000000000000000e+00
-3.464869308471679688e+01 -9.859820604324340820e-01 -6.050400137901306152e-01 1.300000000000000000e+01
-2.549111127853393999e+00 -6.897691637277603149e-02 -6.832822561264038086e-01 1.900000000000000000e+01
-4.473102188110352273e+01 -1.202573180198668990e+00 7.810649871826171875e-01 4.800000000000000000e+01
-2.994145631790161133e+00 -7.997329533100128174e-02 -6.914995312690734863e-01 2.300000000000000000e+01
-3.548314809799193892e+00 -9.415534883737564087e-02 -6.899653077125549316e-01 1.900000000000000000e+01
-4.482115936279296875e+01 -1.181511521339416948e+00 3.922705650329589844e+00 5.400000000000000000e+01
-4.433200836181640625e+00 -1.160874515771865984e-01 -7.023907303810119629e-01 1.600000000000000000e+01
-5.834224224090576172e+00 -1.507366299629210871e-01 -7.165917158126831055e-01 1.300000000000000000e+01
-8.556488037109375000e+00 -2.195763438940047940e-01 -7.488421201705932617e-01 3.000000000000000000e+00
-3.466391754150391336e+01 -8.653289675712585449e-01 -6.052494645118713379e-01 1.300000000000000000e+01
-2.555130243301392046e+00 -6.021498143672943115e-02 -6.848351955413818359e-01 2.100000000000000000e+01
-4.472294998168945312e+01 -1.046144843101501021e+00 7.808555960655212402e-01 4.800000000000000000e+01
-2.984665632247924805e+00 -6.929513067007064819e-02 -6.892500519752502441e-01 2.100000000000000000e+01
-3.550584793090819868e+00 -8.181407302618026733e-02 -6.903469562530517578e-01 1.800000000000000000e+01
-4.482501220703125000e+01 -1.025049328804015891e+00 3.922705650329589844e+00 5.400000000000000000e+01
-4.417780399322509766e+00 -1.002534553408623019e-01 -6.998878121376037598e-01 1.600000000000000000e+01
-5.820822715759277344e+00 -1.300600618124007901e-01 -7.148855924606323242e-01 1.500000000000000000e+01
-8.541267395019531250e+00 -1.893540173768996915e-01 -7.474476695060729980e-01 3.000000000000000000e+00
-3.466273117065429688e+01 -7.442381978034973145e-01 -6.051796674728393555e-01 1.300000000000000000e+01
-2.557256460189818892e+00 -5.133431777358055115e-02 -6.853528022766113281e-01 2.000000000000000000e+01
-4.473832702636718750e+01 -8.902649283409118652e-01 7.810649871826171875e-01 4.800000000000000000e+01
-2.965405702590941939e+00 -5.849196761846541665e-02 -6.847510337829589844e-01 2.200000000000000000e+01
-3.560662984848022017e+00 -6.961159408092498779e-02 -6.922550201416015625e-01 2.200000000000000000e+01
-4.482831573486328125e+01 -8.685746192932128906e-01 3.922705650329589844e+00 5.400000000000000000e+01
-4.418103218078613281e+00 -8.483191579580307007e-02 -6.998878121376037598e-01 1.600000000000000000e+01
-5.815287113189697266e+00 -1.096285656094550948e-01 -7.141543626785278320e-01 1.300000000000000000e+01
-8.527932167053222656e+00 -1.592778414487839023e-01 -7.462274432182312012e-01 3.000000000000000000e+00
-1.672024154663085938e+01 -3.064487576484680176e-01 -8.764179348945617676e-01 5.000000000000000000e+00
-3.467311477661132812e+01 -6.233819723129272461e-01 -6.053192615509033203e-01 1.300000000000000000e+01
-2.567062854766846147e+00 -4.346374049782752991e-02 -6.879410147666931152e-01 2.200000000000000000e+01
-4.474090194702147727e+01 -7.497111558914184570e-01 7.810649871826171875e-01 4.800000000000000000e+01
-2.975317239761352983e+00 -4.933714866638184288e-02 -6.870005130767822266e-01 1.600000000000000000e+01
-3.549086093902587891e+00 -5.823187157511711121e-02 -6.899653077125549316e-01 1.600000000000000000e+01
-4.483082580566406250e+01 -7.277382016181945801e-01 3.922705650329589844e+00 5.400000000000000000e+01
-4.416372776031494141e+00 -7.091992348432540894e-02 -6.995749473571777344e-01 1.100000000000000000e+01
-5.783845424652099609e+00 -9.085990488529205322e-02 -7.102545499801635742e-01 1.300000000000000000e+01
-8.506476402282714844e+00 -1.321453899145126065e-01 -7.443100214004516602e-01 4.000000000000000000e+00
-1.666121101379394887e+01 -2.530093491077423096e-01 -8.732777833938598633e-01 5.000000000000000000e+00
-3.460292053222656250e+01 -5.133823156356811523e-01 -6.040626764297485352e-01 1.300000000000000000e+01
-2.559472322463988814e+00 -3.439890965819358826e-02 -6.858704686164855957e-01 2.200000000000000000e+01
-4.473524856567382812e+01 -5.934256315231323242e-01 7.809253931045532227e-01 4.800000000000000000e+01
-2.971574068069458008e+00 -3.890003636479377747e-02 -6.861007213592529297e-01 1.300000000000000000e+01
-4.504841613769531250e+01 -5.818523168563842773e-01 2.361084222793579102e+00 3.500000000000000000e+01
-3.529636859893798828e+00 -4.558933526277542114e-02 -6.861491203308105469e-01 1.100000000000000000e+01
-4.483309173583983664e+01 -5.712450146675109863e-01 3.922705650329589844e+00 5.400000000000000000e+01
-4.418568611145020419e+00 -5.552829429507256248e-02 -6.998878121376037598e-01 1.000000000000000000e+01
-5.786112308502197266e+00 -7.069421559572219849e-02 -7.104982733726501465e-01 1.100000000000000000e+01
-8.514854431152343750e+00 -1.025474146008491932e-01 -7.450072765350341797e-01 2.000000000000000000e+00
-1.662205123901366832e+01 -1.943822354078293124e-01 -8.711843490600585938e-01 5.000000000000000000e+00
-3.461249923706054688e+01 -3.926832079887390137e-01 -6.042023301124572754e-01 1.300000000000000000e+01
-2.544122695922852007e+00 -2.531072683632374157e-02 -6.817293763160705566e-01 2.500000000000000000e+01
-4.472105026245117188e+01 -4.371104836463928223e-01 7.806461453437805176e-01 4.800000000000000000e+01
-2.975589036941527876e+00 -2.856448292732239116e-02 -6.870005130767822266e-01 1.400000000000000000e+01
-4.505009841918945312e+01 -4.324631690979003906e-01 2.361084222793579102e+00 3.500000000000000000e+01
-3.539590358734130859e+00 -3.336084261536598206e-02 -6.880572438240051270e-01 1.200000000000000000e+01
-4.483481216430664062e+01 -4.147448241710662842e-01 3.922705650329589844e+00 5.400000000000000000e+01
-4.420711040496826172e+00 -4.012219980359076760e-02 -7.002006769180297852e-01 1.100000000000000000e+01
-5.796248912811279297e+00 -5.058309808373451233e-02 -7.117169499397277832e-01 1.100000000000000000e+01
-8.471329689025878906e+00 -7.244954258203506470e-02 -7.411724328994750977e-01 2.000000000000000000e+00
-3.459366226196289062e+01 -2.717035710811614990e-01 -6.038532853126525879e-01 1.300000000000000000e+01
-2.538400173187255859e+00 -1.639250107109547008e-02 -6.801764369010925293e-01 2.900000000000000000e+01
-4.474230194091796875e+01 -2.811278700828552246e-01 7.809951901435852051e-01 4.800000000000000000e+01
-2.967875957489014116e+00 -1.812994666397571911e-02 -6.852009296417236328e-01 1.300000000000000000e+01
-4.505133056640625000e+01 -2.752063572406768799e-01 2.361084222793579102e+00 3.500000000000000000e+01
-3.533795595169066939e+00 -2.097021229565143932e-02 -6.869123578071594238e-01 1.100000000000000000e+01
-4.483598709106445312e+01 -2.582395970821381170e-01 3.922705650329589844e+00 5.400000000000000000e+01
-4.410947322845458984e+00 -2.463563345372676849e-02 -6.986362934112548828e-01 1.000000000000000000e+01
-5.800360202789306641e+00 -3.037089295685290943e-02 -7.122044563293457031e-01 9.000000000000000000e+00
-8.475516319274902344e+00 -4.289880767464637756e-02 -7.415210604667663574e-01 2.000000000000000000e+00
-3.457640457153320312e+01 -1.508689820766448975e-01 -6.035391092300415039e-01 2.000000000000000000e+01
-2.548101186752318892e+00 -7.560390513390302658e-03 -6.827646493911743164e-01 3.200000000000000000e+01
-4.471501541137695312e+01 -1.248681992292404036e-01 7.805064916610717773e-01 4.800000000000000000e+01
-2.965972423553466797e+00 -7.764915004372596741e-03 -6.847510337829589844e-01 1.200000000000000000e+01
-4.505204010009766336e+01 -1.100831180810928067e-01 2.361084222793579102e+00 3.500000000000000000e+01
-3.541700363159180132e+00 -8.654023520648479462e-03 -6.884388327598571777e-01 1.200000000000000000e+01
-4.483661651611328125e+01 -1.017312258481978954e-01 3.922705650329589844e+00 5.400000000000000000e+01
-4.411006450653076172e+00 -9.238404221832752228e-03 -6.986362934112548828e-01 1.000000000000000000e+01
-5.794475555419921875e+00 -1.011327840387821024e-02 -7.114732265472412109e-01 1.100000000000000000e+01
-8.463659286499023438e+00 -1.329469680786132986e-02 -7.404751777648925781e-01 3.000000000000000000e+00
-1.662317466735839844e+01 -2.030904963612556111e-02 -8.711843490600585938e-01 5.000000000000000000e+00
-3.459071731567382812e+01 -3.018610365688801159e-02 -6.037834286689758301e-01 2.000000000000000000e+01
-2.555839300155640093e+00 1.338234520517290072e-03 -6.848351955413818359e-01 3.700000000000000000e+01
-4.470317840576171875e+01 3.120871260762215008e-02 7.802971005439758301e-01 4.800000000000000000e+01
-2.956237554550170898e+00 2.579804742708801790e-03 -6.825014948844909668e-01 1.400000000000000000e+01
-4.495229339599608664e+01 3.922828659415245056e-02 2.355850696563721147e+00 3.400000000000000000e+01
-3.539745569229125977e+00 3.706814255565404892e-03 -6.880572438240051270e-01 1.200000000000000000e+01
-4.483669662475585938e+01 5.477838590741158226e-02 3.922705650329589844e+00 5.400000000000000000e+01
-4.407061100006104404e+00 6.153421942144632339e-03 -6.980105638504028320e-01 1.000000000000000000e+01
-5.782565116882324219e+00 1.009249035269021988e-02 -7.100107669830322266e-01 1.100000000000000000e+01
-8.471624374389648438e+00 1.626437157392501831e-02 -7.411724328994750977e-01 2.000000000000000000e+00
-3.457861328125000000e+01 9.052680432796478271e-02 -6.035740375518798828e-01 1.300000000000000000e+01
-2.546161651611328125e+00 9.776607155799865723e-03 -6.822469830513000488e-01 4.000000000000000000e+01
-4.474682235717772727e+01 1.796262264251708984e-01 7.810649871826171875e-01 4.800000000000000000e+01
-2.962059020996094194e+00 1.240751612931489944e-02 -6.838511824607849121e-01 1.300000000000000000e+01
-4.505177688598632812e+01 1.887135505676270086e-01 2.361084222793579102e+00 3.500000000000000000e+01
-3.525971174240111861e+00 1.538504939526320024e-02 -6.853858828544616699e-01 1.100000000000000000e+01
-4.486814880371093750e+01 2.036065906286239902e-01 3.925494670867919922e+00 5.400000000000000000e+01
-4.422819137573242188e+00 2.084219828248023987e-02 -7.005135416984558105e-01 1.000000000000000000e+01
-5.774559497833251953e+00 2.922792173922061920e-02 -7.090358138084411621e-01 1.100000000000000000e+01
-8.447615623474121094e+00 4.423201456665992737e-02 -7.390807271003723145e-01 3.000000000000000000e+00
-3.455412673950195312e+01 2.050507366657257080e-01 -6.031551957130432129e-01 1.300000000000000000e+01
-2.536453008651732954e+00 1.859350502490996968e-02 -6.796588301658630371e-01 3.300000000000000000e+01
-4.472992706298828125e+01 3.357006311416625977e-01 7.807857394218444824e-01 4.800000000000000000e+01
-2.965894937515258789e+00 2.277688682079314839e-02 -6.847510337829589844e-01 1.500000000000000000e+01
-4.499092864990233664e+01 3.455123305320739746e-01 2.357944250106811968e+00 3.400000000000000000e+01
-3.525896072387694868e+00 2.769289165735245098e-02 -6.853858828544616699e-01 1.100000000000000000e+01
-4.483528518676757812e+01 3.599684834480286200e-01 3.922705650329589844e+00 5.400000000000000000e+01
-4.406917095184326172e+00 3.615096211433411338e-02 -6.980105638504028320e-01 1.000000000000000000e+01
-5.766482353210449219e+00 4.931681230664253235e-02 -7.080608606338500977e-01 1.100000000000000000e+01
-8.419516563415527344e+00 7.347600907087326050e-02 -7.366403341293334961e-01 2.000000000000000000e+00
-3.453720474243164062e+01 3.255151212215424139e-01 -6.028759479522705078e-01 1.300000000000000000e+01
-2.534440994262694868e+00 2.742636203765869141e-02 -6.791411638259887695e-01 3.100000000000000000e+01
-4.472048568725585938e+01 4.917472302913665771e-01 7.806461453437805176e-01 4.800000000000000000e+01
-2.958003044128417969e+00 3.304258361458777687e-02 -6.829513907432556152e-01 1.300000000000000000e+01
-4.500941848754882812e+01 5.027809739112854004e-01 2.358990907669066939e+00 3.400000000000000000e+01
-3.529704093933105025e+00 4.004494100809097290e-02 -6.861491203308105469e-01 1.100000000000000000e+01
-4.483375549316406250e+01 5.164706707000732422e-01 3.922705650329589844e+00 5.400000000000000000e+01
-4.394912719726563388e+00 5.139515921473503113e-02 -6.961333751678466797e-01 1.000000000000000000e+01
-5.780169486999511719e+00 6.961262971162796021e-02 -7.097670435905456543e-01 1.100000000000000000e+01
-8.431162834167480469e+00 1.030112057924271046e-01 -7.376862168312072754e-01 2.000000000000000000e+00
-3.450586700439453125e+01 4.456830918788909912e-01 -6.023523807525634766e-01 2.000000000000000000e+01
-2.545919656753540039e+00 3.643892705440521240e-02 -6.822469830513000488e-01 2.600000000000000000e+01
-4.475048828125000000e+01 6.483113169670104980e-01 7.812046408653259277e-01 4.800000000000000000e+01
-2.944229841232299805e+00 4.316775873303412697e-02 -6.798020601272583008e-01 1.200000000000000000e+01
-4.499540710449218750e+01 6.597144007682800293e-01 2.358362913131713867e+00 3.400000000000000000e+01
-3.535432100296020952e+00 5.245303735136985779e-02 -6.872940063476562500e-01 1.200000000000000000e+01
-4.485160064697266336e+01 6.732655763626098633e-01 3.924448728561400923e+00 5.400000000000000000e+01
-4.386806011199951172e+00 6.661597639322280884e-02 -6.948819160461425781e-01 9.000000000000000000e+00
-5.756072998046875000e+00 8.941875398159027100e-02 -7.068421840667724609e-01 1.100000000000000000e+01
-8.428759574890136719e+00 1.324095427989959994e-01 -7.375118732452392578e-01 3.000000000000000000e+00
-3.451409530639647727e+01 5.662923455238342285e-01 -6.025269031524658203e-01 2.000000000000000000e+01
-2.545777082443236861e+00 4.532562196254730225e-02 -6.822469830513000488e-01 2.400000000000000000e+01
-4.474795150756835938e+01 8.045157194137573242e-01 7.812046408653259277e-01 4.800000000000000000e+01
-2.951854944229125977e+00 5.358625575900077820e-02 -6.816017031669616699e-01 1.400000000000000000e+01
-4.492479324340820312e+01 8.233820199966430664e-01 2.354804039001464844e+00 3.400000000000000000e+01
-3.525412797927856001e+00 6.461379677057266235e-02 -6.853858828544616699e-01 1.100000000000000000e+01
-4.482905960083007812e+01 8.294541835784912109e-01 3.922705650329589844e+00 5.400000000000000000e+01
-4.374696254730224609e+00 8.170705288648605347e-02 -6.930046677589416504e-01 9.000000000000000000e+00
-5.751756668090820312e+00 1.094351261854172030e-01 -7.063547372817993164e-01 9.000000000000000000e+00
-8.394381523132324219e+00 1.611803621053695956e-01 -7.345486283302307129e-01 2.000000000000000000e+00
-3.452390670776367188e+01 6.870042681694030762e-01 -6.027362942695617676e-01 2.000000000000000000e+01
-2.543671846389770952e+00 5.417063459753990173e-02 -6.817293763160705566e-01 2.500000000000000000e+01
-4.474486923217772727e+01 9.607102870941162109e-01 7.812046408653259277e-01 4.800000000000000000e+01
-2.965287923812866211e+00 6.418503075838088989e-02 -6.847510337829589844e-01 1.500000000000000000e+01
-4.500151443481445312e+01 9.819365739822387695e-01 2.358990907669066939e+00 3.400000000000000000e+01
-3.521240234375000000e+00 7.683373242616653442e-02 -6.846227049827575684e-01 1.100000000000000000e+01
-4.482588958740233664e+01 9.859317541122436523e-01 3.922705650329589844e+00 5.400000000000000000e+01
-4.374384403228759766e+00 9.697709977626800537e-02 -6.930046677589416504e-01 9.000000000000000000e+00
-5.753324031829833984e+00 1.295565366744995117e-01 -7.065984606742858887e-01 1.100000000000000000e+01
-8.401735305786132812e+00 1.906620413064956943e-01 -7.352458238601684570e-01 2.000000000000000000e+00
-3.449930572509766336e+01 8.069966435432434082e-01 -6.023523807525634766e-01 2.000000000000000000e+01
-2.537673473358153853e+00 6.290575861930847168e-02 -6.801764369010925293e-01 2.300000000000000000e+01
-4.475323867797852273e+01 1.117192625999450906e+00 7.814140319824218750e-01 4.800000000000000000e+01
-2.951408863067626953e+00 7.419262081384658813e-02 -6.816017031669616699e-01 1.400000000000000000e+01
-4.503774642944335938e+01 1.140025973320007102e+00 2.361084222793579102e+00 3.500000000000000000e+01
-3.505249500274658203e+00 8.872725069522857666e-02 -6.815697550773620605e-01 1.100000000000000000e+01
-4.482217407226563211e+01 1.142397284507751021e+00 3.922705650329589844e+00 5.400000000000000000e+01
-4.374019145965576172e+00 1.122459545731543940e-01 -6.930046677589416504e-01 9.000000000000000000e+00
-5.756805419921875000e+00 1.497418284416199008e-01 -7.070859074592590332e-01 1.100000000000000000e+01
-8.389068603515625000e+00 2.196754813194274902e-01 -7.342000007629394531e-01 2.000000000000000000e+00
-3.448628234863281250e+01 9.271480441093444824e-01 -6.021778583526611328e-01 2.000000000000000000e+01
-2.543231725692749023e+00 7.192735373973846436e-02 -6.817293763160705566e-01 1.600000000000000000e+01
-4.471708297729492188e+01 1.272493720054626021e+00 7.808555960655212402e-01 4.800000000000000000e+01
-2.958923816680908203e+00 8.471759408712387085e-02 -6.834012866020202637e-01 1.300000000000000000e+01
-4.503349304199218750e+01 1.297230124473571999e+00 2.361084222793579102e+00 3.500000000000000000e+01
-3.506880998611450195e+00 1.010188460350037037e-01 -6.819513440132141113e-01 1.100000000000000000e+01
-4.481791305541992188e+01 1.298848867416382058e+00 3.922705650329589844e+00 5.400000000000000000e+01
-4.363728046417236328e+00 1.272256076335906982e-01 -6.914403438568115234e-01 1.000000000000000000e+01
-5.740374088287354404e+00 1.693675667047500888e-01 -7.051360011100769043e-01 1.100000000000000000e+01
-8.392233848571777344e+00 2.490756809711456021e-01 -7.345486283302307129e-01 3.000000000000000000e+00
-3.453880310058593750e+01 1.049222111701965110e+00 -6.031551957130432129e-01 1.300000000000000000e+01
-2.544896125793457031e+00 8.086580038070678711e-02 -6.822469830513000488e-01 1.800000000000000000e+01
-4.474434661865233664e+01 1.429599404335021973e+00 7.814140319824218750e-01 4.800000000000000000e+01
-2.943027973175048828e+00 9.454508125782012939e-02 -6.798020601272583008e-01 1.300000000000000000e+01
-4.498876571655272727e+01 1.453128933906554954e+00 2.358990907669066939e+00 3.400000000000000000e+01
-3.512393474578856978e+00 1.134496703743935048e-01 -6.830962300300598145e-01 1.100000000000000000e+01
-4.484098434448242188e+01 1.456190109252929910e+00 3.925146102905272993e+00 5.400000000000000000e+01
-4.363257408142089844e+00 1.424570828676224032e-01 -6.914403438568115234e-01 1.000000000000000000e+01
-5.743715763092041016e+00 1.895351111888884943e-01 -7.056235074996948242e-01 1.100000000000000000e+01
-8.363434791564941406e+00 2.774437069892882746e-01 -7.321082353591918945e-01 3.000000000000000000e+00
-3.451094818115233664e+01 1.168966293334960938e+00 -6.027362942695617676e-01 2.000000000000000000e+01
-2.544598340988159180e+00 8.974865823984146118e-02 -6.822469830513000488e-01 1.600000000000000000e+01
-4.475907135009766336e+01 1.586485981941222922e+00 7.817630767822265625e-01 4.800000000000000000e+01
-2.948522567749022993e+00 1.050257012248038968e-01 -6.811518073081970215e-01 1.500000000000000000e+01
-4.502333831787108664e+01 1.611589074134827104e+00 2.361084222793579102e+00 3.500000000000000000e+01
-3.510014295578002930e+00 1.256392896175385077e-01 -6.827145814895629883e-01 1.200000000000000000e+01
-4.484359359741210938e+01 1.612991929054260032e+00 3.925843238830565962e+00 5.400000000000000000e+01
-4.364707946777343750e+00 1.577581763267517090e-01 -6.917532086372375488e-01 9.000000000000000000e+00
-5.723181724548339844e+00 2.088593244552612027e-01 -7.031860947608947754e-01 1.100000000000000000e+01
-8.358433723449707031e+00 3.064898252487183172e-01 -7.317596077919006348e-01 2.000000000000000000e+00
-3.448267745971679688e+01 1.288528800010680930e+00 -6.023174524307250977e-01 2.000000000000000000e+01
-2.544286727905272993e+00 9.818635135889053345e-02 -6.822469830513000488e-01 1.700000000000000000e+01
-4.477754211425781250e+01 1.735833168029784934e+00 7.821819782257080078e-01 4.800000000000000000e+01
-2.944263696670531782e+00 1.146511211991309981e-01 -6.802520155906677246e-01 1.300000000000000000e+01
-4.501774597167968750e+01 1.760882973670959029e+00 2.361084222793579102e+00 3.500000000000000000e+01
-3.501731157302856001e+00 1.369712948799133023e-01 -6.811881065368652344e-01 1.200000000000000000e+01
-4.483401870727539062e+01 1.761533379554748979e+00 3.925494670867919922e+00 5.400000000000000000e+01
-4.362186908721923828e+00 1.721533089876174927e-01 -6.914403438568115234e-01 1.000000000000000000e+01
-5.726424694061279297e+00 2.279948741197586060e-01 -7.036736011505126953e-01 1.100000000000000000e+01
-8.349408149719238281e+00 3.338872790336608887e-01 -7.310623526573181152e-01 2.000000000000000000e+00
-1.601098823547362926e+01 6.458666920661926270e-01 -8.397827744483947754e-01 4.000000000000000000e+00
-3.444224929809570312e+01 1.401407122611999956e+00 -6.016891598701477051e-01 1.300000000000000000e+01
-2.540068149566649947e+00 1.069045066833495955e-01 -6.812117099761962891e-01 1.500000000000000000e+01
-4.477120971679688211e+01 1.892125368118285911e+00 7.821819782257080078e-01 4.800000000000000000e+01
-2.951633453369141069e+00 1.252583116292952936e-01 -6.820515990257263184e-01 1.300000000000000000e+01
-4.501132583618164062e+01 1.918013453483581987e+00 2.361084222793579102e+00 3.500000000000000000e+01
-3.499270200729370117e+00 1.491101980209350863e-01 -6.808065176010131836e-01 1.100000000000000000e+01
-4.479574584960938211e+01 1.916659832000731978e+00 3.922705650329589844e+00 5.400000000000000000e+01
-4.361559391021729404e+00 1.873791366815567017e-01 -6.914403438568115234e-01 1.000000000000000000e+01
-5.717660903930664062e+00 2.476388514041900912e-01 -7.026986479759216309e-01 1.100000000000000000e+01
-8.324305534362792969e+00 3.619914054870604914e-01 -7.289706468582153320e-01 3.000000000000000000e+00
-3.438320922851563211e+01 1.519241094589232954e+00 -6.007467508316040039e-01 1.900000000000000000e+01
-2.545469045639038086e+00 1.160342618823051036e-01 -6.827646493911743164e-01 2.100000000000000000e+01
-4.473236846923828125e+01 2.046931982040404829e+00 7.816234827041625977e-01 4.800000000000000000e+01
-2.947284936904906782e+00 1.353818327188492099e-01 -6.811518073081970215e-01 1.200000000000000000e+01
-4.500435638427733664e+01 2.075120687484741211e+00 2.361084222793579102e+00 3.500000000000000000e+01
-3.510495424270629883e+00 1.618665903806686124e-01 -6.830962300300598145e-01 1.100000000000000000e+01
-4.482858657836914062e+01 2.074856758117675781e+00 3.926191806793212891e+00 5.400000000000000000e+01
-4.343119621276854581e+00 2.017775923013687134e-01 -6.886245012283325195e-01 9.000000000000000000e+00
-5.728659152984619141e+00 2.681526243686676025e-01 -7.041610479354858398e-01 1.100000000000000000e+01
-8.301098823547363281e+00 3.900178670883179266e-01 -7.270532250404357910e-01 3.000000000000000000e+00
-3.437569808959960938e+01 1.639156341552733931e+00 -6.007118225097656250e-01 1.300000000000000000e+01
-2.548907518386840820e+00 1.251083165407181064e-01 -6.837999224662780762e-01 2.200000000000000000e+01
-4.477288818359375000e+01 2.205425739288330078e+00 7.824611663818359375e-01 4.800000000000000000e+01
-2.927330732345581055e+00 1.447068154811859131e-01 -6.766527891159057617e-01 1.300000000000000000e+01
-3.505987405776977983e+00 1.739249676465987882e-01 -6.823329925537109375e-01 1.100000000000000000e+01
-4.483301162719727273e+01 2.231919527053833008e+00 3.927237749099731001e+00 5.400000000000000000e+01
-4.336469650268554688e+00 2.166409939527511874e-01 -6.876859068870544434e-01 1.000000000000000000e+01
-5.711827278137207031e+00 2.873498201370239258e-01 -7.022111415863037109e-01 1.100000000000000000e+01
-8.321575164794921875e+00 4.200967252254486084e-01 -7.289706468582153320e-01 2.000000000000000000e+00
-3.436977005004882812e+01 1.759140014648437944e+00 -6.007118225097656250e-01 1.900000000000000000e+01
-2.560006856918334961e+00 1.350603550672531128e-01 -6.869057416915893555e-01 2.400000000000000000e+01
-4.476050949096679688e+01 2.369300365447998047e+00 7.823913693428039551e-01 4.800000000000000000e+01
-2.926780700683594194e+00 1.554350405931473056e-01 -6.766527891159057617e-01 1.300000000000000000e+01
-3.499444961547852007e+00 1.864605098962784091e-01 -6.811881065368652344e-01 1.200000000000000000e+01
-4.483646774291992188e+01 2.396863937377930132e+00 3.928283691406250000e+00 5.400000000000000000e+01
-4.331701755523681641e+00 2.323219180107116977e-01 -6.870601773262023926e-01 1.000000000000000000e+01
-5.698842525482177734e+00 3.076407313346862793e-01 -7.007487416267395020e-01 1.000000000000000000e+01
-8.317990303039550781e+00 4.504862427711486816e-01 -7.287963032722473145e-01 3.000000000000000000e+00
-1.587661075592041016e+01 8.654048442840576172e-01 -8.332930803298950195e-01 4.000000000000000000e+00
-3.436309051513671875e+01 1.885099649429321067e+00 -6.007118225097656250e-01 1.300000000000000000e+01
-2.553733348846435991e+00 1.436700820922852118e-01 -6.853528022766113281e-01 2.600000000000000000e+01
-4.475595855712891336e+01 2.525754690170288086e+00 7.824611663818359375e-01 4.800000000000000000e+01
-2.937894105911254883e+00 1.663113087415694913e-01 -6.793521642684936523e-01 1.300000000000000000e+01
-3.481132030487060991e+00 1.976729929447174072e-01 -6.777535676956176758e-01 1.100000000000000000e+01
-4.490341567993164062e+01 2.557663202285767046e+00 3.934907436370850053e+00 5.400000000000000000e+01
-4.338752746582031250e+00 2.478916645050049106e-01 -6.883116364479064941e-01 1.000000000000000000e+01
-5.701697826385498047e+00 3.277593851089478094e-01 -7.012361884117126465e-01 1.100000000000000000e+01
-8.274596214294433594e+00 4.771102070808411200e-01 -7.251358032226562500e-01 2.000000000000000000e+00
-1.580171298980713068e+01 9.166553020477294922e-01 -8.295249342918395996e-01 4.000000000000000000e+00
-3.433833312988281250e+01 2.003989219665526900e+00 -6.003977060317993164e-01 1.900000000000000000e+01
-2.535887002944945845e+00 1.511036157608031949e-01 -6.806941032409667969e-01 2.200000000000000000e+01
-4.473535919189453125e+01 2.673441171646118164e+00 7.822517752647399902e-01 4.800000000000000000e+01
-2.937326431274414062e+00 1.760527938604355136e-01 -6.793521642684936523e-01 1.200000000000000000e+01
-3.492215633392333984e+00 2.099225670099257868e-01 -6.800432801246643066e-01 1.100000000000000000e+01
-4.485491180419921875e+01 2.704156398773192915e+00 3.931421279907227007e+00 5.400000000000000000e+01
-4.326076507568359375e+00 2.615628242492675781e-01 -6.864344477653503418e-01 1.000000000000000000e+01
-5.688691139221191406e+00 3.459421396255493164e-01 -6.997737884521484375e-01 1.000000000000000000e+01
-8.253081321716308594e+00 5.033342838287353516e-01 -7.233926653861999512e-01 2.000000000000000000e+00
-3.431752777099608664e+01 2.116986274719237837e+00 -6.001533269882202148e-01 1.300000000000000000e+01
-2.533416271209716797e+00 1.598329544067383090e-01 -6.801764369010925293e-01 1.800000000000000000e+01
-4.475369644165039062e+01 2.831347942352294922e+00 7.827404141426086426e-01 4.800000000000000000e+01
-2.934749126434326172e+00 1.861815303564071933e-01 -6.789022684097290039e-01 1.200000000000000000e+01
-3.485583543777465820e+00 2.217374742031097135e-01 -6.788983941078186035e-01 1.200000000000000000e+01
-4.484519958496093750e+01 2.860712766647338867e+00 3.931421279907227007e+00 5.400000000000000000e+01
-4.309366226196289062e+00 2.756532728672028143e-01 -6.839314699172973633e-01 1.000000000000000000e+01
-5.707258701324462891e+00 3.670713603496552069e-01 -7.022111415863037109e-01 1.100000000000000000e+01
-8.227415084838867188e+00 5.306011438369750977e-01 -7.213008999824523926e-01 2.000000000000000000e+00
-1.559580039978026988e+01 1.011268496513366921e+00 -8.190577030181884766e-01 4.000000000000000000e+00
-3.432389831542968750e+01 2.237674713134766069e+00 -6.003977060317993164e-01 1.900000000000000000e+01
-2.532842874526977983e+00 1.686752587556838989e-01 -6.801764369010925293e-01 1.400000000000000000e+01
-4.472757720947266336e+01 2.986484527587891069e+00 7.824611663818359375e-01 4.800000000000000000e+01
-2.924359321594237837e+00 1.957737356424331943e-01 -6.766527891159057617e-01 1.300000000000000000e+01
-3.494582653045653853e+00 2.345604747533797940e-01 -6.808065176010131836e-01 1.100000000000000000e+01
-4.483494186401367188e+01 3.017234325408935991e+00 3.931421279907227007e+00 5.400000000000000000e+01
-4.304435729980468750e+00 2.904281020164489746e-01 -6.833057403564453125e-01 1.000000000000000000e+01
-5.682176113128662109e+00 3.853792846202849787e-01 -6.992862820625305176e-01 1.000000000000000000e+01
-8.245390892028808594e+00 5.606685876846313477e-01 -7.230440378189086914e-01 2.000000000000000000e+00
-3.434181213378906250e+01 2.359255552291870117e+00 -6.008514761924743652e-01 2.000000000000000000e+01
-2.538019895553588867e+00 1.779207885265350064e-01 -6.817293763160705566e-01 1.500000000000000000e+01
-4.477273559570313211e+01 3.146519899368286133e+00 7.834385037422180176e-01 4.800000000000000000e+01
-2.919770240783690962e+00 2.057065516710281095e-01 -6.757529377937316895e-01 1.300000000000000000e+01
-3.481992244720458984e+00 2.459275126457214078e-01 -6.785168051719665527e-01 1.100000000000000000e+01
-4.488375854492188211e+01 3.177940368652344194e+00 3.936650514602661133e+00 5.400000000000000000e+01
-4.309307098388671875e+00 3.058712184429169256e-01 -6.842443346977233887e-01 1.000000000000000000e+01
-5.645154953002929688e+00 4.026691615581511896e-01 -6.948990225791931152e-01 1.000000000000000000e+01
-8.221523284912109375e+00 5.878838300704956055e-01 -7.211266160011291504e-01 3.000000000000000000e+00
-3.431741333007813211e+01 2.477964162826538086e+00 -6.005722284317016602e-01 1.900000000000000000e+01
-2.525823593139647993e+00 1.859281063079833984e-01 -6.786235570907592773e-01 1.400000000000000000e+01
-4.474951171875000000e+01 3.301903963088988814e+00 7.832291126251220703e-01 4.800000000000000000e+01
-2.922921419143677202e+00 2.161846756935119906e-01 -6.766527891159057617e-01 1.300000000000000000e+01
-3.475239038467406782e+00 2.576449811458588202e-01 -6.773719191551208496e-01 1.200000000000000000e+01
-4.486444473266602273e+01 3.334004163742064986e+00 3.935953378677368164e+00 5.400000000000000000e+01
-4.312152862548828125e+00 3.212051093578339178e-01 -6.848700642585754395e-01 1.000000000000000000e+01
-4.489692306518554688e+01 3.352176666259766069e+00 5.527993202209472656e+00 3.800000000000000000e+01
