-5.445157289505004883e-01 -3.178866386413574219e+00 -7.445880174636840820e-01 1.000000000000000000e+01
-6.572972536087036133e-01 -3.833261013031005859e+00 -7.559852600097656250e-01 9.000000000000000000e+00
-8.346499800682067871e-01 -4.857377052307128906e+00 -7.806079983711242676e-01 4.000000000000000000e+00
-7.728423118591308594e+00 -4.492978668212891336e+01 5.597702503204345703e+00 3.900000000000000000e+01
-1.213696837425231934e+00 -7.048557281494140625e+00 -8.781905174255371094e-01 1.000000000000000000e+00
-4.329294681549072266e+00 -2.506394195556640980e+01 -1.332996845245361106e+00 1.100000000000000000e+01
-5.558271408081054688e-01 -3.174929618835449219e+00 -7.441380620002746582e-01 9.000000000000000000e+00
-6.716813445091247559e-01 -3.832760095596313032e+00 -7.563668489456176758e-01 9.000000000000000000e+00
-8.688473701477050781e-01 -4.947674274444580078e+00 -7.956256866455078125e-01 1.000000000000000000e+00
-7.866927146911621094e+00 -4.475257110595703125e+01 5.579178333282470703e+00 3.900000000000000000e+01
-1.237458825111388938e+00 -7.032330989837645596e+00 -8.767280578613281250e-01 1.000000000000000000e+00
-4.427378654479979581e+00 -2.508331108093262074e+01 -1.334880948066710982e+00 1.100000000000000000e+01
-5.682772994041442871e-01 -3.180643558502196822e+00 -7.459377050399780273e-01 9.000000000000000000e+00
-6.836735010147094727e-01 -3.822661638259888139e+00 -7.548403739929199219e-01 8.000000000000000000e+00
-8.875064849853515625e-01 -4.952388763427734375e+00 -7.968771457672119141e-01 1.000000000000000000e+00
-1.261998653411865012e+00 -7.027968883514404297e+00 -8.767280578613281250e-01 1.000000000000000000e+00
-1.887880206108093040e+00 -1.050291442871093928e+01 -9.336122870445251465e-01 2.000000000000000000e+00
-4.505703926086425781e+00 -2.501659584045410156e+01 -1.332159399986267090e+00 1.100000000000000000e+01
-5.800752639770507812e-01 -3.182474851608275923e+00 -7.468374967575073242e-01 9.000000000000000000e+00
-6.952509880065917969e-01 -3.810595035552978960e+00 -7.529323101043701172e-01 4.000000000000000000e+00
-8.902234435081481934e-01 -4.869590759277343750e+00 -7.840495109558105469e-01 4.000000000000000000e+00
-8.425719261169433594e+00 -4.604389953613281250e+01 5.747358322143554688e+00 4.300000000000000000e+01
-1.288669109344481978e+00 -7.035236358642578125e+00 -8.781905174255371094e-01 1.000000000000000000e+00
-1.897940874099731001e+00 -1.035124206542968928e+01 -9.207132458686828613e-01 2.000000000000000000e+00
-4.602383613586425781e+00 -2.505179023742676137e+01 -1.334880948066710982e+00 1.100000000000000000e+01
-5.911806225776672363e-01 -3.180430650711060014e+00 -7.468374967575073242e-01 1.000000000000000000e+01
-9.035958647727966309e-01 -4.847034454345703125e+00 -7.809208631515502930e-01 7.000000000000000000e+00
-1.308845162391663042e+00 -7.007278919219970703e+00 -8.752655982971191406e-01 1.000000000000000000e+00
-1.928203344345092995e+00 -1.031321811676025035e+01 -9.179242849349975586e-01 2.000000000000000000e+00
-4.694215774536132812e+00 -2.505912971496582031e+01 -1.336136937141418013e+00 1.100000000000000000e+01
-5.997390747070312500e-01 -3.164945125579833984e+00 -7.436881661415100098e-01 9.000000000000000000e+00
-9.182969331741333008e-01 -4.832206726074218750e+00 -7.790436148643493652e-01 7.000000000000000000e+00
-1.335524797439574973e+00 -7.014368057250976562e+00 -8.767280578613281250e-01 1.000000000000000000e+00
-1.954493641853332964e+00 -1.025553894042968928e+01 -9.133921861648559570e-01 4.000000000000000000e+00
-4.790649890899658203e+00 -2.508967399597167969e+01 -1.338649034500122070e+00 1.100000000000000000e+01
-6.155866384506225586e-01 -3.187706232070922852e+00 -7.495369315147399902e-01 1.000000000000000000e+00
-9.366611242294311523e-01 -4.836729049682617188e+00 -7.802951335906982422e-01 7.000000000000000000e+00
-1.358489036560059038e+00 -7.001868247985839844e+00 -8.757531046867370605e-01 1.000000000000000000e+00
-1.975467085838318093e+00 -1.017237567901610973e+01 -9.065940380096435547e-01 1.000000000000000000e+01
-4.865993976593017578e+00 -2.501006317138671875e+01 -1.335299611091613992e+00 1.100000000000000000e+01
-9.557511210441589355e-01 -4.849101066589354581e+00 -7.827980518341064453e-01 7.000000000000000000e+00
-1.382469654083251953e+00 -7.001219749450683594e+00 -8.762405514717102051e-01 1.000000000000000000e+00
-1.992964029312134011e+00 -1.008367633819580078e+01 -8.992729783058166504e-01 1.200000000000000000e+01
-4.958990097045898438e+00 -2.504472923278808949e+01 -1.338021039962768999e+00 1.100000000000000000e+01
-9.707280397415161133e-01 -4.836051940917968750e+00 -7.812337279319763184e-01 4.000000000000000000e+00
-1.406900048255919966e+00 -6.996351718902587891e+00 -8.762405514717102051e-01 1.000000000000000000e+00
-2.022253513336182085e+00 -1.004735946655273082e+01 -8.966583013534545898e-01 8.000000000000000000e+00
-5.055067062377929688e+00 -2.507033920288085938e+01 -1.340323805809020996e+00 1.100000000000000000e+01
-9.908216595649719238e-01 -4.844073295593261719e+00 -7.831109166145324707e-01 1.000000000000000000e+00
-1.432533621788024902e+00 -6.991147994995117188e+00 -8.762405514717102051e-01 1.000000000000000000e+00
-2.079079627990723100e+00 -1.013746833801270064e+01 -9.053738713264465332e-01 1.200000000000000000e+01
-5.137273788452148438e+00 -2.500469017028808949e+01 -1.337811708450316939e+00 1.100000000000000000e+01
-1.025439262390136941e+00 -4.925677299499511719e+00 -7.968771457672119141e-01 1.000000000000000000e+00
-1.456928491592407005e+00 -6.986104965209960938e+00 -8.762405514717102051e-01 1.000000000000000000e+00
-2.115267515182495117e+00 -1.013405036926270064e+01 -9.057224988937377930e-01 8.000000000000000000e+00
-5.215532302856445312e+00 -2.494359588623046875e+01 -1.335508942604064941e+00 1.100000000000000000e+01
-1.044221878051758035e+00 -4.933845043182373047e+00 -7.987543940544128418e-01 1.000000000000000000e+00
-1.476793646812438965e+00 -6.965699672698974609e+00 -8.742906451225280762e-01 1.000000000000000000e+00
-2.060359716415404829e+00 -9.709895133972167969e+00 -8.684198260307312012e-01 5.000000000000000000e+00
-5.307354927062988281e+00 -2.496914291381835938e+01 -1.337811708450316939e+00 1.100000000000000000e+01
-1.053122639656066895e+00 -4.891547679901123047e+00 -7.924969792366027832e-01 1.000000000000000000e+00
-1.501099467277527078e+00 -6.960502147674561435e+00 -8.742906451225280762e-01 1.000000000000000000e+00
-2.178733587265015093e+00 -1.009409904479979936e+01 -9.034564495086669922e-01 6.000000000000000000e+00
-5.397858142852783203e+00 -2.496608161926269887e+01 -1.338649034500122070e+00 1.100000000000000000e+01
-1.064275860786437988e+00 -4.860826492309570312e+00 -7.881168127059936523e-01 3.000000000000000000e+00
-1.526237487792968972e+00 -6.959097862243652344e+00 -8.747781515121459961e-01 3.000000000000000000e+00
-2.206266403198242188e+00 -1.005140399932860973e+01 -9.003188014030456543e-01 1.200000000000000000e+01
-5.500412464141845703e+00 -2.501731109619140980e+01 -1.342417240142822044e+00 1.100000000000000000e+01
-1.072652220726012962e+00 -4.818518161773681641e+00 -7.818594574928283691e-01 4.000000000000000000e+00
-1.553112030029297097e+00 -6.965353012084960938e+00 -8.762405514717102051e-01 1.000000000000000000e+00
-2.219207763671875000e+00 -9.944468498229980469e+00 -8.914289474487304688e-01 7.000000000000000000e+00
-5.600776672363281250e+00 -2.505643463134765980e+01 -1.345557451248168945e+00 1.100000000000000000e+01
-1.085105895996093972e+00 -4.795477867126464844e+00 -7.787307500839233398e-01 4.000000000000000000e+00
-1.573905944824218972e+00 -6.944401264190673828e+00 -8.742906451225280762e-01 3.000000000000000000e+00
-2.259195566177368164e+00 -9.959978103637695312e+00 -8.935206532478332520e-01 6.000000000000000000e+00
-5.682895660400390625e+00 -2.501335906982421875e+01 -1.344301342964171919e+00 1.100000000000000000e+01
-1.104937314987183061e+00 -4.805136680603027344e+00 -7.809208631515502930e-01 7.000000000000000000e+00
-1.593681573867798074e+00 -6.919520854949951172e+00 -8.718532919883728027e-01 1.000000000000000000e+00
-2.315429210662841797e+00 -1.004522228240966975e+01 -9.018876552581787109e-01 4.000000000000000000e+00
-5.771072864532470703e+00 -2.499726295471191051e+01 -1.344510674476623979e+00 2.300000000000000000e+01
-1.124400138854980025e+00 -4.812792301177979404e+00 -7.827980518341064453e-01 7.000000000000000000e+00
-1.621443748474121094e+00 -6.929378509521484375e+00 -8.738031983375549316e-01 3.000000000000000000e+00
-2.275976419448852983e+00 -9.718934059143066406e+00 -8.733005523681640625e-01 1.000000000000000000e+00
-5.858294010162354404e+00 -2.497696495056151988e+01 -1.344510674476623979e+00 1.100000000000000000e+01
-1.136631846427917036e+00 -4.789618015289306641e+00 -7.796693444252014160e-01 7.000000000000000000e+00
-1.650671243667602983e+00 -6.944920539855957031e+00 -8.764843344688415527e-01 3.000000000000000000e+00
-2.311271190643310991e+00 -9.716745376586914062e+00 -8.738234639167785645e-01 7.000000000000000000e+00
-5.949147224426270419e+00 -2.497190666198730113e+01 -1.345348119735717995e+00 1.100000000000000000e+01
-1.149641275405884011e+00 -4.770257949829101562e+00 -7.771664261817932129e-01 9.000000000000000000e+00
-1.666053891181946023e+00 -6.902452468872070312e+00 -8.718532919883728027e-01 3.000000000000000000e+00
-2.383068084716796875e+00 -9.865489959716796875e+00 -8.879427313804626465e-01 5.000000000000000000e+00
-6.040036201477050781e+00 -2.496651840209960938e+01 -1.346185445785522017e+00 1.100000000000000000e+01
-1.172389388084412065e+00 -4.791160106658936435e+00 -7.812337279319763184e-01 9.000000000000000000e+00
-1.684467792510986106e+00 -6.873458385467529297e+00 -8.689284324645996094e-01 3.000000000000000000e+00
-1.107765102386474965e+01 -4.520227432250977273e+01 7.371191978454589844e+00 1.500000000000000000e+01
-2.423660039901732954e+00 -9.882266998291015625e+00 -8.902087807655334473e-01 7.000000000000000000e+00
-6.137629985809326172e+00 -2.498795318603515980e+01 -1.348488211631774902e+00 1.100000000000000000e+01
-1.182915687561034934e+00 -4.762115955352783203e+00 -7.771664261817932129e-01 7.000000000000000000e+00
-1.712284207344054954e+00 -6.882947921752929688e+00 -8.708783388137817383e-01 3.000000000000000000e+00
-2.362356662750244141e+00 -9.489005088806152344e+00 -8.555207848548889160e-01 3.000000000000000000e+00
-6.230615139007568359e+00 -2.498963165283203125e+01 -1.349744319915771040e+00 1.200000000000000000e+01
-1.202428817749022993e+00 -4.769450187683104581e+00 -7.790436148643493652e-01 9.000000000000000000e+00
-1.746990680694580078e+00 -6.919271945953369141e+00 -8.762405514717102051e-01 1.000000000000000000e+00
-2.382775306701660156e+00 -9.430477142333984375e+00 -8.509886860847473145e-01 3.000000000000000000e+00
-6.302129268646240234e+00 -2.490577125549316051e+01 -1.346394777297974077e+00 1.100000000000000000e+01
-1.220684528350830078e+00 -4.775005817413330078e+00 -7.806079983711242676e-01 9.000000000000000000e+00
-1.758602619171143022e+00 -6.869210243225097656e+00 -8.706346154212951660e-01 3.000000000000000000e+00
-2.385354995727539062e+00 -9.310580253601074219e+00 -8.408786058425903320e-01 6.000000000000000000e+00
-6.408510208129882812e+00 -2.497759628295898082e+01 -1.351419091224669966e+00 1.200000000000000000e+01
-1.227922320365905984e+00 -4.734385490417479581e+00 -7.746634483337402344e-01 7.000000000000000000e+00
-1.785065054893494096e+00 -6.872636318206787109e+00 -8.718532919883728027e-01 1.000000000000000000e+00
-2.420847892761230025e+00 -9.313767433166503906e+00 -8.419244885444641113e-01 1.100000000000000000e+01
-6.509746551513671875e+00 -2.500919532775878906e+01 -1.354349851608275923e+00 1.200000000000000000e+01
-1.251804590225219949e+00 -4.754686832427979404e+00 -7.787307500839233398e-01 9.000000000000000000e+00
-1.805181741714477983e+00 -6.846852779388427734e+00 -8.694158792495727539e-01 1.000000000000000000e+00
-2.455476522445679155e+00 -9.306757926940917969e+00 -8.420987725257873535e-01 8.000000000000000000e+00
-6.586060047149658203e+00 -2.492723655700683949e+01 -1.351209759712219016e+00 1.200000000000000000e+01
-1.263807535171509011e+00 -4.733111858367919922e+00 -7.759149670600891113e-01 9.000000000000000000e+00
-1.827019691467284934e+00 -6.832838535308837891e+00 -8.684409260749816895e-01 3.000000000000000000e+00
-2.478163242340087891e+00 -9.261561393737792969e+00 -8.387868404388427734e-01 1.000000000000000000e+00
-6.686472415924072266e+00 -2.495425605773926137e+01 -1.353931188583374023e+00 1.200000000000000000e+01
-1.283935308456420898e+00 -4.742018222808837891e+00 -7.781050205230712891e-01 9.000000000000000000e+00
-1.841509222984313965e+00 -6.791933059692382812e+00 -8.640536665916442871e-01 4.000000000000000000e+00
-2.503173112869263139e+00 -9.225934028625488281e+00 -8.363465070724487305e-01 1.000000000000000000e+00
-6.775632858276367188e+00 -2.493847274780273082e+01 -1.354349851608275923e+00 1.200000000000000000e+01
-1.299434423446655051e+00 -4.733697891235351562e+00 -7.774792909622192383e-01 9.000000000000000000e+00
-1.864153861999511941e+00 -6.781635284423828125e+00 -8.635661602020263672e-01 9.000000000000000000e+00
-6.871129512786865234e+00 -2.494547843933105113e+01 -1.356024622917175071e+00 1.200000000000000000e+01
-1.317009210586548074e+00 -4.732939243316650391e+00 -7.781050205230712891e-01 9.000000000000000000e+00
-1.875559806823730025e+00 -6.731105327606201172e+00 -8.579601645469665527e-01 1.100000000000000000e+01
-6.965682983398438388e+00 -2.494827270507812855e+01 -1.357490062713623047e+00 1.200000000000000000e+01
-1.331377506256103960e+00 -4.720708370208740234e+00 -7.768535614013671875e-01 9.000000000000000000e+00
-1.890412330627440962e+00 -6.693951606750488281e+00 -8.540603518486022949e-01 1.100000000000000000e+01
-7.038587093353270596e+00 -2.487384033203125000e+01 -1.354768514633178933e+00 1.200000000000000000e+01
-1.347024559974669966e+00 -4.716267585754395419e+00 -7.768535614013671875e-01 9.000000000000000000e+00
-1.908233165740967019e+00 -6.672377109527587891e+00 -8.521104454994201660e-01 1.100000000000000000e+01
-3.224359989166260210e+00 -1.126694107055664062e+01 -1.025300145149230957e+00 2.000000000000000000e+00
-7.149642467498779297e+00 -2.495020103454589844e+01 -1.360211491584778054e+00 1.200000000000000000e+01
-1.364028334617614968e+00 -4.713434219360351562e+00 -7.771664261817932129e-01 9.000000000000000000e+00
-1.923777580261230025e+00 -6.638982295989990234e+00 -8.486980795860290527e-01 8.000000000000000000e+00
-3.263669252395629883e+00 -1.125561714172362926e+01 -1.025300145149230957e+00 2.000000000000000000e+00
-7.230009078979492188e+00 -2.490207481384276988e+01 -1.358955383300781028e+00 1.200000000000000000e+01
-1.363498020172118963e+01 -4.693190765380858664e+01 1.128309535980224965e+01 1.400000000000000000e+01
-1.379917263984679954e+00 -4.706748485565186435e+00 -7.768535614013671875e-01 9.000000000000000000e+00
-1.940230488777161089e+00 -6.609370231628417969e+00 -8.457732200622558594e-01 4.000000000000000000e+00
-3.302938699722290039e+00 -1.124415588378906072e+01 -1.025300145149230957e+00 2.000000000000000000e+00
-7.341686725616455078e+00 -2.496099472045898082e+01 -1.363561034202575906e+00 1.200000000000000000e+01
-1.379871940612792969e+01 -4.688402938842772727e+01 1.128309535980224965e+01 1.400000000000000000e+01
-1.394088983535767046e+00 -4.694328784942626953e+00 -7.756021022796630859e-01 9.000000000000000000e+00
-1.945750236511230025e+00 -6.543571949005126953e+00 -8.382173180580139160e-01 6.000000000000000000e+00
-3.342168092727661133e+00 -1.123255825042724965e+01 -1.025300145149230957e+00 2.000000000000000000e+00
-7.427631378173828125e+00 -2.493138694763183949e+01 -1.363351702690124956e+00 1.200000000000000000e+01
-1.409648299217223899e+00 -4.689679622650145596e+00 -7.756021022796630859e-01 9.000000000000000000e+00
-1.940550327301024947e+00 -6.447742462158203125e+00 -8.267616033554077148e-01 7.000000000000000000e+00
-7.506806373596191406e+00 -2.489514541625976918e+01 -1.362723588943481001e+00 1.200000000000000000e+01
-8.780924797058105469e+00 -2.888330268859862926e+01 1.582116007804871050e+00 1.500000000000000000e+01
-1.167226552963257058e+00 -3.839385747909545898e+00 -7.800271511077880859e-01 1.000000000000000000e+00
-1.430036425590514915e+00 -4.697958946228027344e+00 -7.777921557426452637e-01 1.200000000000000000e+01
-1.942789793014525923e+00 -6.374469757080078125e+00 -8.182307481765747070e-01 1.000000000000000000e+01
-7.598327159881591797e+00 -2.488407135009765980e+01 -1.363561034202575906e+00 1.200000000000000000e+01
-1.425036525726318004e+01 -4.661084365844727273e+01 -8.507699370384216309e-01 1.300000000000000000e+01
-8.857331275939941406e+00 -2.875548744201660156e+01 1.576882362365723100e+00 1.500000000000000000e+01
-1.146614909172058105e+00 -3.722506284713745117e+00 -7.571300864219665527e-01 1.000000000000000000e+00
-1.445499181747436968e+00 -4.687023162841796875e+00 -7.768535614013671875e-01 9.000000000000000000e+00
-1.942713022232056108e+00 -6.291437149047851562e+00 -8.084812164306640625e-01 1.000000000000000000e+01
-3.459609746932982954e+00 -1.119694423675536932e+01 -1.025300145149230957e+00 2.000000000000000000e+00
-7.700105667114257812e+00 -2.489039993286133168e+01 -1.365445137023926003e+00 1.200000000000000000e+01
-1.440927314758300959e+01 -4.652009582519531250e+01 -8.500717878341674805e-01 1.300000000000000000e+01
-1.165446758270263894e+00 -3.737223386764525923e+00 -7.609462738037109375e-01 1.000000000000000000e+00
-1.459496259689331055e+00 -4.674406528472900391e+00 -7.756021022796630859e-01 9.000000000000000000e+00
-1.946893334388732910e+00 -6.227777481079101562e+00 -8.011690378189086914e-01 1.000000000000000000e+01
-1.418893146514892933e+01 -4.536015319824218750e+01 7.527626514434813565e+00 1.600000000000000000e+01
-3.468932867050170898e+00 -1.108972263336181996e+01 -1.016584634780884011e+00 2.000000000000000000e+00
-7.792912006378173828e+00 -2.488242912292480113e+01 -1.366491794586182085e+00 1.200000000000000000e+01
-1.179014801979064941e+00 -3.737082719802856001e+00 -7.617095112800598145e-01 3.000000000000000000e+00
-1.473799109458922896e+00 -4.665773868560791016e+00 -7.749763131141662598e-01 9.000000000000000000e+00
-1.953767299652100053e+00 -6.177754878997802734e+00 -7.955631017684936523e-01 1.200000000000000000e+01
-3.514104127883911133e+00 -1.110475254058838068e+01 -1.019024968147278054e+00 2.000000000000000000e+00
-7.864523887634277344e+00 -2.482217979431151988e+01 -1.364607691764831987e+00 1.200000000000000000e+01
-9.047166824340820312e+00 -2.836561203002930043e+01 5.196977853775024414e-01 2.000000000000000000e+01
-1.193246841430664062e+00 -3.736684799194335938e+00 -7.624727487564086914e-01 4.000000000000000000e+00
-1.492483019828795943e+00 -4.668127059936523438e+00 -7.762278318405151367e-01 9.000000000000000000e+00
-1.949902176856995073e+00 -6.091492652893066406e+00 -7.853260636329650879e-01 1.200000000000000000e+01
-3.574724197387694868e+00 -1.116072559356688920e+01 -1.025300145149230957e+00 2.000000000000000000e+00
-7.940143585205078125e+00 -2.476034164428710938e+01 -1.362723588943481001e+00 1.200000000000000000e+01
-1.470570755004882990e+01 -4.583039474487304688e+01 1.111213207244873047e+01 1.400000000000000000e+01
-1.200849413871764915e+00 -3.715683698654174805e+00 -7.590382099151611328e-01 6.000000000000000000e+00
-1.509984970092772993e+00 -4.666647434234619141e+00 -7.768535614013671875e-01 9.000000000000000000e+00
-1.951576590538024902e+00 -6.024218082427979404e+00 -7.775264382362365723e-01 1.300000000000000000e+01
-3.589086294174193892e+00 -1.107236766815186080e+01 -1.018327713012695090e+00 2.000000000000000000e+00
-8.075846672058105469e+00 -2.488445281982421875e+01 -1.371097326278686968e+00 1.200000000000000000e+01
-1.212591648101807085e+00 -3.707737445831298828e+00 -7.582749724388122559e-01 7.000000000000000000e+00
-1.529953479766845925e+00 -4.672612190246582031e+00 -7.787307500839233398e-01 9.000000000000000000e+00
-1.953423738479614036e+00 -5.958892822265625000e+00 -7.699705362319946289e-01 1.500000000000000000e+01
-3.621504306793212891e+00 -1.104084014892577947e+01 -1.016584634780884011e+00 2.000000000000000000e+00
-8.187586784362792969e+00 -2.493201446533203125e+01 -1.375284314155579057e+00 1.200000000000000000e+01
-1.221826076507567915e+00 -3.692298889160155806e+00 -7.559852600097656250e-01 7.000000000000000000e+00
-1.543769717216491921e+00 -4.659742832183837891e+00 -7.774792909622192383e-01 9.000000000000000000e+00
-1.425132083892822088e+01 -4.299131393432617188e+01 5.561141967773438388e+00 3.800000000000000000e+01
-1.952339053153991921e+00 -5.886092662811279297e+00 -7.614396810531616211e-01 1.300000000000000000e+01
-1.450495719909667969e+01 -4.373088836669921875e+01 7.297354698181152344e+00 1.500000000000000000e+01
-8.275825500488281250e+00 -2.490707206726073863e+01 -1.375493645668030007e+00 1.200000000000000000e+01
-9.370823860168457031e+00 -2.816973495483398082e+01 -5.181968808174133301e-01 4.000000000000000000e+00
-1.237200260162353960e+00 -3.695458173751831055e+00 -7.575117349624633789e-01 7.000000000000000000e+00
-1.555003643035888894e+00 -4.639341831207275391e+00 -7.749763131141662598e-01 9.000000000000000000e+00
-1.963400602340698020e+00 -5.851012229919433594e+00 -7.577835917472839355e-01 1.100000000000000000e+01
-3.666786432266234907e+00 -1.092085075378417969e+01 -1.007869005203247070e+00 2.000000000000000000e+00
-8.391990661621093750e+00 -2.496511840820312855e+01 -1.380308508872986062e+00 1.200000000000000000e+01
-9.495885848999023438e+00 -2.821645355224609020e+01 -5.196628570556640625e-01 4.000000000000000000e+00
-1.249448060989380105e+00 -3.691335201263428178e+00 -7.575117349624633789e-01 8.000000000000000000e+00
-1.570379614830017090e+00 -4.634159564971923828e+00 -7.749763131141662598e-01 9.000000000000000000e+00
-1.447987842559813920e+01 -4.270531463623046875e+01 5.536767959594726562e+00 3.800000000000000000e+01
-1.962384223937988059e+00 -5.784314155578613281e+00 -7.499839663505554199e-01 1.100000000000000000e+01
-3.702981233596802202e+00 -1.090863037109375000e+01 -1.007869005203247070e+00 2.000000000000000000e+00
-8.474731445312500000e+00 -2.493715286254883168e+01 -1.380308508872986062e+00 1.200000000000000000e+01
-9.510822296142578125e+00 -2.795384788513183949e+01 -5.154044628143310547e-01 8.000000000000000000e+00
-1.259145975112915039e+00 -3.677664279937744141e+00 -7.556036114692687988e-01 8.000000000000000000e+00
-1.589108347892761008e+00 -4.636124134063720703e+00 -7.762278318405151367e-01 9.000000000000000000e+00
-1.969032645225524902e+00 -5.737998962402343750e+00 -7.448654174804687500e-01 9.000000000000000000e+00
-3.546932458877563032e+00 -1.033031654357909979e+01 -9.555755853652954102e-01 2.000000000000000000e+00
-8.564323425292968750e+00 -2.491497230529785156e+01 -1.380727171897887962e+00 1.200000000000000000e+01
-9.644781112670898438e+00 -2.802636718750000000e+01 -5.173591375350952148e-01 8.000000000000000000e+00
-1.271971702575684038e+00 -3.669092416763306108e+00 -7.548403739929199219e-01 8.000000000000000000e+00
-1.608193397521973100e+00 -4.633720874786376953e+00 -7.768535614013671875e-01 9.000000000000000000e+00
-1.976716876029968040e+00 -5.689143180847167969e+00 -7.395032048225402832e-01 5.000000000000000000e+00
-8.673056602478027344e+00 -2.491963005065917969e+01 -1.382820606231689009e+00 1.200000000000000000e+01
-9.769430160522460938e+00 -2.803822517395019887e+01 -5.182666778564453125e-01 4.000000000000000000e+00
-1.286070585250854048e+00 -3.668335437774658203e+00 -7.556036114692687988e-01 9.000000000000000000e+00
-1.626975059509276900e+00 -4.635534763336181641e+00 -7.781050205230712891e-01 9.000000000000000000e+00
-2.002486228942871094e+00 -5.699064254760742188e+00 -7.416968345642089844e-01 5.000000000000000000e+00
-2.511078834533690962e+00 -7.142529487609863281e+00 -6.623836159706115723e-01 4.000000000000000000e+00
-8.765294075012207031e+00 -2.490427589416503906e+01 -1.383658051490783913e+00 1.200000000000000000e+01
-9.810091018676757812e+00 -2.784175300598144887e+01 -5.152648687362670898e-01 4.000000000000000000e+00
-1.299554586410522017e+00 -3.669829130172729048e+00 -7.567484974861145020e-01 9.000000000000000000e+00
-1.632289409637450950e+00 -4.604334831237792969e+00 -7.737248539924621582e-01 9.000000000000000000e+00
-2.015732765197753906e+00 -5.679649353027343750e+00 -7.399906516075134277e-01 7.000000000000000000e+00
-2.530171871185303178e+00 -7.125217914581298828e+00 -6.615120768547058105e-01 7.000000000000000000e+00
-8.852856636047363281e+00 -2.490296173095703125e+01 -1.385123372077941895e+00 1.200000000000000000e+01
-1.088627576828002930e+00 -3.042091846466064009e+00 -7.459377050399780273e-01 1.000000000000000000e+00
-1.313018560409545898e+00 -3.667118787765502930e+00 -7.571300864219665527e-01 8.000000000000000000e+00
-1.653683900833130105e+00 -4.613484859466552734e+00 -7.762278318405151367e-01 1.000000000000000000e+01
-2.029511928558350053e+00 -5.655762672424316406e+00 -7.377970218658447266e-01 1.100000000000000000e+01
-2.546275615692139116e+00 -7.091965198516845703e+00 -6.592460274696350098e-01 4.000000000000000000e+00
-8.941081047058105469e+00 -2.487566757202148082e+01 -1.385332703590393066e+00 1.200000000000000000e+01
-9.549780488014221191e-01 -2.639537096023560014e+00 -7.521281242370605469e-01 1.000000000000000000e+00
-1.102291226387023926e+00 -3.043386220932006836e+00 -7.472873926162719727e-01 4.000000000000000000e+00
-1.325082898139954057e+00 -3.656512737274169922e+00 -7.559852600097656250e-01 9.000000000000000000e+00
-1.672733545303344949e+00 -4.610815048217773438e+00 -7.768535614013671875e-01 9.000000000000000000e+00
-2.047147750854492188e+00 -5.636733055114746094e+00 -7.363345623016357422e-01 1.300000000000000000e+01
-2.565322637557982954e+00 -7.059664726257324219e+00 -6.571543216705322266e-01 1.000000000000000000e+00
-9.050186157226562500e+00 -2.487869071960448863e+01 -1.387426257133484109e+00 1.200000000000000000e+01
-9.389697909355163574e-01 -2.567243814468383789e+00 -7.324578762054443359e-01 2.000000000000000000e+00
-1.113577961921691895e+00 -3.041349887847899947e+00 -7.477372884750366211e-01 6.000000000000000000e+00
-1.333786487579345925e+00 -3.640804290771483931e+00 -7.536955475807189941e-01 1.000000000000000000e+01
-1.687457799911499023e+00 -4.601239204406738281e+00 -7.762278318405151367e-01 9.000000000000000000e+00
-2.068179368972777876e+00 -5.633279800415039062e+00 -7.368220686912536621e-01 1.600000000000000000e+01
-3.878741741180419922e+00 -1.055916881561278942e+01 -9.841626286506652832e-01 2.000000000000000000e+00
-9.146624565124511719e+00 -2.487319183349609020e+01 -1.388891577720642090e+00 1.200000000000000000e+01
-9.456918239593505859e-01 -2.560657024383544922e+00 -7.314226031303405762e-01 5.000000000000000000e+00
-1.125154376029968040e+00 -3.043319940567017046e+00 -7.490870356559753418e-01 8.000000000000000000e+00
-1.348623394966125044e+00 -3.645802736282349077e+00 -7.556036114692687988e-01 9.000000000000000000e+00
-1.701904654502869096e+00 -4.595914840698242188e+00 -7.762278318405151367e-01 1.000000000000000000e+01
-2.083106756210327148e+00 -5.619309425354003906e+00 -7.358471155166625977e-01 1.800000000000000000e+01
-9.241405487060546875e+00 -2.488927078247069957e+01 -1.391403675079345925e+00 1.200000000000000000e+01
-9.593536257743835449e-01 -2.570009231567382812e+00 -7.350460886955261230e-01 8.000000000000000000e+00
-1.133042216300963911e+00 -3.032072067260742188e+00 -7.472873926162719727e-01 9.000000000000000000e+00
-1.361341476440429910e+00 -3.641072988510131836e+00 -7.556036114692687988e-01 9.000000000000000000e+00
-1.722091674804687944e+00 -4.601046562194824219e+00 -7.781050205230712891e-01 9.000000000000000000e+00
-2.078331947326660156e+00 -5.546942710876464844e+00 -7.273162603378295898e-01 2.000000000000000000e+01
-9.350684165954589844e+00 -2.491669845581055043e+01 -1.394753217697143999e+00 1.200000000000000000e+01
-9.703645706176757812e-01 -2.572067260742187944e+00 -7.365990281105041504e-01 1.000000000000000000e+01
-1.140176653861999956e+00 -3.018983364105225053e+00 -7.450379133224487305e-01 1.000000000000000000e+01
-1.376818656921386941e+00 -3.643644809722899947e+00 -7.571300864219665527e-01 1.000000000000000000e+01
-1.733948469161987083e+00 -4.583921432495117188e+00 -7.762278318405151367e-01 9.000000000000000000e+00
-2.100493431091309038e+00 -5.547080039978027344e+00 -7.282912135124206543e-01 1.600000000000000000e+01
-2.671071529388428178e+00 -7.050172805786132812e+00 -6.595946550369262695e-01 1.000000000000000000e+00
-9.433353424072265625e+00 -2.487270164489746094e+01 -1.394125223159790039e+00 1.200000000000000000e+01
-9.793368577957153320e-01 -2.568664550781250000e+00 -7.365990281105041504e-01 1.100000000000000000e+01
-1.152097582817078081e+00 -3.018626213073730025e+00 -7.459377050399780273e-01 1.100000000000000000e+01
-1.390929698944092019e+00 -3.642484903335570845e+00 -7.578933238983154297e-01 9.000000000000000000e+00
-1.748528122901916948e+00 -4.574150562286376953e+00 -7.756021022796630859e-01 1.000000000000000000e+01
-2.104945182800292969e+00 -5.500780105590820312e+00 -7.231726646423339844e-01 1.600000000000000000e+01
-3.976533174514770952e+00 -1.038630485534667969e+01 -9.730067253112792969e-01 2.000000000000000000e+00
-9.520117759704589844e+00 -2.483962249755859020e+01 -1.394125223159790039e+00 1.200000000000000000e+01
-9.901345372200012207e-01 -2.568662881851195845e+00 -7.376343011856079102e-01 1.100000000000000000e+01
-1.164556741714477983e+00 -3.018019437789916992e+00 -7.468374967575073242e-01 1.100000000000000000e+01
-1.397907018661499023e+00 -3.620878934860229048e+00 -7.544587850570678711e-01 9.000000000000000000e+00
-1.773826599121093972e+00 -4.589822292327880859e+00 -7.793564796447753906e-01 1.000000000000000000e+01
-2.123659849166870117e+00 -5.489325523376464844e+00 -7.226852178573608398e-01 1.600000000000000000e+01
-3.978614330291748047e+00 -1.027875804901123047e+01 -9.642911553382873535e-01 2.000000000000000000e+00
-9.611095428466796875e+00 -2.480456161499023082e+01 -1.394125223159790039e+00 1.200000000000000000e+01
-9.962903261184692383e-01 -2.557990550994873047e+00 -7.355637550354003906e-01 1.100000000000000000e+01
-1.179331779479980025e+00 -3.024829626083374023e+00 -7.495369315147399902e-01 1.100000000000000000e+01
-1.410537719726562944e+00 -3.615977287292480025e+00 -7.544587850570678711e-01 9.000000000000000000e+00
-1.786963105201720969e+00 -4.576241970062255859e+00 -7.781050205230712891e-01 1.000000000000000000e+01
-2.116791009902954102e+00 -5.415319919586181641e+00 -7.139106392860412598e-01 1.800000000000000000e+01
-1.751883125305176137e+01 -4.481787490844727273e+01 7.621487140655517578e+00 1.600000000000000000e+01
-4.004310131072998047e+00 -1.023882961273193004e+01 -9.618507623672485352e-01 2.000000000000000000e+00
-9.723833084106445312e+00 -2.483781433105469105e+01 -1.397893428802490012e+00 1.200000000000000000e+01
-1.006441831588744895e+00 -2.560241699218750000e+00 -7.371166348457336426e-01 1.000000000000000000e+01
-1.186688065528870073e+00 -3.015669584274291992e+00 -7.481871843338012695e-01 1.200000000000000000e+01
-1.424048304557800071e+00 -3.617008447647095171e+00 -7.556036114692687988e-01 8.000000000000000000e+00
-1.801330924034119096e+00 -4.570605754852294922e+00 -7.781050205230712891e-01 1.000000000000000000e+01
-2.147634983062744141e+00 -5.443728446960449219e+00 -7.185416221618652344e-01 1.300000000000000000e+01
-4.010122299194335938e+00 -1.015948295593262074e+01 -9.555755853652954102e-01 2.000000000000000000e+00
-9.834108352661132812e+00 -2.488887596130371094e+01 -1.402498960494994895e+00 1.200000000000000000e+01
-1.013946533203125000e+00 -2.553122043609619141e+00 -7.360813617706298828e-01 1.000000000000000000e+01
-1.192888021469115989e+00 -3.000643730163574219e+00 -7.454878091812133789e-01 1.200000000000000000e+01
-1.435214161872863992e+00 -3.608366966247559038e+00 -7.548403739929199219e-01 8.000000000000000000e+00
-1.815812945365905984e+00 -4.560619354248046875e+00 -7.774792909622192383e-01 9.000000000000000000e+00
-1.712852096557616832e+01 -4.299837875366210938e+01 5.683011054992675781e+00 4.200000000000000000e+01
-2.182057857513428178e+00 -5.474923133850097656e+00 -7.236601710319519043e-01 1.500000000000000000e+01
-2.718687772750854048e+00 -6.817902088165283203e+00 -6.421635150909423828e-01 1.000000000000000000e+00
-9.935735702514648438e+00 -2.489149475097655895e+01 -1.404592394828795943e+00 1.200000000000000000e+01
-1.021413803100585938e+00 -2.545981407165526900e+00 -7.350460886955261230e-01 1.000000000000000000e+01
-1.205533623695373979e+00 -3.001886367797852007e+00 -7.468374967575073242e-01 1.000000000000000000e+01
-1.446337103843688965e+00 -3.599691867828369141e+00 -7.540771365165710449e-01 9.000000000000000000e+00
-1.831721425056457964e+00 -4.554253101348876953e+00 -7.774792909622192383e-01 1.000000000000000000e+01
-2.194483280181885210e+00 -5.450699806213378906e+00 -7.214665412902832031e-01 1.600000000000000000e+01
-2.742470264434814009e+00 -6.808370590209960938e+00 -6.421635150909423828e-01 1.000000000000000000e+00
-1.005990695953368963e+01 -2.494927787780762074e+01 -1.409826040267943892e+00 1.200000000000000000e+01
-1.036099195480346902e+00 -2.556723833084106001e+00 -7.391871809959411621e-01 1.000000000000000000e+01
-1.213074684143065962e+00 -2.990436792373656782e+00 -7.450379133224487305e-01 1.100000000000000000e+01
-1.458893537521362083e+00 -3.594621181488037109e+00 -7.540771365165710449e-01 8.000000000000000000e+00
-1.854299187660217063e+00 -4.564302444458007812e+00 -7.802951335906982422e-01 1.000000000000000000e+01
-2.231443643569945845e+00 -5.487139225006104404e+00 -7.273162603378295898e-01 1.600000000000000000e+01
-4.116290092468261719e+00 -1.011693286895751953e+01 -9.555755853652954102e-01 2.000000000000000000e+00
-1.017556285858153942e+01 -2.498430061340332031e+01 -1.413803577423095925e+00 1.200000000000000000e+01
-1.042822122573852983e+00 -2.547727823257445845e+00 -7.376343011856079102e-01 1.100000000000000000e+01
-1.229416489601135032e+00 -3.000610113143920898e+00 -7.486370801925659180e-01 1.200000000000000000e+01
-1.471432209014893022e+00 -3.589506864547729048e+00 -7.540771365165710449e-01 8.000000000000000000e+00
-1.867220640182494895e+00 -4.550492286682128906e+00 -7.790436148643493652e-01 1.000000000000000000e+01
-2.233236789703369141e+00 -5.437083244323729581e+00 -7.217102646827697754e-01 1.800000000000000000e+01
-1.028702640533447088e+01 -2.500773620605469105e+01 -1.417153000831604004e+00 1.200000000000000000e+01
-1.051709055900573953e+00 -2.544072389602661133e+00 -7.376343011856079102e-01 1.100000000000000000e+01
-1.238392829895019975e+00 -2.992699146270751953e+00 -7.477372884750366211e-01 1.100000000000000000e+01
-1.492964863777161089e+00 -3.606116056442261186e+00 -7.586565613746643066e-01 8.000000000000000000e+00
-1.880068421363831010e+00 -4.536646842956542969e+00 -7.777921557426452637e-01 1.000000000000000000e+01
-2.259047746658325195e+00 -5.445756912231445312e+00 -7.239038944244384766e-01 1.800000000000000000e+01
-4.137939453125000000e+00 -9.970176696777343750e+00 -9.444196224212646484e-01 2.000000000000000000e+00
-1.038958168029784979e+01 -2.500856399536133168e+01 -1.419246435165405051e+00 1.300000000000000000e+01
-1.060583114624022993e+00 -2.540385723114014116e+00 -7.376343011856079102e-01 1.200000000000000000e+01
-1.245826125144958052e+00 -2.981165885925292969e+00 -7.459377050399780273e-01 1.200000000000000000e+01
-1.500999569892883079e+00 -3.590014696121215820e+00 -7.563668489456176758e-01 8.000000000000000000e+00
-1.900468587875365989e+00 -4.540989875793457031e+00 -7.796693444252014160e-01 1.000000000000000000e+01
-2.259634733200072798e+00 -5.393896102905273438e+00 -7.180541753768920898e-01 2.600000000000000000e+01
-4.165015220642089844e+00 -9.937296867370605469e+00 -9.426764845848083496e-01 2.000000000000000000e+00
-1.046754264831542969e+01 -2.495004463195801137e+01 -1.417990446090698020e+00 1.200000000000000000e+01
-1.069444179534912109e+00 -2.536668062210083008e+00 -7.376343011856079102e-01 1.100000000000000000e+01
-1.254709482192992942e+00 -2.973208189010620117e+00 -7.450379133224487305e-01 1.100000000000000000e+01
-1.507412791252136008e+00 -3.570284128189086914e+00 -7.533138990402221680e-01 8.000000000000000000e+00
-1.911694169044495073e+00 -4.523411273956298828e+00 -7.777921557426452637e-01 1.300000000000000000e+01
-2.276129007339477983e+00 -5.380490779876708984e+00 -7.173229455947875977e-01 1.500000000000000000e+01
-4.179486751556395596e+00 -9.874992370605468750e+00 -9.381443858146667480e-01 2.000000000000000000e+00
-1.059820079803466975e+01 -2.501633834838866832e+01 -1.423851966857909934e+00 1.300000000000000000e+01
-1.078292369842529075e+00 -2.532919406890869141e+00 -7.376343011856079102e-01 1.300000000000000000e+01
-1.266608119010925071e+00 -2.972395896911621094e+00 -7.459377050399780273e-01 1.200000000000000000e+01
-1.521406173706054910e+00 -3.568612575531005859e+00 -7.540771365165710449e-01 9.000000000000000000e+00
-1.928247451782227007e+00 -4.518527507781982422e+00 -7.781050205230712891e-01 2.100000000000000000e+01
-2.300354957580565962e+00 -5.385291576385498047e+00 -7.190291285514831543e-01 2.200000000000000000e+01
-4.174782752990722656e+00 -9.768737792968750000e+00 -9.294288158416748047e-01 2.000000000000000000e+00
-1.068545913696289062e+01 -2.497919273376464844e+01 -1.423851966857909934e+00 1.300000000000000000e+01
-1.081786990165710005e+00 -2.516716241836547852e+00 -7.340108156204223633e-01 1.200000000000000000e+01
-1.280826926231384055e+00 -2.976906776428223100e+00 -7.481871843338012695e-01 1.200000000000000000e+01
-1.533077359199523926e+00 -3.561476707458496094e+00 -7.536955475807189941e-01 9.000000000000000000e+00
-1.945571660995482954e+00 -4.515397548675537109e+00 -7.787307500839233398e-01 1.200000000000000000e+01
-2.308919191360474077e+00 -5.353532791137695312e+00 -7.158605456352233887e-01 2.800000000000000000e+01
-4.199384689331054688e+00 -9.732153892517089844e+00 -9.273371100425720215e-01 2.000000000000000000e+00
-1.080743312835693004e+01 -2.502241706848144887e+01 -1.428457617759705034e+00 1.300000000000000000e+01
-1.090895533561706987e+00 -2.514887332916260210e+00 -7.345284223556518555e-01 1.200000000000000000e+01
-1.286034941673279031e+00 -2.961917877197266069e+00 -7.454878091812133789e-01 1.200000000000000000e+01
-1.547225952148437944e+00 -3.561775445938109907e+00 -7.548403739929199219e-01 8.000000000000000000e+00
-1.948719382286071999e+00 -4.481747627258300781e+00 -7.740377187728881836e-01 3.000000000000000000e+01
-2.327451705932617188e+00 -5.347666740417479581e+00 -7.161042690277099609e-01 2.800000000000000000e+01
-4.214135169982910156e+00 -9.677986145019531250e+00 -9.235022664070129395e-01 2.000000000000000000e+00
-1.088077449798583984e+01 -2.496446990966796875e+01 -1.427201509475708008e+00 1.300000000000000000e+01
-1.098892569541930930e+00 -2.509294509887694868e+00 -7.340108156204223633e-01 1.300000000000000000e+01
-1.293236732482909934e+00 -2.950271606445312944e+00 -7.436881661415100098e-01 1.200000000000000000e+01
-1.559649348258971946e+00 -3.556352853775023970e+00 -7.548403739929199219e-01 8.000000000000000000e+00
-1.962763667106627974e+00 -4.471300601959229404e+00 -7.734119892120361328e-01 2.200000000000000000e+01
-2.339715957641602007e+00 -5.324970722198486328e+00 -7.141543626785278320e-01 2.600000000000000000e+01
-4.246288299560546875e+00 -9.659569740295410156e+00 -9.231536388397216797e-01 2.000000000000000000e+00
-1.097589397430419922e+01 -2.494461822509765980e+01 -1.428248286247252974e+00 1.300000000000000000e+01
-1.116678118705749956e+00 -2.524684429168701172e+00 -7.397048473358154297e-01 1.300000000000000000e+01
-1.308774709701538086e+00 -2.956203460693358931e+00 -7.463876008987426758e-01 1.100000000000000000e+01
-1.573468685150146040e+00 -3.552407741546630859e+00 -7.552220225334167480e-01 9.000000000000000000e+00
-1.979939341545104980e+00 -4.465882301330566406e+00 -7.737248539924621582e-01 2.500000000000000000e+01
-2.362437963485718218e+00 -5.323617458343505859e+00 -7.151293158531188965e-01 2.200000000000000000e+01
-4.270345211029052734e+00 -9.618447303771972656e+00 -9.207132458686828613e-01 2.000000000000000000e+00
-1.105589199066161932e+01 -2.487866973876953125e+01 -1.426782846450806108e+00 1.300000000000000000e+01
-1.123121261596679910e+00 -2.515478849411011186e+00 -7.381519079208374023e-01 1.200000000000000000e+01
-1.317495584487915039e+00 -2.948058605194091797e+00 -7.454878091812133789e-01 1.100000000000000000e+01
-1.583455324172974077e+00 -3.541516780853271040e+00 -7.540771365165710449e-01 9.000000000000000000e+00
-2.001164436340332031e+00 -4.471565246582031250e+00 -7.759149670600891113e-01 1.600000000000000000e+01
-2.375325918197631836e+00 -5.302657127380371094e+00 -7.134231328964233398e-01 1.800000000000000000e+01
-4.295745849609375000e+00 -9.585301399230957031e+00 -9.189701676368713379e-01 2.000000000000000000e+00
-9.988427162170410156e+00 -2.226682090759276988e+01 -1.278986096382140891e+00 1.000000000000000000e+01
-1.130663275718688965e+00 -2.509979248046875000e+00 -7.376343011856079102e-01 1.100000000000000000e+01
-1.330468416213989036e+00 -2.950779438018798828e+00 -7.472873926162719727e-01 1.100000000000000000e+01
-1.598419785499572976e+00 -3.543404817581177202e+00 -7.556036114692687988e-01 9.000000000000000000e+00
-2.014355897903441939e+00 -4.461303710937500000e+00 -7.752892374992370605e-01 1.600000000000000000e+01
-2.005389928817749023e+00 -4.437315940856933594e+00 -5.978909730911254883e-01 1.000000000000000000e+00
-4.294674396514892578e+00 -9.498385429382324219e+00 -9.119976758956909180e-01 2.000000000000000000e+00
-1.137019038200377974e+00 -2.500741481781005859e+00 -7.360813617706298828e-01 1.300000000000000000e+01
-1.340760469436645952e+00 -2.946117162704468218e+00 -7.472873926162719727e-01 1.100000000000000000e+01
-1.608338236808777078e+00 -3.532443284988402876e+00 -7.544587850570678711e-01 1.000000000000000000e+01
-2.024182319641112837e+00 -4.441662788391113281e+00 -7.730991244316101074e-01 1.600000000000000000e+01
-2.415483713150023970e+00 -5.295396327972412109e+00 -7.146418094635009766e-01 1.800000000000000000e+01
-4.306296825408936435e+00 -9.436209678649902344e+00 -9.074655771255493164e-01 2.000000000000000000e+00
-1.146983146667480025e+00 -2.498312950134276900e+00 -7.365990281105041504e-01 1.100000000000000000e+01
-1.345039963722229004e+00 -2.927017450332642046e+00 -7.436881661415100098e-01 1.100000000000000000e+01
-1.624554753303528054e+00 -3.533659934997559038e+00 -7.559852600097656250e-01 1.000000000000000000e+01
-1.366220951080322088e+01 -2.970377540588378906e+01 2.860451459884643999e+00 3.400000000000000000e+01
-2.043751239776610884e+00 -4.441391944885253906e+00 -7.743505835533142090e-01 1.600000000000000000e+01
-2.413284540176392046e+00 -5.239628314971923828e+00 -7.083046436309814453e-01 1.600000000000000000e+01
-4.070696830749511719e+00 -8.834078788757324219e+00 -8.509886860847473145e-01 1.000000000000000000e+00
-8.056584596633911133e-01 -1.745204329490662065e+00 5.150498747825622559e-01 4.000000000000000000e+00
-1.158133387565613015e+00 -2.499552488327025923e+00 -7.381519079208374023e-01 1.300000000000000000e+01
-1.360168218612670898e+00 -2.932911872863769975e+00 -7.463876008987426758e-01 1.200000000000000000e+01
-1.635227084159851074e+00 -3.524405717849731001e+00 -7.552220225334167480e-01 1.000000000000000000e+01
-1.376581192016601918e+01 -2.965590286254883168e+01 2.860451459884643999e+00 3.400000000000000000e+01
-2.062570333480834961e+00 -4.441397190093994141e+00 -7.756021022796630859e-01 1.900000000000000000e+01
-1.380265903472900035e+01 -2.970812606811523082e+01 4.022175788879395419e+00 1.600000000000000000e+01
-2.434069633483887163e+00 -5.236573219299316406e+00 -7.090358138084411621e-01 1.600000000000000000e+01
-4.111589908599854404e+00 -8.841494560241699219e+00 -8.530803918838500977e-01 1.000000000000000000e+00
-8.341653943061828613e-01 -1.791321635246277078e+00 4.562007486820220947e-01 3.000000000000000000e+00
-8.117454648017883301e-01 -1.742381453514098899e+00 5.150498747825622559e-01 3.100000000000000000e+01
-1.166033029556273970e+00 -2.493744611740111861e+00 -7.376343011856079102e-01 1.300000000000000000e+01
-1.369571685791016069e+00 -2.926381111145019975e+00 -7.459377050399780273e-01 1.300000000000000000e+01
-1.642524600028991921e+00 -3.508008241653441939e+00 -7.529323101043701172e-01 1.100000000000000000e+01
-2.083090543746947798e+00 -4.444902420043945312e+00 -7.774792909622192383e-01 1.900000000000000000e+01
-1.403773784637450994e+01 -2.994014930725098012e+01 4.060199260711669922e+00 1.700000000000000000e+01
-2.448961973190308061e+00 -5.220855712890625000e+00 -7.080608606338500977e-01 2.000000000000000000e+01
-4.386199474334716797e+00 -9.346541404724121094e+00 -9.032821059226989746e-01 2.000000000000000000e+00
-8.271521925926208496e-01 -1.760179519653320090e+00 4.490022957324982245e-01 2.800000000000000000e+01
-8.164816498756408691e-01 -1.735898256301880105e+00 5.140146017074584961e-01 5.500000000000000000e+01
-1.174730777740478960e+00 -2.489659309387207031e+00 -7.376343011856079102e-01 1.300000000000000000e+01
-1.378946065902709961e+00 -2.919820547103881836e+00 -7.454878091812133789e-01 1.100000000000000000e+01
-1.660630702972412109e+00 -3.514678955078125000e+00 -7.556036114692687988e-01 9.000000000000000000e+00
-2.096904516220093218e+00 -4.434032917022705078e+00 -7.768535614013671875e-01 1.500000000000000000e+01
-2.448486804962158203e+00 -5.172801971435546875e+00 -7.026986479759216309e-01 2.000000000000000000e+01
-4.376162052154541016e+00 -9.241139411926269531e+00 -8.945665359497070312e-01 2.000000000000000000e+00
-8.383011221885681152e-01 -1.767846345901489036e+00 4.517017304897307794e-01 4.500000000000000000e+01
-8.208794593811035156e-01 -1.729547142982482910e+00 5.129793286323547363e-01 5.600000000000000000e+01
-1.180922746658324973e+00 -2.480310916900635210e+00 -7.360813617706298828e-01 1.500000000000000000e+01
-1.390806436538696067e+00 -2.918507575988769975e+00 -7.463876008987426758e-01 1.200000000000000000e+01
-1.672889113426208052e+00 -3.508860826492310014e+00 -7.556036114692687988e-01 9.000000000000000000e+00
-2.113220214843750000e+00 -4.428468704223632812e+00 -7.771664261817932129e-01 1.300000000000000000e+01
-1.413010406494140980e+01 -2.959778594970703125e+01 4.027050495147705078e+00 1.600000000000000000e+01
-2.475083827972412109e+00 -5.182136535644531250e+00 -7.051360011100769043e-01 1.600000000000000000e+01
-8.444669246673583984e-01 -1.764909386634827104e+00 4.517017304897307794e-01 4.700000000000000000e+01
-8.185674548149108887e-01 -1.709247589111327903e+00 5.078029632568359375e-01 5.300000000000000000e+01
-1.191246509552001953e+00 -2.479656219482421875e+00 -7.371166348457336426e-01 1.500000000000000000e+01
-1.396763086318969949e+00 -2.904853820800780806e+00 -7.441380620002746582e-01 1.300000000000000000e+01
-1.422624492645264027e+01 -2.958637809753417969e+01 1.720492243766784890e+00 1.700000000000000000e+01
-1.684276103973388894e+00 -3.501230955123900923e+00 -7.552220225334167480e-01 1.100000000000000000e+01
-2.130379438400268999e+00 -4.424624919891357422e+00 -7.777921557426452637e-01 1.300000000000000000e+01
-1.409549713134765980e+01 -2.926213455200194957e+01 3.988052368164062944e+00 1.600000000000000000e+01
-2.491434097290039062e+00 -5.169888973236083984e+00 -7.046485543251037598e-01 2.200000000000000000e+01
-2.928076744079589844e+00 -6.073239803314208984e+00 -5.898700952529907227e-01 1.000000000000000000e+00
-1.208188247680664062e+01 -2.503716659545898082e+01 -1.456928372383117898e+00 1.300000000000000000e+01
-8.463863134384155273e-01 -1.753176212310791016e+00 4.494522213935852051e-01 4.000000000000000000e+01
-8.287313580513000488e-01 -1.715077042579651101e+00 5.103911757469177246e-01 5.100000000000000000e+01
-1.202832102775573953e+00 -2.482646465301514116e+00 -7.391871809959411621e-01 1.600000000000000000e+01
-1.406388282775878906e+00 -2.900205850601195845e+00 -7.441380620002746582e-01 1.300000000000000000e+01
-1.417264366149901988e+01 -2.922634315490723012e+01 1.702279329299926980e+00 1.700000000000000000e+01
