3.217714786529541016e+00 -4.785943627357482910e-01 -6.323410272598266602e-01 1.300000000000000000e+01
3.889977216720581055e+00 -5.799728631973266602e-01 -6.229220628738403320e-01 1.000000000000000000e+01
4.974971294403076172e+00 -7.435144186019897461e-01 -6.176338195800781250e-01 1.000000000000000000e+01
3.535377120971679688e+01 -5.283656597137451172e+00 5.661675930023193359e+00 1.300000000000000000e+01
6.593136787414550781e+00 -9.865273237228393555e-01 -5.832462310791015625e-01 5.000000000000000000e+00
3.415836334228516336e+01 -5.117191791534423828e+00 6.713805198669433594e+00 5.900000000000000000e+01
1.027678871154784979e+01 -1.541377902030945046e+00 -5.446079373359680176e-01 2.000000000000000000e+00
3.998223495483397727e+01 -6.003924369812011719e+00 9.334118843078613281e+00 1.200000000000000000e+01
2.056966209411621094e+01 -3.092510223388671875e+00 -3.630798757076262873e-01 3.000000000000000000e+00
4.205404663085938211e+01 -6.330049037933349609e+00 1.139528465270995916e+01 1.100000000000000000e+01
2.398933887481689009e+00 -3.640895485877990723e-01 -6.501534581184387207e-01 2.000000000000000000e+01
3.773109054565429688e+01 -5.733237266540527344e+00 6.661583781242370605e-01 3.100000000000000000e+01
2.751147985458374023e+00 -4.185280799865723211e-01 -6.424602270126342773e-01 1.400000000000000000e+01
3.217965364456177202e+00 -4.901189804077147882e-01 -6.327226161956787109e-01 1.300000000000000000e+01
3.884023666381835938e+00 -5.929516553878784180e-01 -6.222962737083435059e-01 1.000000000000000000e+01
3.653613662719727273e+01 -5.584288597106933594e+00 4.538170814514160156e+00 1.900000000000000000e+01
4.962534427642822266e+00 -7.593744397163391113e-01 -6.164151430130004883e-01 9.000000000000000000e+00
6.595561027526854581e+00 -1.010440826416016069e+00 -5.837691426277160645e-01 5.000000000000000000e+00
1.031872463226318004e+01 -1.584516644477844016e+00 -5.471200942993164062e-01 2.000000000000000000e+00
2.068523216247558949e+01 -3.183761835098267046e+00 -3.653137683868408203e-01 3.000000000000000000e+00
4.207751846313477273e+01 -6.483867168426513672e+00 1.140770816802979049e+01 1.100000000000000000e+01
2.393765449523925781e+00 -3.722858726978302002e-01 -6.491181850433349609e-01 2.000000000000000000e+01
3.763473892211914062e+01 -5.859799385070800781e+00 6.648319959640502930e-01 3.100000000000000000e+01
2.751520872116088867e+00 -4.289088845252990723e-01 -6.429101228713989258e-01 1.200000000000000000e+01
3.208388328552246094e+00 -5.006992220878601074e-01 -6.311961412429809570e-01 1.200000000000000000e+01
3.881824254989624023e+00 -6.071833372116088867e-01 -6.222962737083435059e-01 1.000000000000000000e+01
4.971484661102294922e+00 -7.794026732444763184e-01 -6.178775429725646973e-01 9.000000000000000000e+00
6.609528064727783203e+00 -1.037388324737549050e+00 -5.853379964828491211e-01 6.000000000000000000e+00
1.033257770538330078e+01 -1.625429749488831010e+00 -5.481668114662170410e-01 2.000000000000000000e+00
2.067342376708984020e+01 -3.259555578231811968e+00 -3.653137683868408203e-01 3.000000000000000000e+00
2.379096269607543945e+00 -3.785146176815032959e-01 -6.454946994781494141e-01 1.900000000000000000e+01
3.768909835815429688e+01 -6.003086090087890625e+00 6.661583781242370605e-01 3.100000000000000000e+01
2.755780458450316939e+00 -4.394314587116240900e-01 -6.442598104476928711e-01 1.400000000000000000e+01
3.798926544189453125e+01 -6.057695388793945312e+00 2.016085624694824219e+00 2.200000000000000000e+01
3.202743530273437944e+00 -5.112766027450561523e-01 -6.304329037666320801e-01 1.200000000000000000e+01
3.891384601593018022e+00 -6.226022243499755859e-01 -6.241735219955444336e-01 1.000000000000000000e+01
4.990294456481933594e+00 -8.002089858055114746e-01 -6.205586791038513184e-01 1.000000000000000000e+01
3.581824111938477273e+01 -5.743564605712890625e+00 5.745524883270263672e+00 1.300000000000000000e+01
6.619637012481688565e+00 -1.062664151191710982e+00 -5.865581631660461426e-01 6.000000000000000000e+00
1.037416648864745916e+01 -1.669101476669311968e+00 -5.506789088249206543e-01 2.000000000000000000e+00
3.483684158325195312e+01 -5.611143112182617188e+00 8.146377563476562500e+00 1.000000000000000000e+01
2.076062965393066051e+01 -3.347616195678710938e+00 -3.670590221881865900e-01 3.000000000000000000e+00
3.629329681396483664e+01 -5.858731746673583984e+00 9.850652694702148438e+00 7.000000000000000000e+00
2.383481025695800781e+00 -3.877474963665009100e-01 -6.470476388931274414e-01 1.700000000000000000e+01
2.746536254882812944e+00 -4.477939307689666748e-01 -6.424602270126342773e-01 1.300000000000000000e+01
3.776968765258789062e+01 -6.164719104766845703e+00 2.005618572235106978e+00 2.100000000000000000e+01
3.224190711975098100e+00 -5.262481570243835449e-01 -6.350123286247253418e-01 1.100000000000000000e+01
3.873591899871826172e+00 -6.336308121681213379e-01 -6.216705441474914551e-01 1.000000000000000000e+01
4.977675914764404297e+00 -8.160177469253540039e-01 -6.193400025367736816e-01 9.000000000000000000e+00
3.638278198242188211e+01 -5.964429378509520596e+00 5.839385509490966797e+00 1.300000000000000000e+01
6.617853164672851562e+00 -1.086087226867676003e+00 -5.867324471473693848e-01 8.000000000000000000e+00
1.034068679809569957e+01 -1.700765967369080034e+00 -5.492135286331176758e-01 2.000000000000000000e+00
3.483626937866210938e+01 -5.735877990722656250e+00 8.150876045227050781e+00 1.000000000000000000e+01
2.077644157409667969e+01 -3.424617052078247070e+00 -3.675476908683776855e-01 3.000000000000000000e+00
3.478307723999022727e+01 -5.733355045318604404e+00 9.445859909057617188e+00 7.000000000000000000e+00
2.389735698699951172e+00 -3.973324596881865900e-01 -6.491181850433349609e-01 1.800000000000000000e+01
2.737267494201660156e+00 -4.560972154140471857e-01 -6.406605839729309082e-01 1.300000000000000000e+01
3.216524600982666016e+00 -5.365304350852966309e-01 -6.338675022125244141e-01 1.200000000000000000e+01
3.794368743896483664e+01 -6.335980892181395596e+00 3.365606069564818892e+00 5.000000000000000000e+01
3.873304843902587891e+00 -6.474739909172058105e-01 -6.219834089279174805e-01 1.100000000000000000e+01
3.742464447021483664e+01 -6.262737751007080078e+00 4.659064769744873047e+00 4.000000000000000000e+01
4.986544132232666016e+00 -8.353559970855712891e-01 -6.208024621009826660e-01 9.000000000000000000e+00
3.548789596557617188e+01 -5.951372146606445312e+00 5.699220657348632812e+00 1.300000000000000000e+01
6.612057209014892578e+00 -1.108851671218872070e+00 -5.865581631660461426e-01 6.000000000000000000e+00
3.686641311645507812e+01 -6.189167499542236328e+00 7.266387939453125000e+00 6.200000000000000000e+01
1.037407970428466975e+01 -1.743471622467041016e+00 -5.513069629669189453e-01 2.000000000000000000e+00
3.408577728271483664e+01 -5.734585762023925781e+00 7.979913711547851562e+00 1.000000000000000000e+01
2.090633964538573863e+01 -3.521031379699707031e+00 -3.700608313083649237e-01 3.000000000000000000e+00
3.479802322387695312e+01 -5.866905212402343750e+00 9.455695152282714844e+00 1.400000000000000000e+01
2.390380382537841797e+00 -4.051608741283416748e-01 -6.496357917785644531e-01 1.600000000000000000e+01
5.968767166137695312e+01 -1.012756347656250000e+01 1.056743264198303001e+00 6.200000000000000000e+01
2.733899831771851030e+00 -4.643680155277252197e-01 -6.402106881141662598e-01 1.300000000000000000e+01
3.212887763977050781e+00 -5.463036894798278809e-01 -6.334858536720275879e-01 1.100000000000000000e+01
3.880988121032714844e+00 -6.612981557846069336e-01 -6.235477924346923828e-01 1.000000000000000000e+01
3.741261291503906250e+01 -6.381615161895751953e+00 4.660039901733398438e+00 2.000000000000000000e+01
4.956500053405761719e+00 -8.463397622108459473e-01 -6.173900961875915527e-01 9.000000000000000000e+00
6.632107734680175781e+00 -1.133646965026855025e+00 -5.886498689651489258e-01 6.000000000000000000e+00
1.038823699951172053e+01 -1.779426217079163042e+00 -5.523536801338195801e-01 2.000000000000000000e+00
3.424429702758789062e+01 -5.871941089630126953e+00 8.021305084228515625e+00 1.000000000000000000e+01
2.088729095458984020e+01 -3.585340023040771040e+00 -3.699212074279785156e-01 3.000000000000000000e+00
3.485852813720703125e+01 -5.983527183532714844e+00 9.476918220520019531e+00 7.000000000000000000e+00
2.383240938186645952e+00 -4.125139415264130194e-01 -6.480829119682312012e-01 1.600000000000000000e+01
5.975047302246093750e+01 -1.035292053222656072e+01 1.058488488197327104e+00 6.100000000000000000e+01
2.749542951583861861e+00 -4.769055843353270929e-01 -6.442598104476928711e-01 1.300000000000000000e+01
3.210961341857910156e+00 -5.575154423713684082e-01 -6.334858536720275879e-01 1.100000000000000000e+01
3.892279148101807085e+00 -6.772115826606750488e-01 -6.257378458976745605e-01 1.100000000000000000e+01
3.856349945068358664e+01 -6.716537952423095703e+00 4.806282997131347656e+00 2.000000000000000000e+01
4.967205047607421875e+00 -8.660227060317993164e-01 -6.190962791442871094e-01 1.000000000000000000e+01
3.884918594360352273e+01 -6.780268192291259766e+00 6.246115207672119141e+00 1.400000000000000000e+01
6.649700164794921875e+00 -1.160558462142943892e+00 -5.905672907829284668e-01 8.000000000000000000e+00
1.040163612365723012e+01 -1.819117784500122070e+00 -5.534003973007202148e-01 2.000000000000000000e+00
2.091010284423828125e+01 -3.664441585540771040e+00 -3.705494999885559082e-01 3.000000000000000000e+00
3.475073623657227273e+01 -6.096228599548339844e+00 9.453624725341796875e+00 1.400000000000000000e+01
2.376005887985229048e+00 -4.202368259429932196e-01 -6.465299725532531738e-01 1.600000000000000000e+01
2.745857715606689009e+00 -4.866398870944976807e-01 -6.438099145889282227e-01 1.200000000000000000e+01
3.197297811508179155e+00 -5.672228336334228516e-01 -6.311961412429809570e-01 1.200000000000000000e+01
3.885881185531616211e+00 -6.907814741134643555e-01 -6.251121163368225098e-01 1.000000000000000000e+01
3.853862380981445312e+01 -6.857835292816162109e+00 4.806282997131347656e+00 2.000000000000000000e+01
4.969860553741455078e+00 -8.852669596672058105e-01 -6.198275089263916016e-01 9.000000000000000000e+00
3.590813446044921875e+01 -6.396213054656982422e+00 5.776812076568604404e+00 1.300000000000000000e+01
6.631671428680419922e+00 -1.182474851608275923e+00 -5.893471240997314453e-01 8.000000000000000000e+00
1.041849231719971058e+01 -1.861444830894469993e+00 -5.546564459800720215e-01 2.000000000000000000e+00
3.424744033813477273e+01 -6.125069618225097656e+00 8.032102584838867188e+00 1.000000000000000000e+01
2.083747863769530895e+01 -3.730484485626221147e+00 -3.695023357868195135e-01 7.000000000000000000e+00
3.531684494018554688e+01 -6.322690963745117188e+00 9.613574981689453125e+00 7.000000000000000000e+00
2.382129192352294922e+00 -4.299004673957825262e-01 -6.486005187034606934e-01 1.900000000000000000e+01
5.977325439453125000e+01 -1.079799175262450994e+01 1.060233712196350098e+00 6.100000000000000000e+01
2.744142293930054155e+00 -4.962217509746552069e-01 -6.438099145889282227e-01 1.300000000000000000e+01
3.226208209991455078e+00 -5.839750170707702637e-01 -6.373020410537719727e-01 1.100000000000000000e+01
3.877615213394165039e+00 -7.032839655876159668e-01 -6.241735219955444336e-01 1.100000000000000000e+01
3.831913375854492188e+01 -6.956858634948729581e+00 4.781909465789794922e+00 2.000000000000000000e+01
5.001895904541015625e+00 -9.089985489845275879e-01 -6.242147684097290039e-01 1.000000000000000000e+01
6.633384227752686435e+00 -1.206686258316040039e+00 -5.898700952529907227e-01 6.000000000000000000e+00
1.042765045166015980e+01 -1.900665998458862083e+00 -5.554938316345214844e-01 2.000000000000000000e+00
2.072597312927246094e+01 -3.785234689712523970e+00 -3.677571117877960205e-01 1.000000000000000000e+01
3.526302719116210938e+01 -6.446532249450683594e+00 9.605292320251464844e+00 1.400000000000000000e+01
2.384566783905028853e+00 -4.380801320075988770e-01 -6.496357917785644531e-01 1.900000000000000000e+01
5.973903656005858664e+01 -1.098572158813476918e+01 1.060233712196350098e+00 6.100000000000000000e+01
2.736820220947266069e+00 -5.037819147109985352e-01 -6.424602270126342773e-01 1.300000000000000000e+01
3.212773084640502930e+00 -5.919730067253112793e-01 -6.350123286247253418e-01 1.200000000000000000e+01
3.879271745681763139e+00 -7.161796092987060547e-01 -6.247992515563964844e-01 1.200000000000000000e+01
4.987303733825683594e+00 -9.225414991378784180e-01 -6.227523684501647949e-01 9.000000000000000000e+00
6.658946990966796875e+00 -1.232960820198059082e+00 -5.924847126007080078e-01 5.000000000000000000e+00
1.046090316772460938e+01 -1.940702319145203081e+00 -5.575872659683227539e-01 2.000000000000000000e+00
3.317718124389647727e+01 -6.161006927490234375e+00 7.790504932403563565e+00 1.900000000000000000e+01
1.981354141235351918e+01 -3.682954549789429155e+00 -3.517706990242003839e-01 1.000000000000000000e+01
3.522475051879882812e+01 -6.547600746154785156e+00 9.600115776062011719e+00 7.000000000000000000e+00
2.394416093826293945e+00 -4.485353529453278143e-01 -6.527416110038757324e-01 1.900000000000000000e+01
2.733129739761352983e+00 -5.129726529121398926e-01 -6.420103311538696289e-01 1.200000000000000000e+01
3.210687160491942915e+00 -6.031840443611145020e-01 -6.350123286247253418e-01 1.100000000000000000e+01
3.890336990356444868e+00 -7.322742342948913574e-01 -6.269893646240234375e-01 1.100000000000000000e+01
4.972348690032958984e+00 -9.377375245094299316e-01 -6.212899088859558105e-01 1.000000000000000000e+01
6.662433624267578125e+00 -1.257675647735595925e+00 -5.931819677352905273e-01 8.000000000000000000e+00
1.049331378936767933e+01 -1.984629154205322044e+00 -5.596807003021240234e-01 2.000000000000000000e+00
3.319376754760742188e+01 -6.284029006958007812e+00 7.799502849578857422e+00 1.900000000000000000e+01
1.976323509216308949e+01 -3.745020627975463867e+00 -3.511075079441071112e-01 1.000000000000000000e+01
3.530680465698242188e+01 -6.696822643280029297e+00 9.629103660583496094e+00 7.000000000000000000e+00
2.383347988128662109e+00 -4.550790786743164062e-01 -6.501534581184387207e-01 2.000000000000000000e+01
2.737064599990845171e+00 -5.236083865165710449e-01 -6.433600187301635742e-01 1.300000000000000000e+01
3.218203306198120117e+00 -6.162338852882385254e-01 -6.369204521179199219e-01 1.200000000000000000e+01
3.891637325286864790e+00 -7.465939521789550781e-01 -6.276150941848754883e-01 1.100000000000000000e+01
4.982690811157226562e+00 -9.577113986015319824e-01 -6.229960918426513672e-01 1.000000000000000000e+01
3.610871505737304688e+01 -6.940371513366699219e+00 5.823742389678955078e+00 1.300000000000000000e+01
6.667785644531250000e+00 -1.282806277275085005e+00 -5.940535664558410645e-01 6.000000000000000000e+00
1.048632240295409979e+01 -2.021245479583739790e+00 -5.596807003021240234e-01 2.000000000000000000e+00
3.329600524902343750e+01 -6.423854351043701172e+00 7.828746795654296875e+00 9.000000000000000000e+00
2.078476524353026988e+01 -4.013802528381347656e+00 -3.695023357868195135e-01 7.000000000000000000e+00
3.578516006469727273e+01 -6.910569667816162109e+00 9.765760421752929688e+00 7.000000000000000000e+00
2.372263431549071822e+00 -4.615510106086730957e-01 -6.475652456283569336e-01 1.700000000000000000e+01
2.746696472167969194e+00 -5.353963971138000488e-01 -6.460594534873962402e-01 1.300000000000000000e+01
3.206398010253905806e+00 -6.255840063095092773e-01 -6.350123286247253418e-01 1.100000000000000000e+01
3.892884969711304155e+00 -7.609316706657409668e-01 -6.282408237457275391e-01 1.100000000000000000e+01
4.979317665100097656e+00 -9.750983715057373047e-01 -6.229960918426513672e-01 1.000000000000000000e+01
6.639804840087890625e+00 -1.301474452018738015e+00 -5.919618010520935059e-01 5.000000000000000000e+00
1.047136402130126953e+01 -2.056298017501831055e+00 -5.592620372772216797e-01 2.000000000000000000e+00
3.326573181152343750e+01 -6.538536548614501953e+00 7.826947212219238281e+00 9.000000000000000000e+00
2.054302597045898082e+01 -4.041553020477294922e+00 -3.654533922672271729e-01 6.000000000000000000e+00
3.661380386352539062e+01 -7.203253746032714844e+00 9.998697280883789062e+00 8.000000000000000000e+00
2.374427795410155806e+00 -4.705800712108612061e-01 -6.486005187034606934e-01 1.700000000000000000e+01
2.737165212631226030e+00 -5.434628129005432129e-01 -6.442598104476928711e-01 1.300000000000000000e+01
3.213822841644287109e+00 -6.386860013008117676e-01 -6.369204521179199219e-01 1.200000000000000000e+01
3.872768878936768022e+00 -7.710443139076232910e-01 -6.254249811172485352e-01 1.000000000000000000e+01
4.993404388427734375e+00 -9.959681034088134766e-01 -6.251897215843200684e-01 9.000000000000000000e+00
6.650852203369140625e+00 -1.327764272689818892e+00 -5.933563113212585449e-01 6.000000000000000000e+00
1.053071022033691051e+01 -2.106154918670653853e+00 -5.628208518028259277e-01 2.000000000000000000e+00
3.370130538940429688e+01 -6.746419429779052734e+00 7.934923648834229404e+00 9.000000000000000000e+00
1.978371620178223012e+01 -3.963950157165526900e+00 -3.521895706653594971e-01 3.000000000000000000e+00
2.376558065414429155e+00 -4.796298444271088202e-01 -6.496357917785644531e-01 1.900000000000000000e+01
2.737161636352539062e+00 -5.534002184867858887e-01 -6.447097063064575195e-01 1.500000000000000000e+01
3.215422153472899947e+00 -6.506792306900024414e-01 -6.376836895942687988e-01 1.200000000000000000e+01
3.879733800888061968e+00 -7.865204811096191406e-01 -6.269893646240234375e-01 1.100000000000000000e+01
3.759967422485352273e+01 -7.629240036010742188e+00 4.710737705230712891e+00 2.000000000000000000e+01
4.982115745544433594e+00 -1.011811971664428933e+00 -6.242147684097290039e-01 9.000000000000000000e+00
6.677416324615479404e+00 -1.357322096824645996e+00 -5.961452722549438477e-01 5.000000000000000000e+00
3.509279251098632812e+01 -7.139708995819091797e+00 6.961093902587890625e+00 6.000000000000000000e+01
1.046458148956299006e+01 -2.130945205688477007e+00 -5.596807003021240234e-01 2.000000000000000000e+00
3.381885147094727273e+01 -6.892817497253417969e+00 7.968216419219970703e+00 1.000000000000000000e+01
1.820620536804198863e+01 -3.714022636413574219e+00 -3.243355154991149902e-01 3.000000000000000000e+00
4.005921554565429688e+01 -8.179267883300781250e+00 1.095529270172118963e+01 1.000000000000000000e+01
2.384330987930297852e+00 -4.898665845394135077e-01 -6.522240042686462402e-01 1.900000000000000000e+01
2.723760843276977983e+00 -5.605942010879516602e-01 -6.420103311538696289e-01 1.300000000000000000e+01
3.207362651824951172e+00 -6.607108712196350098e-01 -6.365388035774230957e-01 1.200000000000000000e+01
3.882768392562866211e+00 -8.012561798095703125e-01 -6.279279589653015137e-01 1.000000000000000000e+01
4.990217208862304688e+00 -1.031607866287231001e+00 -6.256772279739379883e-01 9.000000000000000000e+00
6.664833545684813565e+00 -1.379007577896117942e+00 -5.954480171203613281e-01 5.000000000000000000e+00
1.051574993133544922e+01 -2.179621219635010210e+00 -5.628208518028259277e-01 2.000000000000000000e+00
1.809131622314453125e+01 -3.756411552429199219e+00 -3.225204646587371826e-01 6.000000000000000000e+00
3.551873397827147727e+01 -7.374973297119140625e+00 9.720208168029785156e+00 7.000000000000000000e+00
2.369369983673096147e+00 -4.954187572002410889e-01 -6.486005187034606934e-01 2.000000000000000000e+01
2.738953590393065962e+00 -5.736940503120422363e-01 -6.460594534873962402e-01 1.400000000000000000e+01
3.205036878585814986e+00 -6.719025969505310059e-01 -6.365388035774230957e-01 1.200000000000000000e+01
3.895413637161254883e+00 -8.180525302886962891e-01 -6.304308772087097168e-01 1.000000000000000000e+01
3.714142608642578125e+01 -7.806617259979248047e+00 4.660039901733398438e+00 2.000000000000000000e+01
4.978815555572509766e+00 -1.047386050224303977e+00 -6.247022747993469238e-01 1.000000000000000000e+01
6.673626422882080078e+00 -1.405137300491333008e+00 -5.966682434082031250e-01 6.000000000000000000e+00
1.052371215820313033e+01 -2.219612360000609907e+00 -5.636582374572753906e-01 2.000000000000000000e+00
3.981801986694335938e+01 -8.405489921569824219e+00 9.395305633544921875e+00 1.200000000000000000e+01
1.803505134582519887e+01 -3.810445070266724077e+00 -3.217525780200958252e-01 3.000000000000000000e+00
3.552679443359375000e+01 -7.506100177764892578e+00 9.729525566101074219e+00 7.000000000000000000e+00
2.363847017288208008e+00 -5.028824210166931152e-01 -6.475652456283569336e-01 1.900000000000000000e+01
2.740746259689331055e+00 -5.840636491775512695e-01 -6.469592452049255371e-01 1.400000000000000000e+01
3.196911811828612837e+00 -6.818576455116271973e-01 -6.353939771652221680e-01 1.200000000000000000e+01
3.884807109832764116e+00 -8.299941420555114746e-01 -6.291794180870056152e-01 1.000000000000000000e+01
3.740512847900391336e+01 -7.998481750488281250e+00 4.696600914001464844e+00 2.000000000000000000e+01
4.986775875091552734e+00 -1.067251563072205034e+00 -6.261646747589111328e-01 9.000000000000000000e+00
3.624519348144531250e+01 -7.757063388824462891e+00 5.870672702789306641e+00 1.300000000000000000e+01
6.662836551666259766e+00 -1.427172064781188965e+00 -5.961452722549438477e-01 5.000000000000000000e+00
1.050027751922607067e+01 -2.252981424331665039e+00 -5.628208518028259277e-01 2.000000000000000000e+00
4.178900527954102273e+01 -8.974044799804687500e+00 9.867702484130859375e+00 1.300000000000000000e+01
1.800991058349609020e+01 -3.870854616165161133e+00 -3.215431272983551025e-01 3.000000000000000000e+00
2.365853548049927202e+00 -5.119478702545166016e-01 -6.486005187034606934e-01 2.000000000000000000e+01
2.736786127090454102e+00 -5.932142734527587891e-01 -6.465093493461608887e-01 1.500000000000000000e+01
3.213698387145996094e+00 -6.971750259399414062e-01 -6.392101049423217773e-01 1.200000000000000000e+01
3.878025770187377930e+00 -8.427106738090515137e-01 -6.285536885261535645e-01 1.000000000000000000e+01
3.741577529907227273e+01 -8.137438774108886719e+00 4.701475620269775391e+00 2.000000000000000000e+01
5.006296157836914062e+00 -1.089718699455261008e+00 -6.290895342826843262e-01 9.000000000000000000e+00
6.681174755096436435e+00 -1.455510258674622026e+00 -5.982370376586914062e-01 5.000000000000000000e+00
1.058991622924805043e+01 -2.310911417007445845e+00 -5.680544972419738770e-01 2.000000000000000000e+00
3.633522415161132812e+01 -7.935647010803222656e+00 8.586381912231445312e+00 1.100000000000000000e+01
2.375372409820557085e+00 -5.226941108703613281e-01 -6.517063379287719727e-01 2.000000000000000000e+01
2.725183486938477007e+00 -6.006665229797363281e-01 -6.442598104476928711e-01 1.400000000000000000e+01
3.222748279571533203e+00 -7.109261751174926758e-01 -6.414998173713684082e-01 1.200000000000000000e+01
3.876989364624022993e+00 -8.566685914993286133e-01 -6.288665533065795898e-01 1.000000000000000000e+01
3.659827041625977273e+01 -8.093539237976074219e+00 4.602273941040039062e+00 1.900000000000000000e+01
4.998585700988770419e+00 -1.106329321861267090e+00 -6.286020874977111816e-01 1.000000000000000000e+01
6.676053524017333984e+00 -1.478823065757751021e+00 -5.982370376586914062e-01 3.000000000000000000e+00
1.055058765411376953e+01 -2.340940952301024947e+00 -5.663797259330749512e-01 2.000000000000000000e+00
3.628447341918945312e+01 -8.057363510131835938e+00 8.580983161926269531e+00 1.100000000000000000e+01
1.913807296752930043e+01 -4.253322601318359375e+00 -3.422067761421204168e-01 6.000000000000000000e+00
2.371648073196411133e+00 -5.305607914924621582e-01 -6.511887311935424805e-01 1.900000000000000000e+01
2.724971771240233931e+00 -6.106016039848327637e-01 -6.447097063064575195e-01 1.300000000000000000e+01
3.201090335845946822e+00 -7.178752422332763672e-01 -6.376836895942687988e-01 1.200000000000000000e+01
3.887466669082642046e+00 -8.732271194458007812e-01 -6.310566067695617676e-01 1.200000000000000000e+01
3.703074264526367188e+01 -8.324867248535156250e+00 4.660283565521240234e+00 2.000000000000000000e+01
4.992756843566895419e+00 -1.123335123062134011e+00 -6.283583641052246094e-01 1.000000000000000000e+01
6.680569648742675781e+00 -1.504306197166443093e+00 -5.991085767745971680e-01 6.000000000000000000e+00
1.054235172271729049e+01 -2.377755165100098100e+00 -5.663797259330749512e-01 2.000000000000000000e+00
1.893585586547851918e+01 -4.277799129486083984e+00 -3.388559222221375067e-01 6.000000000000000000e+00
3.790589523315429688e+01 -8.563320159912109375e+00 1.041280746459960938e+01 8.000000000000000000e+00
2.375527143478393999e+00 -5.397065281867980957e-01 -6.527416110038757324e-01 1.900000000000000000e+01
2.732432842254639116e+00 -6.217966079711914062e-01 -6.469592452049255371e-01 1.400000000000000000e+01
3.200606346130371094e+00 -7.289224863052368164e-01 -6.380652785301208496e-01 1.100000000000000000e+01
3.884549617767333984e+00 -8.861136436462402344e-01 -6.310566067695617676e-01 1.000000000000000000e+01
4.992874622344970703e+00 -1.140769839286803977e+00 -6.288458108901977539e-01 1.000000000000000000e+01
6.677486419677734375e+00 -1.526895642280579057e+00 -5.992828607559204102e-01 5.000000000000000000e+00
1.062396430969237926e+01 -2.433212518692017046e+00 -5.711946487426757812e-01 3.000000000000000000e+00
1.812244796752930043e+01 -4.157253265380859375e+00 -3.245449364185333252e-01 3.000000000000000000e+00
3.796991348266602273e+01 -8.717197418212890625e+00 1.043869018554688033e+01 8.000000000000000000e+00
2.354805469512939009e+00 -5.436496734619140625e-01 -6.475652456283569336e-01 2.000000000000000000e+01
2.741637468338013139e+00 -6.339650154113769531e-01 -6.496586203575134277e-01 1.400000000000000000e+01
3.201867818832397017e+00 -7.409754991531372070e-01 -6.388285160064697266e-01 1.100000000000000000e+01
3.891054630279541016e+00 -9.018980264663696289e-01 -6.326209902763366699e-01 1.100000000000000000e+01
4.296396636962891336e+01 -9.966414451599121094e+00 5.415386199951171875e+00 3.500000000000000000e+01
4.996596813201904297e+00 -1.159986972808837891e+00 -6.298207640647888184e-01 1.000000000000000000e+01
3.591188049316406250e+01 -8.343742370605468750e+00 5.839385509490966797e+00 1.300000000000000000e+01
6.674056529998779297e+00 -1.550645947456360085e+00 -5.994572043418884277e-01 5.000000000000000000e+00
1.062318706512450994e+01 -2.472093105316162109e+00 -5.716133117675781250e-01 3.000000000000000000e+00
1.805329704284667969e+01 -4.207777500152587891e+00 -3.235676288604735773e-01 1.500000000000000000e+01
3.666746520996093750e+01 -8.553027153015136719e+00 1.008876609802245916e+01 8.000000000000000000e+00
2.360416650772095171e+00 -5.536307096481323242e-01 -6.496357917785644531e-01 1.900000000000000000e+01
2.735613584518433061e+00 -6.426399350166320801e-01 -6.487588286399841309e-01 1.400000000000000000e+01
3.206906318664550781e+00 -7.539448142051696777e-01 -6.403549909591674805e-01 1.200000000000000000e+01
3.874423265457152876e+00 -9.123055934906005859e-01 -6.304308772087097168e-01 1.000000000000000000e+01
4.254248046875000000e+01 -1.002526187896729049e+01 5.366638183593750000e+00 3.300000000000000000e+01
5.009906291961669922e+00 -1.181522250175476074e+00 -6.320143938064575195e-01 1.000000000000000000e+01
3.607627868652343750e+01 -8.508128166198730469e+00 5.870672702789306641e+00 1.300000000000000000e+01
6.678298950195313388e+00 -1.576221704483032005e+00 -6.003287434577941895e-01 5.000000000000000000e+00
1.062226772308349965e+01 -2.510997772216796875e+00 -5.720319747924804688e-01 3.000000000000000000e+00
3.785393142700195312e+01 -8.955265998840332031e+00 8.980496406555175781e+00 1.200000000000000000e+01
1.800541877746582031e+01 -4.262937545776367188e+00 -3.229742348194121759e-01 1.200000000000000000e+01
3.706222152709960938e+01 -8.781630516052246094e+00 1.020575237274169922e+01 8.000000000000000000e+00
2.379141569137572798e+00 -5.667914748191833496e-01 -6.553298234939575195e-01 2.100000000000000000e+01
4.217721939086914062e+01 -1.005580997467041016e+01 7.568410634994506836e-01 4.400000000000000000e+01
2.725771665573120117e+00 -6.503759622573852539e-01 -6.469592452049255371e-01 1.400000000000000000e+01
3.213803052902222124e+00 -7.674143314361572266e-01 -6.422630548477172852e-01 1.200000000000000000e+01
3.878899812698363814e+00 -9.276621341705322266e-01 -6.316823959350585938e-01 1.000000000000000000e+01
4.999959945678710938e+00 -1.197615623474121094e+00 -6.312832236289978027e-01 1.000000000000000000e+01
6.705693721771240234e+00 -1.607419133186340110e+00 -6.032920479774475098e-01 5.000000000000000000e+00
1.065227985382080078e+01 -2.557385921478271040e+00 -5.741254687309265137e-01 3.000000000000000000e+00
3.776559448242188211e+01 -9.073688507080078125e+00 8.966999053955078125e+00 2.400000000000000000e+01
1.908894729614258168e+01 -4.589898586273193359e+00 -3.426954448223114014e-01 3.000000000000000000e+00
3.637395858764647727e+01 -8.752759933471679688e+00 1.002457904815674006e+01 8.000000000000000000e+00
2.365882396697998047e+00 -5.723671913146972656e-01 -6.522240042686462402e-01 1.900000000000000000e+01
2.717803001403809038e+00 -6.585100293159484863e-01 -6.456094980239868164e-01 1.500000000000000000e+01
3.207288742065430132e+00 -7.777026295661926270e-01 -6.414998173713684082e-01 1.200000000000000000e+01
3.885236024856566939e+00 -9.435272216796875000e-01 -6.332467198371887207e-01 1.100000000000000000e+01
3.627569198608397727e+01 -8.816234588623046875e+00 4.583749771118164062e+00 1.900000000000000000e+01
4.988033294677734375e+00 -1.213184952735901101e+00 -6.303082704544067383e-01 1.000000000000000000e+01
6.682619094848632812e+00 -1.626575827598571999e+00 -6.017232537269592285e-01 3.000000000000000000e+00
1.058895492553710938e+01 -2.581309080123900923e+00 -5.711946487426757812e-01 3.000000000000000000e+00
3.772043991088867188e+01 -9.202226638793945312e+00 8.963850021362304688e+00 1.200000000000000000e+01
2.013737297058105113e+01 -4.916409969329833984e+00 -3.618232905864716131e-01 3.000000000000000000e+00
3.700158691406250000e+01 -9.033699989318847656e+00 1.020575237274169922e+01 8.000000000000000000e+00
2.369498252868651900e+00 -5.820046067237854004e-01 -6.537768840789794922e-01 1.900000000000000000e+01
2.717380046844481978e+00 -6.684584021568298340e-01 -6.460594534873962402e-01 1.400000000000000000e+01
3.195022821426392046e+00 -7.865469455718994141e-01 -6.395917534828186035e-01 1.100000000000000000e+01
3.889590501785277876e+00 -9.589749574661254883e-01 -6.344981789588928223e-01 9.000000000000000000e+00
4.997258663177490234e+00 -1.233920097351073997e+00 -6.320143938064575195e-01 9.000000000000000000e+00
6.688505649566650391e+00 -1.652760267257689986e+00 -6.027691364288330078e-01 3.000000000000000000e+00
1.067681884765625000e+01 -2.642245531082152876e+00 -5.764282345771789551e-01 3.000000000000000000e+00
3.600835418701171875e+01 -8.917836189270019531e+00 8.564336776733398438e+00 1.100000000000000000e+01
1.818300247192383168e+01 -4.506574630737304688e+00 -3.269882798194885254e-01 3.000000000000000000e+00
3.913764572143554688e+01 -9.707338333129882812e+00 1.080465984344482067e+01 1.900000000000000000e+01
2.361829042434691939e+00 -5.888701081275939941e-01 -6.522240042686462402e-01 1.900000000000000000e+01
2.732046365737915039e+00 -6.821886897087097168e-01 -6.501085758209228516e-01 1.500000000000000000e+01
4.240609741210938211e+01 -1.059661483764648082e+01 2.290744781494141069e+00 3.100000000000000000e+01
3.194162368774414062e+00 -7.981708049774169922e-01 -6.399733424186706543e-01 1.000000000000000000e+01
3.880470514297484907e+00 -9.711076617240905762e-01 -6.335595846176147461e-01 1.000000000000000000e+01
4.996772289276123047e+00 -1.252321362495421919e+00 -6.325019001960754395e-01 9.000000000000000000e+00
6.674965858459472656e+00 -1.674158692359924094e+00 -6.020718812942504883e-01 5.000000000000000000e+00
1.068302726745604936e+01 -2.683391094207764116e+00 -5.772656202316284180e-01 3.000000000000000000e+00
1.805856132507323863e+01 -4.542698860168457031e+00 -3.250336050987244207e-01 6.000000000000000000e+00
2.357886075973511186e+00 -5.966369509696960449e-01 -6.517063379287719727e-01 1.900000000000000000e+01
2.723981380462646040e+00 -6.902850866317749023e-01 -6.487588286399841309e-01 1.300000000000000000e+01
3.200871944427489790e+00 -8.117285966873168945e-01 -6.418814659118652344e-01 1.200000000000000000e+01
3.869398832321166992e+00 -9.827020764350891113e-01 -6.323081254959106445e-01 1.100000000000000000e+01
5.007761001586914062e+00 -1.273670196533202903e+00 -6.344518065452575684e-01 9.000000000000000000e+00
6.688389301300048828e+00 -1.702362895011902078e+00 -6.038149595260620117e-01 3.000000000000000000e+00
1.065811252593993963e+01 -2.716718912124633789e+00 -5.764282345771789551e-01 3.000000000000000000e+00
3.578282546997070312e+01 -9.127579689025878906e+00 8.525645256042480469e+00 1.100000000000000000e+01
3.654206848144531250e+01 -9.334836006164550781e+00 1.010584831237792969e+01 8.000000000000000000e+00
2.355789184570312944e+00 -6.048638224601745605e-01 -6.517063379287719727e-01 1.800000000000000000e+01
2.708343744277954102e+00 -6.963922977447509766e-01 -6.456094980239868164e-01 1.500000000000000000e+01
3.209426879882812944e+00 -8.258322477340698242e-01 -6.441711783409118652e-01 1.100000000000000000e+01
3.875509500503540039e+00 -9.986674785614013672e-01 -6.338724493980407715e-01 1.100000000000000000e+01
3.617597198486328125e+01 -9.328803062438964844e+00 4.587162017822265625e+00 1.900000000000000000e+01
4.987907886505126953e+00 -1.287174701690674050e+00 -6.325019001960754395e-01 9.000000000000000000e+00
6.717130184173583984e+00 -1.734666585922240989e+00 -6.069526076316833496e-01 5.000000000000000000e+00
1.066403388977050959e+01 -2.757906675338745117e+00 -5.772656202316284180e-01 3.000000000000000000e+00
3.566396331787108664e+01 -9.229969024658203125e+00 8.504949569702148438e+00 1.100000000000000000e+01
3.630893707275391336e+01 -9.403652191162109375e+00 1.004994392395020064e+01 8.000000000000000000e+00
2.364880323410034180e+00 -6.160051822662353516e-01 -6.548121571540832520e-01 1.800000000000000000e+01
2.711553335189818892e+00 -7.073175907135009766e-01 -6.469592452049255371e-01 1.400000000000000000e+01
3.197026491165161133e+00 -8.345508575439453125e-01 -6.422630548477172852e-01 1.200000000000000000e+01
3.870088577270507812e+00 -1.011689782142638938e+00 -6.335595846176147461e-01 1.100000000000000000e+01
3.587432479858397727e+01 -9.384688377380371094e+00 4.553038597106933594e+00 1.900000000000000000e+01
5.002587795257568359e+00 -1.309605121612549050e+00 -6.349392533302307129e-01 9.000000000000000000e+00
3.635282897949218750e+01 -9.523424148559570312e+00 5.952018737792968750e+00 1.300000000000000000e+01
6.701397418975830078e+00 -1.755578637123107910e+00 -6.060810089111328125e-01 5.000000000000000000e+00
1.067752456665039062e+01 -2.801196098327637163e+00 -5.785216689109802246e-01 3.000000000000000000e+00
2.584682655334473012e+01 -6.790431976318359375e+00 -4.664679169654846191e-01 4.000000000000000000e+00
3.630785751342772727e+01 -9.545510292053222656e+00 1.005926132202148082e+01 8.000000000000000000e+00
2.355353116989136186e+00 -6.218713521957397461e-01 -6.527416110038757324e-01 1.700000000000000000e+01
2.712960958480834961e+00 -7.173017859458923340e-01 -6.478590369224548340e-01 1.400000000000000000e+01
3.194241523742675781e+00 -8.451479673385620117e-01 -6.422630548477172852e-01 1.200000000000000000e+01
3.885807275772095171e+00 -1.029577255249022993e+00 -6.366882920265197754e-01 1.100000000000000000e+01
3.599650955200195312e+01 -9.544301033020019531e+00 4.572537899017333984e+00 1.900000000000000000e+01
4.998217582702636719e+00 -1.326187133789062944e+00 -6.349392533302307129e-01 9.000000000000000000e+00
3.582630920410156250e+01 -9.505867004394531250e+00 5.870672702789306641e+00 1.300000000000000000e+01
6.695538520812988281e+00 -1.777791619300842063e+00 -6.060810089111328125e-01 5.000000000000000000e+00
1.069519901275634943e+01 -2.843773841857910156e+00 -5.799870491027832031e-01 3.000000000000000000e+00
2.621063995361328125e+01 -6.979010581970214844e+00 -4.734488725662230890e-01 4.000000000000000000e+00
3.611341094970703125e+01 -9.615784645080566406e+00 1.001370906829833984e+01 8.000000000000000000e+00
2.353168010711669922e+00 -6.300892829895019531e-01 -6.527416110038757324e-01 2.000000000000000000e+01
4.231462860107421875e+01 -1.133817005157471058e+01 7.646597623825073242e-01 4.500000000000000000e+01
2.723616361618041992e+00 -7.303003072738647461e-01 -6.510083675384521484e-01 1.600000000000000000e+01
3.191272020339965820e+00 -8.562927842140197754e-01 -6.422630548477172852e-01 1.200000000000000000e+01
3.891728401184082031e+00 -1.045698046684264915e+00 -6.382526159286499023e-01 1.100000000000000000e+01
5.005059242248535156e+00 -1.346720814704895020e+00 -6.364017128944396973e-01 9.000000000000000000e+00
6.695064067840576172e+00 -1.802706718444823997e+00 -6.066039800643920898e-01 5.000000000000000000e+00
1.069677829742431996e+01 -2.884209394454956055e+00 -5.806151032447814941e-01 3.000000000000000000e+00
2.628264617919921875e+01 -7.096523761749267578e+00 -4.751941263675690252e-01 4.000000000000000000e+00
3.607419586181641336e+01 -9.747075080871582031e+00 1.001267337799072088e+01 8.000000000000000000e+00
2.350954294204711914e+00 -6.382995843887329102e-01 -6.527416110038757324e-01 2.000000000000000000e+01
2.715409040451049805e+00 -7.382692694664001465e-01 -6.496586203575134277e-01 1.600000000000000000e+01
4.019956970214843750e+01 -1.093705081939697088e+01 2.183351516723632812e+00 2.700000000000000000e+01
3.199629783630371094e+00 -8.705196380615234375e-01 -6.445527672767639160e-01 1.300000000000000000e+01
3.872807264328002930e+00 -1.055122256278991921e+00 -6.357496380805969238e-01 1.200000000000000000e+01
3.645759201049804688e+01 -9.939480781555175781e+00 4.639809608459472656e+00 1.900000000000000000e+01
5.009903430938720703e+00 -1.366795897483825906e+00 -6.376203894615173340e-01 1.000000000000000000e+01
6.711794853210449219e+00 -1.832362651824950950e+00 -6.086956858634948730e-01 6.000000000000000000e+00
1.072517585754395064e+01 -2.932064294815063032e+00 -5.827085375785827637e-01 3.000000000000000000e+00
3.561684417724608664e+01 -9.750347137451171875e+00 9.894652366638183594e+00 7.000000000000000000e+00
2.356162309646606001e+00 -6.485527753829956055e-01 -6.548121571540832520e-01 2.000000000000000000e+01
2.707179307937622070e+00 -7.461898326873779297e-01 -6.483089327812194824e-01 1.500000000000000000e+01
3.192786455154418945e+00 -8.806390762329101562e-01 -6.437895298004150391e-01 1.200000000000000000e+01
3.874812841415404829e+00 -1.070212125778198020e+00 -6.366882920265197754e-01 1.100000000000000000e+01
5.001275539398193359e+00 -1.383217096328734907e+00 -6.371329426765441895e-01 1.000000000000000000e+01
3.819802856445313211e+01 -1.057171535491943004e+01 6.277402400970458984e+00 1.400000000000000000e+01
6.707278251647949219e+00 -1.856311440467834029e+00 -6.088700294494628906e-01 5.000000000000000000e+00
1.063788795471191051e+01 -2.948148012161254883e+00 -5.785216689109802246e-01 3.000000000000000000e+00
3.865398025512695312e+01 -1.071969699859618963e+01 9.260785102844238281e+00 1.200000000000000000e+01
3.563298797607421875e+01 -9.895298004150390625e+00 9.909146308898925781e+00 7.000000000000000000e+00
2.353998661041260210e+00 -6.563625335693359375e-01 -6.548121571540832520e-01 2.000000000000000000e+01
2.708443880081177202e+00 -7.562111616134643555e-01 -6.492087244987487793e-01 1.500000000000000000e+01
3.189848661422729048e+00 -8.912219405174255371e-01 -6.437895298004150391e-01 1.200000000000000000e+01
3.876949548721313032e+00 -1.084652304649353027e+00 -6.376268863677978516e-01 1.100000000000000000e+01
3.660701370239257812e+01 -1.024841594696044922e+01 4.667595863342285156e+00 2.000000000000000000e+01
4.990926742553710938e+00 -1.398187756538390891e+00 -6.364017128944396973e-01 9.000000000000000000e+00
6.708759307861328125e+00 -1.880694508552551047e+00 -6.095672845840454102e-01 5.000000000000000000e+00
1.074342823028563920e+01 -3.015795469284058061e+00 -5.848019719123840332e-01 3.000000000000000000e+00
3.814918899536132812e+01 -1.071606922149658025e+01 9.148309707641601562e+00 1.200000000000000000e+01
3.543434524536132812e+01 -9.960144996643066406e+00 9.862558364868164062e+00 7.000000000000000000e+00
2.355411291122436968e+00 -6.656262278556823730e-01 -6.558474898338317871e-01 1.900000000000000000e+01
2.713288307189940962e+00 -7.677831649780273438e-01 -6.510083675384521484e-01 1.500000000000000000e+01
3.181051254272460938e+00 -9.007464647293090820e-01 -6.426447033882141113e-01 1.300000000000000000e+01
3.880741596221923828e+00 -1.100334167480468972e+00 -6.388783454895019531e-01 1.100000000000000000e+01
3.692622375488281250e+01 -1.047691726684569957e+01 4.712931156158447266e+00 2.000000000000000000e+01
4.995563507080078125e+00 -1.418311715126038042e+00 -6.376203894615173340e-01 1.000000000000000000e+01
6.721319198608398438e+00 -1.909546017646789995e+00 -6.113103628158569336e-01 5.000000000000000000e+00
3.508880996704102273e+01 -9.975450515747070312e+00 7.090843677520751953e+00 6.100000000000000000e+01
1.075588893890381037e+01 -3.059836626052856001e+00 -5.860580205917358398e-01 3.000000000000000000e+00
3.808530807495117188e+01 -1.084169960021973012e+01 9.142010688781738281e+00 1.200000000000000000e+01
3.853184890747070312e+01 -1.097608566284180043e+01 1.073529624938965021e+01 9.000000000000000000e+00
2.336475372314453125e+00 -6.686497330665588379e-01 -6.511887311935424805e-01 1.900000000000000000e+01
4.629386520385742188e+01 -1.325706577301025035e+01 8.405427932739257812e-01 5.800000000000000000e+01
2.720093965530395952e+00 -7.794606685638427734e-01 -6.532578468322753906e-01 1.700000000000000000e+01
3.189370155334473100e+00 -9.145371317863464355e-01 -6.449344158172607422e-01 1.200000000000000000e+01
3.869476795196533203e+00 -1.111016511917114036e+00 -6.376268863677978516e-01 1.100000000000000000e+01
3.678443527221679688e+01 -1.056861400604248047e+01 4.699281692504882812e+00 2.000000000000000000e+01
5.004187583923339844e+00 -1.438709259033202903e+00 -6.393265724182128906e-01 9.000000000000000000e+00
6.699632167816162109e+00 -1.927417397499084029e+00 -6.099159121513366699e-01 3.000000000000000000e+00
1.076103591918944957e+01 -3.099910497665404829e+00 -5.868954062461853027e-01 3.000000000000000000e+00
3.752260208129882812e+01 -1.082324886322020951e+01 1.046405410766601918e+01 9.000000000000000000e+00
2.345259666442871094e+00 -6.800294518470764160e-01 -6.542945504188537598e-01 1.900000000000000000e+01
2.711742162704468218e+00 -7.873207330703735352e-01 -6.519081592559814453e-01 1.500000000000000000e+01
3.189929008483887163e+00 -9.267600178718566895e-01 -6.456976532936096191e-01 1.200000000000000000e+01
3.865575075149536133e+00 -1.124516725540160911e+00 -6.376268863677978516e-01 1.100000000000000000e+01
3.639280700683593750e+01 -1.059375476837158025e+01 4.653946399688720703e+00 1.900000000000000000e+01
5.002946853637695312e+00 -1.457278728485106978e+00 -6.398140788078308105e-01 9.000000000000000000e+00
6.725380897521972656e+00 -1.960269689559936968e+00 -6.128791570663452148e-01 3.000000000000000000e+00
1.078849601745604936e+01 -3.148645877838135210e+00 -5.889888405799865723e-01 3.000000000000000000e+00
2.342751502990723100e+00 -6.886206865310668945e-01 -6.542945504188537598e-01 1.900000000000000000e+01
2.699491024017333984e+00 -7.945034503936767578e-01 -6.496586203575134277e-01 1.400000000000000000e+01
3.186510801315308061e+00 -9.384454488754272461e-01 -6.456976532936096191e-01 1.100000000000000000e+01
3.872795820236206055e+00 -1.142029523849487083e+00 -6.395040750503540039e-01 1.100000000000000000e+01
3.624711608886718750e+01 -1.069560909271240057e+01 4.640296936035156250e+00 1.900000000000000000e+01
4.989956855773925781e+00 -1.473357081413269043e+00 -6.388391256332397461e-01 9.000000000000000000e+00
3.630469131469727273e+01 -1.072637557983398082e+01 5.995820045471191406e+00 1.300000000000000000e+01
6.727704524993895596e+00 -1.987728953361511008e+00 -6.137507557868957520e-01 3.000000000000000000e+00
1.077688312530517933e+01 -3.188166618347167969e+00 -5.889888405799865723e-01 3.000000000000000000e+00
3.818140792846679688e+01 -1.130984878540039062e+01 1.067007350921631037e+01 9.000000000000000000e+00
2.349591016769409180e+00 -6.995505690574645996e-01 -6.568827629089355469e-01 2.000000000000000000e+01
2.694833755493164062e+00 -8.033648133277893066e-01 -6.492087244987487793e-01 1.500000000000000000e+01
3.183215618133544922e+00 -9.495627284049987793e-01 -6.456976532936096191e-01 1.300000000000000000e+01
3.865000247955321822e+00 -1.154410481452941895e+00 -6.388783454895019531e-01 1.100000000000000000e+01
5.001900196075438565e+00 -1.495885252952575906e+00 -6.410327553749084473e-01 1.100000000000000000e+01
6.722633838653563565e+00 -2.011772155761719194e+00 -6.139250397682189941e-01 3.000000000000000000e+00
1.079247379302979049e+01 -3.233791351318358931e+00 -5.904542803764343262e-01 3.000000000000000000e+00
3.888184356689453125e+01 -1.166511249542235973e+01 1.087712955474854049e+01 1.000000000000000000e+01
2.339613199234008789e+00 -7.059253454208374023e-01 -6.548121571540832520e-01 2.000000000000000000e+01
2.706794977188109907e+00 -8.177450895309448242e-01 -6.528079509735107422e-01 1.500000000000000000e+01
3.172196865081787109e+00 -9.589510560035705566e-01 -6.441711783409118652e-01 1.300000000000000000e+01
3.868305921554564986e+00 -1.170857787132262962e+00 -6.401298046112060547e-01 1.200000000000000000e+01
3.718038177490233664e+01 -1.126083183288574041e+01 4.769966125488281250e+00 2.000000000000000000e+01
4.986885070800781250e+00 -1.511329412460326926e+00 -6.398140788078308105e-01 9.000000000000000000e+00
6.711401939392089844e+00 -2.035241842269897017e+00 -6.135764122009277344e-01 3.000000000000000000e+00
1.079201507568359020e+01 -3.276807546615601030e+00 -5.910822749137878418e-01 3.000000000000000000e+00
3.840262603759766336e+01 -1.167493152618408025e+01 1.075496673583984020e+01 9.000000000000000000e+00
2.333439826965332031e+00 -7.129588723182678223e-01 -6.537768840789794922e-01 1.900000000000000000e+01
2.705787420272827148e+00 -8.277586698532104492e-01 -6.532578468322753906e-01 1.400000000000000000e+01
3.172584533691405806e+00 -9.711675643920898438e-01 -6.449344158172607422e-01 1.200000000000000000e+01
3.864195108413695845e+00 -1.184353590011596902e+00 -6.401298046112060547e-01 1.100000000000000000e+01
3.633995437622070312e+01 -1.114492511749267933e+01 4.667108535766601562e+00 2.000000000000000000e+01
5.000556468963623047e+00 -1.534551382064818892e+00 -6.422514319419860840e-01 9.000000000000000000e+00
3.599960327148438211e+01 -1.105429363250732067e+01 5.964533329010009766e+00 1.300000000000000000e+01
6.696638107299804688e+00 -2.056317329406737837e+00 -6.128791570663452148e-01 3.000000000000000000e+00
1.078814697265625000e+01 -3.316806554794311968e+00 -5.915009975433349609e-01 3.000000000000000000e+00
3.901013183593750000e+01 -1.200108337402343928e+01 9.422749519348144531e+00 1.200000000000000000e+01
3.919777297973632812e+01 -1.207378959655762074e+01 1.098997402191161932e+01 1.000000000000000000e+01
2.330936908721923828e+00 -7.210997343063354492e-01 -6.537768840789794922e-01 1.900000000000000000e+01
2.706604480743408203e+00 -8.383517265319824219e-01 -6.541576385498046875e-01 1.400000000000000000e+01
3.184177398681641069e+00 -9.868856668472290039e-01 -6.479873657226562500e-01 1.300000000000000000e+01
3.844944477081298828e+00 -1.193151235580443892e+00 -6.376268863677978516e-01 1.100000000000000000e+01
4.985691070556640625e+00 -1.549052238464355025e+00 -6.410327553749084473e-01 1.100000000000000000e+01
6.687516689300537109e+00 -2.079088926315308061e+00 -6.127048730850219727e-01 3.000000000000000000e+00
1.082608604431151988e+01 -3.369877576828002930e+00 -5.942224264144897461e-01 3.000000000000000000e+00
2.344997644424438032e+00 -7.344282269477844238e-01 -6.584356427192687988e-01 2.100000000000000000e+01
2.688786029815673828e+00 -8.431298136711120605e-01 -6.505584716796875000e-01 1.400000000000000000e+01
3.188205957412720171e+00 -1.000345468521117942e+00 -6.495138406753540039e-01 1.200000000000000000e+01
3.842640638351439986e+00 -1.207157373428344949e+00 -6.379397511482238770e-01 1.200000000000000000e+01
