-4.474919509887695312e+01 4.127625942230224609e+00 7.844158411026000977e-01 4.800000000000000000e+01
-2.920409440994263139e+00 2.698900401592255194e-01 -6.771026849746704102e-01 1.400000000000000000e+01
-3.466024398803710938e+00 3.209232389926909845e-01 -6.766086816787719727e-01 1.100000000000000000e+01
-4.484342575073242188e+01 4.159998893737792969e+00 3.940136909484862837e+00 5.400000000000000000e+01
-4.299642086029052734e+00 3.996226489543914795e-01 -6.839314699172973633e-01 1.000000000000000000e+01
-4.487934875488281250e+01 4.179132461547851562e+00 5.534330844879150391e+00 3.800000000000000000e+01
-5.627121448516845703e+00 5.249841213226318359e-01 -6.939240694046020508e-01 1.000000000000000000e+01
-8.143262863159179688e+00 7.611619830131530762e-01 -7.155486345291137695e-01 2.000000000000000000e+00
-1.529772949218750000e+01 1.435286641120911089e+00 -8.052410483360290527e-01 4.000000000000000000e+00
-3.431292343139647727e+01 3.231442213058472124e+00 -6.015844345092773438e-01 2.000000000000000000e+01
-2.511592864990233931e+00 2.396269738674164096e-01 -6.760353446006774902e-01 1.500000000000000000e+01
-4.474322128295897727e+01 4.276758193969726562e+00 7.845554947853088379e-01 4.800000000000000000e+01
-2.911738872528076172e+00 2.788299322128295898e-01 -6.753030419349670410e-01 1.400000000000000000e+01
-3.462986707687377930e+00 3.322277367115020752e-01 -6.762270927429199219e-01 1.200000000000000000e+01
-4.482740402221679688e+01 4.308491706848145419e+00 3.939962625503540039e+00 5.400000000000000000e+01
-4.278630733489990234e+00 4.119852781295775812e-01 -6.808027625083923340e-01 1.000000000000000000e+01
-4.488500213623046875e+01 4.329840660095214844e+00 5.536767959594726562e+00 3.800000000000000000e+01
-5.621397972106933594e+00 5.432595610618591309e-01 -6.934365630149841309e-01 1.000000000000000000e+01
-8.097064971923828125e+00 7.839378118515014648e-01 -7.117137908935546875e-01 2.000000000000000000e+00
-1.522927379608153942e+01 1.479826688766479048e+00 -8.018915057182312012e-01 4.000000000000000000e+00
-3.429405975341796875e+01 3.344433784484862837e+00 -6.014448404312133789e-01 2.000000000000000000e+01
-2.514586210250854048e+00 2.487730085849761963e-01 -6.770706176757812500e-01 1.200000000000000000e+01
-4.477577972412108664e+01 4.437648296356201172e+00 7.853931784629821777e-01 4.900000000000000000e+01
-2.895234346389770952e+00 2.874518334865570068e-01 -6.717038750648498535e-01 1.400000000000000000e+01
-3.463759660720825195e+00 3.445080816745758057e-01 -6.766086816787719727e-01 1.100000000000000000e+01
-4.483984756469727273e+01 4.467707633972167969e+00 3.942402839660644975e+00 5.400000000000000000e+01
-4.281097412109375000e+00 4.273103475570679266e-01 -6.814285516738891602e-01 1.000000000000000000e+01
-4.483800888061522727e+01 4.483332157135009766e+00 5.532868385314941406e+00 7.600000000000000000e+01
-5.603665828704833984e+00 5.612958073616027832e-01 -6.914866566658020020e-01 1.000000000000000000e+01
-8.133928298950195312e+00 8.161755204200744629e-01 -7.152000069618225098e-01 3.000000000000000000e+00
-1.515247535705566051e+01 1.525774002075195090e+00 -7.981233596801757812e-01 4.000000000000000000e+00
-3.426427078247070312e+01 3.462312698364257812e+00 -6.011306643486022949e-01 1.300000000000000000e+01
-2.509814023971558061e+00 2.575932741165161133e-01 -6.760353446006774902e-01 1.400000000000000000e+01
-4.478308486938477273e+01 4.604184150695800781e+00 7.858120799064636230e-01 4.900000000000000000e+01
-2.911607742309569868e+00 2.998582124710083008e-01 -6.757529377937316895e-01 1.500000000000000000e+01
-3.460520744323730025e+00 3.569996356964110773e-01 -6.762270927429199219e-01 1.100000000000000000e+01
-4.487469863891602273e+01 4.637349128723145419e+00 3.946934938430786133e+00 5.400000000000000000e+01
-4.275572776794433594e+00 4.425916969776154120e-01 -6.808027625083923340e-01 1.000000000000000000e+01
-4.485484313964843750e+01 4.651122093200683594e+00 5.537011623382568359e+00 7.600000000000000000e+01
-5.601570606231688565e+00 5.818305015563964844e-01 -6.914866566658020020e-01 1.000000000000000000e+01
-8.103137969970703125e+00 8.430957198143005371e-01 -7.127596735954284668e-01 2.000000000000000000e+00
-3.421554946899414062e+01 3.584124326705933061e+00 -6.005023717880249023e-01 1.300000000000000000e+01
-2.512741565704346147e+00 2.667604684829711914e-01 -6.770706176757812500e-01 1.400000000000000000e+01
-4.476276397705078125e+01 4.760055065155029297e+00 7.857422232627868652e-01 4.900000000000000000e+01
-2.912481069564818892e+00 3.102262020111083984e-01 -6.762028932571411133e-01 1.400000000000000000e+01
-3.455349206924438032e+00 3.686603605747222900e-01 -6.754638552665710449e-01 1.100000000000000000e+01
-4.491767120361328125e+01 4.800313949584960938e+00 3.952164411544799805e+00 5.400000000000000000e+01
-4.264181137084960938e+00 4.564622640609741211e-01 -6.792384386062622070e-01 1.000000000000000000e+01
-4.485412597656250000e+01 4.809359550476074219e+00 5.538961887359619141e+00 7.600000000000000000e+01
-5.599505901336669922e+00 6.013800501823425293e-01 -6.914866566658020020e-01 1.000000000000000000e+01
-8.090241432189941406e+00 8.703103065490722656e-01 -7.118881344795227051e-01 2.000000000000000000e+00
-3.423662948608397727e+01 3.707196712493896040e+00 -6.010957956314086914e-01 2.000000000000000000e+01
-2.506082057952880859e+00 2.744606137275695801e-01 -6.755176782608032227e-01 1.300000000000000000e+01
-4.477456283569335938e+01 4.911520481109619141e+00 7.862309217453002930e-01 4.900000000000000000e+01
-2.905624866485596147e+00 3.192441463470458984e-01 -6.748531460762023926e-01 1.300000000000000000e+01
-3.450204849243164062e+00 3.796871602535247803e-01 -6.747006177902221680e-01 1.200000000000000000e+01
-4.488170242309570312e+01 4.947057247161865234e+00 3.950421094894409180e+00 5.400000000000000000e+01
-4.286205291748046875e+00 4.732014834880828857e-01 -6.829928755760192871e-01 9.000000000000000000e+00
-4.489120101928710938e+01 4.963965415954589844e+00 5.545542716979979581e+00 7.700000000000000000e+01
-5.601426601409912109e+00 6.203824281692504883e-01 -6.919741034507751465e-01 1.000000000000000000e+01
-8.083350181579589844e+00 8.966944217681884766e-01 -7.115395069122314453e-01 2.000000000000000000e+00
-1.493716621398925959e+01 1.662273883819580078e+00 -7.876561284065246582e-01 4.000000000000000000e+00
-3.422216033935546875e+01 3.820487260818481001e+00 -6.010608673095703125e-01 1.300000000000000000e+01
-2.507028341293334961e+00 2.834238111972808838e-01 -6.760353446006774902e-01 1.500000000000000000e+01
-4.476906585693358664e+01 5.069132804870604581e+00 7.864403128623962402e-01 4.900000000000000000e+01
-2.918047189712523970e+00 3.309218585491179865e-01 -6.780024766921997070e-01 1.400000000000000000e+01
-3.446907758712768999e+00 3.915067613124846857e-01 -6.743189692497253418e-01 1.200000000000000000e+01
-4.482852554321289062e+01 5.099639892578125000e+00 3.947283506393433061e+00 5.400000000000000000e+01
-4.272751331329345703e+00 4.868185520172119141e-01 -6.811156868934631348e-01 9.000000000000000000e+00
-4.486965560913085938e+01 5.120184421539306641e+00 5.545054912567138672e+00 7.700000000000000000e+01
-5.595282554626464844e+00 6.394804716110229492e-01 -6.914866566658020020e-01 1.200000000000000000e+01
-8.064334869384765625e+00 9.230924248695373535e-01 -7.101449966430664062e-01 3.000000000000000000e+00
-3.417285537719727273e+01 3.935803174972534180e+00 -6.004325747489929199e-01 1.300000000000000000e+01
-2.506023645401000977e+00 2.921732664108275812e-01 -6.760353446006774902e-01 1.500000000000000000e+01
-4.479082107543945312e+01 5.230013370513916016e+00 7.871384620666503906e-01 4.900000000000000000e+01
-2.887840986251831055e+00 3.377104997634888250e-01 -6.712539196014404297e-01 1.300000000000000000e+01
-3.457219600677489790e+00 4.049065709114075262e-01 -6.766086816787719727e-01 1.200000000000000000e+01
-4.488564682006835938e+01 5.264909744262695312e+00 3.953907489776610884e+00 5.400000000000000000e+01
-4.263178348541259766e+00 5.008083581924438477e-01 -6.798641681671142578e-01 9.000000000000000000e+00
-4.485348129272460938e+01 5.277009963989257812e+00 5.545299053192138672e+00 7.700000000000000000e+01
-5.593016147613525391e+00 6.590077877044677734e-01 -6.914866566658020020e-01 1.000000000000000000e+01
-8.061063766479492188e+00 9.512366056442260742e-01 -7.101449966430664062e-01 1.000000000000000000e+00
-1.492519760131835938e+01 1.766513586044311968e+00 -7.876561284065246582e-01 4.000000000000000000e+00
-3.416883850097656250e+01 4.056243419647216797e+00 -6.006070971488952637e-01 1.900000000000000000e+01
-2.504988670349121094e+00 3.009191453456879217e-01 -6.760353446006774902e-01 1.400000000000000000e+01
-4.478817749023438211e+01 5.388241767883300781e+00 7.874176502227783203e-01 4.900000000000000000e+01
-2.898253202438354048e+00 3.491875231266021729e-01 -6.739533543586730957e-01 1.300000000000000000e+01
-3.440192222595214844e+00 4.150906205177307129e-01 -6.735557317733764648e-01 1.200000000000000000e+01
-4.490655517578125000e+01 5.426338195800781250e+00 3.957393646240233931e+00 5.400000000000000000e+01
-4.259443283081054688e+00 5.154492855072021484e-01 -6.795513033866882324e-01 1.000000000000000000e+01
-4.486434936523438211e+01 5.437128067016601562e+00 5.548954963684082031e+00 7.700000000000000000e+01
-5.580828666687011719e+00 6.773311495780944824e-01 -6.902679800987243652e-01 8.000000000000000000e+00
-8.053738594055175781e+00 9.788883924484252930e-01 -7.097963690757751465e-01 2.000000000000000000e+00
-1.481981182098389027e+01 1.806517720222472922e+00 -7.824225425720214844e-01 4.000000000000000000e+00
-3.414454650878906250e+01 4.174276828765869141e+00 -6.004325747489929199e-01 1.900000000000000000e+01
-2.494444131851195845e+00 3.076051175594329834e-01 -6.734471321105957031e-01 1.500000000000000000e+01
-4.480278015136718750e+01 5.532842636108398438e+00 7.879761457443237305e-01 4.900000000000000000e+01
-2.899075746536254883e+00 3.585300743579865057e-01 -6.744032502174377441e-01 1.400000000000000000e+01
-3.429129362106322798e+00 4.246897101402283270e-01 -6.716476678848266602e-01 1.200000000000000000e+01
-4.488928604125977273e+01 5.567389011383056641e+00 3.957393646240233931e+00 5.400000000000000000e+01
-4.255842685699462891e+00 5.285846590995788574e-01 -6.792384386062622070e-01 9.000000000000000000e+00
-4.485098648071289062e+01 5.578536510467529297e+00 5.549442291259765625e+00 7.700000000000000000e+01
-5.560944557189941406e+00 6.926522254943847656e-01 -6.880742907524108887e-01 1.000000000000000000e+01
-8.026898384094238281e+00 1.001225829124450906e+00 -7.077046036720275879e-01 1.000000000000000000e+00
-3.410745620727539062e+01 4.278537750244140625e+00 -6.000137329101562500e-01 1.900000000000000000e+01
-2.491438865661621094e+00 3.160673379898070734e-01 -6.729295253753662109e-01 1.500000000000000000e+01
-4.479509735107421875e+01 5.690711498260498047e+00 7.881855964660644531e-01 4.900000000000000000e+01
-2.895873546600341797e+00 3.684016466140747070e-01 -6.739533543586730957e-01 1.200000000000000000e+01
-3.427625894546508789e+00 4.366570413112639826e-01 -6.716476678848266602e-01 1.200000000000000000e+01
-4.486957931518554688e+01 5.724048137664794922e+00 3.957393646240233931e+00 5.400000000000000000e+01
-4.250052928924561435e+00 5.429365038871765137e-01 -6.786127090454101562e-01 9.000000000000000000e+00
-4.488637161254882812e+01 5.742114543914794922e+00 5.556267261505126953e+00 7.700000000000000000e+01
-5.562430858612061435e+00 7.125638127326965332e-01 -6.885617971420288086e-01 1.000000000000000000e+01
-7.991735458374023438e+00 1.025182723999022993e+00 -7.049156427383422852e-01 1.000000000000000000e+00
-1.470845699310302912e+01 1.892025113105773926e+00 -7.771889567375183105e-01 4.000000000000000000e+00
-3.408041381835938211e+01 4.396033763885498047e+00 -5.998042821884155273e-01 1.900000000000000000e+01
-2.494151592254639116e+00 3.252618014812468927e-01 -6.739647984504699707e-01 1.600000000000000000e+01
-4.477495956420897727e+01 5.847041130065917969e+00 7.881855964660644531e-01 4.900000000000000000e+01
-2.892637491226195845e+00 3.782551884651184082e-01 -6.735034584999084473e-01 1.300000000000000000e+01
-3.426080942153931108e+00 4.486190080642700195e-01 -6.716476678848266602e-01 1.100000000000000000e+01
-4.487303161621093750e+01 5.883745670318604404e+00 3.959485292434691939e+00 5.400000000000000000e+01
-4.244214534759520596e+00 5.572543144226074219e-01 -6.779869794845581055e-01 9.000000000000000000e+00
-4.488967514038085938e+01 5.901867389678955078e+00 5.559192180633544922e+00 7.700000000000000000e+01
-5.579590797424316406e+00 7.345670461654663086e-01 -6.909991502761840820e-01 1.000000000000000000e+01
-8.021688461303710938e+00 1.057499647140502930e+00 -7.078789472579956055e-01 2.000000000000000000e+00
-1.470176315307617010e+01 1.943355679512023926e+00 -7.771889567375183105e-01 4.000000000000000000e+00
-3.403908920288085938e+01 4.511554241180419922e+00 -5.993505716323852539e-01 1.900000000000000000e+01
-2.502574682235718218e+00 3.352485299110413153e-01 -6.765530109405517578e-01 1.400000000000000000e+01
-4.480977249145507812e+01 6.010743141174316406e+00 7.891629338264465332e-01 4.900000000000000000e+01
-2.881642580032349077e+00 3.870529830455780029e-01 -6.712539196014404297e-01 1.200000000000000000e+01
-3.422548294067382812e+00 4.603138566017150879e-01 -6.712660193443298340e-01 1.200000000000000000e+01
-4.486801528930664062e+01 6.042473316192626953e+00 3.960879802703856978e+00 5.400000000000000000e+01
-4.230497360229492188e+00 5.704820752143859863e-01 -6.761097311973571777e-01 9.000000000000000000e+00
-4.488453674316406250e+01 6.060650825500488281e+00 5.561141967773438388e+00 7.700000000000000000e+01
-5.537648677825927734e+00 7.487194538116455078e-01 -6.861243844032287598e-01 1.000000000000000000e+01
-7.984383583068847656e+00 1.080950140953063965e+00 -7.049156427383422852e-01 1.000000000000000000e+00
-1.469489002227783025e+01 1.994662523269653098e+00 -7.771889567375183105e-01 4.000000000000000000e+00
-3.399539566040039062e+01 4.626570224761962891e+00 -5.988618731498718262e-01 1.900000000000000000e+01
-2.501389265060424805e+00 3.439821004867554266e-01 -6.765530109405517578e-01 1.500000000000000000e+01
-4.480040359497070312e+01 6.168758392333984375e+00 7.893723249435424805e-01 4.900000000000000000e+01
-2.874482631683350053e+00 3.963109552860260010e-01 -6.699042320251464844e-01 1.200000000000000000e+01
-4.490986251831054688e+01 6.199804782867431641e+00 2.375947713851929155e+00 3.500000000000000000e+01
-3.426755189895629883e+00 4.730634093284606934e-01 -6.724109053611755371e-01 1.200000000000000000e+01
-4.486243820190429688e+01 6.201237678527832031e+00 3.962274312973022017e+00 5.400000000000000000e+01
-4.246090888977050781e+00 5.876832008361816406e-01 -6.789255738258361816e-01 9.000000000000000000e+00
-4.490636444091796875e+01 6.223284721374511719e+00 5.566504001617431641e+00 7.800000000000000000e+01
-5.531068801879882812e+00 7.674992084503173828e-01 -6.856369376182556152e-01 1.000000000000000000e+01
-7.996349334716796875e+00 1.111007690429687944e+00 -7.063101530075073242e-01 2.000000000000000000e+00
-3.399686050415039062e+01 4.747697353363037109e+00 -5.991759896278381348e-01 1.900000000000000000e+01
-2.494434595108031782e+00 3.519018888473510742e-01 -6.750000715255737305e-01 1.600000000000000000e+01
-4.477463912963867188e+01 6.324543952941895419e+00 7.893025279045104980e-01 4.900000000000000000e+01
-2.884658813476562944e+00 4.079797565937042236e-01 -6.726036667823791504e-01 1.400000000000000000e+01
-4.481280136108397727e+01 6.345890045166015625e+00 2.371970176696776900e+00 3.500000000000000000e+01
-3.409532070159912109e+00 4.828200042247772217e-01 -6.693579554557800293e-01 1.100000000000000000e+01
-4.486419296264647727e+01 6.361155033111572266e+00 3.964366197586060014e+00 5.400000000000000000e+01
-4.244013786315917969e+00 6.025012135505676270e-01 -6.789255738258361816e-01 9.000000000000000000e+00
-4.489026641845703125e+01 6.380837440490722656e+00 5.567235469818115234e+00 7.800000000000000000e+01
-5.526391029357910156e+00 7.865219116210937500e-01 -6.853932142257690430e-01 1.200000000000000000e+01
-7.968752861022949219e+00 1.135540485382080078e+00 -7.042183876037597656e-01 2.000000000000000000e+00
-1.458174800872802912e+01 2.083080291748046875e+00 -7.719553709030151367e-01 4.000000000000000000e+00
-3.403154754638671875e+01 4.873710155487061435e+00 -6.000835299491882324e-01 1.900000000000000000e+01
-2.472034454345703125e+00 3.584279417991638184e-01 -6.693060398101806641e-01 1.500000000000000000e+01
-4.480147552490233664e+01 6.503888607025145596e+00 7.902100682258605957e-01 4.900000000000000000e+01
-2.879214048385620117e+00 4.184924066066741943e-01 -6.717038750648498535e-01 1.200000000000000000e+01
-4.483553695678710938e+01 6.524815082550048828e+00 2.374482393264770952e+00 3.500000000000000000e+01
-3.413481473922729048e+00 4.967562556266785223e-01 -6.705027818679809570e-01 1.200000000000000000e+01
-4.483943557739257812e+01 6.533373832702636719e+00 3.964366197586060014e+00 5.400000000000000000e+01
-4.239714145660400391e+00 6.185074448585510254e-01 -6.786127090454101562e-01 9.000000000000000000e+00
-4.490668487548828125e+01 6.559181213378906250e+00 5.572353839874267578e+00 7.800000000000000000e+01
-5.517437458038330078e+00 8.068740963935852051e-01 -6.846619844436645508e-01 1.000000000000000000e+01
-7.956448554992675781e+00 1.164975285530090110e+00 -7.035211324691772461e-01 1.000000000000000000e+00
-1.447483730316161932e+01 2.124552488327025923e+00 -7.667217850685119629e-01 4.000000000000000000e+00
-3.394729614257813211e+01 4.994739532470703125e+00 -5.989316701889038086e-01 1.900000000000000000e+01
-2.476500988006591797e+00 3.679064214229583740e-01 -6.708589792251586914e-01 1.500000000000000000e+01
-4.476267623901367188e+01 6.657882213592529297e+00 7.899308204650878906e-01 4.900000000000000000e+01
-2.879663228988647017e+00 4.288272261619567871e-01 -6.721537709236145020e-01 1.200000000000000000e+01
-4.483619308471679688e+01 6.684814453125000000e+00 2.375738382339477983e+00 3.500000000000000000e+01
-3.415610074996947798e+00 5.092475414276123047e-01 -6.712660193443298340e-01 1.200000000000000000e+01
-4.486365127563477273e+01 6.696912765502929688e+00 3.968549489974976030e+00 5.400000000000000000e+01
-4.210177898406982422e+00 6.292153000831604004e-01 -6.742325425148010254e-01 9.000000000000000000e+00
-4.486388015747070312e+01 6.712957382202148438e+00 5.569916248321533203e+00 7.800000000000000000e+01
-5.524403095245361328e+00 8.275991678237915039e-01 -6.858806610107421875e-01 1.200000000000000000e+01
-7.964155673980712891e+00 1.194514513015747070e+00 -7.045670151710510254e-01 1.000000000000000000e+00
-3.394745254516602273e+01 5.115889549255371094e+00 -5.992458462715148926e-01 1.900000000000000000e+01
-2.480931282043457031e+00 3.774204254150391180e-01 -6.724118590354919434e-01 1.500000000000000000e+01
-4.479846954345703125e+01 6.823125362396240234e+00 7.909779548645019531e-01 5.000000000000000000e+01
-2.868516445159912109e+00 4.374077022075653076e-01 -6.699042320251464844e-01 1.200000000000000000e+01
-4.484417724609375000e+01 6.846104145050048828e+00 2.377413034439086914e+00 3.500000000000000000e+01
-3.413811683654785156e+00 5.211670994758605957e-01 -6.712660193443298340e-01 1.200000000000000000e+01
-4.486560440063477273e+01 6.857388496398925781e+00 3.970815658569335938e+00 5.400000000000000000e+01
-4.211861133575438565e+00 6.445053219795227051e-01 -6.748582720756530762e-01 9.000000000000000000e+00
-4.485194778442382812e+01 6.871324062347412109e+00 5.571378707885742188e+00 3.900000000000000000e+01
-5.519518375396729404e+00 8.465769290924072266e-01 -6.856369376182556152e-01 1.000000000000000000e+01
-7.932367324829101562e+00 1.218073725700377974e+00 -7.021266818046569824e-01 1.000000000000000000e+00
-1.445965290069580078e+01 2.225553274154663086e+00 -7.667217850685119629e-01 4.000000000000000000e+00
-3.395705413818358664e+01 5.238625526428222656e+00 -5.997344851493835449e-01 1.300000000000000000e+01
-2.489142894744873047e+00 3.875642418861389160e-01 -6.750000715255737305e-01 1.600000000000000000e+01
-4.479413986206054688e+01 6.982539653778076172e+00 7.913269996643066406e-01 5.000000000000000000e+01
-2.861195802688599077e+00 4.465165734291077215e-01 -6.685545444488525391e-01 1.300000000000000000e+01
-4.480816650390625000e+01 7.000748157501220703e+00 2.376785039901732954e+00 3.500000000000000000e+01
-3.406152486801147017e+00 5.321711897850036621e-01 -6.701211929321289062e-01 1.300000000000000000e+01
-4.485714340209960938e+01 7.016420364379882812e+00 3.972210168838500977e+00 5.400000000000000000e+01
-4.207634449005126953e+00 6.588979363441467285e-01 -6.745454072952270508e-01 1.000000000000000000e+01
-4.487279510498046875e+01 7.034916400909423828e+00 5.576984882354736328e+00 7.800000000000000000e+01
-5.492996692657470703e+00 8.621448874473571777e-01 -6.827120780944824219e-01 1.000000000000000000e+01
-7.928067207336425781e+00 1.245755434036255105e+00 -7.021266818046569824e-01 1.000000000000000000e+00
-3.391485977172852273e+01 5.353384494781494141e+00 -5.993156433105468750e-01 1.300000000000000000e+01
-2.480281591415404829e+00 3.941693603992462158e-01 -6.729295253753662109e-01 1.600000000000000000e+01
-4.483122634887695312e+01 7.132655620574951172e+00 7.923741340637207031e-01 5.000000000000000000e+01
-2.871325969696044922e+00 4.573422670364379883e-01 -6.712539196014404297e-01 1.200000000000000000e+01
-4.480961990356445312e+01 7.145256519317626953e+00 2.378041267395019975e+00 3.500000000000000000e+01
-3.394770145416260210e+00 5.413235425949096680e-01 -6.682131290435791016e-01 1.200000000000000000e+01
-4.486635589599608664e+01 7.162333488464354581e+00 3.974999189376831055e+00 5.400000000000000000e+01
-4.211395263671875000e+00 6.730485558509826660e-01 -6.754840016365051270e-01 9.000000000000000000e+00
-4.489163589477539062e+01 7.182439327239990234e+00 5.582103252410888672e+00 7.800000000000000000e+01
-5.505941867828369141e+00 8.819090127944946289e-01 -6.846619844436645508e-01 1.200000000000000000e+01
-7.892638206481933594e+00 1.265608668327331987e+00 -6.993376612663269043e-01 1.000000000000000000e+00
-1.434597682952881037e+01 2.305557966232299805e+00 -7.614881396293640137e-01 4.000000000000000000e+00
-3.388602828979492188e+01 5.457996368408203125e+00 -5.991061925888061523e-01 1.300000000000000000e+01
-2.475076913833618164e+00 4.022050201892852783e-01 -6.718942523002624512e-01 1.400000000000000000e+01
-4.482184600830078125e+01 7.291671276092529297e+00 7.926533818244934082e-01 5.000000000000000000e+01
-2.865865230560303178e+00 4.667357802391052246e-01 -6.703541278839111328e-01 1.200000000000000000e+01
-4.483959960937500000e+01 7.310626506805419922e+00 2.380971908569335938e+00 3.500000000000000000e+01
-3.396735191345214844e+00 5.538020133972167969e-01 -6.689763665199279785e-01 1.200000000000000000e+01
-4.489220809936522727e+01 7.327247142791748047e+00 3.979531288146973100e+00 5.400000000000000000e+01
-4.203171730041503906e+00 6.867893338203430176e-01 -6.745454072952270508e-01 1.000000000000000000e+01
-4.489567947387695312e+01 7.343903541564941406e+00 5.585759639739990234e+00 7.900000000000000000e+01
-5.494994163513183594e+00 8.998398184776306152e-01 -6.836870312690734863e-01 1.200000000000000000e+01
-7.884240150451660156e+00 1.292506814002990945e+00 -6.989890336990356445e-01 1.000000000000000000e+00
-3.385098648071289062e+01 5.573648452758789062e+00 -5.988269448280334473e-01 1.300000000000000000e+01
-2.473657846450806108e+00 4.108422100543975830e-01 -6.718942523002624512e-01 1.500000000000000000e+01
-4.481190109252929688e+01 7.450707912445068359e+00 7.929326295852661133e-01 5.000000000000000000e+01
-2.860373973846435991e+00 4.760967493057250977e-01 -6.694543361663818359e-01 1.200000000000000000e+01
-4.485715103149414062e+01 7.474323272705078125e+00 2.383274793624877930e+00 3.600000000000000000e+01
-3.392844915390015093e+00 5.653328299522399902e-01 -6.685947179794311523e-01 1.200000000000000000e+01
-4.487028884887695312e+01 7.484561443328857422e+00 3.979879856109619141e+00 5.400000000000000000e+01
-4.189058303833007812e+00 6.995048522949218750e-01 -6.726682186126708984e-01 1.000000000000000000e+01
-4.488935089111328125e+01 7.503847122192382812e+00 5.588196754455566406e+00 7.900000000000000000e+01
-5.495735168457031250e+00 9.196707010269165039e-01 -6.841744780540466309e-01 1.200000000000000000e+01
-7.865925312042236328e+00 1.317715764045715110e+00 -6.977688670158386230e-01 2.000000000000000000e+00
-1.423104667663574041e+01 2.389121055603026900e+00 -7.562545537948608398e-01 4.000000000000000000e+00
-3.382738113403320312e+01 5.691112995147705078e+00 -5.987571477890014648e-01 1.300000000000000000e+01
-2.481731653213500977e+00 4.210902154445648193e-01 -6.744824051856994629e-01 1.600000000000000000e+01
-4.479350662231445312e+01 7.608424663543701172e+00 7.930722236633300781e-01 5.000000000000000000e+01
-2.851009845733643022e+00 4.847717583179473877e-01 -6.676547527313232422e-01 1.300000000000000000e+01
-4.483472442626953125e+01 7.631528377532958984e+00 2.383484125137329102e+00 3.600000000000000000e+01
-3.402463197708129883e+00 5.791492462158203125e-01 -6.708844304084777832e-01 1.100000000000000000e+01
-4.491066741943358664e+01 7.652521133422851562e+00 3.985806465148925781e+00 5.400000000000000000e+01
-4.190485477447509766e+00 7.147874236106872559e-01 -6.732939481735229492e-01 1.000000000000000000e+01
-4.488440704345703125e+01 7.664169788360595703e+00 5.590878009796142578e+00 7.900000000000000000e+01
-5.482707977294921875e+00 9.371764659881591797e-01 -6.829558014869689941e-01 1.200000000000000000e+01
-7.843603134155273438e+00 1.342140674591064009e+00 -6.962000727653503418e-01 1.000000000000000000e+00
-1.422262001037598012e+01 2.438782215118408203e+00 -7.562545537948608398e-01 4.000000000000000000e+00
-3.381913375854492188e+01 5.811189651489257812e+00 -5.989665985107421875e-01 1.300000000000000000e+01
-2.478343248367310014e+00 4.294207096099854071e-01 -6.739647984504699707e-01 1.500000000000000000e+01
-4.478637695312500000e+01 7.768154621124267578e+00 7.934213280677795410e-01 5.000000000000000000e+01
-2.851220369338988814e+00 4.950540661811829168e-01 -6.681046485900878906e-01 1.300000000000000000e+01
-4.482749176025391336e+01 7.791404724121093750e+00 2.384530782699584961e+00 3.600000000000000000e+01
-3.384946823120117188e+00 5.883329510688781738e-01 -6.678314805030822754e-01 1.200000000000000000e+01
-4.486012649536132812e+01 7.805143356323242188e+00 3.983714580535889116e+00 5.400000000000000000e+01
-4.191857337951660156e+00 7.300884723663330078e-01 -6.739196777343750000e-01 1.000000000000000000e+01
-4.487498092651367188e+01 7.823867321014404297e+00 5.593071460723876953e+00 7.900000000000000000e+01
-5.467669963836669922e+00 9.542611837387084961e-01 -6.814933419227600098e-01 1.200000000000000000e+01
-7.846720695495604581e+00 1.370883345603943093e+00 -6.968973278999328613e-01 1.000000000000000000e+00
-1.408811092376708984e+01 2.466370820999145952e+00 -7.495555877685546875e-01 4.000000000000000000e+00
-3.383409500122070312e+01 5.935424804687500000e+00 -5.995948910713195801e-01 6.000000000000000000e+00
-2.469219923019409180e+00 4.367232918739318848e-01 -6.718942523002624512e-01 1.600000000000000000e+01
-4.479837036132813211e+01 7.931413173675537109e+00 7.941194176673889160e-01 5.000000000000000000e+01
-2.860987901687622070e+00 5.070440769195556641e-01 -6.708040237426757812e-01 1.300000000000000000e+01
-4.483148574829102273e+01 7.953416347503662109e+00 2.386205673217772993e+00 3.600000000000000000e+01
-3.371274232864379883e+00 5.980874300003051758e-01 -6.655417680740356445e-01 1.100000000000000000e+01
-4.493069458007813211e+01 7.979105472564697266e+00 3.992430210113524947e+00 5.400000000000000000e+01
-4.197062969207763672e+00 7.460992932319641113e-01 -6.751711368560791016e-01 1.000000000000000000e+01
-4.487671279907227273e+01 7.985679149627686435e+00 5.596727848052979404e+00 7.900000000000000000e+01
-5.470168590545654297e+00 9.743854403495788574e-01 -6.822245717048645020e-01 1.200000000000000000e+01
-7.830119132995604581e+00 1.396166682243346946e+00 -6.958514451980590820e-01 1.000000000000000000e+00
-3.368719100952147727e+01 6.030938148498535156e+00 -5.973609685897827148e-01 1.900000000000000000e+01
-2.461977005004882812e+00 4.443105161190032959e-01 -6.703413128852844238e-01 1.500000000000000000e+01
-4.481370544433593750e+01 8.095561027526855469e+00 7.948873043060302734e-01 5.000000000000000000e+01
-2.857283115386962891e+00 5.166809558868408203e-01 -6.703541278839111328e-01 1.200000000000000000e+01
-4.480486297607421875e+01 8.102039337158203125e+00 2.386205673217772993e+00 3.600000000000000000e+01
-3.378825187683105025e+00 6.116001605987548828e-01 -6.674498915672302246e-01 1.200000000000000000e+01
-4.490256881713867188e+01 8.135894775390625000e+00 3.992430210113524947e+00 5.400000000000000000e+01
-4.174996376037597656e+00 7.572200298309326172e-01 -6.720424890518188477e-01 1.000000000000000000e+01
-4.488567352294921875e+01 8.149017333984375000e+00 5.601358890533447266e+00 7.900000000000000000e+01
-5.468687534332275391e+00 9.938289523124694824e-01 -6.824682950973510742e-01 1.200000000000000000e+01
-7.836959362030029297e+00 1.425629854202270952e+00 -6.968973278999328613e-01 1.000000000000000000e+00
-1.409805774688721058e+01 2.569677591323852983e+00 -7.510209679603576660e-01 4.000000000000000000e+00
-3.376429367065429688e+01 6.166454792022705078e+00 -5.991061925888061523e-01 1.300000000000000000e+01
-2.464210987091064009e+00 4.536011815071105957e-01 -6.713765859603881836e-01 1.400000000000000000e+01
-4.480090713500977273e+01 8.254839897155761719e+00 7.951665520668029785e-01 5.000000000000000000e+01
-2.853545665740966797e+00 5.262981057167053223e-01 -6.699042320251464844e-01 1.100000000000000000e+01
-4.484164428710938211e+01 8.278531074523925781e+00 2.389764547348022017e+00 3.600000000000000000e+01
-3.386322975158690962e+00 6.251728534698486328e-01 -6.693579554557800293e-01 1.100000000000000000e+01
-4.487389373779296875e+01 8.292584419250488281e+00 3.992430210113524947e+00 5.400000000000000000e+01
-4.162615299224854404e+00 7.699922919273376465e-01 -6.704781055450439453e-01 1.000000000000000000e+01
-4.489404296875000000e+01 8.312514305114746094e+00 5.605989933013916016e+00 8.000000000000000000e+01
-5.455425739288330078e+00 1.011103391647339089e+00 -6.812496185302734375e-01 1.000000000000000000e+01
-7.804509639739990234e+00 1.447889328002929910e+00 -6.944569349288940430e-01 1.000000000000000000e+00
-1.399082088470458984e+01 2.600623369216918945e+00 -7.457873821258544922e-01 4.000000000000000000e+00
-3.372290420532227273e+01 6.280615329742431641e+00 -5.987571477890014648e-01 1.300000000000000000e+01
-2.464511156082152876e+00 4.625564813613892157e-01 -6.718942523002624512e-01 1.500000000000000000e+01
-4.480326461791992188e+01 8.417080879211425781e+00 7.957250475883483887e-01 5.000000000000000000e+01
-2.842115163803101030e+00 5.344548821449279785e-01 -6.676547527313232422e-01 1.300000000000000000e+01
-4.483750152587891336e+01 8.431614875793457031e+00 2.391020536422729048e+00 3.600000000000000000e+01
-3.384119987487792969e+00 6.369895339012145996e-01 -6.693579554557800293e-01 1.100000000000000000e+01
-4.489166641235352273e+01 8.458025932312011719e+00 3.996613740921020952e+00 5.400000000000000000e+01
-4.159902095794677734e+00 7.845178842544555664e-01 -6.704781055450439453e-01 9.000000000000000000e+00
-4.488816070556641336e+01 8.473591804504394531e+00 5.608914852142333984e+00 8.000000000000000000e+01
-5.440159320831298828e+00 1.027928829193115012e+00 -6.797872185707092285e-01 1.000000000000000000e+01
-7.772000312805175781e+00 1.469939708709717019e+00 -6.920166015625000000e-01 2.000000000000000000e+00
-3.376757049560546875e+01 6.410973548889160156e+00 -5.999439358711242676e-01 1.900000000000000000e+01
-2.462881565093994141e+00 4.711564183235167902e-01 -6.718942523002624512e-01 1.500000000000000000e+01
-4.481681823730468750e+01 8.581696510314941406e+00 7.964929342269897461e-01 5.000000000000000000e+01
-2.834490537643433061e+00 5.432720184326171875e-01 -6.663050055503845215e-01 1.100000000000000000e+01
-4.483525848388671875e+01 8.593339920043945312e+00 2.392485857009888139e+00 3.600000000000000000e+01
-3.374163627624512163e+00 6.473188400268554688e-01 -6.678314805030822754e-01 1.100000000000000000e+01
-4.486186599731445312e+01 8.614675521850585938e+00 3.996613740921020952e+00 5.400000000000000000e+01
-4.161018371582031250e+00 7.997795939445495605e-01 -6.711038351058959961e-01 9.000000000000000000e+00
-4.489729309082031250e+01 8.637729644775390625e+00 5.613789558410645419e+00 8.000000000000000000e+01
-5.444335460662841797e+00 1.048413753509521040e+00 -6.807621717453002930e-01 1.000000000000000000e+01
-7.782473087310791016e+00 1.500076770782470925e+00 -6.934111118316650391e-01 1.000000000000000000e+00
-1.397232437133789062e+01 2.698233366012572798e+00 -7.457873821258544922e-01 4.000000000000000000e+00
-3.367234420776367188e+01 6.514750957489013672e+00 -5.986524224281311035e-01 1.900000000000000000e+01
-2.459242105484008789e+00 4.798102080821990967e-01 -6.713765859603881836e-01 1.500000000000000000e+01
-4.482038879394531250e+01 8.752799034118652344e+00 7.971212267875671387e-01 5.100000000000000000e+01
-2.840130567550659180e+00 5.551526546478271484e-01 -6.681046485900878906e-01 1.300000000000000000e+01
-4.483329391479492188e+01 8.771566390991210938e+00 2.394160747528076172e+00 3.600000000000000000e+01
-3.367914915084838867e+00 6.589275002479553223e-01 -6.670682430267333984e-01 1.200000000000000000e+01
-4.490037918090820312e+01 8.792829513549804688e+00 4.002889156341552734e+00 5.400000000000000000e+01
-4.158059120178222656e+00 8.150250911712646484e-01 -6.711038351058959961e-01 9.000000000000000000e+00
-4.491208648681641336e+01 8.811400413513183594e+00 5.619639396667479581e+00 8.000000000000000000e+01
-5.424872875213623047e+00 1.065301060676574929e+00 -6.788122653961181641e-01 1.000000000000000000e+01
-7.741733074188232422e+00 1.521674275398253950e+00 -6.902734637260437012e-01 1.000000000000000000e+00
-1.396234035491943004e+01 2.749426364898682085e+00 -7.457873821258544922e-01 4.000000000000000000e+00
-3.357565307617188211e+01 6.623802185058593750e+00 -5.973609685897827148e-01 1.300000000000000000e+01
-2.448078155517578125e+00 4.865088760852814276e-01 -6.687884330749511719e-01 1.600000000000000000e+01
-4.480133056640625000e+01 8.911539077758789062e+00 7.973306179046630859e-01 5.100000000000000000e+01
-2.841997861862183061e+00 5.658242106437683105e-01 -6.690044403076171875e-01 1.400000000000000000e+01
-4.484705352783203125e+01 8.928771018981933594e+00 2.396463394165039062e+00 3.600000000000000000e+01
-3.355967283248900923e+00 6.687612533569335938e-01 -6.651601791381835938e-01 1.200000000000000000e+01
-4.486550521850585938e+01 8.948727607727050781e+00 4.002540111541748047e+00 5.400000000000000000e+01
-4.147439956665039062e+00 8.279875516891479492e-01 -6.698523759841918945e-01 9.000000000000000000e+00
-4.490246582031250000e+01 8.972397804260253906e+00 5.622320175170898438e+00 8.100000000000000000e+01
-5.423068046569824219e+00 1.084620237350464089e+00 -6.790559887886047363e-01 1.200000000000000000e+01
-7.705116271972656250e+00 1.542431354522705078e+00 -6.874845027923583984e-01 1.000000000000000000e+00
-1.385474491119384943e+01 2.778511285781859907e+00 -7.405537962913513184e-01 4.000000000000000000e+00
-3.368564224243164062e+01 6.767746925354003906e+00 -5.997344851493835449e-01 6.000000000000000000e+00
-2.444557905197143999e+00 4.942414760589600164e-01 -6.682707667350769043e-01 1.500000000000000000e+01
-4.478721237182617188e+01 9.063229560852050781e+00 7.976098656654357910e-01 5.100000000000000000e+01
-2.836286067962646040e+00 5.744717717170715332e-01 -6.681046485900878906e-01 1.200000000000000000e+01
-4.485243225097656250e+01 9.084576606750488281e+00 2.398347616195679155e+00 3.600000000000000000e+01
-3.363351583480834961e+00 6.818367242813110352e-01 -6.670682430267333984e-01 1.200000000000000000e+01
-4.491759490966796875e+01 9.114098548889160156e+00 4.009861469268798828e+00 5.400000000000000000e+01
-4.121441364288330078e+00 8.370186090469360352e-01 -6.660979390144348145e-01 1.000000000000000000e+01
-4.486857604980468750e+01 9.120460510253906250e+00 5.621832847595214844e+00 8.100000000000000000e+01
-5.427222251892089844e+00 1.104180812835692915e+00 -6.800309419631958008e-01 1.200000000000000000e+01
-7.692149639129638672e+00 1.566383719444274902e+00 -6.867872476577758789e-01 1.000000000000000000e+00
-1.374760723114014027e+01 2.804479360580443892e+00 -7.353202104568481445e-01 4.000000000000000000e+00
-3.368652343750000000e+01 6.884220123291015625e+00 -6.001533269882202148e-01 1.300000000000000000e+01
-2.450386524200439009e+00 5.043293237686157227e-01 -6.703413128852844238e-01 1.400000000000000000e+01
-4.482973098754882812e+01 9.234842300415039062e+00 7.989362478256225586e-01 5.100000000000000000e+01
-2.818994760513306108e+00 5.812206864356994629e-01 -6.645054221153259277e-01 1.200000000000000000e+01
-4.484000778198242188e+01 9.245118141174316406e+00 2.399394273757935014e+00 3.600000000000000000e+01
-3.364796638488769975e+00 6.943663954734802246e-01 -6.678314805030822754e-01 1.200000000000000000e+01
-4.488550567626953125e+01 9.270833969116210938e+00 4.009861469268798828e+00 5.400000000000000000e+01
-4.126232147216796875e+00 8.529996275901794434e-01 -6.673493981361389160e-01 1.000000000000000000e+01
-5.413615703582763672e+00 1.121105909347533958e+00 -6.788122653961181641e-01 1.200000000000000000e+01
-7.682733058929443359e+00 1.592416048049926980e+00 -6.864386200904846191e-01 1.000000000000000000e+00
-3.364662551879882812e+01 6.998507976531982422e+00 -5.998741388320922852e-01 1.300000000000000000e+01
-2.450591564178466797e+00 5.128480792045593262e-01 -6.708589792251586914e-01 1.500000000000000000e+01
-4.482234573364257812e+01 9.388371467590332031e+00 7.993551492691040039e-01 5.100000000000000000e+01
-2.815144538879394975e+00 5.901657342910766602e-01 -6.640555262565612793e-01 1.200000000000000000e+01
-6.127996444702147727e+01 1.284670639038085938e+01 3.281359672546387163e+00 5.500000000000000000e+01
-3.350947141647338867e+00 7.031017541885375977e-01 -6.655417680740356445e-01 1.200000000000000000e+01
-4.121447563171386719e+00 8.662716746330261230e-01 -6.670365333557128906e-01 1.000000000000000000e+01
-5.392385959625244141e+00 1.135370969772339089e+00 -6.766185760498046875e-01 1.200000000000000000e+01
-7.689107894897460938e+00 1.620349168777466042e+00 -6.874845027923583984e-01 1.000000000000000000e+00
-1.372819900512694957e+01 2.897990465164185014e+00 -7.353202104568481445e-01 4.000000000000000000e+00
-3.363105773925781250e+01 7.111701011657714844e+00 -6.000137329101562500e-01 1.300000000000000000e+01
-2.452565431594849077e+00 5.222037434577941895e-01 -6.718942523002624512e-01 1.600000000000000000e+01
-2.832126140594481978e+00 6.040537953376770020e-01 -6.685545444488525391e-01 1.300000000000000000e+01
-3.346552371978760210e+00 7.143846154212951660e-01 -6.651601791381835938e-01 1.200000000000000000e+01
-4.129989147186279297e+00 8.831313252449035645e-01 -6.689137816429138184e-01 1.000000000000000000e+01
-5.384507656097412109e+00 1.153355479240417036e+00 -6.761311292648315430e-01 1.200000000000000000e+01
-7.656131267547607422e+00 1.641332268714905007e+00 -6.850441098213195801e-01 1.000000000000000000e+00
-3.357865905761718750e+01 7.223164081573486328e+00 -5.995250940322875977e-01 1.300000000000000000e+01
-2.431846857070922852e+00 5.266725420951843262e-01 -6.667178869247436523e-01 1.600000000000000000e+01
-2.831904649734497070e+00 6.143492460250854492e-01 -6.690044403076171875e-01 1.400000000000000000e+01
-3.347875356674193892e+00 7.268949747085571289e-01 -6.659234166145324707e-01 1.200000000000000000e+01
-4.126881122589111328e+00 8.975422978401184082e-01 -6.689137816429138184e-01 1.000000000000000000e+01
-5.382388591766357422e+00 1.172566413879394975e+00 -6.763748526573181152e-01 1.200000000000000000e+01
-7.638675212860107422e+00 1.665500521659851074e+00 -6.839982867240905762e-01 1.000000000000000000e+00
-3.364701080322266336e+01 7.360845088958740234e+00 -6.012005209922790527e-01 1.300000000000000000e+01
-2.429993629455565962e+00 5.351580381393432617e-01 -6.667178869247436523e-01 1.600000000000000000e+01
-2.829742908477783203e+00 6.242306828498840332e-01 -6.690044403076171875e-01 1.400000000000000000e+01
-3.335732221603393999e+00 7.364605665206909180e-01 -6.640152931213378906e-01 1.300000000000000000e+01
-4.096720218658447266e+00 9.059708118438720703e-01 -6.645336151123046875e-01 1.100000000000000000e+01
-5.380200862884520596e+00 1.191776633262634055e+00 -6.766185760498046875e-01 1.200000000000000000e+01
-7.632814884185791016e+00 1.692154288291930930e+00 -6.839982867240905762e-01 1.000000000000000000e+00
-3.362110900878906250e+01 7.478250026702880859e+00 -6.012005209922790527e-01 1.300000000000000000e+01
-2.439421892166138139e+00 5.461695194244384766e-01 -6.698237061500549316e-01 1.600000000000000000e+01
-2.819940805435181108e+00 6.323987841606140137e-01 -6.672048568725585938e-01 1.400000000000000000e+01
-3.340803623199462891e+00 7.498197555541992188e-01 -6.655417680740356445e-01 1.300000000000000000e+01
-4.108951091766357422e+00 9.237316250801086426e-01 -6.670365333557128906e-01 1.000000000000000000e+01
-5.352768421173095703e+00 1.205316901206969993e+00 -6.736937165260314941e-01 1.200000000000000000e+01
-7.611312389373779297e+00 1.715283393859863059e+00 -6.826037764549255371e-01 1.000000000000000000e+00
-3.371572875976563211e+01 7.622905254364013672e+00 -6.033645868301391602e-01 1.300000000000000000e+01
-2.433733224868773970e+00 5.538240671157836914e-01 -6.687884330749511719e-01 1.700000000000000000e+01
-2.808215856552124023e+00 6.400730609893798828e-01 -6.649553179740905762e-01 1.300000000000000000e+01
-3.336251735687255859e+00 7.610401511192321777e-01 -6.651601791381835938e-01 1.300000000000000000e+01
-4.103775978088378906e+00 9.376289248466491699e-01 -6.667236685752868652e-01 9.000000000000000000e+00
-5.340788364410400391e+00 1.222222805023192915e+00 -6.727187633514404297e-01 1.200000000000000000e+01
-7.622757911682128906e+00 1.745844602584839089e+00 -6.841725707054138184e-01 1.000000000000000000e+00
-3.354079818725585938e+01 7.706516265869140625e+00 -6.007118225097656250e-01 1.300000000000000000e+01
-2.424158573150635210e+00 5.609982013702392578e-01 -6.667178869247436523e-01 1.900000000000000000e+01
-2.807749509811400923e+00 6.508014202117919922e-01 -6.654052138328552246e-01 1.400000000000000000e+01
-3.318140268325806108e+00 7.697138786315917969e-01 -6.621072292327880859e-01 1.300000000000000000e+01
-4.090691089630126953e+00 9.504284858703613281e-01 -6.651593446731567383e-01 1.000000000000000000e+01
-5.336272716522216797e+00 1.241789579391479048e+00 -6.727187633514404297e-01 1.200000000000000000e+01
-7.577498435974121094e+00 1.764733314514159934e+00 -6.806863546371459961e-01 1.000000000000000000e+00
-3.352206420898438211e+01 7.831672668457031250e+00 -6.008863449096679688e-01 2.000000000000000000e+01
-2.412782669067382812e+00 5.672460198402404785e-01 -6.641296744346618652e-01 2.100000000000000000e+01
-2.818738698959351030e+00 6.637248992919921875e-01 -6.685545444488525391e-01 1.300000000000000000e+01
-3.321166038513184038e+00 7.826426029205322266e-01 -6.632520556449890137e-01 1.200000000000000000e+01
-4.091193675994873047e+00 9.656093716621398926e-01 -6.657850742340087891e-01 1.000000000000000000e+01
-5.335769176483154297e+00 1.261322379112244096e+00 -6.732062697410583496e-01 1.200000000000000000e+01
-7.551903247833251953e+00 1.786586046218872070e+00 -6.789432168006896973e-01 1.000000000000000000e+00
-3.360931396484375000e+01 7.975880622863770419e+00 -6.029457449913024902e-01 1.300000000000000000e+01
-2.412767410278319868e+00 5.756923556327819824e-01 -6.646472811698913574e-01 2.000000000000000000e+01
-2.808940887451171875e+00 6.712567210197448730e-01 -6.667549014091491699e-01 1.200000000000000000e+01
-3.324280500411986861e+00 7.950215935707092285e-01 -6.643969416618347168e-01 1.300000000000000000e+01
-4.076442718505859375e+00 9.764101505279541016e-01 -6.639078855514526367e-01 1.000000000000000000e+01
-5.333487510681152344e+00 1.279472589492798074e+00 -6.734499931335449219e-01 1.200000000000000000e+01
-7.526564121246337891e+00 1.806968092918395996e+00 -6.772001385688781738e-01 1.000000000000000000e+00
-3.360601043701171875e+01 8.092906951904296875e+00 -6.033645868301391602e-01 1.300000000000000000e+01
-2.414498090744018999e+00 5.850207805633544922e-01 -6.656825542449951172e-01 1.900000000000000000e+01
-2.793323993682860884e+00 6.778408288955688477e-01 -6.636056303977966309e-01 1.300000000000000000e+01
-3.325300693511962891e+00 8.075472712516784668e-01 -6.651601791381835938e-01 1.300000000000000000e+01
-4.065331935882568359e+00 9.887663125991821289e-01 -6.626563668251037598e-01 1.000000000000000000e+01
-5.307773113250732422e+00 1.292914271354675071e+00 -6.707688570022583008e-01 1.200000000000000000e+01
-7.551181793212890625e+00 1.840779781341552956e+00 -6.799890995025634766e-01 0.000000000000000000e+00
-1.314532947540283025e+01 3.209347724914550781e+00 -7.091522216796875000e-01 4.000000000000000000e+00
-3.358921051025391336e+01 8.213014602661132812e+00 -6.035740375518798828e-01 1.300000000000000000e+01
-2.410565376281737837e+00 5.929839611053466797e-01 -6.651649475097656250e-01 1.900000000000000000e+01
-2.792833089828491211e+00 6.880533695220947266e-01 -6.640555262565612793e-01 1.300000000000000000e+01
-3.312930822372436968e+00 8.167999982833862305e-01 -6.632520556449890137e-01 1.200000000000000000e+01
-4.075280189514160156e+00 1.006265640258789062e+00 -6.648464798927307129e-01 1.000000000000000000e+01
-5.291665554046630859e+00 1.308574795722960982e+00 -6.693064570426940918e-01 1.300000000000000000e+01
-7.536974430084229404e+00 1.865212559700011985e+00 -6.792918443679809570e-01 2.000000000000000000e+00
-1.318057346343993963e+01 3.266745328903197798e+00 -7.116643190383911133e-01 4.000000000000000000e+00
-3.359527206420897727e+01 8.338884353637695312e+00 -6.042023301124572754e-01 1.300000000000000000e+01
-2.410355091094971147e+00 6.018627882003784180e-01 -6.656825542449951172e-01 1.900000000000000000e+01
-2.792304992675780806e+00 6.982707381248474121e-01 -6.645054221153259277e-01 1.200000000000000000e+01
-3.300536870956420898e+00 8.259762525558471680e-01 -6.613439917564392090e-01 1.300000000000000000e+01
-4.088987827301025391e+00 1.024806976318358931e+00 -6.676623225212097168e-01 1.000000000000000000e+01
-5.290916442871093750e+00 1.328004717826843040e+00 -6.697939038276672363e-01 1.100000000000000000e+01
-7.536214828491210938e+00 1.892966270446776900e+00 -6.798148155212402344e-01 2.000000000000000000e+00
-1.321944999694824041e+01 3.325402259826660156e+00 -7.143858075141906738e-01 4.000000000000000000e+00
-3.367454910278320312e+01 8.483459472656250000e+00 -6.061570048332214355e-01 1.300000000000000000e+01
-2.400855064392089844e+00 6.079556345939636230e-01 -6.636120080947875977e-01 1.900000000000000000e+01
-2.789973974227904829e+00 7.075265049934387207e-01 -6.645054221153259277e-01 1.300000000000000000e+01
-3.297779560089110884e+00 8.369166851043701172e-01 -6.613439917564392090e-01 1.300000000000000000e+01
-4.060678482055664062e+00 1.032035350799560991e+00 -6.635950207710266113e-01 1.000000000000000000e+01
-5.278788566589354581e+00 1.343584060668945090e+00 -6.688189506530761719e-01 1.100000000000000000e+01
-7.485488891601563388e+00 1.906635880470276101e+00 -6.758056282997131348e-01 1.000000000000000000e+00
-1.311158561706542969e+01 3.344538450241088867e+00 -7.091522216796875000e-01 4.000000000000000000e+00
-3.370048141479492188e+01 8.608940124511718750e+00 -6.071343421936035156e-01 1.300000000000000000e+01
-2.400589466094971147e+00 6.168131828308105469e-01 -6.641296744346618652e-01 1.900000000000000000e+01
-2.796923637390137163e+00 7.196891307830810547e-01 -6.667549014091491699e-01 1.400000000000000000e+01
-3.298640727996826172e+00 8.494021296501159668e-01 -6.621072292327880859e-01 1.300000000000000000e+01
