3.774033308029174805e+00 -1.594214081764220969e+00 -6.488901376724243164e-01 1.000000000000000000e+01
4.949392795562744141e+00 -2.092741727828979048e+00 -6.598006486892700195e-01 9.000000000000000000e+00
6.682901859283447266e+00 -2.827092647552489790e+00 -6.348424553871154785e-01 2.000000000000000000e+00
1.022208976745604936e+01 -4.328495979309082031e+00 -5.817664861679077148e-01 9.000000000000000000e+00
3.371492385864257812e+01 -1.429030609130859020e+01 -6.391769051551818848e-01 1.500000000000000000e+01
2.275352954864501953e+00 -9.681742191314697266e-01 -6.625767350196838379e-01 1.800000000000000000e+01
2.628381252288817915e+00 -1.119473457336426003e+00 -6.595565080642700195e-01 1.400000000000000000e+01
3.101094961166381836e+00 -1.321449875831604004e+00 -6.552380919456481934e-01 1.100000000000000000e+01
3.782981395721435991e+00 -1.613578319549560991e+00 -6.513931155204772949e-01 9.000000000000000000e+00
4.925626754760742188e+00 -2.102990388870238814e+00 -6.576069593429565430e-01 8.000000000000000000e+00
6.672992706298828125e+00 -2.850403070449829102e+00 -6.348424553871154785e-01 3.000000000000000000e+00
1.007653141021729049e+01 -4.308402061462402344e+00 -5.743348002433776855e-01 6.000000000000000000e+00
4.425298690795897727e+01 -1.893029594421387074e+01 1.111213207244873047e+01 1.400000000000000000e+01
3.371630859375000000e+01 -1.442993640899658025e+01 -6.401542425155639648e-01 2.300000000000000000e+01
2.282609224319458008e+00 -9.806863069534301758e-01 -6.656825542449951172e-01 1.900000000000000000e+01
2.617296695709228960e+00 -1.125561833381653054e+00 -6.577568650245666504e-01 1.400000000000000000e+01
3.098266601562500000e+00 -1.333042502403259055e+00 -6.556196808815002441e-01 1.100000000000000000e+01
3.768254518508911133e+00 -1.622866749763488992e+00 -6.498287916183471680e-01 1.000000000000000000e+01
4.883620262145996094e+00 -2.105240345001221147e+00 -6.529759168624877930e-01 9.000000000000000000e+00
6.673979282379150391e+00 -2.878413200378417969e+00 -6.358882784843444824e-01 3.000000000000000000e+00
9.401304244995117188e+00 -4.058570861816406250e+00 -5.366529226303100586e-01 2.000000000000000000e+00
4.468756103515625000e+01 -1.930100440979003906e+01 1.123810482025145951e+01 1.400000000000000000e+01
3.372264099121093750e+01 -1.457213020324707031e+01 -6.412363052368164062e-01 2.300000000000000000e+01
2.277399778366088867e+00 -9.878793954849243164e-01 -6.651649475097656250e-01 1.900000000000000000e+01
2.622289419174193892e+00 -1.138571619987488015e+00 -6.600064039230346680e-01 1.300000000000000000e+01
3.086391925811768022e+00 -1.340720534324645996e+00 -6.540932655334472656e-01 1.000000000000000000e+01
3.777059078216553178e+00 -1.642312049865723100e+00 -6.523317098617553711e-01 1.000000000000000000e+01
4.828917503356933594e+00 -2.101677656173706055e+00 -6.466387510299682617e-01 6.000000000000000000e+00
6.689465045928955078e+00 -2.912827968597412109e+00 -6.383286714553833008e-01 2.000000000000000000e+00
9.387080192565917969e+00 -4.091362953186035156e+00 -5.366529226303100586e-01 2.000000000000000000e+00
3.373938369750977273e+01 -1.471934127807617010e+01 -6.425278186798095703e-01 1.500000000000000000e+01
2.261550426483153853e+00 -9.903982281684875488e-01 -6.615414619445800781e-01 1.800000000000000000e+01
2.629007816314696822e+00 -1.152412414550781028e+00 -6.627057790756225586e-01 1.500000000000000000e+01
3.085289001464844194e+00 -1.353062868118285911e+00 -6.548564434051513672e-01 9.000000000000000000e+00
3.767685651779174805e+00 -1.653898358345031960e+00 -6.517059803009033203e-01 1.000000000000000000e+01
4.796108245849609375e+00 -2.107341527938843218e+00 -6.432263851165771484e-01 9.000000000000000000e+00
6.661017417907714844e+00 -2.928143024444580078e+00 -6.365855336189270020e-01 2.000000000000000000e+00
3.377198028564453125e+01 -1.487410068511963068e+01 -6.441333889961242676e-01 1.600000000000000000e+01
2.268680810928345171e+00 -1.002973318099976030e+00 -6.646472811698913574e-01 1.900000000000000000e+01
2.619623184204102007e+00 -1.159216523170470969e+00 -6.613560914993286133e-01 1.300000000000000000e+01
3.084137439727783203e+00 -1.365413784980773926e+00 -6.556196808815002441e-01 1.000000000000000000e+01
3.758277654647827148e+00 -1.665439367294311968e+00 -6.510802507400512695e-01 1.000000000000000000e+01
4.879453182220458984e+00 -2.164314031600952148e+00 -6.554133296012878418e-01 9.000000000000000000e+00
4.254267883300781250e+01 -1.887009048461914062e+01 7.371191978454589844e+00 1.500000000000000000e+01
6.683536052703857422e+00 -2.965923070907593218e+00 -6.397231221199035645e-01 3.000000000000000000e+00
9.358288764953613281e+00 -4.156796932220458984e+00 -5.366529226303100586e-01 2.000000000000000000e+00
3.381852722167968750e+01 -1.503576564788818004e+01 -6.460182666778564453e-01 8.000000000000000000e+00
2.266930103302001953e+00 -1.011673688888550027e+00 -6.651649475097656250e-01 1.900000000000000000e+01
2.606664180755614790e+00 -1.164379715919495073e+00 -6.591066122055053711e-01 1.500000000000000000e+01
3.090106964111328125e+00 -1.380977392196655051e+00 -6.579093933105468750e-01 1.000000000000000000e+01
3.752441167831420898e+00 -1.678548097610474077e+00 -6.510802507400512695e-01 1.000000000000000000e+01
4.610972404479979581e+00 -2.064519643783568892e+00 -6.203149557113647461e-01 1.200000000000000000e+01
4.247323226928710938e+01 -1.902589035034180043e+01 7.371191978454589844e+00 1.500000000000000000e+01
6.676778793334960938e+00 -2.990864038467406782e+00 -6.400717496871948242e-01 4.000000000000000000e+00
9.489518165588378906e+00 -4.254808425903320312e+00 -5.450266599655151367e-01 2.000000000000000000e+00
3.388624572753906250e+01 -1.520776081085205078e+01 -6.483219861984252930e-01 8.000000000000000000e+00
2.273953199386597124e+00 -1.024341225624084029e+00 -6.682707667350769043e-01 1.900000000000000000e+01
2.611466407775878906e+00 -1.177476525306702104e+00 -6.613560914993286133e-01 1.400000000000000000e+01
3.072740316390991211e+00 -1.386104464530945046e+00 -6.552380919456481934e-01 1.000000000000000000e+01
3.759161710739136186e+00 -1.697326540946960005e+00 -6.532703042030334473e-01 9.000000000000000000e+00
4.636298656463623047e+00 -2.095317840576171875e+00 -6.247022747993469238e-01 9.000000000000000000e+00
6.688083648681640625e+00 -3.024002313613892046e+00 -6.421635150909423828e-01 2.000000000000000000e+00
9.278092384338378906e+00 -4.198970317840576172e+00 -5.337221026420593262e-01 5.000000000000000000e+00
3.376009368896483664e+01 -1.529294776916504084e+01 -6.469258069992065430e-01 1.600000000000000000e+01
2.265087842941284180e+00 -1.029873847961426003e+00 -6.667178869247436523e-01 1.900000000000000000e+01
2.603792905807495117e+00 -1.184970736503601074e+00 -6.604562997817993164e-01 1.400000000000000000e+01
3.064309835433959961e+00 -1.395194768905640093e+00 -6.544748544692993164e-01 1.100000000000000000e+01
3.760404109954833984e+00 -1.713714838027954102e+00 -6.545218229293823242e-01 9.000000000000000000e+00
4.813175678253173828e+00 -2.195519924163817915e+00 -6.495636105537414551e-01 8.000000000000000000e+00
6.672049045562744141e+00 -3.044847965240478960e+00 -6.416406035423278809e-01 3.000000000000000000e+00
9.574034690856933594e+00 -4.373233318328857422e+00 -5.516209602355957031e-01 8.000000000000000000e+00
3.361920928955078125e+01 -1.537078857421875000e+01 -6.452503800392150879e-01 8.000000000000000000e+00
2.256392478942871094e+00 -1.034963130950927956e+00 -6.651649475097656250e-01 1.900000000000000000e+01
2.610475301742554155e+00 -1.198477149009705034e+00 -6.631557345390319824e-01 1.300000000000000000e+01
3.054314136505126953e+00 -1.402890443801880105e+00 -6.533300280570983887e-01 9.000000000000000000e+00
3.754700422286986861e+00 -1.726175427436829057e+00 -6.545218229293823242e-01 9.000000000000000000e+00
4.259080886840820312e+01 -1.958958244323730113e+01 5.756132602691650391e+00 4.300000000000000000e+01
4.603895664215087891e+00 -2.118529081344604048e+00 -6.222648620605468750e-01 9.000000000000000000e+00
6.658296108245849609e+00 -3.065290212631226030e+00 -6.412919759750366211e-01 3.000000000000000000e+00
9.457899093627929688e+00 -4.358150005340576172e+00 -5.457593798637390137e-01 1.000000000000000000e+01
3.342641830444335938e+01 -1.541686344146729049e+01 -6.425278186798095703e-01 7.000000000000000000e+00
2.247506618499755859e+00 -1.040398478507996050e+00 -6.636120080947875977e-01 1.800000000000000000e+01
2.595666885375977007e+00 -1.202666640281677024e+00 -6.604562997817993164e-01 1.200000000000000000e+01
3.074335098266602007e+00 -1.425102710723876953e+00 -6.586726307868957520e-01 1.100000000000000000e+01
3.736108779907227007e+00 -1.733451485633850098e+00 -6.523317098617553711e-01 9.000000000000000000e+00
4.256898498535156250e+01 -1.975986480712890980e+01 5.762470245361328125e+00 4.400000000000000000e+01
4.913346767425537109e+00 -2.281742095947266069e+00 -6.651628613471984863e-01 9.000000000000000000e+00
6.683693408966063565e+00 -3.105303287506103960e+00 -6.447781920433044434e-01 4.000000000000000000e+00
9.484282493591308594e+00 -4.410507678985595703e+00 -5.481668114662170410e-01 5.000000000000000000e+00
3.333613967895507812e+01 -1.551657295227050959e+01 -6.418296694755554199e-01 7.000000000000000000e+00
2.254546642303466797e+00 -1.052749872207642046e+00 -6.667178869247436523e-01 1.700000000000000000e+01
2.591664314270019975e+00 -1.211267471313477007e+00 -6.604562997817993164e-01 1.400000000000000000e+01
3.066035509109497070e+00 -1.433626651763916016e+00 -6.579093933105468750e-01 9.000000000000000000e+00
3.732129096984862837e+00 -1.746668696403502974e+00 -6.526445746421813965e-01 9.000000000000000000e+00
4.257154083251953125e+01 -1.993290710449219105e+01 5.771732330322265625e+00 4.400000000000000000e+01
4.905753135681152344e+00 -2.298022747039794922e+00 -6.651628613471984863e-01 9.000000000000000000e+00
6.671555042266845703e+00 -3.126604795455933061e+00 -6.446038484573364258e-01 3.000000000000000000e+00
2.252605676651000977e+00 -1.061436772346497026e+00 -6.672354936599731445e-01 1.900000000000000000e+01
2.589183092117310014e+00 -1.221138000488281028e+00 -6.609061956405639648e-01 1.300000000000000000e+01
3.055685997009276900e+00 -1.441807031631469949e+00 -6.567645668983459473e-01 1.000000000000000000e+01
3.736726522445679155e+00 -1.764747023582458052e+00 -6.545218229293823242e-01 9.000000000000000000e+00
4.845655918121337891e+00 -2.290530920028686968e+00 -6.580944657325744629e-01 9.000000000000000000e+00
6.671407222747802734e+00 -3.154984474182128906e+00 -6.456497311592102051e-01 3.000000000000000000e+00
1.010392761230468928e+01 -4.782578945159912109e+00 -5.858486890792846680e-01 3.000000000000000000e+00
2.243280410766602007e+00 -1.067587852478026900e+00 -6.656825542449951172e-01 1.800000000000000000e+01
2.593271970748900923e+00 -1.235260844230652078e+00 -6.631557345390319824e-01 1.300000000000000000e+01
3.055444240570067915e+00 -1.456063151359558105e+00 -6.579093933105468750e-01 9.000000000000000000e+00
3.740620613098144975e+00 -1.784184455871582031e+00 -6.563990116119384766e-01 9.000000000000000000e+00
4.802788257598876953e+00 -2.292870759963988814e+00 -6.534634232521057129e-01 9.000000000000000000e+00
6.691605091094970703e+00 -3.196033716201781782e+00 -6.487873196601867676e-01 3.000000000000000000e+00
1.006747055053710938e+01 -4.812725543975830078e+00 -5.848019719123840332e-01 6.000000000000000000e+00
3.284797286987304688e+01 -1.571696949005126953e+01 -6.356166601181030273e-01 7.000000000000000000e+00
2.236057281494141069e+00 -1.073739409446716087e+00 -6.646472811698913574e-01 1.800000000000000000e+01
2.592457056045531782e+00 -1.245993971824645996e+00 -6.640555262565612793e-01 1.300000000000000000e+01
3.046804189682006836e+00 -1.465018272399901900e+00 -6.571461558341979980e-01 1.000000000000000000e+01
3.729029893875122070e+00 -1.794660925865172896e+00 -6.554604172706604004e-01 9.000000000000000000e+00
4.864503860473632812e+00 -2.343219280242919922e+00 -6.629692316055297852e-01 8.000000000000000000e+00
6.651690483093261719e+00 -3.205533027648925781e+00 -6.459983587265014648e-01 3.000000000000000000e+00
2.235772609710692915e+00 -1.083222746849060059e+00 -6.656825542449951172e-01 1.700000000000000000e+01
2.591598749160767046e+00 -1.256736278533935991e+00 -6.649553179740905762e-01 1.400000000000000000e+01
3.050503730773925781e+00 -1.479929327964782937e+00 -6.590542793273925781e-01 1.000000000000000000e+01
3.719188690185546875e+00 -1.805940985679626021e+00 -6.548346877098083496e-01 9.000000000000000000e+00
4.893787860870361328e+00 -2.378407239913939986e+00 -6.680877208709716797e-01 9.000000000000000000e+00
6.651211738586425781e+00 -3.233959674835205078e+00 -6.470442414283752441e-01 3.000000000000000000e+00
9.507431030273437500e+00 -4.626817703247070312e+00 -5.541331171989440918e-01 8.000000000000000000e+00
2.240655899047852007e+00 -1.095262408256530984e+00 -6.682707667350769043e-01 1.600000000000000000e+01
2.580194234848022017e+00 -1.262349367141724077e+00 -6.631557345390319824e-01 1.300000000000000000e+01
3.054136037826538086e+00 -1.494884014129638894e+00 -6.609623432159423828e-01 9.000000000000000000e+00
3.721731901168822798e+00 -1.823257565498352051e+00 -6.563990116119384766e-01 9.000000000000000000e+00
4.885456085205078125e+00 -2.395475149154663086e+00 -6.680877208709716797e-01 1.100000000000000000e+01
6.663136482238770419e+00 -3.268563985824584961e+00 -6.493102908134460449e-01 3.000000000000000000e+00
9.353174209594726562e+00 -4.592198371887207031e+00 -5.460733771324157715e-01 1.300000000000000000e+01
2.242402553558350053e+00 -1.104857683181762917e+00 -6.698237061500549316e-01 1.700000000000000000e+01
2.579711437225341797e+00 -1.272172808647155984e+00 -6.640555262565612793e-01 1.400000000000000000e+01
3.049424648284912109e+00 -1.504471540451050027e+00 -6.609623432159423828e-01 9.000000000000000000e+00
3.715985536575316939e+00 -1.834940791130065918e+00 -6.563990116119384766e-01 9.000000000000000000e+00
4.877906322479248047e+00 -2.410811424255371094e+00 -6.680877208709716797e-01 9.000000000000000000e+00
6.661765098571777344e+00 -3.293896198272705078e+00 -6.501818299293518066e-01 3.000000000000000000e+00
9.333331108093261719e+00 -4.618901729583740234e+00 -5.457593798637390137e-01 1.800000000000000000e+01
2.231612682342528853e+00 -1.109238862991333008e+00 -6.677531599998474121e-01 1.700000000000000000e+01
2.576999664306641069e+00 -1.282037973403931108e+00 -6.645054221153259277e-01 1.300000000000000000e+01
3.044154405593872070e+00 -1.515106797218322976e+00 -6.609623432159423828e-01 9.000000000000000000e+00
3.713093996047974077e+00 -1.849662423133850098e+00 -6.570247411727905273e-01 9.000000000000000000e+00
4.890779495239257812e+00 -2.438452720642089844e+00 -6.710125803947448730e-01 1.000000000000000000e+01
6.650226593017578125e+00 -3.317129850387572798e+00 -6.501818299293518066e-01 3.000000000000000000e+00
9.349316596984863281e+00 -4.667510986328125000e+00 -5.476434230804443359e-01 1.500000000000000000e+01
2.224273204803466797e+00 -1.115290045738219993e+00 -6.667178869247436523e-01 1.700000000000000000e+01
2.581217288970946822e+00 -1.295395970344543013e+00 -6.667549014091491699e-01 1.300000000000000000e+01
3.033583641052246094e+00 -1.523080945014954057e+00 -6.598175168037414551e-01 9.000000000000000000e+00
3.713675022125244141e+00 -1.866160035133362038e+00 -6.582762002944946289e-01 1.000000000000000000e+01
4.882237911224365234e+00 -2.455509901046752930e+00 -6.710125803947448730e-01 1.000000000000000000e+01
6.638607025146484375e+00 -3.340323448181151900e+00 -6.501818299293518066e-01 3.000000000000000000e+00
9.404319763183593750e+00 -4.736051559448242188e+00 -5.518303513526916504e-01 1.100000000000000000e+01
2.222090482711791992e+00 -1.123919367790221946e+00 -6.672354936599731445e-01 1.600000000000000000e+01
2.574941158294678178e+00 -1.303518056869507058e+00 -6.663050055503845215e-01 1.200000000000000000e+01
3.038757324218750000e+00 -1.538982987403870073e+00 -6.621072292327880859e-01 1.000000000000000000e+01
3.696566820144652876e+00 -1.873753190040587935e+00 -6.563990116119384766e-01 9.000000000000000000e+00
4.882488727569580078e+00 -2.477027893066405806e+00 -6.722313165664672852e-01 8.000000000000000000e+00
6.655333042144775391e+00 -3.377903938293457031e+00 -6.529708504676818848e-01 2.000000000000000000e+00
9.403757095336914062e+00 -4.776990890502929688e+00 -5.527723431587219238e-01 1.300000000000000000e+01
2.221595287322998047e+00 -1.133424997329711914e+00 -6.682707667350769043e-01 1.600000000000000000e+01
2.559962034225463867e+00 -1.307181000709533913e+00 -6.636056303977966309e-01 1.300000000000000000e+01
3.031618356704711914e+00 -1.548687696456908958e+00 -6.617255806922912598e-01 1.000000000000000000e+01
3.693521261215209961e+00 -1.888443708419800027e+00 -6.570247411727905273e-01 9.000000000000000000e+00
4.868510723114013672e+00 -2.491342782974243164e+00 -6.715000867843627930e-01 1.000000000000000000e+01
6.639954566955566406e+00 -3.399298906326293945e+00 -6.526222229003906250e-01 3.000000000000000000e+00
9.419019699096679688e+00 -4.826180934906005859e+00 -5.546564459800720215e-01 5.000000000000000000e+00
2.224496364593505859e+00 -1.144708633422852007e+00 -6.703413128852844238e-01 1.500000000000000000e+01
2.560580968856811968e+00 -1.318785786628722922e+00 -6.649553179740905762e-01 1.300000000000000000e+01
3.033174753189086914e+00 -1.562857508659363015e+00 -6.632520556449890137e-01 1.000000000000000000e+01
3.688662528991699219e+00 -1.902230381965636985e+00 -6.573376059532165527e-01 8.000000000000000000e+00
4.845673084259033203e+00 -2.501038312911986861e+00 -6.695501804351806641e-01 9.000000000000000000e+00
6.663454532623291016e+00 -3.440738201141356978e+00 -6.561084389686584473e-01 3.000000000000000000e+00
9.544061660766601562e+00 -4.932387828826904297e+00 -5.630302429199218750e-01 1.400000000000000000e+01
2.215343236923218218e+00 -1.149796843528748003e+00 -6.687884330749511719e-01 1.600000000000000000e+01
2.564608573913574219e+00 -1.332207441329956055e+00 -6.672048568725585938e-01 1.300000000000000000e+01
3.020732641220093218e+00 -1.569814443588257058e+00 -6.617255806922912598e-01 9.000000000000000000e+00
3.697772502899169922e+00 -1.923298239707946999e+00 -6.601534485816955566e-01 9.000000000000000000e+00
4.782328605651854581e+00 -2.489522695541381836e+00 -6.619942784309387207e-01 8.000000000000000000e+00
6.635499477386474609e+00 -3.455694437026977983e+00 -6.545396447181701660e-01 3.000000000000000000e+00
9.578147888183593750e+00 -4.992444515228270596e+00 -5.660657286643981934e-01 8.000000000000000000e+00
2.201046943664550781e+00 -1.152147293090820090e+00 -6.656825542449951172e-01 1.500000000000000000e+01
2.559942722320557085e+00 -1.341151475906372070e+00 -6.672048568725585938e-01 1.200000000000000000e+01
3.020451307296752930e+00 -1.583083391189574973e+00 -6.628704667091369629e-01 1.000000000000000000e+01
3.684039115905762163e+00 -1.932523608207703081e+00 -6.589019894599914551e-01 9.000000000000000000e+00
4.808761119842529297e+00 -2.524656057357788086e+00 -6.668690443038940430e-01 8.000000000000000000e+00
6.621632575988770419e+00 -3.477909088134766069e+00 -6.543653011322021484e-01 2.000000000000000000e+00
9.470501899719238281e+00 -4.978451728820800781e+00 -5.607274174690246582e-01 5.000000000000000000e+00
2.201934099197388139e+00 -1.162913322448730025e+00 -6.672354936599731445e-01 1.500000000000000000e+01
2.555009841918944868e+00 -1.350525140762329102e+00 -6.672048568725585938e-01 1.300000000000000000e+01
3.011157512664794922e+00 -1.592307806015015093e+00 -6.621072292327880859e-01 1.000000000000000000e+01
3.669947624206542969e+00 -1.942317247390747070e+00 -6.576504707336425781e-01 9.000000000000000000e+00
4.802983760833740234e+00 -2.544122457504272017e+00 -6.673565506935119629e-01 8.000000000000000000e+00
6.637008666992188388e+00 -3.517081975936890093e+00 -6.571543216705322266e-01 2.000000000000000000e+00
9.376318931579589844e+00 -4.972889423370361328e+00 -5.562265515327453613e-01 1.600000000000000000e+01
2.211502075195312944e+00 -1.177857637405395952e+00 -6.713765859603881836e-01 1.500000000000000000e+01
2.543401479721068892e+00 -1.355768799781799094e+00 -6.654052138328552246e-01 1.300000000000000000e+01
3.019439697265625000e+00 -1.610199451446532981e+00 -6.651601791381835938e-01 1.000000000000000000e+01
3.675344228744506836e+00 -1.961626768112183061e+00 -6.598405838012695312e-01 1.000000000000000000e+01
4.864111423492431641e+00 -2.598284721374512163e+00 -6.771060824394226074e-01 8.000000000000000000e+00
6.636991500854492188e+00 -3.546801328659058061e+00 -6.583744883537292480e-01 3.000000000000000000e+00
9.328963279724121094e+00 -4.989575386047363281e+00 -5.544471144676208496e-01 1.300000000000000000e+01
6.512513732910156250e+01 -3.486127471923828125e+01 -1.289383769035338911e+00 3.800000000000000000e+01
2.202271223068236861e+00 -1.182827711105346902e+00 -6.698237061500549316e-01 1.600000000000000000e+01
2.547235727310181108e+00 -1.369252085685729980e+00 -6.676547527313232422e-01 1.300000000000000000e+01
3.010342359542847124e+00 -1.618869781494141069e+00 -6.643969416618347168e-01 1.000000000000000000e+01
3.670213937759398970e+00 -1.975380301475524902e+00 -6.601534485816955566e-01 9.000000000000000000e+00
4.823554039001464844e+00 -2.598302364349364790e+00 -6.727187633514404297e-01 8.000000000000000000e+00
6.649125576019287109e+00 -3.583179712295531782e+00 -6.608148217201232910e-01 3.000000000000000000e+00
9.239417076110839844e+00 -4.983236789703369141e+00 -5.501555800437927246e-01 1.000000000000000000e+01
2.196430206298828125e+00 -1.189587831497191939e+00 -6.693060398101806641e-01 1.600000000000000000e+01
2.542440652847290039e+00 -1.378135323524475098e+00 -6.676547527313232422e-01 1.200000000000000000e+01
3.002947330474853960e+00 -1.628432035446166992e+00 -6.640152931213378906e-01 1.000000000000000000e+01
3.670240879058837891e+00 -1.991948843002318892e+00 -6.614049077033996582e-01 1.000000000000000000e+01
4.795267105102539062e+00 -2.604701280593872070e+00 -6.700376272201538086e-01 6.000000000000000000e+00
6.634826660156250000e+00 -3.605416297912598100e+00 -6.606405377388000488e-01 2.000000000000000000e+00
9.232493400573730469e+00 -5.021183490753173828e+00 -5.507835745811462402e-01 1.000000000000000000e+01
2.192473411560059038e+00 -1.196864962577820046e+00 -6.693060398101806641e-01 1.700000000000000000e+01
2.542987108230590820e+00 -1.389361739158629927e+00 -6.690044403076171875e-01 1.300000000000000000e+01
2.999253511428833008e+00 -1.639322876930237038e+00 -6.643969416618347168e-01 1.100000000000000000e+01
3.667081117630004883e+00 -2.006004810333251953e+00 -6.620306372642517090e-01 1.000000000000000000e+01
4.795309066772460938e+00 -2.625355005264281782e+00 -6.712563633918762207e-01 8.000000000000000000e+00
6.642056465148925781e+00 -3.637926578521728960e+00 -6.625579595565795898e-01 3.000000000000000000e+00
9.086189270019531250e+00 -4.980728626251220703e+00 -5.430378913879394531e-01 7.000000000000000000e+00
2.181512594223022017e+00 -1.200784564018249956e+00 -6.672354936599731445e-01 1.600000000000000000e+01
2.536414861679077148e+00 -1.397289633750915971e+00 -6.685545444488525391e-01 1.200000000000000000e+01
3.000390529632567915e+00 -1.653572678565979004e+00 -6.659234166145324707e-01 1.000000000000000000e+01
3.649678230285644975e+00 -2.013068675994873047e+00 -6.601534485816955566e-01 9.000000000000000000e+00
4.768736839294433594e+00 -2.632484197616577148e+00 -6.688189506530761719e-01 8.000000000000000000e+00
6.620596408843994141e+00 -3.656273365020751953e+00 -6.616864204406738281e-01 3.000000000000000000e+00
9.115943908691406250e+00 -5.038501262664794922e+00 -5.458640456199645996e-01 7.000000000000000000e+00
2.185541629791260210e+00 -1.213460922241210938e+00 -6.698237061500549316e-01 1.600000000000000000e+01
2.532979965209960938e+00 -1.407523274421691895e+00 -6.690044403076171875e-01 1.400000000000000000e+01
2.999457597732543945e+00 -1.667420268058777078e+00 -6.670682430267333984e-01 9.000000000000000000e+00
3.649180173873900923e+00 -2.030273675918579102e+00 -6.614049077033996582e-01 1.000000000000000000e+01
4.675807476043701172e+00 -2.603590011596680132e+00 -6.571195125579833984e-01 1.100000000000000000e+01
6.636740684509277344e+00 -3.696997404098511186e+00 -6.646496653556823730e-01 3.000000000000000000e+00
9.202084541320800781e+00 -5.130232334136962891e+00 -5.521443486213684082e-01 2.000000000000000000e+00
2.179606914520264116e+00 -1.220138907432555930e+00 -6.693060398101806641e-01 1.600000000000000000e+01
2.528051376342772993e+00 -1.416356444358825906e+00 -6.690044403076171875e-01 1.300000000000000000e+01
2.990193843841553178e+00 -1.675960302352905051e+00 -6.663050055503845215e-01 1.000000000000000000e+01
3.659299373626708984e+00 -2.052663326263428178e+00 -6.645336151123046875e-01 1.000000000000000000e+01
4.763625144958496094e+00 -2.674314975738524947e+00 -6.707688570022583008e-01 1.000000000000000000e+01
6.632481098175048828e+00 -3.725019693374633789e+00 -6.655212640762329102e-01 3.000000000000000000e+00
9.246798515319824219e+00 -5.197553157806395596e+00 -5.559125542640686035e-01 5.000000000000000000e+00
2.182279109954833984e+00 -1.231156945228577104e+00 -6.713765859603881836e-01 1.600000000000000000e+01
2.519946813583374023e+00 -1.422815680503844993e+00 -6.681046485900878906e-01 1.300000000000000000e+01
2.982910156250000000e+00 -1.684901475906372070e+00 -6.659234166145324707e-01 1.000000000000000000e+01
3.652472496032714844e+00 -2.064786672592163086e+00 -6.645336151123046875e-01 1.000000000000000000e+01
4.804834842681884766e+00 -2.718444824218750000e+00 -6.778373122215270996e-01 8.000000000000000000e+00
6.623559951782226562e+00 -3.748956203460692915e+00 -6.658698916435241699e-01 3.000000000000000000e+00
9.476281166076660156e+00 -5.367973804473876953e+00 -5.707759261131286621e-01 9.000000000000000000e+00
2.167892932891846147e+00 -1.233036398887634055e+00 -6.682707667350769043e-01 1.700000000000000000e+01
2.525126218795775923e+00 -1.437387585639954057e+00 -6.708040237426757812e-01 1.200000000000000000e+01
2.983834743499755859e+00 -1.699189543724060059e+00 -6.674498915672302246e-01 1.000000000000000000e+01
3.643526554107666016e+00 -2.076545476913452148e+00 -6.642207503318786621e-01 1.000000000000000000e+01
4.631506919860839844e+00 -2.641764879226685014e+00 -6.546820998191833496e-01 8.000000000000000000e+00
6.613893985748291016e+00 -3.774028778076171875e+00 -6.662185192108154297e-01 2.000000000000000000e+00
9.391579627990722656e+00 -5.363381862640380859e+00 -5.667983889579772949e-01 2.000000000000000000e+00
2.163575649261475053e+00 -1.240596294403075950e+00 -6.682707667350769043e-01 1.600000000000000000e+01
2.521783828735352007e+00 -1.447163105010986106e+00 -6.712539196014404297e-01 1.200000000000000000e+01
2.984695672988892046e+00 -1.713504552841186968e+00 -6.689763665199279785e-01 1.000000000000000000e+01
3.634542942047119141e+00 -2.088267087936400923e+00 -6.639078855514526367e-01 1.000000000000000000e+01
4.778856277465820312e+00 -2.747964143753052202e+00 -6.768623590469360352e-01 7.000000000000000000e+00
6.597226142883300781e+00 -3.795105457305908203e+00 -6.658698916435241699e-01 3.000000000000000000e+00
9.452422142028808594e+00 -5.441971778869628906e+00 -5.716133117675781250e-01 6.000000000000000000e+00
2.164249420166016069e+00 -1.251041412353516069e+00 -6.698237061500549316e-01 1.600000000000000000e+01
2.509969472885131836e+00 -1.452053546905518022e+00 -6.694543361663818359e-01 1.200000000000000000e+01
2.978696346282958984e+00 -1.723912715911865012e+00 -6.689763665199279785e-01 1.000000000000000000e+01
3.620393991470336914e+00 -2.096981048583983931e+00 -6.626563668251037598e-01 1.000000000000000000e+01
4.647299289703369141e+00 -2.693945169448852983e+00 -6.595568656921386719e-01 8.000000000000000000e+00
6.620132923126220703e+00 -3.839100599288939986e+00 -6.695303916931152344e-01 3.000000000000000000e+00
9.385001182556152344e+00 -5.446862220764160156e+00 -5.686824917793273926e-01 5.000000000000000000e+00
2.166545867919921875e+00 -1.262478947639465110e+00 -6.718942523002624512e-01 1.600000000000000000e+01
2.501518964767456055e+00 -1.458842754364013894e+00 -6.685545444488525391e-01 1.200000000000000000e+01
2.965877532958983931e+00 -1.730342388153075950e+00 -6.674498915672302246e-01 1.000000000000000000e+01
3.623287439346313032e+00 -2.115581989288330078e+00 -6.645336151123046875e-01 1.000000000000000000e+01
4.583021640777587891e+00 -2.678101539611815962e+00 -6.517572402954101562e-01 1.100000000000000000e+01
6.601531505584716797e+00 -3.859169244766234907e+00 -6.690074801445007324e-01 2.000000000000000000e+00
9.427990913391113281e+00 -5.515897274017333984e+00 -5.724506974220275879e-01 3.000000000000000000e+00
2.165457248687744141e+00 -1.271990776062011941e+00 -6.729295253753662109e-01 1.600000000000000000e+01
2.501451253890991211e+00 -1.470528483390808105e+00 -6.699042320251464844e-01 1.100000000000000000e+01
2.956434965133666992e+00 -1.738694190979003906e+00 -6.666866540908813477e-01 1.000000000000000000e+01
3.622690200805664062e+00 -2.132224559783935991e+00 -6.657850742340087891e-01 1.100000000000000000e+01
4.546278953552246094e+00 -2.677963018417357954e+00 -6.478574275970458984e-01 1.400000000000000000e+01
6.581154346466063565e+00 -3.878143310546875000e+00 -6.683102250099182129e-01 2.000000000000000000e+00
2.149367809295653853e+00 -1.272652029991149902e+00 -6.693060398101806641e-01 1.700000000000000000e+01
2.508038282394409180e+00 -1.486205458641052024e+00 -6.730535626411437988e-01 1.300000000000000000e+01
2.950347661972045898e+00 -1.749003529548645020e+00 -6.666866540908813477e-01 1.000000000000000000e+01
3.615225315093994141e+00 -2.144857168197631836e+00 -6.657850742340087891e-01 1.000000000000000000e+01
4.557385921478270596e+00 -2.705977678298950195e+00 -6.507822871208190918e-01 1.700000000000000000e+01
6.598410606384277344e+00 -3.919407129287720171e+00 -6.714478135108947754e-01 3.000000000000000000e+00
2.151547908782958984e+00 -1.284107208251952903e+00 -6.713765859603881836e-01 1.500000000000000000e+01
2.502835273742675781e+00 -1.494951009750365989e+00 -6.730535626411437988e-01 1.200000000000000000e+01
2.959392309188843218e+00 -1.768354892730712891e+00 -6.701211929321289062e-01 9.000000000000000000e+00
3.597544193267821822e+00 -2.151380538940430132e+00 -6.639078855514526367e-01 1.000000000000000000e+01
4.541099071502686435e+00 -2.717791795730590820e+00 -6.498073339462280273e-01 1.400000000000000000e+01
6.591526508331298828e+00 -3.946510076522827148e+00 -6.721450686454772949e-01 2.000000000000000000e+00
2.153673887252808061e+00 -1.295593142509460005e+00 -6.734471321105957031e-01 1.600000000000000000e+01
2.489253997802733931e+00 -1.498652815818787065e+00 -6.708040237426757812e-01 1.300000000000000000e+01
2.944792747497559038e+00 -1.773609757423401101e+00 -6.682131290435791016e-01 1.000000000000000000e+01
3.600163459777832031e+00 -2.170043706893920898e+00 -6.657850742340087891e-01 1.000000000000000000e+01
4.558781147003173828e+00 -2.750032424926757812e+00 -6.537071466445922852e-01 1.100000000000000000e+01
6.591357231140136719e+00 -3.977730035781859907e+00 -6.735395789146423340e-01 1.000000000000000000e+00
2.145834445953369141e+00 -1.301099777221679910e+00 -6.724118590354919434e-01 1.500000000000000000e+01
2.487339496612548828e+00 -1.509354710578918013e+00 -6.717038750648498535e-01 1.300000000000000000e+01
2.941940069198607954e+00 -1.785915732383728027e+00 -6.689763665199279785e-01 1.100000000000000000e+01
3.597631216049193892e+00 -2.185674428939818892e+00 -6.667236685752868652e-01 1.000000000000000000e+01
4.664494037628173828e+00 -2.836056709289550781e+00 -6.702814102172851562e-01 8.000000000000000000e+00
6.594454765319824219e+00 -4.011067867279052734e+00 -6.752827167510986328e-01 1.000000000000000000e+00
2.144576549530028853e+00 -1.310596942901611106e+00 -6.734471321105957031e-01 1.600000000000000000e+01
2.488705635070800781e+00 -1.522094964981079102e+00 -6.735034584999084473e-01 1.100000000000000000e+01
2.935688257217406782e+00 -1.796174168586730957e+00 -6.689763665199279785e-01 1.200000000000000000e+01
3.600087881088256836e+00 -2.204408407211304155e+00 -6.686009168624877930e-01 9.000000000000000000e+00
4.585170745849609375e+00 -2.809796094894409180e+00 -6.602880954742431641e-01 9.000000000000000000e+00
6.587207794189453125e+00 -4.038227558135986328e+00 -6.759799122810363770e-01 2.000000000000000000e+00
2.136698961257935014e+00 -1.316048622131348100e+00 -6.724118590354919434e-01 1.700000000000000000e+01
2.480059623718262163e+00 -1.528727769851685014e+00 -6.726036667823791504e-01 1.400000000000000000e+01
2.936084747314453125e+00 -1.810532450675963911e+00 -6.705027818679809570e-01 1.200000000000000000e+01
3.594052076339722124e+00 -2.217998981475830078e+00 -6.689137816429138184e-01 1.000000000000000000e+01
4.626002788543701172e+00 -2.857077598571776900e+00 -6.676002740859985352e-01 9.000000000000000000e+00
6.545951843261718750e+00 -4.044440746307373047e+00 -6.731909513473510742e-01 3.000000000000000000e+00
8.709442138671875000e+00 -5.385363101959229404e+00 -5.366529226303100586e-01 2.000000000000000000e+00
4.548691558837891336e+01 -2.814815711975098012e+01 -9.337037205696105957e-01 1.400000000000000000e+01
2.132323026657104048e+00 -1.323126912117003950e+00 -6.724118590354919434e-01 1.500000000000000000e+01
2.478287458419799805e+00 -1.538999676704406960e+00 -6.735034584999084473e-01 1.100000000000000000e+01
2.926729440689086914e+00 -1.818186998367310014e+00 -6.697395443916320801e-01 1.200000000000000000e+01
3.583322048187255859e+00 -2.227819204330443892e+00 -6.682880520820617676e-01 1.000000000000000000e+01
4.608075618743895596e+00 -2.867158651351929155e+00 -6.663815975189208984e-01 1.100000000000000000e+01
6.566333770751953125e+00 -4.087182998657226562e+00 -6.766771674156188965e-01 3.000000000000000000e+00
2.130967378616333008e+00 -1.332610726356505904e+00 -6.734471321105957031e-01 1.500000000000000000e+01
2.474552154541016069e+00 -1.548674941062927024e+00 -6.739533543586730957e-01 1.200000000000000000e+01
2.933677196502685991e+00 -1.836726665496825950e+00 -6.727924942970275879e-01 1.200000000000000000e+01
3.588915109634398970e+00 -2.248704433441162109e+00 -6.707909703254699707e-01 1.000000000000000000e+01
4.549267292022705078e+00 -2.852643489837646040e+00 -6.593131422996520996e-01 1.300000000000000000e+01
6.568904876708984375e+00 -4.120666503906250000e+00 -6.784203052520751953e-01 2.000000000000000000e+00
2.134474515914916992e+00 -1.345191121101378950e+00 -6.760353446006774902e-01 1.500000000000000000e+01
2.465834617614746094e+00 -1.555224180221558061e+00 -6.730535626411437988e-01 1.300000000000000000e+01
2.920606374740601030e+00 -1.842765331268310991e+00 -6.712660193443298340e-01 1.100000000000000000e+01
3.574362754821776900e+00 -2.256999731063843218e+00 -6.695395112037658691e-01 1.000000000000000000e+01
4.530891418457031250e+00 -2.863203763961791992e+00 -6.580944657325744629e-01 1.600000000000000000e+01
6.556165218353270596e+00 -4.144635677337645596e+00 -6.785945892333984375e-01 2.000000000000000000e+00
4.519465637207031250e+01 -2.861505508422851918e+01 -9.337037205696105957e-01 1.400000000000000000e+01
2.121612071990966797e+00 -1.347455024719238059e+00 -6.734471321105957031e-01 1.500000000000000000e+01
2.468614101409912109e+00 -1.569048762321471946e+00 -6.753030419349670410e-01 1.100000000000000000e+01
2.907529354095458984e+00 -1.848735332489013894e+00 -6.697395443916320801e-01 1.200000000000000000e+01
3.574795484542847124e+00 -2.274765253067017046e+00 -6.711038351058959961e-01 9.000000000000000000e+00
4.529241085052490234e+00 -2.884333610534667969e+00 -6.593131422996520996e-01 1.600000000000000000e+01
6.534936428070068359e+00 -4.163213729858398438e+00 -6.778973937034606934e-01 2.000000000000000000e+00
2.113641500473022017e+00 -1.352769851684570090e+00 -6.724118590354919434e-01 1.600000000000000000e+01
2.466403961181641069e+00 -1.579758405685425027e+00 -6.762028932571411133e-01 1.100000000000000000e+01
2.902711391448975053e+00 -1.859932422637939009e+00 -6.701211929321289062e-01 1.100000000000000000e+01
3.565170288085937944e+00 -2.286163568496704102e+00 -6.707909703254699707e-01 1.000000000000000000e+01
4.527498722076416016e+00 -2.905486822128295898e+00 -6.605318188667297363e-01 1.900000000000000000e+01
5.271284580230712891e+00 -3.384104490280150923e+00 -5.480353236198425293e-01 1.000000000000000000e+00
2.115400314331055132e+00 -1.364327907562256081e+00 -6.744824051856994629e-01 1.600000000000000000e+01
2.462512016296387163e+00 -1.589414954185486062e+00 -6.766527891159057617e-01 1.300000000000000000e+01
2.906097173690795898e+00 -1.876443147659301980e+00 -6.724109053611755371e-01 1.100000000000000000e+01
3.547213792800902876e+00 -2.292161703109741211e+00 -6.689137816429138184e-01 1.000000000000000000e+01
4.547333240509033203e+00 -2.940676212310791016e+00 -6.649191379547119141e-01 4.200000000000000000e+01
6.527459621429443359e+00 -4.222803115844726562e+00 -6.801634430885314941e-01 2.000000000000000000e+00
2.117104530334473100e+00 -1.375914573669434038e+00 -6.765530109405517578e-01 1.600000000000000000e+01
2.448780775070189986e+00 -1.592688560485840066e+00 -6.744032502174377441e-01 1.100000000000000000e+01
2.902820587158203125e+00 -1.888717293739319070e+00 -6.731741428375244141e-01 1.100000000000000000e+01
3.542501688003540039e+00 -2.306685686111450195e+00 -6.695395112037658691e-01 1.000000000000000000e+01
4.518746376037597656e+00 -2.944610118865966797e+00 -6.622380018234252930e-01 2.100000000000000000e+01
6.519355773925781250e+00 -4.249914646148681641e+00 -6.808606386184692383e-01 3.000000000000000000e+00
2.110672473907471147e+00 -1.382237911224365012e+00 -6.760353446006774902e-01 1.500000000000000000e+01
2.446466207504272017e+00 -1.603363037109375000e+00 -6.753030419349670410e-01 1.100000000000000000e+01
2.889642715454102007e+00 -1.894532799720763938e+00 -6.716476678848266602e-01 1.200000000000000000e+01
3.544337987899779829e+00 -2.325539112091064009e+00 -6.714166998863220215e-01 1.000000000000000000e+01
4.506781101226806641e+00 -2.959275960922241211e+00 -6.619942784309387207e-01 1.600000000000000000e+01
6.517803192138671875e+00 -4.281396389007568359e+00 -6.822551488876342773e-01 2.000000000000000000e+00
2.100513458251953125e+00 -1.387138366699218972e+00 -6.744824051856994629e-01 1.500000000000000000e+01
2.443543195724486861e+00 -1.614893794059752974e+00 -6.762028932571411133e-01 1.100000000000000000e+01
2.880709171295166016e+00 -1.904531478881835938e+00 -6.712660193443298340e-01 1.200000000000000000e+01
3.540324687957764116e+00 -2.342401266098022017e+00 -6.723553538322448730e-01 9.000000000000000000e+00
4.508625984191895419e+00 -2.985326290130614790e+00 -6.639441847801208496e-01 1.700000000000000000e+01
6.493010520935058594e+00 -4.300889968872070312e+00 -6.813836097717285156e-01 3.000000000000000000e+00
2.095658540725708008e+00 -1.394462108612060991e+00 -6.744824051856994629e-01 1.800000000000000000e+01
2.441135406494141069e+00 -1.625573754310607910e+00 -6.771026849746704102e-01 1.100000000000000000e+01
2.883846998214722124e+00 -1.921106100082397017e+00 -6.735557317733764648e-01 1.200000000000000000e+01
3.535413742065430132e+00 -2.356936454772949219e+00 -6.729810833930969238e-01 9.000000000000000000e+00
4.506434440612792969e+00 -3.006554603576660156e+00 -6.651628613471984863e-01 2.100000000000000000e+01
6.464700698852539062e+00 -4.314680099487304688e+00 -6.799890995025634766e-01 3.000000000000000000e+00
2.094477415084838867e+00 -1.403189420700073020e+00 -6.755176782608032227e-01 2.300000000000000000e+01
2.432779073715209961e+00 -1.631064414978026900e+00 -6.762028932571411133e-01 1.100000000000000000e+01
2.879427909851074219e+00 -1.931250095367432085e+00 -6.739373803138732910e-01 1.100000000000000000e+01
3.516510725021361861e+00 -2.360325336456298828e+00 -6.707909703254699707e-01 1.000000000000000000e+01
4.521684646606445312e+00 -3.037300586700439009e+00 -6.688189506530761719e-01 3.000000000000000000e+01
6.437883853912354404e+00 -4.326078414916992188e+00 -6.785945892333984375e-01 4.000000000000000000e+00
2.092768907546997070e+00 -1.412653565406799094e+00 -6.765530109405517578e-01 2.400000000000000000e+01
2.423841238021851030e+00 -1.637364745140075906e+00 -6.753030419349670410e-01 1.100000000000000000e+01
2.872669219970703125e+00 -1.941289305686950906e+00 -6.739373803138732910e-01 1.200000000000000000e+01
3.514795541763306108e+00 -2.377012491226195845e+00 -6.720424890518188477e-01 1.000000000000000000e+01
4.509410858154296875e+00 -3.051953077316284180e+00 -6.685752272605895996e-01 2.100000000000000000e+01
6.411195278167724609e+00 -4.340705394744873047e+00 -6.773744225502014160e-01 5.000000000000000000e+00
2.099007129669189009e+00 -1.427555084228516069e+00 -6.801764369010925293e-01 2.600000000000000000e+01
2.424555063247681108e+00 -1.650201439857482910e+00 -6.771026849746704102e-01 1.100000000000000000e+01
2.869120836257935014e+00 -1.953514933586121050e+00 -6.747006177902221680e-01 1.100000000000000000e+01
3.519536256790161133e+00 -2.398165464401245117e+00 -6.745454072952270508e-01 1.000000000000000000e+01
4.506930351257324219e+00 -3.073266983032227007e+00 -6.697939038276672363e-01 2.200000000000000000e+01
6.382836818695068359e+00 -4.354076385498046875e+00 -6.759799122810363770e-01 5.000000000000000000e+00
2.086043119430541992e+00 -1.429413318634032981e+00 -6.775882840156555176e-01 2.500000000000000000e+01
2.418779850006103960e+00 -1.658654689788817915e+00 -6.771026849746704102e-01 1.100000000000000000e+01
2.854189634323120117e+00 -1.957965135574341042e+00 -6.727924942970275879e-01 1.100000000000000000e+01
3.504629373550415039e+00 -2.405964136123656782e+00 -6.732939481735229492e-01 1.000000000000000000e+01
4.517445564270020419e+00 -3.103593587875366211e+00 -6.729624867439270020e-01 2.600000000000000000e+01
6.321624279022216797e+00 -4.344731807708740234e+00 -6.710992455482482910e-01 6.000000000000000000e+00
2.074681520462036133e+00 -1.432296037673949973e+00 -6.755176782608032227e-01 2.400000000000000000e+01
2.419388771057128906e+00 -1.671518564224242942e+00 -6.789022684097290039e-01 1.100000000000000000e+01
2.848952770233153853e+00 -1.969032406806946023e+00 -6.731741428375244141e-01 1.100000000000000000e+01
3.505957365036011186e+00 -2.424925088882445845e+00 -6.751711368560791016e-01 1.000000000000000000e+01
4.526171207427979404e+00 -3.132900953292847124e+00 -6.758874058723449707e-01 2.900000000000000000e+01
6.270382881164550781e+00 -4.341818809509277344e+00 -6.672643423080444336e-01 6.000000000000000000e+00
2.069669246673583984e+00 -1.439529299736022949e+00 -6.755176782608032227e-01 2.200000000000000000e+01
2.416738033294678178e+00 -1.682180166244507058e+00 -6.798020601272583008e-01 1.100000000000000000e+01
2.851729154586791992e+00 -1.985696315765381081e+00 -6.754638552665710449e-01 1.100000000000000000e+01
3.494230270385742188e+00 -2.434889793395996094e+00 -6.745454072952270508e-01 1.000000000000000000e+01
4.520092487335205078e+00 -3.152087450027465820e+00 -6.766185760498046875e-01 2.400000000000000000e+01
6.253554821014404297e+00 -4.362540245056152344e+00 -6.670900583267211914e-01 7.000000000000000000e+00
2.074378013610839844e+00 -1.453034758567810059e+00 -6.786235570907592773e-01 2.500000000000000000e+01
2.401572227478026900e+00 -1.683473587036133035e+00 -6.771026849746704102e-01 1.200000000000000000e+01
2.849950790405272993e+00 -1.998523712158202903e+00 -6.766086816787719727e-01 1.000000000000000000e+01
3.490987300872803178e+00 -2.449867725372314009e+00 -6.754840016365051270e-01 1.000000000000000000e+01
4.516112804412841797e+00 -3.171622753143310991e+00 -6.775935292243957520e-01 1.900000000000000000e+01
6.245574951171875000e+00 -4.387835502624511719e+00 -6.677873134613037109e-01 7.000000000000000000e+00
2.078763723373413086e+00 -1.466949939727782981e+00 -6.817293763160705566e-01 2.500000000000000000e+01
2.398864746093750000e+00 -1.694094657897948997e+00 -6.780024766921997070e-01 1.100000000000000000e+01
2.838146924972534180e+00 -2.005061149597167969e+00 -6.754638552665710449e-01 1.100000000000000000e+01
3.496931314468383789e+00 -2.472301959991455078e+00 -6.782998442649841309e-01 1.000000000000000000e+01
4.496912002563476562e+00 -3.181634902954102007e+00 -6.763748526573181152e-01 1.500000000000000000e+01
6.205826282501220703e+00 -4.392343997955322266e+00 -6.651726365089416504e-01 7.000000000000000000e+00
2.070481538772583008e+00 -1.471958518028259055e+00 -6.806941032409667969e-01 2.400000000000000000e+01
2.399288177490233931e+00 -1.706976771354675071e+00 -6.798020601272583008e-01 1.100000000000000000e+01
2.827931642532349077e+00 -2.012679338455200195e+00 -6.747006177902221680e-01 1.200000000000000000e+01
3.485062122344971147e+00 -2.482201576232910156e+00 -6.776741147041320801e-01 1.000000000000000000e+01
4.463147640228270596e+00 -3.181182146072388139e+00 -6.729624867439270020e-01 1.700000000000000000e+01
6.175856590270996094e+00 -4.403569221496582031e+00 -6.636038422584533691e-01 9.000000000000000000e+00
2.063760280609130859e+00 -1.478052020072937012e+00 -6.801764369010925293e-01 2.300000000000000000e+01
2.396482944488524947e+00 -1.717611908912658913e+00 -6.807019114494323730e-01 1.000000000000000000e+01
2.824079990386962891e+00 -2.024826288223267046e+00 -6.754638552665710449e-01 1.100000000000000000e+01
3.469956398010253906e+00 -2.489745140075684038e+00 -6.764226555824279785e-01 1.000000000000000000e+01
4.485877513885498047e+00 -3.221056222915648970e+00 -6.780810356140136719e-01 1.500000000000000000e+01
6.108665466308593750e+00 -4.387905120849609375e+00 -6.580258607864379883e-01 1.200000000000000000e+01
2.057021617889403853e+00 -1.484116554260253906e+00 -6.796588301658630371e-01 2.400000000000000000e+01
2.387312889099121094e+00 -1.723685264587401900e+00 -6.798020601272583008e-01 1.100000000000000000e+01
2.818586349487305132e+00 -2.035821199417113814e+00 -6.758454442024230957e-01 1.000000000000000000e+01
3.467648267745972124e+00 -2.506471157073975053e+00 -6.776741147041320801e-01 1.000000000000000000e+01
4.485865592956542969e+00 -3.244839429855347124e+00 -6.797872185707092285e-01 1.400000000000000000e+01
6.102996349334716797e+00 -4.416209220886229581e+00 -6.590717434883117676e-01 1.000000000000000000e+01
2.054953813552856001e+00 -1.493559479713439941e+00 -6.806941032409667969e-01 2.100000000000000000e+01
2.378129482269287109e+00 -1.729715466499329057e+00 -6.789022684097290039e-01 1.100000000000000000e+01
2.825750350952147993e+00 -2.056043386459351030e+00 -6.792800426483154297e-01 1.100000000000000000e+01
3.458877801895142046e+00 -2.518560171127318892e+00 -6.776741147041320801e-01 1.000000000000000000e+01
4.484137535095214844e+00 -3.267492532730102983e+00 -6.812496185302734375e-01 1.500000000000000000e+01
6.055342674255371094e+00 -4.414013385772705078e+00 -6.555854678153991699e-01 1.000000000000000000e+01
2.055962800979613814e+00 -1.505288481712341087e+00 -6.827646493911743164e-01 2.200000000000000000e+01
2.375221014022827148e+00 -1.740309715270996094e+00 -6.798020601272583008e-01 1.100000000000000000e+01
2.805888414382935014e+00 -2.056609630584716797e+00 -6.762270927429199219e-01 1.100000000000000000e+01
3.450065374374390093e+00 -2.530618667602539062e+00 -6.776741147041320801e-01 1.000000000000000000e+01
4.479105949401854581e+00 -3.287823677062987837e+00 -6.822245717048645020e-01 1.500000000000000000e+01
6.027050971984863281e+00 -4.425689697265625000e+00 -6.541910171508789062e-01 1.200000000000000000e+01
2.042922258377075195e+00 -1.506722569465636985e+00 -6.801764369010925293e-01 2.000000000000000000e+01
2.370699882507324219e+00 -1.749747395515441895e+00 -6.802520155906677246e-01 1.300000000000000000e+01
2.798692464828491211e+00 -2.066391468048096147e+00 -6.762270927429199219e-01 1.100000000000000000e+01
3.453920841217041016e+00 -2.552037239074707031e+00 -6.801770329475402832e-01 1.100000000000000000e+01
4.464409351348876953e+00 -3.301078319549560991e+00 -6.817371249198913574e-01 1.400000000000000000e+01
6.014769077301025391e+00 -4.449070453643798828e+00 -6.545396447181701660e-01 1.000000000000000000e+01
2.036099672317504883e+00 -1.512692451477051003e+00 -6.796588301658630371e-01 2.100000000000000000e+01
