1.706531524658202903e+00 -1.972159504890441895e+00 -6.988114118576049805e-01 1.500000000000000000e+01
1.978231668472290039e+00 -2.287764310836791992e+00 -6.982480883598327637e-01 1.100000000000000000e+01
2.357181787490845171e+00 -2.726970195770264116e+00 -7.006506323814392090e-01 1.100000000000000000e+01
2.923443794250487837e+00 -3.384453058242797852e+00 -7.083352804183959961e-01 1.100000000000000000e+01
3.786235570907593218e+00 -4.386395931243895596e+00 -7.114732265472412109e-01 3.300000000000000000e+01
4.530887126922607422e+00 -5.250935554504395419e+00 -6.067782640457153320e-01 8.000000000000000000e+00
2.184323692321776988e+01 -2.535032272338866832e+01 -5.840971469879150391e-01 6.000000000000000000e+00
1.693341970443726030e+00 -1.970777988433837891e+00 -6.962232589721679688e-01 1.500000000000000000e+01
1.972772836685181108e+00 -2.297612667083739790e+00 -6.991478800773620605e-01 1.100000000000000000e+01
2.343812465667725053e+00 -2.730712413787841797e+00 -6.995058059692382812e-01 1.200000000000000000e+01
2.902609586715697798e+00 -3.384141206741333008e+00 -7.061451673507690430e-01 1.000000000000000000e+01
3.774776697158813032e+00 -4.404107570648193359e+00 -7.122044563293457031e-01 3.900000000000000000e+01
4.600680828094482422e+00 -5.369602680206298828e+00 -6.186314821243286133e-01 8.000000000000000000e+00
2.167921257019042969e+01 -2.533828735351562855e+01 -5.820726752281188965e-01 6.000000000000000000e+00
1.682690739631653054e+00 -1.972267985343933105e+00 -6.946703195571899414e-01 1.400000000000000000e+01
1.962211966514586958e+00 -2.301518917083739790e+00 -6.982480883598327637e-01 1.200000000000000000e+01
2.344454050064086914e+00 -2.750830888748168945e+00 -7.025586962699890137e-01 1.200000000000000000e+01
2.888217449188231978e+00 -3.391244888305664062e+00 -7.055194377899169922e-01 1.100000000000000000e+01
3.733648777008057085e+00 -4.387022495269775391e+00 -7.073296904563903809e-01 4.300000000000000000e+01
4.602566242218017578e+00 -5.409909725189208984e+00 -6.214204430580139160e-01 8.000000000000000000e+00
1.687034606933593972e+00 -1.991395711898803933e+00 -6.993290781974792480e-01 1.500000000000000000e+01
1.955425381660460982e+00 -2.309841632843018022e+00 -6.986979842185974121e-01 1.200000000000000000e+01
2.333569288253784180e+00 -2.757499217987060991e+00 -7.021771073341369629e-01 1.200000000000000000e+01
2.882740020751953125e+00 -3.408847808837891069e+00 -7.070837616920471191e-01 1.100000000000000000e+01
3.708062171936035156e+00 -4.387898921966552734e+00 -7.053797841072082520e-01 2.600000000000000000e+01
4.611940383911132812e+00 -5.459426879882813388e+00 -6.252552866935729980e-01 7.000000000000000000e+00
1.678481101989746094e+00 -1.996087074279784934e+00 -6.988114118576049805e-01 1.500000000000000000e+01
1.946946263313293013e+00 -2.316993236541748047e+00 -6.986979842185974121e-01 1.200000000000000000e+01
2.323446989059447798e+00 -2.766033649444580078e+00 -7.021771073341369629e-01 1.200000000000000000e+01
2.874036550521851030e+00 -3.423929691314696822e+00 -7.080224156379699707e-01 1.100000000000000000e+01
3.699609279632567915e+00 -4.410585880279541016e+00 -7.068421840667724609e-01 2.800000000000000000e+01
4.617502212524414062e+00 -5.506827831268311435e+00 -6.287415027618408203e-01 7.000000000000000000e+00
1.666550636291503906e+00 -1.996002316474914995e+00 -6.967408657073974609e-01 1.500000000000000000e+01
1.936349630355834961e+00 -2.320782661437987837e+00 -6.977981925010681152e-01 1.300000000000000000e+01
2.303717613220214844e+00 -2.762065649032593218e+00 -6.991241574287414551e-01 1.200000000000000000e+01
2.874714612960814986e+00 -3.449115276336669922e+00 -7.111510634422302246e-01 1.000000000000000000e+01
3.685461282730102983e+00 -4.424998283386229581e+00 -7.070859074592590332e-01 2.400000000000000000e+01
4.576580047607421875e+00 -5.496882438659667969e+00 -6.257782578468322754e-01 7.000000000000000000e+00
1.659573197364806907e+00 -2.001807451248168945e+00 -6.967408657073974609e-01 1.500000000000000000e+01
1.936939358711242898e+00 -2.338032245635985884e+00 -7.009474635124206543e-01 1.100000000000000000e+01
2.299071073532104048e+00 -2.776138544082642046e+00 -7.006506323814392090e-01 1.100000000000000000e+01
2.855100870132445845e+00 -3.449997901916503906e+00 -7.092738747596740723e-01 1.000000000000000000e+01
3.664932250976562944e+00 -4.431716918945313388e+00 -7.061109542846679688e-01 2.400000000000000000e+01
4.611951351165770596e+00 -5.578855037689208984e+00 -6.332736015319824219e-01 7.000000000000000000e+00
1.732372474670410156e+01 -2.097057723999023082e+01 -1.425526738166809082e+00 1.300000000000000000e+01
1.653803229331969993e+00 -2.009079694747924805e+00 -6.972585320472717285e-01 1.300000000000000000e+01
1.926290392875670943e+00 -2.341769218444824219e+00 -7.000476717948913574e-01 1.300000000000000000e+01
2.298094987869263139e+00 -2.794761896133422852e+00 -7.033219337463378906e-01 1.200000000000000000e+01
2.835516214370727983e+00 -3.450785636901855025e+00 -7.073966264724731445e-01 1.000000000000000000e+01
3.639362573623656782e+00 -4.432209491729736328e+00 -7.041610479354858398e-01 2.400000000000000000e+01
4.597505569458007812e+00 -5.601079940795898438e+00 -6.339708566665649414e-01 9.000000000000000000e+00
1.725041770935058949e+01 -2.103092002868651988e+01 -1.425526738166809082e+00 1.300000000000000000e+01
1.652892947196960005e+00 -2.022319316864014116e+00 -6.998466849327087402e-01 1.400000000000000000e+01
1.910708069801331010e+00 -2.339422941207886186e+00 -6.973482966423034668e-01 1.200000000000000000e+01
2.290808677673339844e+00 -2.805808067321776900e+00 -7.040851712226867676e-01 1.100000000000000000e+01
2.834692239761352983e+00 -3.474437713623046875e+00 -7.102124691009521484e-01 1.100000000000000000e+01
3.611325502395629883e+00 -4.429500579833984375e+00 -7.017236948013305664e-01 1.600000000000000000e+01
4.497368812561035156e+00 -5.518250942230224609e+00 -6.228149533271789551e-01 1.000000000000000000e+01
1.711383819580078125e+01 -2.101357460021973012e+01 -1.420293211936950906e+00 1.300000000000000000e+01
1.649475574493407981e+00 -2.032576799392700195e+00 -7.013996243476867676e-01 1.600000000000000000e+01
1.907440066337585005e+00 -2.352132797241210938e+00 -6.991478800773620605e-01 1.300000000000000000e+01
2.282237052917480025e+00 -2.815312623977661133e+00 -7.044668197631835938e-01 1.100000000000000000e+01
2.822546958923339844e+00 -3.484311580657958984e+00 -7.102124691009521484e-01 1.100000000000000000e+01
3.603335618972777876e+00 -4.451337337493895596e+00 -7.031860947608947754e-01 1.600000000000000000e+01
4.345228195190429688e+00 -5.369741439819335938e+00 -6.043379306793212891e-01 1.300000000000000000e+01
1.699517440795898082e+01 -2.101727676391601918e+01 -1.416525006294250044e+00 1.200000000000000000e+01
1.636664509773253950e+00 -2.030515193939208984e+00 -6.988114118576049805e-01 1.500000000000000000e+01
1.902074456214905007e+00 -2.361480474472045898e+00 -7.000476717948913574e-01 1.100000000000000000e+01
2.265501022338867188e+00 -2.813690185546875000e+00 -7.021771073341369629e-01 1.100000000000000000e+01
2.818406820297241211e+00 -3.502886533737183061e+00 -7.120896577835083008e-01 1.100000000000000000e+01
3.592286109924315962e+00 -4.467903137207031250e+00 -7.039173245429992676e-01 1.600000000000000000e+01
4.442229270935058594e+00 -5.526993751525878906e+00 -6.203745603561401367e-01 1.000000000000000000e+01
1.690787506103515980e+01 -2.105171775817871094e+01 -1.415059566497802956e+00 1.200000000000000000e+01
1.623531341552733931e+00 -2.028674364089965820e+00 -6.962232589721679688e-01 1.300000000000000000e+01
1.895036816596985085e+00 -2.369627475738524947e+00 -7.004975676536560059e-01 1.200000000000000000e+01
2.260569095611571822e+00 -2.827714920043944868e+00 -7.037035822868347168e-01 1.100000000000000000e+01
2.813560009002685991e+00 -3.521963596343994141e+00 -7.139669060707092285e-01 1.100000000000000000e+01
3.569237709045410156e+00 -4.471107006072998047e+00 -7.024549245834350586e-01 1.800000000000000000e+01
4.395568847656250000e+00 -5.508205413818359375e+00 -6.165397167205810547e-01 8.000000000000000000e+00
1.680440139770508168e+01 -2.107313156127930043e+01 -1.412547469139098899e+00 1.200000000000000000e+01
1.622449040412903054e+00 -2.041891574859619141e+00 -6.988114118576049805e-01 1.300000000000000000e+01
1.891600847244262917e+00 -2.382332563400268999e+00 -7.022972106933593750e-01 1.200000000000000000e+01
2.255567073822021040e+00 -2.841739654541016069e+00 -7.052300572395324707e-01 1.100000000000000000e+01
2.792656183242797852e+00 -3.520929574966431108e+00 -7.117767930030822754e-01 1.000000000000000000e+01
3.552375793457030806e+00 -4.481982707977294922e+00 -7.022111415863037109e-01 3.300000000000000000e+01
4.476535797119140625e+00 -5.650008201599121094e+00 -6.306589841842651367e-01 7.000000000000000000e+00
1.666875267028808949e+01 -2.105336761474609020e+01 -1.407313823699950950e+00 1.200000000000000000e+01
1.620097756385803001e+00 -2.053609371185303178e+00 -7.008819580078125000e-01 1.400000000000000000e+01
1.876034736633301003e+00 -2.379738807678223100e+00 -6.995977759361267090e-01 1.300000000000000000e+01
2.246849060058594194e+00 -2.851137638092041016e+00 -7.056116461753845215e-01 1.200000000000000000e+01
2.776682376861571822e+00 -3.526000499725341797e+00 -7.108381986618041992e-01 1.100000000000000000e+01
3.530571222305297852e+00 -4.486555576324462891e+00 -7.009924650192260742e-01 3.000000000000000000e+01
4.429686069488525391e+00 -5.631148815155029297e+00 -6.268240809440612793e-01 7.000000000000000000e+00
1.654825782775878906e+01 -2.105175590515137074e+01 -1.403336286544800027e+00 1.200000000000000000e+01
1.616132974624634011e+00 -2.064096689224243164e+00 -7.024348974227905273e-01 1.500000000000000000e+01
1.869701623916625977e+00 -2.389668464660644975e+00 -7.004975676536560059e-01 1.300000000000000000e+01
2.233964920043944868e+00 -2.856260776519774947e+00 -7.048484086990356445e-01 1.200000000000000000e+01
2.768605947494506836e+00 -3.542379617691040039e+00 -7.120896577835083008e-01 1.100000000000000000e+01
3.498219013214110884e+00 -4.479127407073974609e+00 -6.978238821029663086e-01 2.900000000000000000e+01
4.473999977111816406e+00 -5.730580806732177734e+00 -6.360626220703125000e-01 1.000000000000000000e+01
1.644396018981933949e+01 -2.107762336730957031e+01 -1.401033520698546919e+00 2.500000000000000000e+01
1.601804137229918990e+00 -2.060574293136597124e+00 -6.993290781974792480e-01 1.600000000000000000e+01
1.866130590438842995e+00 -2.402336120605469194e+00 -7.022972106933593750e-01 1.200000000000000000e+01
2.222776889801024947e+00 -2.862490653991699219e+00 -7.044668197631835938e-01 1.200000000000000000e+01
2.764700889587401900e+00 -3.562946796417235884e+00 -7.142797708511352539e-01 1.000000000000000000e+01
3.476480722427368164e+00 -4.483467578887938565e+00 -6.966051459312438965e-01 3.300000000000000000e+01
4.495469570159912109e+00 -5.799703598022460938e+00 -6.419891715049743652e-01 9.000000000000000000e+00
1.628956413269042969e+01 -2.103068161010741832e+01 -1.394125223159790039e+00 1.200000000000000000e+01
1.598142623901366965e+00 -2.070741176605225053e+00 -7.008819580078125000e-01 1.500000000000000000e+01
1.858923673629760964e+00 -2.410378694534302202e+00 -7.027471065521240234e-01 1.400000000000000000e+01
2.212771415710449219e+00 -2.870232105255126953e+00 -7.044668197631835938e-01 1.200000000000000000e+01
2.752247095108031782e+00 -3.572575569152832031e+00 -7.142797708511352539e-01 1.100000000000000000e+01
3.464442014694213867e+00 -4.500294208526611328e+00 -6.973363757133483887e-01 3.500000000000000000e+01
4.460616111755371094e+00 -5.796412467956542969e+00 -6.398974657058715820e-01 7.000000000000000000e+00
1.616978836059569957e+01 -2.102725028991698863e+01 -1.390147686004638894e+00 1.200000000000000000e+01
1.595604538917541948e+00 -2.082440853118896040e+00 -7.029525041580200195e-01 1.600000000000000000e+01
1.852867960929871050e+00 -2.419947385787963867e+00 -7.036468982696533203e-01 1.400000000000000000e+01
2.211091756820679155e+00 -2.888851881027222124e+00 -7.071381211280822754e-01 1.200000000000000000e+01
2.727758884429932085e+00 -3.566470384597777876e+00 -7.111510634422302246e-01 1.000000000000000000e+01
3.505366802215576172e+00 -4.586488246917724609e+00 -7.087920904159545898e-01 1.800000000000000000e+01
4.462128162384033203e+00 -5.840445518493652344e+00 -6.430350542068481445e-01 1.000000000000000000e+01
1.611083602905273082e+01 -2.110261535644530895e+01 -1.391403675079345925e+00 1.200000000000000000e+01
1.584816932678223100e+00 -2.083385229110718218e+00 -7.013996243476867676e-01 1.700000000000000000e+01
1.834975123405456987e+00 -2.413989067077637163e+00 -7.000476717948913574e-01 1.100000000000000000e+01
2.200994253158568892e+00 -2.896552324295043945e+00 -7.071381211280822754e-01 1.200000000000000000e+01
2.720071315765380859e+00 -3.582263231277465820e+00 -7.124025821685791016e-01 1.000000000000000000e+01
3.497735023498535156e+00 -4.609766006469726562e+00 -7.104982733726501465e-01 2.400000000000000000e+01
4.462182521820068359e+00 -5.882971763610839844e+00 -6.459983587265014648e-01 9.000000000000000000e+00
1.585684537887573020e+00 -2.099695920944213867e+00 -7.050230503082275391e-01 1.600000000000000000e+01
1.835928440093993919e+00 -2.432823896408081055e+00 -7.036468982696533203e-01 1.200000000000000000e+01
2.188505411148070845e+00 -2.901082992553710938e+00 -7.063748836517333984e-01 1.200000000000000000e+01
2.717063188552856001e+00 -3.604355573654174805e+00 -7.149055004119873047e-01 1.000000000000000000e+01
3.470873117446898970e+00 -4.607676982879638672e+00 -7.083046436309814453e-01 1.600000000000000000e+01
4.427237987518311435e+00 -5.879412174224854404e+00 -6.439066529273986816e-01 7.000000000000000000e+00
1.576394677162169966e+00 -2.101851701736450195e+00 -7.039877772331237793e-01 1.600000000000000000e+01
1.829019546508789062e+00 -2.440458059310913086e+00 -7.040967941284179688e-01 1.300000000000000000e+01
2.175341606140137163e+00 -2.903610706329346147e+00 -7.052300572395324707e-01 1.200000000000000000e+01
2.705095767974853960e+00 -3.613345861434936968e+00 -7.149055004119873047e-01 1.000000000000000000e+01
3.432981252670288086e+00 -4.588960647583007812e+00 -7.036736011505126953e-01 1.800000000000000000e+01
4.430387973785400391e+00 -5.924377441406250000e+00 -6.472185254096984863e-01 7.000000000000000000e+00
1.562126040458678977e+00 -2.098044633865356001e+00 -7.008819580078125000e-01 1.500000000000000000e+01
1.823979377746582031e+00 -2.451518058776855025e+00 -7.054464817047119141e-01 1.100000000000000000e+01
2.168707847595214844e+00 -2.915912389755249023e+00 -7.063748836517333984e-01 1.500000000000000000e+01
2.692466259002685991e+00 -3.622766256332397017e+00 -7.149055004119873047e-01 1.000000000000000000e+01
3.336459636688231978e+00 -4.492546558380126953e+00 -6.870993375778198242e-01 1.900000000000000000e+01
4.402555465698242188e+00 -5.930207729339599609e+00 -6.461727023124694824e-01 7.000000000000000000e+00
1.557869911193848100e+00 -2.108417034149169922e+00 -7.024348974227905273e-01 1.700000000000000000e+01
1.812666893005371094e+00 -2.455051183700561968e+00 -7.045466899871826172e-01 1.300000000000000000e+01
2.158005952835083008e+00 -2.923841476440430132e+00 -7.063748836517333984e-01 1.400000000000000000e+01
2.679170131683350053e+00 -3.632610321044921875e+00 -7.149055004119873047e-01 1.000000000000000000e+01
3.299950122833251953e+00 -4.477579116821289062e+00 -6.829558014869689941e-01 2.100000000000000000e+01
4.385517597198486328e+00 -5.952720165252686435e+00 -6.468698978424072266e-01 1.200000000000000000e+01
1.735045051574707031e+01 -2.356801033020019887e+01 -1.533757567405700906e+00 1.400000000000000000e+01
1.551643252372741921e+00 -2.115400075912476030e+00 -7.029525041580200195e-01 1.400000000000000000e+01
1.799477934837341087e+00 -2.455076694488524947e+00 -7.027471065521240234e-01 1.100000000000000000e+01
2.158229589462279829e+00 -2.945609569549560991e+00 -7.098094820976257324e-01 1.700000000000000000e+01
2.666473627090454102e+00 -3.641940355300902876e+00 -7.149055004119873047e-01 1.000000000000000000e+01
3.267890453338623047e+00 -4.466641902923583984e+00 -6.795434355735778809e-01 2.100000000000000000e+01
4.348245620727539062e+00 -5.945477962493895596e+00 -6.444295644760131836e-01 1.100000000000000000e+01
1.548798203468322976e+00 -2.127050161361693892e+00 -7.050230503082275391e-01 1.400000000000000000e+01
1.793190240859984907e+00 -2.464494705200194868e+00 -7.036468982696533203e-01 1.100000000000000000e+01
2.143315076828002930e+00 -2.946774482727050781e+00 -7.082830071449279785e-01 1.700000000000000000e+01
2.656067371368408203e+00 -3.654421567916870117e+00 -7.155312299728393555e-01 1.000000000000000000e+01
3.291941165924071822e+00 -4.532631397247313565e+00 -6.878305673599243164e-01 1.700000000000000000e+01
4.315760135650634766e+00 -5.944497108459472656e+00 -6.426864266395568848e-01 1.300000000000000000e+01
1.537968993186950906e+00 -2.127746582031250000e+00 -7.034701704978942871e-01 1.600000000000000000e+01
1.791422843933105025e+00 -2.480217456817626953e+00 -7.063463330268859863e-01 1.100000000000000000e+01
2.124971151351929155e+00 -2.943095922470093218e+00 -7.056116461753845215e-01 1.700000000000000000e+01
2.647917985916138139e+00 -3.670078516006470171e+00 -7.167826890945434570e-01 1.000000000000000000e+01
3.211087942123413086e+00 -4.453921794891357422e+00 -6.741812229156494141e-01 2.100000000000000000e+01
4.290324211120604581e+00 -5.953060150146484375e+00 -6.419891715049743652e-01 9.000000000000000000e+00
1.529406070709228960e+00 -2.131532430648804155e+00 -7.029525041580200195e-01 1.500000000000000000e+01
1.785025358200073020e+00 -2.489623069763184038e+00 -7.072461247444152832e-01 1.100000000000000000e+01
2.124978065490723100e+00 -2.964857101440430132e+00 -7.090462446212768555e-01 1.600000000000000000e+01
2.635090827941894975e+00 -3.679299116134643999e+00 -7.167826890945434570e-01 1.000000000000000000e+01
3.190900325775146040e+00 -4.458646297454833984e+00 -6.732062697410583496e-01 2.100000000000000000e+01
4.298499107360839844e+00 -6.008510112762451172e+00 -6.463469862937927246e-01 9.000000000000000000e+00
1.523077130317687988e+00 -2.138431549072266069e+00 -7.034701704978942871e-01 1.500000000000000000e+01
1.777454018592834029e+00 -2.497426509857178178e+00 -7.076960206031799316e-01 1.200000000000000000e+01
2.113477706909180132e+00 -2.970656871795653853e+00 -7.086645960807800293e-01 1.400000000000000000e+01
2.624520778656005859e+00 -3.691694974899291992e+00 -7.174084782600402832e-01 1.000000000000000000e+01
3.221302986145019975e+00 -4.534489631652832031e+00 -6.829558014869689941e-01 1.700000000000000000e+01
4.297110557556152344e+00 -6.051094055175781250e+00 -6.493102908134460449e-01 9.000000000000000000e+00
1.515603303909301980e+00 -2.143735170364379883e+00 -7.034701704978942871e-01 1.300000000000000000e+01
1.763103485107422097e+00 -2.495657682418822798e+00 -7.054464817047119141e-01 1.100000000000000000e+01
2.112155675888061968e+00 -2.990845441818236861e+00 -7.117175459861755371e-01 1.400000000000000000e+01
2.609340667724608931e+00 -3.697605848312377930e+00 -7.167826890945434570e-01 1.000000000000000000e+01
3.259222507476807085e+00 -4.621954917907714844e+00 -6.944115161895751953e-01 1.500000000000000000e+01
4.266778945922851562e+00 -6.053029060363770419e+00 -6.479157805442810059e-01 8.000000000000000000e+00
1.516988754272460938e+00 -2.161663055419921875e+00 -7.076112627983093262e-01 1.500000000000000000e+01
1.756618976593018022e+00 -2.504987955093383789e+00 -7.063463330268859863e-01 1.100000000000000000e+01
2.094941139221190962e+00 -2.988554477691649947e+00 -7.094278335571289062e-01 1.400000000000000000e+01
2.598684310913085938e+00 -3.709927320480347124e+00 -7.174084782600402832e-01 1.000000000000000000e+01
3.166801691055297852e+00 -4.524342060089111328e+00 -6.780810356140136719e-01 1.500000000000000000e+01
4.235343933105468750e+00 -6.053193569183349609e+00 -6.463469862937927246e-01 7.000000000000000000e+00
1.658405494689941051e+01 -2.371971321105957031e+01 -1.516800642013550027e+00 1.400000000000000000e+01
1.508329749107361062e+00 -2.165359973907471147e+00 -7.070936560630798340e-01 1.400000000000000000e+01
1.745637655258178933e+00 -2.507905483245850053e+00 -7.054464817047119141e-01 1.000000000000000000e+01
2.084496498107910156e+00 -2.995848894119263139e+00 -7.094278335571289062e-01 1.400000000000000000e+01
2.596994876861571822e+00 -3.735194683074951172e+00 -7.205371260643005371e-01 1.000000000000000000e+01
3.234804391860961914e+00 -4.656007289886474609e+00 -6.961176991462707520e-01 1.500000000000000000e+01
4.231235980987548828e+00 -6.092487812042236328e+00 -6.489616632461547852e-01 1.100000000000000000e+01
1.638728523254394887e+01 -2.361337280273437855e+01 -1.506333470344543013e+00 1.400000000000000000e+01
1.489775538444519043e+00 -2.154721498489379883e+00 -7.019172310829162598e-01 1.500000000000000000e+01
1.745734333992003950e+00 -2.526810169219971147e+00 -7.090457081794738770e-01 1.000000000000000000e+01
2.076257705688477007e+00 -3.006337881088256836e+00 -7.101910710334777832e-01 1.400000000000000000e+01
2.579452753067017046e+00 -3.737733840942382812e+00 -7.192856669425964355e-01 1.000000000000000000e+01
3.268117427825928178e+00 -4.739175319671630859e+00 -7.068421840667724609e-01 1.600000000000000000e+01
4.170365810394287109e+00 -6.049806118011474609e+00 -6.428607702255249023e-01 7.000000000000000000e+00
1.627756690979003906e+01 -2.363095664978026988e+01 -1.503821372985840066e+00 1.400000000000000000e+01
1.482245087623595969e+00 -2.159908771514893022e+00 -7.019172310829162598e-01 1.400000000000000000e+01
1.734699368476867898e+00 -2.529674291610718218e+00 -7.081459164619445801e-01 1.100000000000000000e+01
2.067970991134643999e+00 -3.016805648803710938e+00 -7.109543085098266602e-01 1.400000000000000000e+01
2.566390037536621094e+00 -3.746715068817139116e+00 -7.192856669425964355e-01 1.000000000000000000e+01
3.210069417953491211e+00 -4.689943790435791016e+00 -6.978238821029663086e-01 1.700000000000000000e+01
4.182974338531494141e+00 -6.113656997680664062e+00 -6.480901241302490234e-01 6.000000000000000000e+00
1.625134277343750000e+01 -2.377006912231444957e+01 -1.509055018424988015e+00 1.400000000000000000e+01
1.479046702384948953e+00 -2.171456336975098100e+00 -7.039877772331237793e-01 1.600000000000000000e+01
1.721472620964050071e+00 -2.529269933700561968e+00 -7.063463330268859863e-01 1.000000000000000000e+01
2.056323289871215820e+00 -3.022382736206055132e+00 -7.105727195739746094e-01 1.400000000000000000e+01
2.557738304138184038e+00 -3.762185096740723100e+00 -7.205371260643005371e-01 1.100000000000000000e+01
3.162444829940795898e+00 -4.655143737792968750e+00 -6.909991502761840820e-01 2.200000000000000000e+01
4.133625507354736328e+00 -6.087014675140380859e+00 -6.437323093414306641e-01 6.000000000000000000e+00
1.606733894348144887e+01 -2.367790985107421875e+01 -1.499634504318237083e+00 1.400000000000000000e+01
1.481195449829102007e+00 -2.191009759902954102e+00 -7.086465358734130859e-01 1.500000000000000000e+01
1.714815020561218040e+00 -2.538493394851685014e+00 -7.072461247444152832e-01 1.100000000000000000e+01
2.050155401229857954e+00 -3.036050319671630859e+00 -7.120991945266723633e-01 1.300000000000000000e+01
2.542380571365356001e+00 -3.767815351486206055e+00 -7.199113965034484863e-01 1.000000000000000000e+01
3.131749153137207031e+00 -4.644757747650145596e+00 -6.878305673599243164e-01 1.500000000000000000e+01
4.110125541687011719e+00 -6.098102092742919922e+00 -6.433836817741394043e-01 6.000000000000000000e+00
1.600913429260253906e+01 -2.377029609680176137e+01 -1.501937270164489968e+00 1.400000000000000000e+01
1.469232916831969993e+00 -2.189749956130981001e+00 -7.065759897232055664e-01 1.400000000000000000e+01
1.710284471511841042e+00 -2.550938129425048828e+00 -7.090457081794738770e-01 1.100000000000000000e+01
2.036266088485718218e+00 -3.038295507431029829e+00 -7.109543085098266602e-01 1.100000000000000000e+01
2.535807847976685014e+00 -3.786514997482299805e+00 -7.217886447906494141e-01 1.000000000000000000e+01
3.127660989761352983e+00 -4.673808574676513672e+00 -6.905117034912109375e-01 2.100000000000000000e+01
4.094353199005126953e+00 -6.120692253112792969e+00 -6.442552208900451660e-01 6.000000000000000000e+00
1.592162322998047053e+01 -2.381939315795898082e+01 -1.501518607139586958e+00 1.400000000000000000e+01
2.815798568725585938e+01 -4.215732955932617188e+01 -8.849068284034729004e-01 1.300000000000000000e+01
1.459438800811768022e+00 -2.191649198532104048e+00 -7.055407166481018066e-01 1.600000000000000000e+01
1.705687761306762917e+00 -2.563382148742675781e+00 -7.108453512191772461e-01 1.100000000000000000e+01
2.022386312484741211e+00 -3.040480852127075195e+00 -7.098094820976257324e-01 1.100000000000000000e+01
2.523668527603148970e+00 -3.796988725662231001e+00 -7.221015095710754395e-01 1.100000000000000000e+01
3.066299200057982954e+00 -4.616899490356445312e+00 -6.805183887481689453e-01 1.500000000000000000e+01
4.079574584960938388e+00 -6.144906044006347656e+00 -6.453011035919189453e-01 7.000000000000000000e+00
1.580746650695800959e+01 -2.382822227478026988e+01 -1.498587727546691895e+00 1.400000000000000000e+01
1.452844738960265891e+00 -2.198342084884643999e+00 -7.060583829879760742e-01 1.400000000000000000e+01
1.694581747055053933e+00 -2.566068172454833984e+00 -7.099454998970031738e-01 1.100000000000000000e+01
2.019331693649291992e+00 -3.058990955352783203e+00 -7.124807834625244141e-01 1.000000000000000000e+01
2.511487007141112837e+00 -3.807423591613769975e+00 -7.224143743515014648e-01 1.000000000000000000e+01
3.091678380966186968e+00 -4.690557479858398438e+00 -6.897804737091064453e-01 5.000000000000000000e+01
4.086601257324218750e+00 -6.202365875244140625e+00 -6.498332023620605469e-01 6.000000000000000000e+00
1.565829658508300959e+01 -2.378316497802734020e+01 -1.492307424545288086e+00 1.400000000000000000e+01
1.447281241416930930e+00 -2.206630706787108931e+00 -7.070936560630798340e-01 1.600000000000000000e+01
1.679205060005187988e+00 -2.562188386917113814e+00 -7.072461247444152832e-01 1.100000000000000000e+01
2.011869192123413086e+00 -3.070947885513306108e+00 -7.136256694793701172e-01 1.000000000000000000e+01
2.498181104660034180e+00 -3.816167116165161133e+00 -7.224143743515014648e-01 1.000000000000000000e+01
3.078546285629272017e+00 -4.706304550170898438e+00 -6.905117034912109375e-01 4.900000000000000000e+01
4.279730319976806641e+00 -6.545098781585693359e+00 -6.841725707054138184e-01 6.000000000000000000e+00
1.554240894317626953e+01 -2.378751754760741832e+01 -1.489167332649230957e+00 1.400000000000000000e+01
2.731115913391112926e+01 -4.181542587280272727e+01 1.153054141998291016e+01 1.400000000000000000e+01
1.441677570343018022e+00 -2.214907407760620117e+00 -7.081289291381835938e-01 1.400000000000000000e+01
1.678751111030579057e+00 -2.581103324890137163e+00 -7.108453512191772461e-01 1.300000000000000000e+01
2.003277540206909180e+00 -3.081243753433227983e+00 -7.143889069557189941e-01 1.000000000000000000e+01
2.489149808883666992e+00 -3.831490278244018999e+00 -7.236658334732055664e-01 1.000000000000000000e+01
3.079393386840819868e+00 -4.743662357330322266e+00 -6.944115161895751953e-01 2.200000000000000000e+01
4.298070430755615234e+00 -6.623508453369140625e+00 -6.907964348793029785e-01 5.000000000000000000e+00
1.547883892059325994e+01 -2.387179183959960938e+01 -1.491051435470581055e+00 1.400000000000000000e+01
2.777100181579589844e+01 -4.287818908691406250e+01 1.368842124938965021e+01 1.600000000000000000e+01
1.430792808532715066e+00 -2.215058088302611861e+00 -7.065759897232055664e-01 1.500000000000000000e+01
1.669731140136718972e+00 -2.586947441101074219e+00 -7.108453512191772461e-01 1.100000000000000000e+01
1.983994841575623003e+00 -3.075020313262939009e+00 -7.113359570503234863e-01 1.000000000000000000e+01
2.475760221481322798e+00 -3.840155601501464844e+00 -7.236658334732055664e-01 1.000000000000000000e+01
3.044540405273437944e+00 -4.726013183593750000e+00 -6.902679800987243652e-01 4.500000000000000000e+01
4.218831062316895419e+00 -6.551365375518798828e+00 -6.817322373390197754e-01 5.000000000000000000e+00
1.536515522003174006e+01 -2.387864875793457031e+01 -1.488120555877685991e+00 1.400000000000000000e+01
1.425137042999268022e+00 -2.223291873931885210e+00 -7.076112627983093262e-01 1.500000000000000000e+01
1.662792921066283958e+00 -2.596042156219481978e+00 -7.117451429367065430e-01 1.100000000000000000e+01
1.978541970252990945e+00 -3.090193986892700195e+00 -7.132440209388732910e-01 1.000000000000000000e+01
2.464469432830810991e+00 -3.852102279663085938e+00 -7.242915630340576172e-01 1.100000000000000000e+01
3.032301902770996094e+00 -4.743301868438720703e+00 -6.912429332733154297e-01 3.600000000000000000e+01
4.201301097869873047e+00 -6.574446201324462891e+00 -6.826037764549255371e-01 5.000000000000000000e+00
1.519571876525879084e+01 -2.379747009277344105e+01 -1.479746818542480025e+00 1.300000000000000000e+01
1.408036112785338911e+00 -2.213582754135131836e+00 -7.029525041580200195e-01 1.300000000000000000e+01
1.654766321182250977e+00 -2.603475093841553178e+00 -7.121950387954711914e-01 1.200000000000000000e+01
1.968796014785767046e+00 -3.098738670349121094e+00 -7.136256694793701172e-01 9.000000000000000000e+00
2.448890686035155806e+00 -3.857346057891846147e+00 -7.236658334732055664e-01 1.000000000000000000e+01
3.081655263900756836e+00 -4.857785701751708984e+00 -7.063547372817993164e-01 1.800000000000000000e+01
4.233809947967529297e+00 -6.676567077636718750e+00 -6.916679739952087402e-01 5.000000000000000000e+00
1.512110900878906072e+01 -2.386386489868164062e+01 -1.480584144592284934e+00 1.300000000000000000e+01
1.406487584114074929e+00 -2.228286027908325195e+00 -7.060583829879760742e-01 1.300000000000000000e+01
1.638391256332397017e+00 -2.597697496414185014e+00 -7.090457081794738770e-01 1.100000000000000000e+01
1.962155580520630105e+00 -3.112235069274901900e+00 -7.151521444320678711e-01 9.000000000000000000e+00
2.439622879028319868e+00 -3.872556209564208984e+00 -7.249172925949096680e-01 1.000000000000000000e+01
3.039299249649047852e+00 -4.828194141387938565e+00 -7.005049586296081543e-01 2.100000000000000000e+01
4.234883785247802734e+00 -6.730090141296386719e+00 -6.956771612167358398e-01 4.000000000000000000e+00
1.500794982910156072e+01 -2.386915969848633168e+01 -1.477653384208678977e+00 1.300000000000000000e+01
2.682645797729491832e+01 -4.271533584594727273e+01 1.351553058624267933e+01 1.600000000000000000e+01
1.402802586555480957e+00 -2.239730834960937944e+00 -7.081289291381835938e-01 1.300000000000000000e+01
1.631381273269653098e+00 -2.606704473495482954e+00 -7.099454998970031738e-01 1.100000000000000000e+01
1.948156118392943892e+00 -3.114072084426879883e+00 -7.140072584152221680e-01 1.000000000000000000e+01
2.428184270858765093e+00 -3.884398460388184038e+00 -7.255430221557617188e-01 1.000000000000000000e+01
3.014014005661011186e+00 -4.825304508209229404e+00 -6.985550522804260254e-01 4.000000000000000000e+01
4.026702880859375000e+00 -6.449079990386962891e+00 -6.651726365089416504e-01 3.000000000000000000e+00
1.487379360198974965e+01 -2.384006500244140980e+01 -1.472629189491271973e+00 1.300000000000000000e+01
2.648025894165039062e+01 -4.247618865966796875e+01 1.341200256347656072e+01 1.600000000000000000e+01
1.398035049438477007e+00 -2.249536275863647017e+00 -7.096818089485168457e-01 1.400000000000000000e+01
1.628440618515015093e+00 -2.622316360473632812e+00 -7.126449346542358398e-01 1.000000000000000000e+01
1.936238765716552956e+00 -3.119185447692871094e+00 -7.136256694793701172e-01 1.100000000000000000e+01
2.420857906341553178e+00 -3.902922868728638139e+00 -7.274202704429626465e-01 1.000000000000000000e+01
2.988786220550537109e+00 -4.822297573089599609e+00 -6.966051459312438965e-01 4.000000000000000000e+01
4.146872997283936435e+00 -6.693437576293945312e+00 -6.888790130615234375e-01 4.000000000000000000e+00
1.475053691864014027e+01 -2.382730674743651988e+01 -1.468651652336121050e+00 1.300000000000000000e+01
2.617199897766112926e+01 -4.232649230957031250e+01 1.333435726165770951e+01 1.500000000000000000e+01
1.383467674255371094e+00 -2.242650747299193892e+00 -7.060583829879760742e-01 1.500000000000000000e+01
1.623825907707213911e+00 -2.634337425231934038e+00 -7.144445776939392090e-01 1.000000000000000000e+01
1.925884485244750977e+00 -3.125589132308959961e+00 -7.136256694793701172e-01 1.100000000000000000e+01
2.405830621719359907e+00 -3.907565116882324219e+00 -7.267945408821105957e-01 1.000000000000000000e+01
2.976938962936400923e+00 -4.838945388793945312e+00 -6.975800991058349609e-01 4.000000000000000000e+01
4.092299938201904297e+00 -6.654540538787841797e+00 -6.834753155708312988e-01 5.000000000000000000e+00
1.465889358520507990e+01 -2.385567092895508168e+01 -1.467395544052124023e+00 1.300000000000000000e+01
2.621073722839355113e+01 -4.268837356567382812e+01 1.342235565185547053e+01 1.600000000000000000e+01
1.376639485359191895e+00 -2.249114036560059038e+00 -7.065759897232055664e-01 1.500000000000000000e+01
1.610553383827209029e+00 -2.633339881896973100e+00 -7.126449346542358398e-01 1.000000000000000000e+01
1.920082688331604004e+00 -3.140667676925659180e+00 -7.155337333679199219e-01 1.000000000000000000e+01
2.392176151275635210e+00 -3.915939092636107954e+00 -7.267945408821105957e-01 1.000000000000000000e+01
2.976577758789062944e+00 -4.876417160034179688e+00 -7.014799118041992188e-01 2.800000000000000000e+01
4.097065448760986328e+00 -6.714705944061279297e+00 -6.881817579269409180e-01 6.000000000000000000e+00
1.366381883621216042e+00 -2.250841856002808061e+00 -7.055407166481018066e-01 1.400000000000000000e+01
1.596848249435425027e+00 -2.632560491561890093e+00 -7.108453512191772461e-01 1.000000000000000000e+01
1.910594463348388894e+00 -3.151041746139525923e+00 -7.162969708442687988e-01 1.100000000000000000e+01
2.379854679107666016e+00 -3.928059577941894975e+00 -7.274202704429626465e-01 1.000000000000000000e+01
2.981301784515380859e+00 -4.924653530120849609e+00 -7.068421840667724609e-01 1.600000000000000000e+01
4.199304103851318359e+00 -6.939340591430664062e+00 -7.096220850944519043e-01 6.000000000000000000e+00
2.538156509399414062e+01 -4.199260330200195312e+01 1.132808494567870916e+01 1.400000000000000000e+01
2.648203086853026988e+01 -4.383055114746093750e+01 1.372155094146729049e+01 1.600000000000000000e+01
1.365493655204772949e+00 -2.267181873321533203e+00 -7.091642022132873535e-01 1.500000000000000000e+01
1.589658856391906960e+00 -2.641457796096802202e+00 -7.117451429367065430e-01 1.000000000000000000e+01
1.898571491241455078e+00 -3.156009435653686968e+00 -7.159153223037719727e-01 1.100000000000000000e+01
2.372234821319580078e+00 -3.946501255035399947e+00 -7.292974591255187988e-01 1.000000000000000000e+01
2.953872203826903853e+00 -4.918013095855712891e+00 -7.044048309326171875e-01 1.800000000000000000e+01
4.179157733917236328e+00 -6.960789203643798828e+00 -7.103192806243896484e-01 6.000000000000000000e+00
2.528494071960448863e+01 -4.216450881958007812e+01 1.135058021545409979e+01 1.400000000000000000e+01
2.612460136413573863e+01 -4.359920501708983664e+01 1.361905860900879084e+01 1.600000000000000000e+01
1.361535072326659934e+00 -2.278567790985106978e+00 -7.112347483634948730e-01 1.500000000000000000e+01
1.585423827171325906e+00 -2.655356645584106001e+00 -7.139946222305297852e-01 9.000000000000000000e+00
1.880500435829163042e+00 -3.150816679000854048e+00 -7.132440209388732910e-01 1.000000000000000000e+01
2.364515066146851030e+00 -3.964937448501586914e+00 -7.311747074127197266e-01 1.100000000000000000e+01
2.942784070968627930e+00 -4.938525676727294922e+00 -7.058672308921813965e-01 1.600000000000000000e+01
4.154834747314453125e+00 -6.975334644317626953e+00 -7.103192806243896484e-01 8.000000000000000000e+00
1.432018852233887074e+01 -2.406051445007323863e+01 -1.467395544052124023e+00 1.300000000000000000e+01
2.597987747192383168e+01 -4.368560028076171875e+01 1.361905860900879084e+01 1.600000000000000000e+01
1.347662329673767090e+00 -2.273335933685303178e+00 -7.081289291381835938e-01 1.600000000000000000e+01
1.582104206085205078e+00 -2.670934677124022993e+00 -7.166940569877624512e-01 1.000000000000000000e+01
1.877492666244507058e+00 -3.170876264572143999e+00 -7.162969708442687988e-01 1.000000000000000000e+01
2.348648786544799805e+00 -3.969766616821289062e+00 -7.305489778518676758e-01 1.100000000000000000e+01
2.396487998962401988e+01 -4.052239990234375000e+01 5.780506610870361328e+00 4.400000000000000000e+01
2.903303146362305132e+00 -4.911173820495604581e+00 -7.005049586296081543e-01 1.500000000000000000e+01
4.128433704376220703e+00 -6.986364841461181641e+00 -7.099706530570983887e-01 7.000000000000000000e+00
1.423611450195313033e+01 -2.411035537719726918e+01 -1.467395544052124023e+00 1.300000000000000000e+01
2.543569946289062855e+01 -4.309520721435546875e+01 1.155303668975830078e+01 1.500000000000000000e+01
2.602159500122069957e+01 -4.410546493530272727e+01 1.372155094146729049e+01 1.600000000000000000e+01
1.339718699455261008e+00 -2.278026103973389116e+00 -7.081289291381835938e-01 1.500000000000000000e+01
1.567834734916687012e+00 -2.668040275573730025e+00 -7.144445776939392090e-01 1.000000000000000000e+01
1.870390176773071067e+00 -3.184181928634643999e+00 -7.178234457969665527e-01 1.000000000000000000e+01
2.332777500152587891e+00 -3.974533557891846147e+00 -7.299231886863708496e-01 1.000000000000000000e+01
2.912252187728881836e+00 -4.965799331665039062e+00 -7.068421840667724609e-01 1.800000000000000000e+01
4.077823638916015625e+00 -6.956044197082520419e+00 -7.054385542869567871e-01 5.000000000000000000e+00
1.405091953277588068e+01 -2.398756408691405895e+01 -1.456928372383117898e+00 1.300000000000000000e+01
1.335652709007262962e+00 -2.289363384246826172e+00 -7.101994752883911133e-01 1.200000000000000000e+01
1.553604841232300027e+00 -2.665079116821289062e+00 -7.121950387954711914e-01 1.000000000000000000e+01
1.863217711448668990e+00 -3.197476387023925781e+00 -7.193499207496643066e-01 1.000000000000000000e+01
2.321871519088745117e+00 -3.987773656845093218e+00 -7.308618426322937012e-01 1.200000000000000000e+01
2.865951538085937944e+00 -4.926175117492675781e+00 -6.997737884521484375e-01 1.400000000000000000e+01
4.019462585449218750e+00 -6.911676883697509766e+00 -6.995120048522949219e-01 5.000000000000000000e+00
1.396710109710693004e+01 -2.403646659851073863e+01 -1.456928372383117898e+00 1.300000000000000000e+01
1.329989552497863992e+00 -2.297123670578002930e+00 -7.112347483634948730e-01 1.400000000000000000e+01
1.545734405517577903e+00 -2.671903133392333984e+00 -7.126449346542358398e-01 1.100000000000000000e+01
1.848672986030579057e+00 -3.196839332580565962e+00 -7.178234457969665527e-01 1.000000000000000000e+01
2.307646512985229048e+00 -3.993740797042847124e+00 -7.305489778518676758e-01 1.100000000000000000e+01
2.833719253540039062e+00 -4.908145904541015625e+00 -6.958739757537841797e-01 1.400000000000000000e+01
4.029385089874267578e+00 -6.981914043426513672e+00 -7.052642703056335449e-01 5.000000000000000000e+00
1.385339450836181996e+01 -2.402382278442383168e+01 -1.453369498252869096e+00 1.300000000000000000e+01
1.320038676261902078e+00 -2.298401832580565962e+00 -7.101994752883911133e-01 1.400000000000000000e+01
1.538338184356689009e+00 -2.680662870407104048e+00 -7.135447263717651367e-01 1.000000000000000000e+01
1.835548877716064009e+00 -3.199867010116577148e+00 -7.170602083206176758e-01 1.000000000000000000e+01
2.297621011734008789e+00 -4.008626937866210938e+00 -7.318004369735717773e-01 1.100000000000000000e+01
2.856030941009521040e+00 -4.986911296844482422e+00 -7.056235074996948242e-01 1.800000000000000000e+01
3.960445404052733931e+00 -6.918127059936523438e+00 -6.974202394485473633e-01 4.000000000000000000e+00
1.371788406372069957e+01 -2.398188400268555043e+01 -1.447926521301269975e+00 1.300000000000000000e+01
2.619324111938476918e+01 -4.582866668701171875e+01 1.414394283294677912e+01 1.700000000000000000e+01
1.305313825607300027e+00 -2.291245460510253906e+00 -7.065759897232055664e-01 1.400000000000000000e+01
1.538612008094788042e+00 -2.702952146530150923e+00 -7.180437445640563965e-01 1.000000000000000000e+01
1.827280879020690918e+00 -3.211373805999755859e+00 -7.182050347328186035e-01 1.100000000000000000e+01
2.285566806793212891e+00 -4.020057201385498047e+00 -7.324261665344238281e-01 1.100000000000000000e+01
2.823898077011107954e+00 -4.970959663391113281e+00 -7.019674181938171387e-01 1.600000000000000000e+01
3.945126771926879883e+00 -6.947502136230468750e+00 -6.989890336990356445e-01 3.000000000000000000e+00
1.366956996917724965e+01 -2.409215736389160156e+01 -1.451694726943969949e+00 1.300000000000000000e+01
1.300159215927124023e+00 -2.300833702087401900e+00 -7.081289291381835938e-01 1.500000000000000000e+01
1.525335073471068892e+00 -2.701518774032593218e+00 -7.162441611289978027e-01 1.100000000000000000e+01
1.822814702987670898e+00 -3.229700803756713867e+00 -7.208763957023620605e-01 1.000000000000000000e+01
2.273460865020751953e+00 -4.031452178955078125e+00 -7.330518960952758789e-01 1.100000000000000000e+01
2.321562385559082031e+01 -4.118428802490233664e+01 5.804880619049072266e+00 4.500000000000000000e+01
2.824069976806641069e+00 -5.011916637420654297e+00 -7.063547372817993164e-01 1.800000000000000000e+01
3.889562845230102983e+00 -6.905680179595947266e+00 -6.934111118316650391e-01 4.000000000000000000e+00
1.355012607574463068e+01 -2.407706642150878906e+01 -1.447926521301269975e+00 1.300000000000000000e+01
2.622812080383301137e+01 -4.666160202026367188e+01 1.434271621704101918e+01 1.800000000000000000e+01
1.297382950782776101e+00 -2.315695762634276900e+00 -7.112347483634948730e-01 1.500000000000000000e+01
1.509711861610413042e+00 -2.696888446807860884e+00 -7.135447263717651367e-01 1.000000000000000000e+01
1.809047698974608931e+00 -3.232933521270751953e+00 -7.201131582260131836e-01 1.000000000000000000e+01
2.250957489013671875e+00 -4.025964260101318359e+00 -7.305489778518676758e-01 1.100000000000000000e+01
2.796967983245850053e+00 -5.006636619567871094e+00 -7.041610479354858398e-01 2.400000000000000000e+01
3.965251684188843218e+00 -7.100801944732666016e+00 -7.115395069122314453e-01 5.000000000000000000e+00
1.345984172821044922e+01 -2.412308120727539062e+01 -1.447717189788817915e+00 1.300000000000000000e+01
1.290230035781859907e+00 -2.321898937225341797e+00 -7.117523550987243652e-01 1.600000000000000000e+01
1.504072666168212891e+00 -2.708956956863402876e+00 -7.153443694114685059e-01 1.000000000000000000e+01
1.799656987190247026e+00 -3.242661952972412109e+00 -7.208763957023620605e-01 1.000000000000000000e+01
2.244554519653319868e+00 -4.047617435455322266e+00 -7.330518960952758789e-01 1.100000000000000000e+01
2.797754287719727007e+00 -5.049360275268554688e+00 -7.087920904159545898e-01 1.800000000000000000e+01
3.970366239547729048e+00 -7.168630123138427734e+00 -7.169431447982788086e-01 4.000000000000000000e+00
1.336394977569580078e+01 -2.414894676208496094e+01 -1.446461200714111106e+00 1.300000000000000000e+01
2.564745712280273082e+01 -4.638372421264647727e+01 1.420191860198974965e+01 1.700000000000000000e+01
1.282929301261902078e+00 -2.325940847396851030e+00 -7.117523550987243652e-01 1.500000000000000000e+01
1.493673563003540039e+00 -2.710255384445189986e+00 -7.144445776939392090e-01 1.000000000000000000e+01
1.784724473953247070e+00 -3.239701747894287109e+00 -7.189682722091674805e-01 1.000000000000000000e+01
2.241353034973144975e+00 -4.071954250335693359e+00 -7.361806035041809082e-01 1.100000000000000000e+01
2.789530515670775923e+00 -5.072040081024169922e+00 -7.107419967651367188e-01 2.200000000000000000e+01
3.947825670242310014e+00 -7.181068420410156250e+00 -7.169431447982788086e-01 4.000000000000000000e+00
1.328801727294922053e+01 -2.419081115722655895e+01 -1.446461200714111106e+00 1.300000000000000000e+01
2.559385490417480113e+01 -4.665143966674804688e+01 1.425782394409180043e+01 1.800000000000000000e+01
1.268312454223633035e+00 -2.318541049957274947e+00 -7.081289291381835938e-01 1.500000000000000000e+01
1.573674583435058949e+01 -2.877951812744140980e+01 5.725436210632324219e-01 2.400000000000000000e+01
1.491680979728698953e+00 -2.729132652282714844e+00 -7.180437445640563965e-01 1.100000000000000000e+01
1.779994010925292969e+00 -3.257972002029418945e+00 -7.216396331787109375e-01 1.000000000000000000e+01
2.221446514129639116e+00 -4.069350242614746094e+00 -7.343033552169799805e-01 1.100000000000000000e+01
2.742341756820679155e+00 -5.027722358703613281e+00 -7.031860947608947754e-01 2.000000000000000000e+01
3.937041044235229048e+00 -7.221044063568115234e+00 -7.195578217506408691e-01 6.000000000000000000e+00
1.321496009826659979e+01 -2.425809478759765980e+01 -1.447717189788817915e+00 1.300000000000000000e+01
2.510216712951660156e+01 -4.613638305664063211e+01 1.407354450225830078e+01 1.700000000000000000e+01
1.263489723205565962e+00 -2.329967021942139116e+00 -7.101994752883911133e-01 1.400000000000000000e+01
1.479811549186706987e+00 -2.731154680252075195e+00 -7.171439528465270996e-01 1.200000000000000000e+01
1.764301061630249023e+00 -3.257568836212158203e+00 -7.201131582260131836e-01 1.000000000000000000e+01
2.202756166458129883e+00 -4.070515632629395419e+00 -7.330518960952758789e-01 1.100000000000000000e+01
2.296555519104003906e+01 -4.245619201660156250e+01 5.926749706268311435e+00 4.800000000000000000e+01
2.707844972610474077e+00 -5.008054733276367188e+00 -6.990425586700439453e-01 2.100000000000000000e+01
3.597931623458861861e+00 -6.657012462615966797e+00 -6.620350480079650879e-01 2.000000000000000000e+00
1.311457252502441051e+01 -2.428527832031250000e+01 -1.446461200714111106e+00 1.300000000000000000e+01
1.562989139556884943e+01 -2.896727180480957031e+01 -5.745332241058349609e-01 5.000000000000000000e+00
2.500993347167969105e+01 -4.637090301513671875e+01 1.411702632904052912e+01 1.700000000000000000e+01
1.260838747024535911e+00 -2.344571828842163086e+00 -7.133052945137023926e-01 1.400000000000000000e+01
1.549063682556151988e+01 -2.881741333007812855e+01 5.710776448249816895e-01 2.400000000000000000e+01
1.466579437255858931e+00 -2.729437112808227983e+00 -7.153443694114685059e-01 1.000000000000000000e+01
1.537409687042235973e+01 -2.861258506774901988e+01 1.702279329299926980e+00 1.700000000000000000e+01
1.755706191062927024e+00 -3.268896341323852983e+00 -7.212579846382141113e-01 9.000000000000000000e+00
2.195072412490845171e+00 -4.090363979339599609e+00 -7.352420091629028320e-01 1.200000000000000000e+01
2.676276206970214844e+00 -4.991234302520751953e+00 -6.953864693641662598e-01 1.500000000000000000e+01
1.297503376007080078e+01 -2.422879028320312855e+01 -1.440390229225158913e+00 1.300000000000000000e+01
2.363454055786133168e+01 -4.417074584960938211e+01 -8.744353652000427246e-01 1.300000000000000000e+01
1.252647042274475098e+00 -2.348958730697631836e+00 -7.133052945137023926e-01 1.200000000000000000e+01
1.535420608520507990e+01 -2.880425453186035156e+01 5.697512626647949219e-01 2.400000000000000000e+01
1.457959413528441939e+00 -2.736259698867797852e+00 -7.157942652702331543e-01 9.000000000000000000e+00
1.527412700653075994e+01 -2.866607666015625000e+01 1.702279329299926980e+00 1.700000000000000000e+01
1.739670395851135032e+00 -3.266340970993041992e+00 -7.193499207496643066e-01 1.000000000000000000e+01
2.178925037384033203e+00 -4.094513416290283203e+00 -7.346162199974060059e-01 1.200000000000000000e+01
2.672816514968872070e+00 -5.026836872100830078e+00 -6.990425586700439453e-01 1.500000000000000000e+01
3.919784545898437944e+00 -7.375147819519042969e+00 -7.307137250900268555e-01 2.000000000000000000e+00
1.285103797912598012e+01 -2.419984626770019887e+01 -1.435993909835814986e+00 1.300000000000000000e+01
1.240827679634094016e+00 -2.346485853195189986e+00 -7.112347483634948730e-01 1.500000000000000000e+01
1.526665019989014027e+01 -2.888242530822753906e+01 5.702399015426635742e-01 2.400000000000000000e+01
1.448399186134337935e+00 -2.741332292556763139e+00 -7.157942652702331543e-01 1.000000000000000000e+01
