-2.700967788696289062e+00 9.426912665367126465e-01 -6.604562997817993164e-01 1.500000000000000000e+01
-3.169462680816649947e+00 1.106825828552246094e+00 -6.525667905807495117e-01 1.300000000000000000e+01
-3.904690265655518022e+00 1.365108251571655051e+00 -6.551475524902343750e-01 9.000000000000000000e+00
-6.091222000122070312e+01 2.130728912353515980e+01 7.923457145690917969e+00 6.300000000000000000e+01
-5.040109157562255859e+00 1.764033555984497070e+00 -6.556570529937744141e-01 1.100000000000000000e+01
-7.081657886505126953e+00 2.479961395263671875e+00 -6.564570665359497070e-01 1.000000000000000000e+00
-3.334823226928710938e+01 1.170452785491943004e+01 -6.169076561927795410e-01 1.400000000000000000e+01
-2.319332361221313032e+00 8.176759481430053711e-01 -6.589533090591430664e-01 1.900000000000000000e+01
-6.086074447631835938e+01 2.146827697753905895e+01 1.126483082771301047e+00 4.900000000000000000e+01
-2.686634778976439986e+00 9.482222199440002441e-01 -6.577568650245666504e-01 1.500000000000000000e+01
-6.092223739624022727e+01 2.151388168334960938e+01 3.386031627655028853e+00 4.900000000000000000e+01
-3.165579795837401900e+00 1.117882609367371050e+00 -6.525667905807495117e-01 1.300000000000000000e+01
-3.883139610290526900e+00 1.372804045677185059e+00 -6.523317098617553711e-01 8.000000000000000000e+00
-6.088613128662108664e+01 2.153699493408203125e+01 7.929794311523438388e+00 6.300000000000000000e+01
-5.033920764923095703e+00 1.781616091728210005e+00 -6.556570529937744141e-01 1.100000000000000000e+01
-7.031639575958251953e+00 2.490034341812133789e+00 -6.526222229003906250e-01 2.000000000000000000e+00
-3.332601928710938211e+01 1.182755184173583984e+01 -6.172567009925842285e-01 1.400000000000000000e+01
-2.316463947296143022e+00 8.257669806480407715e-01 -6.589533090591430664e-01 1.800000000000000000e+01
-2.675966978073120117e+00 9.549745917320251465e-01 -6.559572815895080566e-01 1.500000000000000000e+01
-3.170902967453002930e+00 1.132226705551147017e+00 -6.544748544692993164e-01 1.300000000000000000e+01
-3.887624502182006836e+00 1.389675021171570046e+00 -6.538960933685302734e-01 9.000000000000000000e+00
-5.023932933807373047e+00 1.797839283943176047e+00 -6.551696062088012695e-01 1.100000000000000000e+01
-7.034159660339354581e+00 2.518593788146973100e+00 -6.536680459976196289e-01 2.000000000000000000e+00
-3.329582214355468750e+01 1.194786167144775035e+01 -6.174661517143249512e-01 7.000000000000000000e+00
-2.326289415359497070e+00 8.384330868721008301e-01 -6.625767350196838379e-01 1.800000000000000000e+01
-6.080344009399414062e+01 2.192655563354491832e+01 1.128228306770324929e+00 4.900000000000000000e+01
-2.674450397491455078e+00 9.649710059165954590e-01 -6.564071774482727051e-01 1.300000000000000000e+01
-3.154005050659180132e+00 1.138621807098388894e+00 -6.518035531044006348e-01 1.200000000000000000e+01
-3.882749795913695845e+00 1.403236865997314009e+00 -6.538960933685302734e-01 9.000000000000000000e+00
-5.006426811218261719e+00 1.811312913894653098e+00 -6.537071466445922852e-01 1.100000000000000000e+01
-7.010337829589843750e+00 2.537706851959228960e+00 -6.522735953330993652e-01 2.000000000000000000e+00
-1.187684154510498047e+01 4.304046630859375000e+00 -6.620498299598693848e-01 3.000000000000000000e+00
-3.324263381958007812e+01 1.205992126464843928e+01 -6.172567009925842285e-01 7.000000000000000000e+00
-2.312310695648192915e+00 8.429836630821228027e-01 -6.594709157943725586e-01 1.700000000000000000e+01
-6.081660079956054688e+01 2.218352699279785156e+01 1.129973530769347922e+00 4.900000000000000000e+01
-2.674556732177733931e+00 9.761031270027160645e-01 -6.573069691658020020e-01 1.400000000000000000e+01
-3.135057449340819868e+00 1.144786953926085982e+00 -6.487506031990051270e-01 1.200000000000000000e+01
-3.875725269317626953e+00 1.416780233383178933e+00 -6.535831689834594727e-01 8.000000000000000000e+00
-4.996026039123535156e+00 1.828285813331604004e+00 -6.532196998596191406e-01 1.100000000000000000e+01
-6.993505954742431641e+00 2.560643911361693892e+00 -6.515763401985168457e-01 2.000000000000000000e+00
-3.319070053100585938e+01 1.217892456054688033e+01 -6.171171069145202637e-01 7.000000000000000000e+00
-2.302103281021118164e+00 8.483778834342956543e-01 -6.574003696441650391e-01 1.900000000000000000e+01
-2.669305086135863814e+00 9.847586154937744141e-01 -6.568570733070373535e-01 1.400000000000000000e+01
-3.140251398086547852e+00 1.159122586250304954e+00 -6.506586670875549316e-01 1.200000000000000000e+01
-3.867050409317017046e+00 1.428930997848510964e+00 -6.529574394226074219e-01 8.000000000000000000e+00
-4.969133853912354404e+00 1.838138461112976074e+00 -6.505385637283325195e-01 8.000000000000000000e+00
-6.988262176513671875e+00 2.586423397064208984e+00 -6.519249677658081055e-01 1.000000000000000000e+00
-1.184573936462401988e+01 4.388924598693847656e+00 -6.620498299598693848e-01 3.000000000000000000e+00
-3.311798858642578125e+01 1.228358173370360973e+01 -6.165586113929748535e-01 1.400000000000000000e+01
-2.301087856292725053e+00 8.566813468933105469e-01 -6.579180359840393066e-01 1.900000000000000000e+01
-6.085158538818358664e+01 2.266677665710448863e+01 1.133463978767395020e+00 4.800000000000000000e+01
-2.664198637008666992e+00 9.929243922233581543e-01 -6.564071774482727051e-01 1.300000000000000000e+01
-3.138229846954346147e+00 1.170215606689452903e+00 -6.510403156280517578e-01 1.200000000000000000e+01
-3.851186752319335938e+00 1.437601804733275923e+00 -6.510802507400512695e-01 8.000000000000000000e+00
-4.996481895446777344e+00 1.867114186286926047e+00 -6.549258232116699219e-01 4.000000000000000000e+00
-6.938590049743652344e+00 2.594232559204102007e+00 -6.480901241302490234e-01 2.000000000000000000e+00
-1.183111953735351918e+01 4.428182125091552734e+00 -6.620498299598693848e-01 3.000000000000000000e+00
-3.314073944091796875e+01 1.241719245910645064e+01 -6.177453994750976562e-01 1.400000000000000000e+01
-2.294467210769652876e+00 8.633477091789245605e-01 -6.568827629089355469e-01 1.900000000000000000e+01
-6.077209091186522727e+01 2.287905120849609020e+01 1.133463978767395020e+00 4.800000000000000000e+01
-2.644303560256958008e+00 9.960358142852783203e-01 -6.523580551147460938e-01 1.100000000000000000e+01
-3.139637231826781782e+00 1.183240056037903054e+00 -6.521851420402526855e-01 1.200000000000000000e+01
-3.835055828094481978e+00 1.446852564811706987e+00 -6.492030024528503418e-01 8.000000000000000000e+00
-4.991791248321533203e+00 1.885245203971863015e+00 -6.551696062088012695e-01 8.000000000000000000e+00
-6.933219909667968750e+00 2.619845390319824219e+00 -6.484387516975402832e-01 2.000000000000000000e+00
-1.181558990478515980e+01 4.469453334808349609e+00 -6.620498299598693848e-01 3.000000000000000000e+00
-3.308223342895507812e+01 1.252713394165039062e+01 -6.174661517143249512e-01 1.400000000000000000e+01
-2.302273750305175781e+00 8.754715323448181152e-01 -6.599885821342468262e-01 1.900000000000000000e+01
-2.648095607757567915e+00 1.008033275604248047e+00 -6.541576385498046875e-01 1.000000000000000000e+01
-3.126314401626586914e+00 1.190698385238647017e+00 -6.502770781517028809e-01 1.100000000000000000e+01
-3.837365150451660156e+00 1.463045477867126021e+00 -6.504545211791992188e-01 8.000000000000000000e+00
-4.996307849884033203e+00 1.906905293464661089e+00 -6.566320061683654785e-01 1.100000000000000000e+01
-6.924032688140869141e+00 2.644031047821044922e+00 -6.484387516975402832e-01 3.000000000000000000e+00
-1.170663738250732067e+01 4.475012779235839844e+00 -6.568162441253662109e-01 3.000000000000000000e+00
-3.304577255249022727e+01 1.264539527893066051e+01 -6.176057457923889160e-01 1.400000000000000000e+01
-2.301007032394409180e+00 8.841955661773681641e-01 -6.605061888694763184e-01 1.900000000000000000e+01
-2.642742156982421875e+00 1.016571044921875000e+00 -6.537077426910400391e-01 9.000000000000000000e+00
-3.118474483489989790e+00 1.200193643569946067e+00 -6.495138406753540039e-01 1.200000000000000000e+01
-3.832234621047974077e+00 1.476431488990783913e+00 -6.504545211791992188e-01 8.000000000000000000e+00
-4.987768650054931641e+00 1.923619747161865012e+00 -6.563882827758789062e-01 9.000000000000000000e+00
-6.899890422821044922e+00 2.662446260452270952e+00 -6.470442414283752441e-01 2.000000000000000000e+00
-1.166486167907715021e+01 4.505774021148681641e+00 -6.553508639335632324e-01 3.000000000000000000e+00
-3.307603454589843750e+01 1.278951644897460938e+01 -6.190019249916076660e-01 1.400000000000000000e+01
-2.285145759582519975e+00 8.877263665199279785e-01 -6.568827629089355469e-01 1.900000000000000000e+01
-2.633549690246582031e+00 1.024131417274475098e+00 -6.523580551147460938e-01 8.000000000000000000e+00
-3.112225055694580078e+00 1.210903525352478027e+00 -6.491321921348571777e-01 1.100000000000000000e+01
-3.823116302490233931e+00 1.489033579826354980e+00 -6.498287916183471680e-01 8.000000000000000000e+00
-4.969587802886962891e+00 1.937561392784119096e+00 -6.549258232116699219e-01 9.000000000000000000e+00
-6.882661342620849609e+00 2.684821367263793945e+00 -6.463469862937927246e-01 2.000000000000000000e+00
-1.163338565826416016e+01 4.542685985565186435e+00 -6.545134782791137695e-01 3.000000000000000000e+00
-3.306618499755858664e+01 1.292522048950194957e+01 -6.197000741958618164e-01 1.400000000000000000e+01
-2.282032966613769975e+00 8.956976532936096191e-01 -6.568827629089355469e-01 1.900000000000000000e+01
-6.081112670898438211e+01 2.388060760498046875e+01 1.140375137329102007e+00 4.700000000000000000e+01
-2.620889902114868164e+00 1.029754877090454102e+00 -6.501085758209228516e-01 6.000000000000000000e+00
-3.111633539199829102e+00 1.223196268081665039e+00 -6.498954296112060547e-01 1.000000000000000000e+01
-3.810542583465576172e+00 1.499476313591002974e+00 -6.485772728919982910e-01 8.000000000000000000e+00
-4.970181941986083984e+00 1.957806825637816939e+00 -6.559008359909057617e-01 9.000000000000000000e+00
-6.876954555511474609e+00 2.710291147232056108e+00 -6.466956138610839844e-01 2.000000000000000000e+00
-3.295019149780272727e+01 1.301265335083007990e+01 -6.183736920356750488e-01 7.000000000000000000e+00
-2.289984226226807085e+00 9.071312546730041504e-01 -6.599885821342468262e-01 1.900000000000000000e+01
-2.621264934539794922e+00 1.039420127868651900e+00 -6.510083675384521484e-01 7.000000000000000000e+00
-3.104125499725341797e+00 1.231517791748047097e+00 -6.491321921348571777e-01 1.000000000000000000e+01
-6.091429519653320312e+01 2.417918777465819957e+01 5.733801841735839844e+00 4.600000000000000000e+01
-3.805813074111938032e+00 1.511440038681030051e+00 -6.485772728919982910e-01 8.000000000000000000e+00
-4.951094150543212891e+00 1.968278050422668013e+00 -6.541946530342102051e-01 1.100000000000000000e+01
-6.862852096557617188e+00 2.729673147201538086e+00 -6.461727023124694824e-01 3.000000000000000000e+00
-1.155104446411132990e+01 4.599054336547851562e+00 -6.515826582908630371e-01 3.000000000000000000e+00
-3.296858978271483664e+01 1.313979625701903942e+01 -6.194906234741210938e-01 1.400000000000000000e+01
-2.286803722381591797e+00 9.151192903518676758e-01 -6.599885821342468262e-01 1.900000000000000000e+01
-2.619429588317871094e+00 1.049288392066956010e+00 -6.514582633972167969e-01 8.000000000000000000e+00
-3.096163034439086914e+00 1.240884900093079057e+00 -6.483689546585083008e-01 1.000000000000000000e+01
-3.807847261428833008e+00 1.527657628059386985e+00 -6.498287916183471680e-01 8.000000000000000000e+00
-4.929456710815429688e+00 1.979630470275878906e+00 -6.522447466850280762e-01 1.100000000000000000e+01
-6.834794521331787109e+00 2.746184349060059038e+00 -6.444295644760131836e-01 3.000000000000000000e+00
-1.153492069244384943e+01 4.639347076416015625e+00 -6.515826582908630371e-01 3.000000000000000000e+00
-3.292623519897460938e+01 1.325629138946533025e+01 -6.195604205131530762e-01 2.100000000000000000e+01
-2.279852628707886186e+00 9.220460653305053711e-01 -6.589533090591430664e-01 1.900000000000000000e+01
-2.622791528701781782e+00 1.061807155609131081e+00 -6.532578468322753906e-01 1.300000000000000000e+01
-3.087954998016356978e+00 1.250750541687011941e+00 -6.476057171821594238e-01 1.100000000000000000e+01
-3.789408206939696822e+00 1.536408305168152078e+00 -6.476386785507202148e-01 9.000000000000000000e+00
-4.920328617095947266e+00 1.996937990188599077e+00 -6.520009636878967285e-01 9.000000000000000000e+00
-6.833913326263427734e+00 2.774964570999145952e+00 -6.453011035919189453e-01 3.000000000000000000e+00
-1.142532634735107067e+01 4.643990516662597656e+00 -6.463490724563598633e-01 3.000000000000000000e+00
-3.288483428955078125e+01 1.337989807128906072e+01 -6.197000741958618164e-01 1.400000000000000000e+01
-2.264101266860961914e+00 9.248847365379333496e-01 -6.553298234939575195e-01 1.700000000000000000e+01
-6.084630203247070312e+01 2.486808776855469105e+01 1.147356152534485085e+00 4.600000000000000000e+01
-2.617265462875366211e+00 1.070218324661255105e+00 -6.528079509735107422e-01 1.500000000000000000e+01
-3.085387229919434038e+00 1.262265324592590110e+00 -6.479873657226562500e-01 1.100000000000000000e+01
-3.780365943908690962e+00 1.548129200935363992e+00 -6.470129489898681641e-01 9.000000000000000000e+00
-4.924348354339599609e+00 2.018618583679199219e+00 -6.534634232521057129e-01 9.000000000000000000e+00
-6.805751800537109375e+00 2.791242122650146040e+00 -6.435580253601074219e-01 2.000000000000000000e+00
-1.150142765045166016e+01 4.721769809722900391e+00 -6.515826582908630371e-01 3.000000000000000000e+00
-3.288602066040039062e+01 1.351436805725098012e+01 -6.206075549125671387e-01 1.400000000000000000e+01
-2.255664110183715820e+00 9.301782250404357910e-01 -6.537768840789794922e-01 1.900000000000000000e+01
-2.608298063278197798e+00 1.076660990715027078e+00 -6.514582633972167969e-01 1.400000000000000000e+01
-3.092072010040283203e+00 1.276986241340636985e+00 -6.502770781517028809e-01 1.100000000000000000e+01
-3.769734621047974077e+00 1.558392763137816939e+00 -6.460743546485900879e-01 1.000000000000000000e+01
-4.899284839630126953e+00 2.027347087860106978e+00 -6.510260105133056641e-01 9.000000000000000000e+00
-6.800139904022216797e+00 2.815319776535034180e+00 -6.439066529273986816e-01 2.000000000000000000e+00
-1.130119705200194957e+01 4.683420181274414062e+00 -6.411154866218566895e-01 3.000000000000000000e+00
-3.287057876586914062e+01 1.363560676574707031e+01 -6.211660504341125488e-01 1.400000000000000000e+01
-2.257753372192382812e+00 9.402744174003601074e-01 -6.553298234939575195e-01 1.700000000000000000e+01
-6.086020660400391336e+01 2.535858917236328125e+01 1.150846600532531960e+00 4.500000000000000000e+01
-2.593731880187987837e+00 1.081260085105895996e+00 -6.487588286399841309e-01 1.400000000000000000e+01
-3.087595701217650923e+00 1.287771821022033913e+00 -6.502770781517028809e-01 1.100000000000000000e+01
-3.766094923019409180e+00 1.572303175926208052e+00 -6.463872194290161133e-01 9.000000000000000000e+00
-4.886683464050292969e+00 2.042140007019042969e+00 -6.502948403358459473e-01 1.100000000000000000e+01
-6.786594867706298828e+00 2.837502479553223100e+00 -6.435580253601074219e-01 3.000000000000000000e+00
-3.285597991943358664e+01 1.376417160034180043e+01 -6.217943429946899414e-01 1.400000000000000000e+01
-2.265142202377318892e+00 9.526433348655700684e-01 -6.584356427192687988e-01 1.800000000000000000e+01
-2.597126007080078125e+00 1.093331694602966087e+00 -6.505584716796875000e-01 1.400000000000000000e+01
-3.064988613128662109e+00 1.290921211242676003e+00 -6.464608907699584961e-01 1.200000000000000000e+01
-3.756942987442017046e+00 1.583904981613158958e+00 -6.457614898681640625e-01 9.000000000000000000e+00
-4.868552207946777344e+00 2.054554462432860884e+00 -6.488323807716369629e-01 1.100000000000000000e+01
-6.761964797973632812e+00 2.854974985122681108e+00 -6.421635150909423828e-01 2.000000000000000000e+00
-1.126822471618651988e+01 4.762202262878417969e+00 -6.411154866218566895e-01 3.000000000000000000e+00
-3.282983398437500000e+01 1.388812541961669922e+01 -6.222131848335266113e-01 7.000000000000000000e+00
-2.254690408706665039e+00 9.575237631797790527e-01 -6.563650965690612793e-01 1.800000000000000000e+01
-6.086573410034179688e+01 2.586104965209960938e+01 1.154337048530579057e+00 4.400000000000000000e+01
-2.593293666839600053e+00 1.102390766143799050e+00 -6.505584716796875000e-01 1.400000000000000000e+01
-3.055043697357178178e+00 1.299306988716125044e+00 -6.453160047531127930e-01 1.200000000000000000e+01
-3.758661508560181108e+00 1.600104451179503950e+00 -6.470129489898681641e-01 9.000000000000000000e+00
-4.861350536346436435e+00 2.071536302566527876e+00 -6.488323807716369629e-01 1.100000000000000000e+01
-6.744626522064208984e+00 2.875435829162598100e+00 -6.414662599563598633e-01 2.000000000000000000e+00
-1.125153350830077947e+01 4.801506996154785156e+00 -6.411154866218566895e-01 3.000000000000000000e+00
-3.281057739257813211e+01 1.401520729064941051e+01 -6.227716803550720215e-01 1.400000000000000000e+01
-2.238905906677246094e+00 9.600588679313659668e-01 -6.527416110038757324e-01 1.900000000000000000e+01
-2.593011379241942915e+00 1.112973570823668990e+00 -6.514582633972167969e-01 1.400000000000000000e+01
-3.055901527404785156e+00 1.312287211418152078e+00 -6.464608907699584961e-01 1.200000000000000000e+01
-3.749423503875731978e+00 1.611654758453368919e+00 -6.463872194290161133e-01 9.000000000000000000e+00
-4.854089736938476562e+00 2.088493108749390093e+00 -6.488323807716369629e-01 1.100000000000000000e+01
-6.716248035430908203e+00 2.891083955764770952e+00 -6.397231221199035645e-01 2.000000000000000000e+00
-1.123470401763916016e+01 4.840752601623535156e+00 -6.411154866218566895e-01 3.000000000000000000e+00
-3.280919647216796875e+01 1.415024185180664062e+01 -6.236792206764221191e-01 1.400000000000000000e+01
-2.237313747406005859e+00 9.686357975006103516e-01 -6.532592773437500000e-01 1.800000000000000000e+01
-6.086720657348632812e+01 2.636482048034667969e+01 1.157827496528625044e+00 4.400000000000000000e+01
-2.587322473526000977e+00 1.121243238449096902e+00 -6.510083675384521484e-01 1.500000000000000000e+01
-3.053103446960449219e+00 1.323727250099181907e+00 -6.468424797058105469e-01 1.200000000000000000e+01
-3.732902526855469194e+00 1.620014309883117898e+00 -6.445099711418151855e-01 9.000000000000000000e+00
-4.841308116912841797e+00 2.103051424026488814e+00 -6.481011509895324707e-01 1.100000000000000000e+01
-6.702460765838623047e+00 2.912922143936156782e+00 -6.393745541572570801e-01 2.000000000000000000e+00
-1.121773815155028942e+01 4.879939556121826172e+00 -6.411154866218566895e-01 3.000000000000000000e+00
-3.276327133178710938e+01 1.426627826690674006e+01 -6.237490177154541016e-01 7.000000000000000000e+00
-2.241170406341553178e+00 9.791433215141296387e-01 -6.553298234939575195e-01 1.800000000000000000e+01
-2.569306373596190962e+00 1.123570561408997026e+00 -6.474091410636901855e-01 1.500000000000000000e+01
-3.052294254302978960e+00 1.335418224334717019e+00 -6.476057171821594238e-01 1.100000000000000000e+01
-3.738366603851317915e+00 1.637138724327086958e+00 -6.463872194290161133e-01 9.000000000000000000e+00
-6.092166137695313211e+01 2.669202804565430043e+01 8.166707992553710938e+00 6.300000000000000000e+01
-4.832489490509033203e+00 2.118297338485718218e+00 -6.478574275970458984e-01 1.100000000000000000e+01
-6.685465812683104581e+00 2.931931495666503906e+00 -6.386772990226745605e-01 3.000000000000000000e+00
-1.120149421691895064e+01 4.917112350463867188e+00 -6.411154866218566895e-01 3.000000000000000000e+00
-3.272310256958007812e+01 1.437806415557860973e+01 -6.238886117935180664e-01 7.000000000000000000e+00
-2.234203815460205078e+00 9.854013323783874512e-01 -6.542945504188537598e-01 1.700000000000000000e+01
-2.560020446777344194e+00 1.130171179771422896e+00 -6.460594534873962402e-01 1.400000000000000000e+01
-3.042226552963256836e+00 1.343685030937195046e+00 -6.464608907699584961e-01 1.100000000000000000e+01
-3.721788883209228960e+00 1.645385622978210005e+00 -6.445099711418151855e-01 9.000000000000000000e+00
-6.094430541992188211e+01 2.695591163635253906e+01 8.182307243347167969e+00 6.300000000000000000e+01
-4.801466941833496094e+00 2.124710083007812944e+00 -6.446888446807861328e-01 1.100000000000000000e+01
-6.667903423309326172e+00 2.952023983001708984e+00 -6.379800438880920410e-01 2.000000000000000000e+00
-3.274948883056641336e+01 1.452625465393066051e+01 -6.253546476364135742e-01 7.000000000000000000e+00
-2.230577230453491211e+00 9.935834407806396484e-01 -6.542945504188537598e-01 2.000000000000000000e+01
-2.570099592208861861e+00 1.145894885063170943e+00 -6.496586203575134277e-01 1.400000000000000000e+01
-3.033695459365845171e+00 1.353226780891418013e+00 -6.456976532936096191e-01 1.100000000000000000e+01
-3.724751949310303178e+00 1.663042426109313965e+00 -6.460743546485900879e-01 9.000000000000000000e+00
-4.799084186553955078e+00 2.144723892211914062e+00 -6.454200148582458496e-01 1.100000000000000000e+01
-6.660676479339599609e+00 2.978069543838500977e+00 -6.383286714553833008e-01 2.000000000000000000e+00
-1.104934787750243963e+01 4.944926738739013672e+00 -6.344164609909057617e-01 3.000000000000000000e+00
-3.279822540283203125e+01 1.469196987152099965e+01 -6.273093223571777344e-01 7.000000000000000000e+00
-2.218285560607910156e+00 9.974024891853332520e-01 -6.517063379287719727e-01 1.900000000000000000e+01
-2.574969530105590820e+00 1.158858060836791992e+00 -6.519081592559814453e-01 1.500000000000000000e+01
-3.027163028717041016e+00 1.363002061843872070e+00 -6.453160047531127930e-01 1.100000000000000000e+01
-3.706317663192749023e+00 1.670352578163146973e+00 -6.438842415809631348e-01 9.000000000000000000e+00
-4.784330368041992188e+00 2.158197879791260210e+00 -6.444450616836547852e-01 1.100000000000000000e+01
-6.617552280426025391e+00 2.986549139022827148e+00 -6.351910233497619629e-01 3.000000000000000000e+00
-3.273580932617188211e+01 1.480142402648925959e+01 -6.270998716354370117e-01 7.000000000000000000e+00
-2.225521802902222124e+00 1.009541392326354980e+00 -6.548121571540832520e-01 1.900000000000000000e+01
-2.564014673233031782e+00 1.164168000221251997e+00 -6.501085758209228516e-01 1.500000000000000000e+01
-3.024414062500000000e+00 1.373844981193542036e+00 -6.456976532936096191e-01 1.100000000000000000e+01
-3.682775974273682085e+00 1.674457907676696999e+00 -6.407555937767028809e-01 9.000000000000000000e+00
-4.771726608276367188e+00 2.171584606170653853e+00 -6.437138915061950684e-01 9.000000000000000000e+00
-6.622118473052979404e+00 3.015082120895386186e+00 -6.365855336189270020e-01 2.000000000000000000e+00
-1.095000648498534979e+01 4.990205287933349609e+00 -6.306482553482055664e-01 3.000000000000000000e+00
-3.274112701416016336e+01 1.493479537963867010e+01 -6.281470060348510742e-01 7.000000000000000000e+00
-2.221984148025513139e+00 1.017303824424744096e+00 -6.548121571540832520e-01 1.900000000000000000e+01
-6.085194778442382812e+01 2.787304496765137074e+01 1.168298959732056108e+00 4.200000000000000000e+01
-2.551077604293822798e+00 1.169051766395569070e+00 -6.478590369224548340e-01 1.400000000000000000e+01
-3.019600152969359907e+00 1.384393811225890891e+00 -6.456976532936096191e-01 1.200000000000000000e+01
-3.684090137481689009e+00 1.690598607063293013e+00 -6.420070528984069824e-01 9.000000000000000000e+00
-4.764117717742919922e+00 2.188227653503417969e+00 -6.437138915061950684e-01 9.000000000000000000e+00
-6.604311943054199219e+00 3.034851551055908203e+00 -6.358882784843444824e-01 2.000000000000000000e+00
-1.093251991271973012e+01 5.028397560119628906e+00 -6.306482553482055664e-01 3.000000000000000000e+00
-3.280504608154296875e+01 1.510251235961914062e+01 -6.303809285163879395e-01 7.000000000000000000e+00
-2.225434303283690962e+00 1.028295040130615012e+00 -6.568827629089355469e-01 1.900000000000000000e+01
-2.539906263351439986e+00 1.174677491188049094e+00 -6.460594534873962402e-01 1.400000000000000000e+01
-3.007622241973876953e+00 1.391628026962280051e+00 -6.441711783409118652e-01 1.100000000000000000e+01
-3.681751251220703125e+00 1.705108404159545898e+00 -6.426327824592590332e-01 9.000000000000000000e+00
-4.751047134399414062e+00 2.202339649200439009e+00 -6.429826617240905762e-01 1.100000000000000000e+01
-6.593677997589111328e+00 3.057886362075806108e+00 -6.358882784843444824e-01 3.000000000000000000e+00
-3.275212860107421875e+01 1.521693134307860973e+01 -6.303809285163879395e-01 7.000000000000000000e+00
-2.213077068328856978e+00 1.031974792480468972e+00 -6.542945504188537598e-01 1.700000000000000000e+01
-2.548151493072510210e+00 1.189305663108825906e+00 -6.492087244987487793e-01 1.500000000000000000e+01
-2.988515138626099077e+00 1.395473003387450950e+00 -6.411182284355163574e-01 1.100000000000000000e+01
-3.673987388610839844e+00 1.717113375663757102e+00 -6.423199176788330078e-01 9.000000000000000000e+00
-6.097061920166016336e+01 2.850883674621582031e+01 8.264204025268554688e+00 6.300000000000000000e+01
-4.732542037963867188e+00 2.213863849639893022e+00 -6.415202021598815918e-01 1.100000000000000000e+01
-6.579354763031005859e+00 3.079195022583007812e+00 -6.355396509170532227e-01 2.000000000000000000e+00
-1.089714908599854049e+01 5.104597568511962891e+00 -6.306482553482055664e-01 3.000000000000000000e+00
-3.269881439208983664e+01 1.533116436004639027e+01 -6.303809285163879395e-01 7.000000000000000000e+00
-2.200721502304077148e+00 1.035580873489380105e+00 -6.517063379287719727e-01 1.900000000000000000e+01
-2.547510623931885210e+00 1.199853777885437012e+00 -6.501085758209228516e-01 1.500000000000000000e+01
-2.997833490371704102e+00 1.412591099739074929e+00 -6.441711783409118652e-01 1.100000000000000000e+01
-3.659037828445435014e+00 1.725714325904845969e+00 -6.407555937767028809e-01 9.000000000000000000e+00
-4.733761310577392578e+00 2.234606981277465820e+00 -6.427389383316040039e-01 1.300000000000000000e+01
-6.561360359191895419e+00 3.098739147186278853e+00 -6.348424553871154785e-01 2.000000000000000000e+00
-1.087926483154297053e+01 5.142604827880859375e+00 -6.306482553482055664e-01 3.000000000000000000e+00
-2.195348024368286133e+00 1.042427897453308105e+00 -6.511887311935424805e-01 2.000000000000000000e+01
-2.539786577224731001e+00 1.207065939903259055e+00 -6.492087244987487793e-01 1.500000000000000000e+01
-2.989338397979735884e+00 1.421360850334167036e+00 -6.434079408645629883e-01 1.100000000000000000e+01
-3.645857095718383789e+00 1.735080718994141069e+00 -6.395040750503540039e-01 9.000000000000000000e+00
-4.718763351440429688e+00 2.247702598571776900e+00 -6.417639851570129395e-01 9.000000000000000000e+00
-6.554100990295410156e+00 3.123337984085083008e+00 -6.351910233497619629e-01 3.000000000000000000e+00
-1.077111244201659979e+01 5.137557029724121094e+00 -6.254146695137023926e-01 3.000000000000000000e+00
-2.198664903640747070e+00 1.053423643112183061e+00 -6.532592773437500000e-01 1.700000000000000000e+01
-2.519743442535399947e+00 1.208340406417846902e+00 -6.451596021652221680e-01 1.400000000000000000e+01
-2.984358549118041992e+00 1.431786894798279031e+00 -6.434079408645629883e-01 1.100000000000000000e+01
-3.643339633941649947e+00 1.749506831169127974e+00 -6.401298046112060547e-01 9.000000000000000000e+00
-4.698364734649658203e+00 2.258141040802001953e+00 -6.400578022003173828e-01 1.100000000000000000e+01
-6.528793334960938388e+00 3.139289855957030806e+00 -6.337965726852416992e-01 3.000000000000000000e+00
-1.075311374664306996e+01 5.175124168395996094e+00 -6.254146695137023926e-01 3.000000000000000000e+00
-2.196713447570800781e+00 1.061932802200316939e+00 -6.537768840789794922e-01 1.900000000000000000e+01
-2.519018411636352983e+00 1.218826055526732954e+00 -6.460594534873962402e-01 1.400000000000000000e+01
-2.982876777648925781e+00 1.443906307220458984e+00 -6.441711783409118652e-01 1.100000000000000000e+01
-3.633655071258544922e+00 1.760491132736206055e+00 -6.395040750503540039e-01 9.000000000000000000e+00
-4.672591686248779297e+00 2.265866041183472124e+00 -6.376203894615173340e-01 1.000000000000000000e+01
-6.517795562744140625e+00 3.162060499191284180e+00 -6.337965726852416992e-01 3.000000000000000000e+00
-1.064515113830566051e+01 5.169007301330566406e+00 -6.201810836791992188e-01 3.000000000000000000e+00
-2.189520597457886186e+00 1.067900538444519043e+00 -6.527416110038757324e-01 1.900000000000000000e+01
-2.514748573303223100e+00 1.227611660957335982e+00 -6.460594534873962402e-01 1.400000000000000000e+01
-2.968997955322266069e+00 1.450001955032349077e+00 -6.422630548477172852e-01 1.200000000000000000e+01
-3.629262447357178178e+00 1.774031758308411089e+00 -6.398169398307800293e-01 1.000000000000000000e+01
-4.671786785125732422e+00 2.285652160644530806e+00 -6.385953426361083984e-01 1.000000000000000000e+01
-6.485243797302246094e+00 3.174281597137451172e+00 -6.317048072814941406e-01 3.000000000000000000e+00
-1.062704277038574041e+01 5.206134319305419922e+00 -6.201810836791992188e-01 3.000000000000000000e+00
-2.175379514694213867e+00 1.070419430732727051e+00 -6.496357917785644531e-01 1.800000000000000000e+01
-2.517441034317017046e+00 1.239826321601867898e+00 -6.478590369224548340e-01 1.400000000000000000e+01
-2.963918447494506836e+00 1.460356831550597922e+00 -6.422630548477172852e-01 1.200000000000000000e+01
-3.621276140213013139e+00 1.785815715789794922e+00 -6.395040750503540039e-01 1.000000000000000000e+01
-4.658439636230468750e+00 2.299309968948363814e+00 -6.378641724586486816e-01 9.000000000000000000e+00
-6.475910663604736328e+00 3.197782278060913086e+00 -6.318791508674621582e-01 3.000000000000000000e+00
-1.060880565643311080e+01 5.243197917938232422e+00 -6.201810836791992188e-01 3.000000000000000000e+00
-2.172005891799927202e+00 1.077248215675354004e+00 -6.496357917785644531e-01 1.900000000000000000e+01
-2.510042667388916016e+00 1.245995998382567915e+00 -6.469592452049255371e-01 1.300000000000000000e+01
-2.957557439804077148e+00 1.468787789344788042e+00 -6.418814659118652344e-01 1.200000000000000000e+01
-3.596189975738524947e+00 1.787511706352234109e+00 -6.360625624656677246e-01 1.000000000000000000e+01
-4.652970314025878906e+00 2.314817667007445845e+00 -6.381078958511352539e-01 1.000000000000000000e+01
-6.458697795867919922e+00 3.214560031890869141e+00 -6.311818957328796387e-01 3.000000000000000000e+00
-1.059228134155273082e+01 5.276500701904296875e+00 -6.201810836791992188e-01 3.000000000000000000e+00
-2.166504621505736861e+00 1.083958983421325906e+00 -6.491181850433349609e-01 1.900000000000000000e+01
-2.502192974090576172e+00 1.253004908561706987e+00 -6.460594534873962402e-01 1.300000000000000000e+01
-2.959433794021606001e+00 1.482620120048522949e+00 -6.434079408645629883e-01 1.100000000000000000e+01
-3.598757505416870117e+00 1.804481029510498047e+00 -6.376268863677978516e-01 9.000000000000000000e+00
-4.632442474365234375e+00 2.324812889099121094e+00 -6.364017128944396973e-01 9.000000000000000000e+00
-6.431412220001220703e+00 3.229039669036864790e+00 -6.296131014823913574e-01 3.000000000000000000e+00
-1.050598335266112926e+01 5.279364585876464844e+00 -6.162035465240478516e-01 3.000000000000000000e+00
-2.167690753936768022e+00 1.094504594802856001e+00 -6.506710648536682129e-01 1.900000000000000000e+01
-2.497583627700806108e+00 1.262167453765868919e+00 -6.460594534873962402e-01 1.400000000000000000e+01
-2.948723554611206055e+00 1.490799665451050027e+00 -6.422630548477172852e-01 1.200000000000000000e+01
-3.590357065200806108e+00 1.816767096519469993e+00 -6.373140215873718262e-01 1.000000000000000000e+01
-4.611494064331054688e+00 2.335497856140137163e+00 -6.346955299377441406e-01 9.000000000000000000e+00
-6.444416046142578125e+00 3.265197277069091797e+00 -6.320534348487854004e-01 2.000000000000000000e+00
-1.043312358856200994e+01 5.290736198425292969e+00 -6.130633950233459473e-01 3.000000000000000000e+00
-2.158692598342895952e+00 1.099434256553649902e+00 -6.491181850433349609e-01 1.900000000000000000e+01
-2.493162631988524947e+00 1.270877957344054954e+00 -6.460594534873962402e-01 1.400000000000000000e+01
-2.933007955551147017e+00 1.495732069015502930e+00 -6.399733424186706543e-01 1.300000000000000000e+01
-3.585752964019774947e+00 1.830186724662780984e+00 -6.376268863677978516e-01 9.000000000000000000e+00
-4.608616828918457031e+00 2.354289770126343218e+00 -6.354267597198486328e-01 7.000000000000000000e+00
-6.425882816314697266e+00 3.284045696258544922e+00 -6.313561797142028809e-01 2.000000000000000000e+00
-1.040392303466797053e+01 5.321665287017822266e+00 -6.124353408813476562e-01 3.000000000000000000e+00
-2.151405096054077148e+00 1.105197310447693093e+00 -6.480829119682312012e-01 1.900000000000000000e+01
-2.493910551071166992e+00 1.282246232032776101e+00 -6.474091410636901855e-01 1.300000000000000000e+01
-2.924277305603026900e+00 1.504165053367614968e+00 -6.392101049423217773e-01 1.200000000000000000e+01
-3.582855224609375000e+00 1.844500541687011941e+00 -6.382526159286499023e-01 9.000000000000000000e+00
-4.589782714843750000e+00 2.364907264709473100e+00 -6.339643001556396484e-01 6.000000000000000000e+00
-6.382503032684326172e+00 3.290024518966674805e+00 -6.282185912132263184e-01 3.000000000000000000e+00
-1.037818336486816051e+01 5.354286193847656250e+00 -6.120166778564453125e-01 3.000000000000000000e+00
-2.149249315261840820e+00 1.113589167594909890e+00 -6.486005187034606934e-01 1.900000000000000000e+01
-2.477309703826903853e+00 1.284664034843445046e+00 -6.442598104476928711e-01 1.600000000000000000e+01
-2.922494411468505859e+00 1.516171693801880105e+00 -6.399733424186706543e-01 1.200000000000000000e+01
-3.548344612121582031e+00 1.842431187629699929e+00 -6.332467198371887207e-01 7.000000000000000000e+00
-4.572692871093750000e+00 2.376337289810181108e+00 -6.327456235885620117e-01 7.000000000000000000e+00
-6.378050804138183594e+00 3.315959692001343218e+00 -6.289158463478088379e-01 2.000000000000000000e+00
-1.032399559020995916e+01 5.372041702270507812e+00 -6.099232435226440430e-01 3.000000000000000000e+00
-2.150681734085083008e+00 1.123393416404723899e+00 -6.501534581184387207e-01 1.900000000000000000e+01
-6.091568374633789062e+01 3.183241462707519887e+01 1.199713349342345969e+00 3.600000000000000000e+01
-2.471308946609497070e+00 1.291969180107116921e+00 -6.438099145889282227e-01 1.500000000000000000e+01
-2.922669649124145952e+00 1.528584361076354980e+00 -6.411182284355163574e-01 1.200000000000000000e+01
-3.542215585708618164e+00 1.854187726974487083e+00 -6.332467198371887207e-01 4.000000000000000000e+00
-6.102883911132813211e+01 3.195937538146973012e+01 8.458707809448242188e+00 6.300000000000000000e+01
-4.580612659454345703e+00 2.399778604507445845e+00 -6.349392533302307129e-01 9.000000000000000000e+00
-6.367019653320313388e+00 3.337091922760010210e+00 -6.289158463478088379e-01 3.000000000000000000e+00
-1.030612373352050959e+01 5.406247615814208984e+00 -6.099232435226440430e-01 3.000000000000000000e+00
-2.145037889480590820e+00 1.129993557929992898e+00 -6.496357917785644531e-01 1.800000000000000000e+01
-2.454717397689818892e+00 1.294225692749022993e+00 -6.406605839729309082e-01 1.400000000000000000e+01
-2.912106513977050781e+00 1.536029219627379927e+00 -6.399733424186706543e-01 1.300000000000000000e+01
-3.558431148529053178e+00 1.878529787063599077e+00 -6.373140215873718262e-01 6.000000000000000000e+00
-6.091690826416016336e+01 3.217221069335938211e+01 8.458707809448242188e+00 6.300000000000000000e+01
-4.559922218322753906e+00 2.409261941909790039e+00 -6.332331299781799316e-01 1.000000000000000000e+01
-6.358855247497558594e+00 3.361158609390258789e+00 -6.292644739151000977e-01 2.000000000000000000e+00
-1.028719043731688920e+01 5.442190170288085938e+00 -6.099232435226440430e-01 3.000000000000000000e+00
-2.140882015228271040e+00 1.137847900390625000e+00 -6.496357917785644531e-01 1.800000000000000000e+01
-2.465441703796387163e+00 1.311450600624084029e+00 -6.447097063064575195e-01 1.600000000000000000e+01
-2.899524688720703125e+00 1.543003082275391069e+00 -6.384469270706176758e-01 1.300000000000000000e+01
-3.544548273086547852e+00 1.887845039367676003e+00 -6.360625624656677246e-01 8.000000000000000000e+00
-4.551061153411865234e+00 2.425958633422852007e+00 -6.332331299781799316e-01 1.000000000000000000e+01
-6.328912734985351562e+00 3.375067234039307085e+00 -6.275213360786437988e-01 2.000000000000000000e+00
-1.026717472076416016e+01 5.479857921600341797e+00 -6.099232435226440430e-01 3.000000000000000000e+00
-2.126680850982666016e+00 1.139838457107543945e+00 -6.465299725532531738e-01 2.000000000000000000e+01
-2.462566137313843218e+00 1.320969820022583008e+00 -6.451596021652221680e-01 1.400000000000000000e+01
-2.883741378784180132e+00 1.547544836997986062e+00 -6.361572146415710449e-01 1.400000000000000000e+01
-3.534456253051757812e+00 1.898336887359618919e+00 -6.354367733001708984e-01 1.000000000000000000e+01
-4.546061992645263672e+00 2.443709850311278853e+00 -6.337205767631530762e-01 1.000000000000000000e+01
-6.303055286407470703e+00 3.389589548110961914e+00 -6.261268854141235352e-01 2.000000000000000000e+00
-1.024798297882080078e+01 5.515663623809813565e+00 -6.099232435226440430e-01 3.000000000000000000e+00
-2.129688024520874023e+00 1.150557398796081987e+00 -6.486005187034606934e-01 1.900000000000000000e+01
-2.449600934982299805e+00 1.324494361877440962e+00 -6.429101228713989258e-01 1.500000000000000000e+01
-2.887227773666381836e+00 1.561769604682921919e+00 -6.380652785301208496e-01 1.400000000000000000e+01
-3.519455909729003906e+00 1.905344963073730025e+00 -6.338724493980407715e-01 9.000000000000000000e+00
-4.541424274444580078e+00 2.460663080215454102e+00 -6.342080831527709961e-01 1.000000000000000000e+01
-6.302289962768554688e+00 3.416169404983520952e+00 -6.271727085113525391e-01 2.000000000000000000e+00
-1.022963619232177912e+01 5.549616813659667969e+00 -6.099232435226440430e-01 3.000000000000000000e+00
-2.123962402343750000e+00 1.157060265541077104e+00 -6.480829119682312012e-01 1.900000000000000000e+01
-2.438118934631348100e+00 1.329305648803710938e+00 -6.411104798316955566e-01 1.600000000000000000e+01
-2.874864578247069868e+00 1.568077921867371050e+00 -6.365388035774230957e-01 1.400000000000000000e+01
-3.516251325607299805e+00 1.919511556625365989e+00 -6.344981789588928223e-01 9.000000000000000000e+00
-4.536291122436523438e+00 2.478404045104980025e+00 -6.346955299377441406e-01 1.000000000000000000e+01
-6.272843837738037109e+00 3.428591966629027876e+00 -6.254296302795410156e-01 2.000000000000000000e+00
-1.021020221710205078e+01 5.585290908813476562e+00 -6.099232435226440430e-01 3.000000000000000000e+00
-2.128172636032104048e+00 1.169489145278931108e+00 -6.506710648536682129e-01 2.000000000000000000e+01
-6.092733383178710938e+01 3.349508285522460938e+01 1.213605403900146040e+00 3.400000000000000000e+01
-2.428107738494873047e+00 1.335415482521056907e+00 -6.397607922554016113e-01 1.400000000000000000e+01
-2.869097948074340820e+00 1.578604340553283913e+00 -6.365388035774230957e-01 1.600000000000000000e+01
-3.505731582641602007e+00 1.930480599403380904e+00 -6.338724493980407715e-01 9.000000000000000000e+00
-4.516745567321777344e+00 2.489264965057373047e+00 -6.332331299781799316e-01 1.000000000000000000e+01
-6.253256320953369141e+00 3.447712182998656782e+00 -6.247323751449584961e-01 3.000000000000000000e+00
-1.012670993804931996e+01 5.587938308715820312e+00 -6.061550378799438477e-01 3.000000000000000000e+00
-2.117318153381348100e+00 1.173165559768676980e+00 -6.486005187034606934e-01 2.000000000000000000e+01
-2.426840066909790039e+00 1.345773220062256081e+00 -6.406605839729309082e-01 1.400000000000000000e+01
-2.856703042984008789e+00 1.584800124168395996e+00 -6.350123286247253418e-01 1.700000000000000000e+01
-3.502425670623778853e+00 1.944623947143554910e+00 -6.344981789588928223e-01 9.000000000000000000e+00
-4.497617721557617188e+00 2.499230861663817915e+00 -6.317706704139709473e-01 1.000000000000000000e+01
-6.216804027557373047e+00 3.455966234207152876e+00 -6.222919821739196777e-01 3.000000000000000000e+00
-1.010714244842528942e+01 5.623252868652343750e+00 -6.061550378799438477e-01 3.000000000000000000e+00
-2.106669425964355025e+00 1.176412820816040039e+00 -6.465299725532531738e-01 1.900000000000000000e+01
-2.439374923706055132e+00 1.363320589065551980e+00 -6.451596021652221680e-01 1.300000000000000000e+01
-2.849718332290648970e+00 1.593306541442871094e+00 -6.346307396888732910e-01 1.400000000000000000e+01
-3.495957851409912109e+00 1.956227779388427956e+00 -6.344981789588928223e-01 9.000000000000000000e+00
-4.489305496215820312e+00 2.514131784439086914e+00 -6.317706704139709473e-01 1.000000000000000000e+01
-6.191403865814208984e+00 3.468772411346435991e+00 -6.208975315093994141e-01 2.000000000000000000e+00
-1.006404972076416016e+01 5.643063068389892578e+00 -6.046896576881408691e-01 3.000000000000000000e+00
-2.099183320999145952e+00 1.181863784790039062e+00 -6.454946994781494141e-01 1.900000000000000000e+01
-2.419321298599243164e+00 1.363217473030090110e+00 -6.411104798316955566e-01 1.300000000000000000e+01
-2.849269866943358931e+00 1.606136322021483931e+00 -6.357755661010742188e-01 1.200000000000000000e+01
-3.475344181060791016e+00 1.960654020309448020e+00 -6.319952607154846191e-01 9.000000000000000000e+00
-4.477045059204101562e+00 2.527835130691527876e+00 -6.312832236289978027e-01 1.000000000000000000e+01
-6.189666271209716797e+00 3.496242523193358931e+00 -6.219433546066284180e-01 3.000000000000000000e+00
-1.000256252288818004e+01 5.654569625854492188e+00 -6.021775007247924805e-01 3.000000000000000000e+00
-2.099877119064331055e+00 1.192411541938781960e+00 -6.470476388931274414e-01 1.900000000000000000e+01
-2.407531499862670898e+00 1.368224143981934038e+00 -6.393108963966369629e-01 1.300000000000000000e+01
-2.850190877914429155e+00 1.620450019836426003e+00 -6.373020410537719727e-01 1.100000000000000000e+01
-3.469851732254027876e+00 1.974355578422545943e+00 -6.323081254959106445e-01 1.000000000000000000e+01
-4.462574958801270419e+00 2.541280269622803178e+00 -6.305519938468933105e-01 9.000000000000000000e+00
-6.169885635375976562e+00 3.514960527420043945e+00 -6.212461590766906738e-01 3.000000000000000000e+00
-9.936658859252929688e+00 5.665472030639648438e+00 -5.994560718536376953e-01 3.000000000000000000e+00
-2.104084968566894975e+00 1.204533100128174050e+00 -6.496357917785644531e-01 2.000000000000000000e+01
-2.406122684478760210e+00 1.378557205200195090e+00 -6.402106881141662598e-01 1.300000000000000000e+01
-2.832593917846680132e+00 1.623555183410644975e+00 -6.346307396888732910e-01 1.200000000000000000e+01
-3.456084728240966797e+00 1.982523918151855025e+00 -6.310566067695617676e-01 1.000000000000000000e+01
-4.429574966430664062e+00 2.543005466461182085e+00 -6.271396279335021973e-01 1.000000000000000000e+01
-6.143756866455078125e+00 3.528537750244141069e+00 -6.198516488075256348e-01 3.000000000000000000e+00
-9.916822433471679688e+00 5.700122833251953125e+00 -5.994560718536376953e-01 3.000000000000000000e+00
-2.090038776397705078e+00 1.205711841583251953e+00 -6.465299725532531738e-01 1.700000000000000000e+01
-2.408288717269897017e+00 1.390426039695739968e+00 -6.420103311538696289e-01 1.400000000000000000e+01
-2.830594539642333984e+00 1.634903311729430930e+00 -6.353939771652221680e-01 1.200000000000000000e+01
-3.459752798080443892e+00 1.999905347824096902e+00 -6.329338550567626953e-01 1.000000000000000000e+01
-4.434864044189453125e+00 2.565632820129394975e+00 -6.290895342826843262e-01 9.000000000000000000e+00
-6.114778041839599609e+00 3.538911819458007812e+00 -6.181085109710693359e-01 2.000000000000000000e+00
-9.897865295410156250e+00 5.732976913452148438e+00 -5.994560718536376953e-01 3.000000000000000000e+00
-2.075797319412231001e+00 1.207173109054564986e+00 -6.434241533279418945e-01 1.800000000000000000e+01
-2.410157442092895952e+00 1.402745127677917036e+00 -6.438099145889282227e-01 1.300000000000000000e+01
-2.823173761367797852e+00 1.643786072731018066e+00 -6.350123286247253418e-01 1.300000000000000000e+01
-3.444216966629027876e+00 2.006997108459473100e+00 -6.313694715499877930e-01 1.100000000000000000e+01
-3.630243682861328125e+01 2.116246604919433949e+01 5.159460544586181641e+00 2.800000000000000000e+01
-4.417307376861572266e+00 2.576097488403319868e+00 -6.278708577156066895e-01 1.000000000000000000e+01
-6.109271526336669922e+00 3.564250707626343218e+00 -6.188057661056518555e-01 2.000000000000000000e+00
-9.877793312072753906e+00 5.767491817474365234e+00 -5.994560718536376953e-01 3.000000000000000000e+00
-2.073025226593018022e+00 1.215750455856323020e+00 -6.439417600631713867e-01 1.900000000000000000e+01
-2.394916057586669922e+00 1.405650854110717995e+00 -6.411104798316955566e-01 1.400000000000000000e+01
-2.818823099136352983e+00 1.655116558074950950e+00 -6.353939771652221680e-01 1.200000000000000000e+01
-3.430025577545166016e+00 2.015604257583618164e+00 -6.301180124282836914e-01 1.100000000000000000e+01
-3.600215911865233664e+01 2.116459655761719105e+01 5.127774715423583984e+00 2.700000000000000000e+01
-4.404413700103759766e+00 2.590257883071898970e+00 -6.273833513259887695e-01 1.000000000000000000e+01
-6.068690776824951172e+00 3.570453405380249023e+00 -6.160168051719665527e-01 2.000000000000000000e+00
-9.729228973388671875e+00 5.728666782379150391e+00 -5.917103290557861328e-01 3.000000000000000000e+00
-2.077083826065063032e+00 1.227894783020019975e+00 -6.465299725532531738e-01 1.700000000000000000e+01
-6.087789535522460938e+01 3.600308609008789062e+01 1.234548330307007058e+00 3.000000000000000000e+01
-2.383285999298096147e+00 1.410032987594604048e+00 -6.393108963966369629e-01 1.400000000000000000e+01
-2.814718008041381836e+00 1.665946006774901900e+00 -6.357755661010742188e-01 1.200000000000000000e+01
-3.421269178390502930e+00 2.026558160781859907e+00 -6.298051476478576660e-01 1.000000000000000000e+01
-4.395345211029052734e+00 2.605616331100463867e+00 -6.273833513259887695e-01 1.000000000000000000e+01
-6.069900512695313388e+00 3.599745750427246094e+00 -6.174112558364868164e-01 2.000000000000000000e+00
-9.705738067626953125e+00 5.760554313659667969e+00 -5.915009975433349609e-01 3.000000000000000000e+00
-2.076104164123535156e+00 1.237115383148192915e+00 -6.475652456283569336e-01 2.000000000000000000e+01
-2.378349542617797852e+00 1.418343544006348100e+00 -6.393108963966369629e-01 1.300000000000000000e+01
-2.797083616256713867e+00 1.668720006942749023e+00 -6.331042647361755371e-01 1.200000000000000000e+01
-3.419262647628784180e+00 2.041526317596435991e+00 -6.307437419891357422e-01 1.100000000000000000e+01
-4.372590541839599609e+00 2.612797021865845171e+00 -6.254334449768066406e-01 1.000000000000000000e+01
-6.053877830505371094e+00 3.618867158889770952e+00 -6.170626878738403320e-01 3.000000000000000000e+00
-9.668431282043457031e+00 5.784144878387451172e+00 -5.904542803764343262e-01 3.000000000000000000e+00
-2.065148830413817915e+00 1.240376114845276101e+00 -6.454946994781494141e-01 1.900000000000000000e+01
-2.380065202713013139e+00 1.430652856826782005e+00 -6.411104798316955566e-01 1.300000000000000000e+01
-2.791241645812987837e+00 1.678473472595215066e+00 -6.331042647361755371e-01 1.200000000000000000e+01
-3.413808107376099077e+00 2.054467916488647017e+00 -6.310566067695617676e-01 1.000000000000000000e+01
-4.360042572021484375e+00 2.625996112823485884e+00 -6.249459981918334961e-01 1.000000000000000000e+01
-6.030969142913818359e+00 3.633807659149169922e+00 -6.160168051719665527e-01 2.000000000000000000e+00
-9.624236106872558594e+00 5.803419589996337891e+00 -5.889888405799865723e-01 3.000000000000000000e+00
-2.050890922546387163e+00 1.241574525833130105e+00 -6.423888802528381348e-01 2.000000000000000000e+01
-2.385056972503662109e+00 1.445010781288146973e+00 -6.438099145889282227e-01 1.300000000000000000e+01
-2.785365581512451172e+00 1.688206553459167036e+00 -6.331042647361755371e-01 1.200000000000000000e+01
-3.393104076385498047e+00 2.058176040649414062e+00 -6.285536885261535645e-01 1.000000000000000000e+01
-3.335438919067382812e+01 2.023994064331055043e+01 4.790440082550048828e+00 2.000000000000000000e+01
