-4.502025222778320312e+01 5.972062349319458008e-01 2.359618902206420898e+00 3.400000000000000000e+01
-3.525694608688354048e+00 4.676932841539382935e-02 -6.853858828544616699e-01 1.100000000000000000e+01
-4.483268356323242188e+01 6.025442481040954590e-01 3.922705650329589844e+00 5.400000000000000000e+01
-4.402706623077392578e+00 5.994024872779846191e-02 -6.973848342895507812e-01 1.000000000000000000e+01
-5.766130924224854404e+00 8.051560819149017334e-02 -7.080608606338500977e-01 1.100000000000000000e+01
-8.418995857238769531e+00 1.190286874771118025e-01 -7.366403341293334961e-01 3.000000000000000000e+00
-3.448095321655272727e+01 5.115727782249450684e-01 -6.019334793090820312e-01 2.000000000000000000e+01
-2.536187171936035156e+00 4.116989299654961326e-02 -6.796588301658630371e-01 2.500000000000000000e+01
-4.472916412353516336e+01 7.338967919349670410e-01 7.808555960655212402e-01 4.800000000000000000e+01
-2.965574741363524947e+00 4.917559772729873657e-02 -6.847510337829589844e-01 1.400000000000000000e+01
-4.490206527709960938e+01 7.524117827415466309e-01 2.353548049926757812e+00 3.400000000000000000e+01
-3.521584033966064009e+00 5.901022627949714661e-02 -6.846227049827575684e-01 1.100000000000000000e+01
-4.483030700683593750e+01 7.590358853340148926e-01 3.922705650329589844e+00 5.400000000000000000e+01
-4.370869159698486328e+00 7.476762682199478149e-02 -6.923789381980895996e-01 1.000000000000000000e+01
-5.755890846252441406e+00 1.004694476723670959e-01 -7.068421840667724609e-01 9.000000000000000000e+00
-8.394624710083007812e+00 1.479943096637726108e-01 -7.345486283302307129e-01 3.000000000000000000e+00
-3.451094436645507812e+01 6.325169205665588379e-01 -6.024919748306274414e-01 2.000000000000000000e+01
-2.539882183074951172e+00 5.054207891225814819e-02 -6.806941032409667969e-01 2.300000000000000000e+01
-4.472617340087891336e+01 8.978324532508850098e-01 7.808555960655212402e-01 4.800000000000000000e+01
-2.940046310424805132e+00 5.953177809715270996e-02 -6.789022684097290039e-01 1.300000000000000000e+01
-4.498287582397460938e+01 9.186938405036926270e-01 2.357944250106811968e+00 3.400000000000000000e+01
-3.527232646942139116e+00 7.203734666109085083e-02 -6.857675313949584961e-01 1.200000000000000000e+01
-4.480331802368164062e+01 9.228497147560119629e-01 3.920614004135131836e+00 5.400000000000000000e+01
-4.366615772247313565e+00 9.070511162281036377e-02 -6.917532086372375488e-01 9.000000000000000000e+00
-5.759453296661376953e+00 1.216490045189857067e-01 -7.073296904563903809e-01 9.000000000000000000e+00
-8.398009300231933594e+00 1.788459867238998136e-01 -7.348971962928771973e-01 2.000000000000000000e+00
-3.450639724731445312e+01 7.589576244354248047e-01 -6.024570465087890625e-01 2.000000000000000000e+01
-2.541621446609497070e+00 5.945279076695442200e-02 -6.812117099761962891e-01 2.300000000000000000e+01
-4.473476409912108664e+01 1.054233074188231978e+00 7.810649871826171875e-01 4.800000000000000000e+01
-2.953457832336425781e+00 7.011785358190536499e-02 -6.820515990257263184e-01 1.400000000000000000e+01
-4.497939300537108664e+01 1.075707793235779031e+00 2.357944250106811968e+00 3.400000000000000000e+01
-3.526959657669066939e+00 8.434924483299255371e-02 -6.857675313949584961e-01 1.000000000000000000e+01
-4.482372665405272727e+01 1.079812645912169966e+00 3.922705650329589844e+00 5.400000000000000000e+01
-4.374171733856201172e+00 1.061385646462439936e-01 -6.930046677589416504e-01 9.000000000000000000e+00
-5.749071121215820312e+00 1.415082812309265137e-01 -7.061109542846679688e-01 1.100000000000000000e+01
-8.397334098815917969e+00 2.081594169139862061e-01 -7.348971962928771973e-01 2.000000000000000000e+00
-3.448954391479492188e+01 8.790462017059326172e-01 -6.022127270698547363e-01 2.000000000000000000e+01
-2.547191858291625977e+00 6.848009675741195679e-02 -6.827646493911743164e-01 1.900000000000000000e+01
-4.473081207275391336e+01 1.210380196571350098e+00 7.810649871826171875e-01 4.800000000000000000e+01
-2.949299097061156782e+00 8.032081276178359985e-02 -6.811518073081970215e-01 1.400000000000000000e+01
-4.503525924682617188e+01 1.234350204467772993e+00 2.361084222793579102e+00 3.500000000000000000e+01
-3.516831159591674805e+00 9.639117121696472168e-02 -6.838594675064086914e-01 1.100000000000000000e+01
-4.481968307495117188e+01 1.236270070075988992e+00 3.922705650329589844e+00 5.400000000000000000e+01
-4.389571666717529297e+00 1.218451187014580051e-01 -6.955076456069946289e-01 1.000000000000000000e+01
-5.748542308807373047e+00 1.615754216909409124e-01 -7.061109542846679688e-01 1.100000000000000000e+01
-8.380623817443847656e+00 2.370197176933289129e-01 -7.335027456283569336e-01 2.000000000000000000e+00
-1.621709060668944957e+01 4.643150568008422852e-01 -8.502499461174011230e-01 4.000000000000000000e+00
-3.451624679565429688e+01 1.000300765037537065e+00 -6.027362942695617676e-01 1.300000000000000000e+01
-2.541144609451293945e+00 7.719506323337554932e-02 -6.812117099761962891e-01 1.800000000000000000e+01
-4.473431015014647727e+01 1.366756677627563032e+00 7.812046408653259277e-01 4.800000000000000000e+01
-2.943157196044921875e+00 9.043574333190917969e-02 -6.798020601272583008e-01 1.300000000000000000e+01
-4.503067779541016336e+01 1.391545176506042036e+00 2.361084222793579102e+00 3.500000000000000000e+01
-3.514510869979857954e+00 1.086059734225272994e-01 -6.834778189659118652e-01 1.200000000000000000e+01
-4.481509399414063211e+01 1.392712473869323953e+00 3.922705650329589844e+00 5.400000000000000000e+01
-4.377273082733154297e+00 1.367966234683989923e-01 -6.936303973197937012e-01 9.000000000000000000e+00
-5.743974685668945312e+00 1.815151870250701904e-01 -7.056235074996948242e-01 1.100000000000000000e+01
-8.375761985778808594e+00 2.661455571651458740e-01 -7.331541180610656738e-01 2.000000000000000000e+00
-3.449655914306641336e+01 1.120259523391724077e+00 -6.024570465087890625e-01 1.300000000000000000e+01
-2.536998033523560014e+00 8.593404293060302734e-02 -6.801764369010925293e-01 1.700000000000000000e+01
-4.475324630737304688e+01 1.523716807365417036e+00 7.816234827041625977e-01 4.800000000000000000e+01
-2.952561616897583008e+00 1.010419800877570967e-01 -6.820515990257263184e-01 1.300000000000000000e+01
-4.502554702758789062e+01 1.548723101615905984e+00 2.361084222793579102e+00 3.500000000000000000e+01
-3.508224010467528853e+00 1.206707730889319957e-01 -6.823329925537109375e-01 1.100000000000000000e+01
-4.483783721923828125e+01 1.550101518630981001e+00 3.925146102905272993e+00 5.400000000000000000e+01
-4.360975265502929688e+00 1.515265554189682007e-01 -6.911274790763854980e-01 9.000000000000000000e+00
-5.755209445953369141e+00 2.019820511341094971e-01 -7.070859074592590332e-01 1.100000000000000000e+01
-8.376773834228515625e+00 2.954510152339934748e-01 -7.333284020423889160e-01 3.000000000000000000e+00
-3.448444366455078125e+01 1.240380644798279031e+00 -6.023174524307250977e-01 1.300000000000000000e+01
-2.548265695571898970e+00 9.522212296724319458e-02 -6.832822561264038086e-01 1.600000000000000000e+01
-4.478362655639647727e+01 1.681275844573975053e+00 7.822517752647399902e-01 4.800000000000000000e+01
-2.942454099655150923e+00 1.109804883599281033e-01 -6.798020601272583008e-01 1.300000000000000000e+01
-4.501986312866210938e+01 1.705882072448730025e+00 2.361084222793579102e+00 3.500000000000000000e+01
-3.511705160140991211e+00 1.330647021532058993e-01 -6.830962300300598145e-01 1.100000000000000000e+01
-4.483215332031250000e+01 1.706605315208435059e+00 3.925146102905272993e+00 5.400000000000000000e+01
-4.358446121215820312e+00 1.666727960109710971e-01 -6.908146142959594727e-01 1.000000000000000000e+01
-5.742567539215087891e+00 2.216109484434128085e-01 -7.056235074996948242e-01 1.100000000000000000e+01
-8.359764099121093750e+00 3.240721821784973145e-01 -7.319339513778686523e-01 3.000000000000000000e+00
-1.601176452636719105e+01 6.263051033020019531e-01 -8.397827744483947754e-01 4.000000000000000000e+00
-3.444393539428710938e+01 1.359326839447021040e+00 -6.016891598701477051e-01 1.300000000000000000e+01
-2.551796436309814009e+00 1.038290336728096008e-01 -6.843175292015075684e-01 1.600000000000000000e+01
-4.474983215332031250e+01 1.828631401062011941e+00 7.817630767822265625e-01 4.800000000000000000e+01
-2.940122842788695845e+00 1.206575036048889021e-01 -6.793521642684936523e-01 1.200000000000000000e+01
-4.501396179199218750e+01 1.855163931846619096e+00 2.361084222793579102e+00 3.500000000000000000e+01
-3.503398180007935014e+00 1.443858295679092130e-01 -6.815697550773620605e-01 1.100000000000000000e+01
-4.483023071289063211e+01 1.855429530143738015e+00 3.925494670867919922e+00 5.400000000000000000e+01
-4.353921890258789062e+00 1.809609383344649991e-01 -6.901888847351074219e-01 1.000000000000000000e+01
-5.725934505462645596e+00 2.399877607822417935e-01 -7.036736011505126953e-01 1.100000000000000000e+01
-8.350681304931640625e+00 3.514572679996489923e-01 -7.312366962432861328e-01 3.000000000000000000e+00
-3.442325592041016336e+01 1.472855806350708008e+00 -6.014099121093750000e-01 1.300000000000000000e+01
-2.555278301239014116e+00 1.129063889384269992e-01 -6.853528022766113281e-01 1.900000000000000000e+01
-4.476315307617188211e+01 1.985712528228759988e+00 7.821121215820312500e-01 4.800000000000000000e+01
-2.949417829513549805e+00 1.313532143831253052e-01 -6.816017031669616699e-01 1.100000000000000000e+01
-4.500720977783203125e+01 2.012280702590941939e+00 2.361084222793579102e+00 3.500000000000000000e+01
-3.506795406341553178e+00 1.567894816398620883e-01 -6.823329925537109375e-01 1.100000000000000000e+01
-4.485532760620117188e+01 2.013334274291992188e+00 3.928283691406250000e+00 5.400000000000000000e+01
-4.365104198455811435e+00 1.966913938522338867e-01 -6.920660734176635742e-01 1.000000000000000000e+01
-5.725061893463134766e+00 2.599735260009766180e-01 -7.036736011505126953e-01 1.100000000000000000e+01
-8.315567970275878906e+00 3.790620565414429266e-01 -7.282733917236328125e-01 2.000000000000000000e+00
-3.439393615722656250e+01 1.591896891593933105e+00 -6.009910702705383301e-01 1.300000000000000000e+01
-2.547150135040283203e+00 1.214572340250014981e-01 -6.832822561264038086e-01 2.300000000000000000e+01
-4.476393890380858664e+01 2.142335414886475053e+00 7.822517752647399902e-01 4.800000000000000000e+01
-2.941155433654785156e+00 1.412738263607024869e-01 -6.798020601272583008e-01 1.200000000000000000e+01
-4.500028991699218750e+01 2.161519050598144975e+00 2.361084222793579102e+00 3.500000000000000000e+01
-3.492500066757202148e+00 1.683677732944489081e-01 -6.796616315841674805e-01 1.200000000000000000e+01
-4.485200500488281250e+01 2.170089006423950195e+00 3.928632259368896040e+00 5.400000000000000000e+01
-4.348606586456298828e+00 2.111607789993286133e-01 -6.895630955696105957e-01 1.000000000000000000e+01
-5.708257675170898438e+00 2.791803777217864990e-01 -7.017236948013305664e-01 1.100000000000000000e+01
-8.322154045104980469e+00 4.084772169589995783e-01 -7.289706468582153320e-01 2.000000000000000000e+00
-1.590472602844237926e+01 7.862187027931213379e-01 -8.345491290092468262e-01 4.000000000000000000e+00
-3.435221862792968750e+01 1.710154771804810014e+00 -6.003627777099609375e-01 1.300000000000000000e+01
-2.554427862167357954e+00 1.307426989078522006e-01 -6.853528022766113281e-01 2.300000000000000000e+01
-4.474420547485352273e+01 2.297962188720703125e+00 7.820423245429992676e-01 4.800000000000000000e+01
-2.938698053359984907e+00 1.514392197132110873e-01 -6.793521642684936523e-01 1.300000000000000000e+01
-3.489930391311645952e+00 1.804564744234085083e-01 -6.792800426483154297e-01 1.100000000000000000e+01
-4.481629943847656250e+01 2.325193166732788086e+00 3.926191806793212891e+00 5.400000000000000000e+01
-4.336006641387938565e+00 2.257227897644042969e-01 -6.876859068870544434e-01 1.000000000000000000e+01
-5.707248210906982422e+00 2.991042137145996094e-01 -7.017236948013305664e-01 1.100000000000000000e+01
-8.284863471984863281e+00 4.356412887573242188e-01 -7.258329987525939941e-01 3.000000000000000000e+00
-1.587795066833495916e+01 8.404648900032043457e-01 -8.332930803298950195e-01 4.000000000000000000e+00
-3.436600875854492188e+01 1.831119894981384055e+00 -6.007118225097656250e-01 1.300000000000000000e+01
-2.553931474685668945e+00 1.401042640209197998e-01 -6.853528022766113281e-01 2.900000000000000000e+01
-4.474746322631835938e+01 2.462601900100708008e+00 7.822517752647399902e-01 4.800000000000000000e+01
-2.930340290069580078e+00 1.617793738842009943e-01 -6.775525808334350586e-01 1.200000000000000000e+01
-3.512768507003784180e+00 1.945492774248122891e-01 -6.838594675064086914e-01 1.200000000000000000e+01
-4.481543350219727273e+01 2.489879608154296875e+00 3.926889181137084961e+00 5.400000000000000000e+01
-4.335150241851806641e+00 2.416135370731354037e-01 -6.876859068870544434e-01 1.000000000000000000e+01
-5.698185920715332031e+00 3.195756971836090088e-01 -7.007487416267395020e-01 1.000000000000000000e+01
-8.269287109375000000e+00 4.652205109596251886e-01 -7.246128320693969727e-01 3.000000000000000000e+00
-1.580297756195068004e+01 8.945910930633544922e-01 -8.295249342918395996e-01 4.000000000000000000e+00
-3.435906600952147727e+01 1.957065343856811968e+00 -6.007118225097656250e-01 1.900000000000000000e+01
-2.555355548858643022e+00 1.491308510303497037e-01 -6.858704686164855957e-01 2.500000000000000000e+01
-4.474657821655272727e+01 2.619251966476439986e+00 7.823913693428039551e-01 4.800000000000000000e+01
-2.931703090667725053e+00 1.721214056015014926e-01 -6.780024766921997070e-01 1.300000000000000000e+01
-3.500308990478516069e+00 2.061174958944320956e-01 -6.815697550773620605e-01 1.100000000000000000e+01
-4.484226989746093750e+01 2.648413896560668945e+00 3.930026769638061968e+00 5.400000000000000000e+01
-4.330336570739746094e+00 2.565109431743621826e-01 -6.870601773262023926e-01 1.000000000000000000e+01
-5.693072319030761719e+00 3.392279744148253839e-01 -7.002612352371215820e-01 1.000000000000000000e+01
-8.297445297241210938e+00 4.958657026290894110e-01 -7.272275090217590332e-01 3.000000000000000000e+00
-1.579975795745849965e+01 9.497483372688293457e-01 -8.295249342918395996e-01 4.000000000000000000e+00
-3.434403991699218750e+01 2.076506137847899947e+00 -6.005722284317016602e-01 1.300000000000000000e+01
-2.533609628677368164e+00 1.567376852035521906e-01 -6.801764369010925293e-01 1.900000000000000000e+01
-4.475712203979492188e+01 2.776669025421143022e+00 7.827404141426086426e-01 4.800000000000000000e+01
-2.933029413223267046e+00 1.824749112129210871e-01 -6.784523725509643555e-01 1.200000000000000000e+01
-3.487811326980590820e+00 2.176011055707932074e-01 -6.792800426483154297e-01 1.100000000000000000e+01
-4.486854553222656250e+01 2.807165861129761186e+00 3.933164358139038086e+00 5.400000000000000000e+01
-4.329414844512938565e+00 2.716250717639923096e-01 -6.870601773262023926e-01 1.000000000000000000e+01
-5.683928966522216797e+00 3.585984706878662109e-01 -6.992862820625305176e-01 1.000000000000000000e+01
-8.239988327026367188e+00 5.213038325309753418e-01 -7.223467826843261719e-01 2.000000000000000000e+00
-3.430465316772460938e+01 2.194334268569945845e+00 -6.000137329101562500e-01 1.300000000000000000e+01
-2.521480560302733931e+00 1.648246049880980890e-01 -6.770706176757812500e-01 1.700000000000000000e+01
-4.475912857055664062e+01 2.933668375015258789e+00 7.829498648643493652e-01 4.800000000000000000e+01
-2.932374477386475053e+00 1.927119791507720947e-01 -6.784523725509643555e-01 1.300000000000000000e+01
-3.483112573623656782e+00 2.295163422822951993e-01 -6.785168051719665527e-01 1.100000000000000000e+01
-4.483859252929688211e+01 2.962455749511719194e+00 3.931421279907227007e+00 5.400000000000000000e+01
-4.324498176574707031e+00 2.864747643470764160e-01 -6.864344477653503418e-01 1.000000000000000000e+01
-5.678681373596191406e+00 3.781730830669403076e-01 -6.987988352775573730e-01 1.000000000000000000e+01
-8.214262962341308594e+00 5.484707355499267578e-01 -7.202550768852233887e-01 2.000000000000000000e+00
-3.432671356201171875e+01 2.316085815429687944e+00 -6.005373001098632812e-01 1.900000000000000000e+01
-2.520920038223267046e+00 1.731852293014526090e-01 -6.770706176757812500e-01 1.300000000000000000e+01
-4.474117279052733664e+01 3.081529140472412109e+00 7.828102111816406250e-01 4.800000000000000000e+01
-2.929775238037108931e+00 2.023007869720458984e-01 -6.780024766921997070e-01 1.100000000000000000e+01
-3.494083642959595171e+00 2.418790012598037997e-01 -6.808065176010131836e-01 1.100000000000000000e+01
-4.484840011596679688e+01 3.112509012222290039e+00 3.933164358139038086e+00 5.400000000000000000e+01
-4.311700820922851562e+00 2.999911010265349787e-01 -6.845571994781494141e-01 1.000000000000000000e+01
-5.681356430053710938e+00 3.972791433334351141e-01 -6.992862820625305176e-01 1.000000000000000000e+01
-8.220348358154296875e+00 5.762645006179809570e-01 -7.209523320198059082e-01 2.000000000000000000e+00
-3.432283401489257812e+01 2.430186986923218218e+00 -6.006070971488952637e-01 1.900000000000000000e+01
-2.526080846786499023e+00 1.824012249708175937e-01 -6.786235570907592773e-01 1.500000000000000000e+01
-4.476604461669921875e+01 3.240284919738769975e+00 7.834385037422180176e-01 4.800000000000000000e+01
-2.915445804595946822e+00 2.115391939878464023e-01 -6.748531460762023926e-01 1.300000000000000000e+01
-3.493218183517456055e+00 2.540741562843322754e-01 -6.808065176010131836e-01 1.100000000000000000e+01
-4.488892745971679688e+01 3.272807121276855025e+00 3.937696456909180132e+00 5.400000000000000000e+01
-4.310627460479736328e+00 3.150399029254912775e-01 -6.845571994781494141e-01 1.000000000000000000e+01
-5.672016143798828125e+00 4.165268242359160822e-01 -6.983113288879394531e-01 1.000000000000000000e+01
-8.202390670776367188e+00 6.037852764129638672e-01 -7.195578217506408691e-01 2.000000000000000000e+00
-3.432810211181641336e+01 2.551018476486206055e+00 -6.008514761924743652e-01 1.300000000000000000e+01
-2.537020206451416016e+00 1.916501224040985107e-01 -6.817293763160705566e-01 1.400000000000000000e+01
-4.474309158325195312e+01 3.387810707092285156e+00 7.832291126251220703e-01 4.800000000000000000e+01
-2.920557737350463867e+00 2.216484099626541138e-01 -6.762028932571411133e-01 1.400000000000000000e+01
-4.492298889160156250e+01 3.409317493438721147e+00 2.361084222793579102e+00 3.500000000000000000e+01
-3.478653192520142046e+00 2.646143138408660889e-01 -6.781351566314697266e-01 1.200000000000000000e+01
-4.486590576171875000e+01 3.420737266540526900e+00 3.936650514602661133e+00 5.400000000000000000e+01
-4.325315952301025391e+00 3.305368721485137939e-01 -6.870601773262023926e-01 1.000000000000000000e+01
-4.491019821166992188e+01 3.439882516860961914e+00 5.530430793762207031e+00 3.800000000000000000e+01
-5.650811195373535156e+00 4.338141381740570068e-01 -6.958739757537841797e-01 1.000000000000000000e+01
-8.208289146423339844e+00 6.315934658050537109e-01 -7.202550768852233887e-01 2.000000000000000000e+00
-1.558207130432129084e+01 1.204446554183959961e+00 -8.190577030181884766e-01 4.000000000000000000e+00
-3.434138107299804688e+01 2.666543483734130859e+00 -6.012353897094726562e-01 2.000000000000000000e+01
-2.522854804992675781e+00 1.994391083717345914e-01 -6.781058907508850098e-01 1.400000000000000000e+01
-4.474694061279296875e+01 3.545236110687255859e+00 7.835083603858947754e-01 4.800000000000000000e+01
-2.927536725997924805e+00 2.324587255716324130e-01 -6.780024766921997070e-01 1.400000000000000000e+01
-3.467922925949097124e+00 2.759767472743988037e-01 -6.762270927429199219e-01 1.100000000000000000e+01
-4.485369110107421875e+01 3.577327728271483931e+00 3.936650514602661133e+00 5.400000000000000000e+01
-4.320197582244873047e+00 3.453182578086853027e-01 -6.864344477653503418e-01 1.000000000000000000e+01
-4.487417221069335938e+01 3.594725131988524947e+00 5.527505874633789062e+00 3.800000000000000000e+01
-5.645304679870604581e+00 4.532187879085540771e-01 -6.953864693641662598e-01 1.000000000000000000e+01
-8.178231239318847656e+00 6.580048799514770508e-01 -7.178146839141845703e-01 2.000000000000000000e+00
-3.432189941406250000e+01 2.785592079162598100e+00 -6.010608673095703125e-01 1.300000000000000000e+01
-2.510627508163452148e+00 2.068523168563843051e-01 -6.750000715255737305e-01 1.400000000000000000e+01
-4.471102142333983664e+01 3.691628217697143999e+00 7.830894589424133301e-01 4.800000000000000000e+01
-2.924807786941527876e+00 2.420048117637634000e-01 -6.775525808334350586e-01 1.500000000000000000e+01
-3.470901727676392046e+00 2.877997457981110174e-01 -6.769903302192687988e-01 1.100000000000000000e+01
-4.485746765136718750e+01 3.727368116378784180e+00 3.938045024871826172e+00 5.400000000000000000e+01
-4.307217121124267578e+00 3.586591184139252264e-01 -6.845571994781494141e-01 1.000000000000000000e+01
-4.488970184326171875e+01 3.745824575424193892e+00 5.530918121337890625e+00 3.800000000000000000e+01
-5.663552761077880859e+00 4.735909700393676758e-01 -6.978238821029663086e-01 1.000000000000000000e+01
-8.164092063903808594e+00 6.841230392456054688e-01 -7.167688012123107910e-01 2.000000000000000000e+00
-1.547400093078612926e+01 1.302107930183411089e+00 -8.138241171836853027e-01 4.000000000000000000e+00
-3.430649566650391336e+01 2.898887157440185991e+00 -6.009561419486999512e-01 2.000000000000000000e+01
-2.521438837051392046e+00 2.166068702936171930e-01 -6.781058907508850098e-01 1.300000000000000000e+01
-4.470184707641602273e+01 3.848019361495972124e+00 7.831593155860900879e-01 4.800000000000000000e+01
-2.922003507614136186e+00 2.520453333854674738e-01 -6.771026849746704102e-01 1.400000000000000000e+01
-3.477699995040893999e+00 3.005899488925933838e-01 -6.785168051719665527e-01 1.100000000000000000e+01
-4.489976119995117188e+01 3.888740777969359907e+00 3.942925691604613814e+00 5.400000000000000000e+01
-4.292163372039794922e+00 3.724963665008544922e-01 -6.823671460151672363e-01 1.000000000000000000e+01
-4.487239456176757812e+01 3.902152061462401900e+00 5.530430793762207031e+00 3.800000000000000000e+01
-5.657909870147705078e+00 4.930129349231719971e-01 -6.973363757133483887e-01 1.000000000000000000e+01
-8.177533149719238281e+00 7.140032649040222168e-01 -7.181633114814758301e-01 2.000000000000000000e+00
-3.426429748535156250e+01 3.015816450119018999e+00 -6.003977060317993164e-01 1.900000000000000000e+01
-2.522591590881348100e+00 2.255790829658508023e-01 -6.786235570907592773e-01 1.400000000000000000e+01
-4.474391174316406250e+01 4.009031295776367188e+00 7.841365933418273926e-01 4.800000000000000000e+01
-2.909460306167602983e+00 2.611980140209197998e-01 -6.744032502174377441e-01 1.400000000000000000e+01
-3.480540275573730025e+00 3.130793273448944092e-01 -6.792800426483154297e-01 1.200000000000000000e+01
-4.485416412353516336e+01 4.042584896087645596e+00 3.940136909484862837e+00 5.400000000000000000e+01
-4.290836811065673828e+00 3.874765634536743164e-01 -6.823671460151672363e-01 1.000000000000000000e+01
-4.484268569946289062e+01 4.057331085205078125e+00 5.528481006622313565e+00 3.800000000000000000e+01
-5.652200698852539062e+00 5.124012827873229980e-01 -6.968489289283752441e-01 1.000000000000000000e+01
-8.163084983825683594e+00 7.414624691009521484e-01 -7.171174287796020508e-01 2.000000000000000000e+00
-1.536508274078368963e+01 1.401036024093627930e+00 -8.085905313491821289e-01 4.000000000000000000e+00
-3.430533599853516336e+01 3.140141963958739790e+00 -6.013051867485046387e-01 2.000000000000000000e+01
-2.523712396621704102e+00 2.345619797706604004e-01 -6.791411638259887695e-01 1.300000000000000000e+01
-4.476150131225585938e+01 4.168159008026123047e+00 7.846950888633728027e-01 4.900000000000000000e+01
-2.908530950546265093e+00 2.713523507118225098e-01 -6.744032502174377441e-01 1.400000000000000000e+01
-3.463788270950316939e+00 3.237650692462921143e-01 -6.762270927429199219e-01 1.100000000000000000e+01
-4.481994247436522727e+01 4.197272777557373047e+00 3.938393592834473100e+00 5.400000000000000000e+01
-4.297325134277343750e+00 4.031901061534882147e-01 -6.836186051368713379e-01 9.000000000000000000e+00
-4.487568283081054688e+01 4.218295574188232422e+00 5.534330844879150391e+00 3.800000000000000000e+01
-5.614803314208984375e+00 5.287777781486511230e-01 -6.924616098403930664e-01 1.000000000000000000e+01
-8.146562576293945312e+00 7.686423063278198242e-01 -7.158972620964050293e-01 2.000000000000000000e+00
-1.523284339904784979e+01 1.442610144615172896e+00 -8.018915057182312012e-01 4.000000000000000000e+00
-3.432800674438477273e+01 3.263087749481201172e+00 -6.018986105918884277e-01 2.000000000000000000e+01
-2.520912885665893999e+00 2.436244487762450894e-01 -6.786235570907592773e-01 1.400000000000000000e+01
-4.478573226928710938e+01 4.336043834686279297e+00 7.853931784629821777e-01 4.900000000000000000e+01
-2.915275335311890093e+00 2.827633321285247803e-01 -6.762028932571411133e-01 1.400000000000000000e+01
-3.458670139312744141e+00 3.360785543918610174e-01 -6.754638552665710449e-01 1.100000000000000000e+01
-4.486375045776367188e+01 4.367309093475341797e+00 3.943623065948485884e+00 5.400000000000000000e+01
-4.289920330047607422e+00 4.183627068996428888e-01 -6.826800107955932617e-01 1.000000000000000000e+01
-4.486387252807617188e+01 4.383130550384520596e+00 5.534818172454833984e+00 3.800000000000000000e+01
-5.610851764678955078e+00 5.491601228713989258e-01 -6.922178864479064941e-01 1.200000000000000000e+01
-8.137742042541503906e+00 7.979125380516052246e-01 -7.153743505477905273e-01 2.000000000000000000e+00
-3.423820495605468750e+01 3.381219863891602007e+00 -6.005373001098632812e-01 1.900000000000000000e+01
-2.508513689041138139e+00 2.512673437595366877e-01 -6.755176782608032227e-01 1.400000000000000000e+01
-4.479420089721679688e+01 4.494744777679443359e+00 7.858120799064636230e-01 4.900000000000000000e+01
-2.918148517608643022e+00 2.933276295661926270e-01 -6.771026849746704102e-01 1.400000000000000000e+01
-3.463336229324340820e+00 3.487396240234375000e-01 -6.766086816787719727e-01 1.000000000000000000e+01
-4.486408996582031250e+01 4.525485992431640625e+00 3.945017576217650923e+00 5.400000000000000000e+01
-4.276641845703125000e+00 4.321431815624237061e-01 -6.808027625083923340e-01 1.000000000000000000e+01
-4.488779830932617188e+01 4.543706417083740234e+00 5.539692878723145419e+00 7.600000000000000000e+01
-5.618775367736816406e+00 5.697436332702636719e-01 -6.934365630149841309e-01 1.000000000000000000e+01
-8.103191375732421875e+00 8.230922222137451172e-01 -7.125853300094604492e-01 2.000000000000000000e+00
-1.515060043334960938e+01 1.544285178184509055e+00 -7.981233596801757812e-01 4.000000000000000000e+00
-3.425205612182617188e+01 3.503357887268065962e+00 -6.009910702705383301e-01 1.300000000000000000e+01
-2.509588241577147993e+00 2.597833871841431219e-01 -6.760353446006774902e-01 1.500000000000000000e+01
-4.478302764892578125e+01 4.643675327301025391e+00 7.858818769454956055e-01 4.900000000000000000e+01
-2.913283109664916992e+00 3.026002943515778143e-01 -6.762028932571411133e-01 1.400000000000000000e+01
-3.456302404403686968e+00 3.596130311489105225e-01 -6.754638552665710449e-01 1.200000000000000000e+01
-4.482505416870117188e+01 4.671757221221923828e+00 3.942925691604613814e+00 5.400000000000000000e+01
-4.267326354980468750e+00 4.455022215843201239e-01 -6.795513033866882324e-01 1.000000000000000000e+01
-4.488630294799804688e+01 4.693980216979979581e+00 5.541399002075195312e+00 7.600000000000000000e+01
-5.605009555816650391e+00 5.871321558952331543e-01 -6.919741034507751465e-01 1.000000000000000000e+01
-8.088528633117675781e+00 8.487113118171691895e-01 -7.115395069122314453e-01 3.000000000000000000e+00
-3.423229598999022727e+01 3.616082429885863814e+00 -6.008514761924743652e-01 1.300000000000000000e+01
-2.510586977005004883e+00 2.687475383281707764e-01 -6.765530109405517578e-01 1.400000000000000000e+01
-4.475859069824218750e+01 4.799116134643554688e+00 7.857422232627868652e-01 4.900000000000000000e+01
-2.892833232879639116e+00 3.106867372989655096e-01 -6.717038750648498535e-01 1.400000000000000000e+01
-4.499231338500977273e+01 4.840062618255615234e+00 2.371551513671875000e+00 3.500000000000000000e+01
-3.455026149749755859e+00 3.716755807399749756e-01 -6.754638552665710449e-01 1.100000000000000000e+01
-4.482828521728516336e+01 4.830332279205322266e+00 3.944669008255004883e+00 5.400000000000000000e+01
-4.271636962890625000e+00 4.610311686992645264e-01 -6.804898977279663086e-01 1.000000000000000000e+01
-4.486372375488281250e+01 4.849993705749511719e+00 5.540668010711669922e+00 7.600000000000000000e+01
-5.608846664428710938e+00 6.073348522186279297e-01 -6.927053332328796387e-01 1.200000000000000000e+01
-8.099382400512695312e+00 8.784441947937011719e-01 -7.127596735954284668e-01 3.000000000000000000e+00
-1.506825828552245916e+01 1.639597654342650923e+00 -7.943551540374755859e-01 4.000000000000000000e+00
-3.423139190673828125e+01 3.736855268478393999e+00 -6.010608673095703125e-01 2.000000000000000000e+01
-2.513425350189208984e+00 2.783728241920471191e-01 -6.775882840156555176e-01 1.300000000000000000e+01
-4.476852798461914062e+01 4.966219425201416016e+00 7.862309217453002930e-01 4.900000000000000000e+01
-2.903295993804932085e+00 3.225786089897155762e-01 -6.744032502174377441e-01 1.300000000000000000e+01
-3.459494352340697798e+00 3.849878013134003241e-01 -6.766086816787719727e-01 1.200000000000000000e+01
-4.489740371704102273e+01 5.004314899444580078e+00 3.952338695526123047e+00 5.400000000000000000e+01
-4.273845195770263672e+00 4.771227240562438965e-01 -6.811156868934631348e-01 9.000000000000000000e+00
-4.486931991577147727e+01 5.017042160034179688e+00 5.543592929840087891e+00 7.600000000000000000e+01
-5.592773437500000000e+00 6.263417005538940430e-01 -6.909991502761840820e-01 1.000000000000000000e+01
-8.090167999267578125e+00 9.074577689170837402e-01 -7.122367024421691895e-01 2.000000000000000000e+00
-3.419759750366210938e+01 3.860051631927489790e+00 -6.007118225097656250e-01 1.300000000000000000e+01
-2.506680250167847124e+00 2.864865362644196112e-01 -6.760353446006774902e-01 1.500000000000000000e+01
-4.479065322875977273e+01 5.127008438110351562e+00 7.869290113449096680e-01 4.900000000000000000e+01
-2.902152299880981001e+00 3.327110409736632746e-01 -6.744032502174377441e-01 1.300000000000000000e+01
-3.436674594879149947e+00 3.945979177951812744e-01 -6.724109053611755371e-01 1.100000000000000000e+01
-4.489945602416992188e+01 5.163281440734863281e+00 3.954081773757935014e+00 5.400000000000000000e+01
-4.276078224182128906e+00 4.924903512001038153e-01 -6.817414164543151855e-01 1.000000000000000000e+01
-4.488505935668945312e+01 5.177501678466796875e+00 5.547736167907714844e+00 7.700000000000000000e+01
-5.598441123962402344e+00 6.467715501785278320e-01 -6.919741034507751465e-01 1.200000000000000000e+01
-8.067159652709960938e+00 9.334021806716918945e-01 -7.104936242103576660e-01 2.000000000000000000e+00
-1.492916774749756037e+01 1.732644796371459961e+00 -7.876561284065246582e-01 4.000000000000000000e+00
-3.416405105590820312e+01 3.977087736129761186e+00 -6.003627777099609375e-01 1.300000000000000000e+01
-2.499960660934447798e+00 2.941202223300933838e-01 -6.744824051856994629e-01 1.400000000000000000e+01
-4.480517959594727273e+01 5.279255390167236328e+00 7.874875068664550781e-01 4.900000000000000000e+01
-2.912644863128662109e+00 3.437033295631409247e-01 -6.771026849746704102e-01 1.400000000000000000e+01
-3.435347080230712891e+00 4.059921503067017157e-01 -6.724109053611755371e-01 1.200000000000000000e+01
-4.489395904541016336e+01 5.313549995422363281e+00 3.955127716064453125e+00 5.400000000000000000e+01
-4.266574859619140625e+00 5.057375431060791016e-01 -6.804898977279663086e-01 9.000000000000000000e+00
-4.488144302368164062e+01 5.327955245971679688e+00 5.549442291259765625e+00 7.700000000000000000e+01
-5.576553344726563388e+00 6.629895567893981934e-01 -6.895367503166198730e-01 1.000000000000000000e+01
-8.044236183166503906e+00 9.577931165695190430e-01 -7.087504863739013672e-01 2.000000000000000000e+00
-1.492333984375000000e+01 1.782142281532288042e+00 -7.876561284065246582e-01 4.000000000000000000e+00
-3.415464401245117188e+01 4.090833663940429688e+00 -6.004325747489929199e-01 1.900000000000000000e+01
-2.495083093643188032e+00 3.023800849914550781e-01 -6.734471321105957031e-01 1.400000000000000000e+01
-4.475471878051757812e+01 5.431767940521240234e+00 7.869290113449096680e-01 4.900000000000000000e+01
-2.903689384460449219e+00 3.529277443885803223e-01 -6.753030419349670410e-01 1.200000000000000000e+01
-3.441704511642456055e+00 4.189301729202271063e-01 -6.739373803138732910e-01 1.200000000000000000e+01
-4.490282440185546875e+01 5.473602294921875000e+00 3.957567930221558061e+00 5.400000000000000000e+01
-4.264783859252929688e+00 5.206276178359985352e-01 -6.804898977279663086e-01 9.000000000000000000e+00
-4.484877777099608664e+01 5.482902050018311435e+00 5.547736167907714844e+00 7.700000000000000000e+01
-5.595879554748535156e+00 6.851049065589904785e-01 -6.922178864479064941e-01 1.000000000000000000e+01
-8.042820930480957031e+00 9.861093759536743164e-01 -7.089248299598693848e-01 2.000000000000000000e+00
-1.479015922546387074e+01 1.818623542785644975e+00 -7.809571623802185059e-01 4.000000000000000000e+00
-3.414015579223632812e+01 4.210030555725097656e+00 -6.004325747489929199e-01 1.300000000000000000e+01
-2.505514383316040039e+00 3.125223815441132147e-01 -6.765530109405517578e-01 1.400000000000000000e+01
-4.477120208740233664e+01 5.592419147491455078e+00 7.875573039054870605e-01 4.900000000000000000e+01
-2.892771244049071822e+00 3.618519604206085205e-01 -6.730535626411437988e-01 1.200000000000000000e+01
-3.440221309661864790e+00 4.309414029121398926e-01 -6.739373803138732910e-01 1.100000000000000000e+01
-4.488344573974608664e+01 5.630309104919433594e+00 3.957567930221558061e+00 5.400000000000000000e+01
-4.251180648803710938e+00 5.340340137481689453e-01 -6.786127090454101562e-01 9.000000000000000000e+00
-4.483921432495117188e+01 5.640659332275390625e+00 5.548954963684082031e+00 7.700000000000000000e+01
-5.563910961151123047e+00 7.009123563766479492e-01 -6.885617971420288086e-01 1.000000000000000000e+01
-8.037353515625000000e+00 1.013928651809691939e+00 -7.087504863739013672e-01 2.000000000000000000e+00
-3.411731719970703125e+01 4.328169822692871094e+00 -6.002929806709289551e-01 1.900000000000000000e+01
-2.510156631469727007e+00 3.220037817955017090e-01 -6.781058907508850098e-01 1.500000000000000000e+01
-4.479900741577147727e+01 5.754780769348145419e+00 7.883949875831604004e-01 4.900000000000000000e+01
-2.883759260177611861e+00 3.709529042243958075e-01 -6.712539196014404297e-01 1.300000000000000000e+01
-3.440643072128295898e+00 4.431982040405272882e-01 -6.743189692497253418e-01 1.200000000000000000e+01
-4.490303802490233664e+01 5.792044639587402344e+00 3.961054086685181108e+00 5.400000000000000000e+01
-4.257126808166503906e+00 5.498823523521423340e-01 -6.798641681671142578e-01 9.000000000000000000e+00
-4.486256408691406250e+01 5.802744865417479581e+00 5.554316997528076172e+00 7.700000000000000000e+01
-5.557493209838867188e+00 7.198197841644287109e-01 -6.880742907524108887e-01 1.000000000000000000e+01
-7.990296363830566406e+00 1.036340236663817915e+00 -7.049156427383422852e-01 1.000000000000000000e+00
-1.475729656219482067e+01 1.919257283210753950e+00 -7.799104452133178711e-01 4.000000000000000000e+00
-3.403656768798828125e+01 4.438701629638671875e+00 -5.991411209106445312e-01 1.900000000000000000e+01
-2.505186796188354048e+00 3.302589058876038153e-01 -6.770706176757812500e-01 1.500000000000000000e+01
-4.480243682861328125e+01 5.914263725280761719e+00 7.888138890266418457e-01 4.900000000000000000e+01
-2.895970582962036133e+00 3.828044533729553223e-01 -6.744032502174377441e-01 1.400000000000000000e+01
-3.427397489547729048e+00 4.536599218845366877e-01 -6.720292568206787109e-01 1.200000000000000000e+01
-4.484304428100585938e+01 5.943514823913574219e+00 3.957567930221558061e+00 5.400000000000000000e+01
-4.245390415191650391e+00 5.634397268295288086e-01 -6.782998442649841309e-01 7.000000000000000000e+00
-4.487548446655272727e+01 5.963754653930664062e+00 5.558460712432861328e+00 7.700000000000000000e+01
-5.545107841491699219e+00 7.379053831100463867e-01 -6.868556141853332520e-01 1.200000000000000000e+01
-8.006379127502441406e+00 1.066856861114501953e+00 -7.066587805747985840e-01 2.000000000000000000e+00
-1.469903564453125000e+01 1.963881254196166992e+00 -7.771889567375183105e-01 4.000000000000000000e+00
-3.405455780029296875e+01 4.561997890472412109e+00 -5.997344851493835449e-01 1.300000000000000000e+01
-2.498275518417357954e+00 3.382241129875183105e-01 -6.755176782608032227e-01 1.500000000000000000e+01
-4.481322479248046875e+01 6.074915409088134766e+00 7.893723249435424805e-01 4.900000000000000000e+01
-2.890754461288452148e+00 3.923867344856262207e-01 -6.735034584999084473e-01 1.200000000000000000e+01
-3.427738428115845171e+00 4.658854007720947266e-01 -6.724109053611755371e-01 1.200000000000000000e+01
-4.488520050048828125e+01 6.108607769012451172e+00 3.963145971298218218e+00 5.400000000000000000e+01
-4.237525939941406250e+00 5.774552822113037109e-01 -6.773612499237060547e-01 9.000000000000000000e+00
-4.489373397827147727e+01 6.125730514526367188e+00 5.563335418701171875e+00 7.700000000000000000e+01
-5.556265830993652344e+00 7.591379880905151367e-01 -6.885617971420288086e-01 1.200000000000000000e+01
-7.976944923400878906e+00 1.091287136077881081e+00 -7.043927311897277832e-01 2.000000000000000000e+00
-1.469209098815917969e+01 2.015178442001343218e+00 -7.771889567375183105e-01 4.000000000000000000e+00
-3.400672912597656250e+01 4.676484107971191406e+00 -5.991759896278381348e-01 1.300000000000000000e+01
-2.483625173568726030e+00 3.455151319503784180e-01 -6.718942523002624512e-01 1.600000000000000000e+01
-4.477877426147460938e+01 6.237467765808104581e+00 7.891629338264465332e-01 4.900000000000000000e+01
-2.885436773300170898e+00 4.024408459663391113e-01 -6.726036667823791504e-01 1.100000000000000000e+01
-4.485764312744141336e+01 6.256434917449951172e+00 2.373645067214965820e+00 3.500000000000000000e+01
-3.416285753250122070e+00 4.770878851413726807e-01 -6.705027818679809570e-01 1.200000000000000000e+01
-4.487829589843750000e+01 6.275286197662354404e+00 3.964540481567382812e+00 5.400000000000000000e+01
-4.231468677520751953e+00 5.924349427223205566e-01 -6.767355203628540039e-01 9.000000000000000000e+00
-4.489653396606445312e+01 6.293816089630126953e+00 5.566504001617431641e+00 7.800000000000000000e+01
-5.539685726165770596e+00 7.775660753250122070e-01 -6.868556141853332520e-01 1.200000000000000000e+01
-7.990648269653320312e+00 1.123012423515320046e+00 -7.059615254402160645e-01 1.000000000000000000e+00
-3.400718307495117188e+01 4.803610801696777344e+00 -5.994901657104492188e-01 1.900000000000000000e+01
-2.493878841400146040e+00 3.558197021484375000e-01 -6.750000715255737305e-01 1.600000000000000000e+01
-4.477652740478516336e+01 6.396564960479736328e+00 7.895119786262512207e-01 4.900000000000000000e+01
-2.870510816574097124e+00 4.105789661407471258e-01 -6.694543361663818359e-01 1.200000000000000000e+01
-4.483552932739257812e+01 6.412979125976563388e+00 2.373645067214965820e+00 3.500000000000000000e+01
-3.430147171020507812e+00 4.912365972995758057e-01 -6.735557317733764648e-01 1.200000000000000000e+01
-4.487583923339843750e+01 6.434730529785156250e+00 3.966283559799193892e+00 5.400000000000000000e+01
-4.235240936279296875e+00 6.080440878868103027e-01 -6.776741147041320801e-01 9.000000000000000000e+00
-4.489001083374022727e+01 6.452755451202392578e+00 5.568454265594482422e+00 7.800000000000000000e+01
-5.529078006744384766e+00 7.957673072814941406e-01 -6.858806610107421875e-01 1.200000000000000000e+01
-7.951183319091796875e+00 1.145783066749572976e+00 -7.028239369392395020e-01 1.000000000000000000e+00
-3.398822784423828125e+01 4.922001838684082031e+00 -5.994552373886108398e-01 1.900000000000000000e+01
-2.494596719741820845e+00 3.643669784069060724e-01 -6.755176782608032227e-01 1.500000000000000000e+01
-4.477089691162108664e+01 6.547328948974609375e+00 7.897912263870239258e-01 4.900000000000000000e+01
-2.874917984008789062e+00 4.209426343441010077e-01 -6.708040237426757812e-01 1.400000000000000000e+01
-4.482077789306641336e+01 6.570604324340820312e+00 2.374063730239868164e+00 3.500000000000000000e+01
-3.426556825637816939e+00 5.023239254951477051e-01 -6.731741428375244141e-01 1.300000000000000000e+01
-4.491339111328125000e+01 6.592188835144042969e+00 3.971512794494628906e+00 5.400000000000000000e+01
-4.221474647521972656e+00 6.203620433807373047e-01 -6.757968664169311523e-01 7.000000000000000000e+00
-4.488996887207031250e+01 6.604759216308593750e+00 5.571135044097900391e+00 7.800000000000000000e+01
-5.510697841644287109e+00 8.117836117744445801e-01 -6.839307546615600586e-01 1.200000000000000000e+01
-7.986761569976806641e+00 1.177958011627197044e+00 -7.063101530075073242e-01 1.000000000000000000e+00
-1.447260475158691051e+01 2.139709472656250000e+00 -7.667217850685119629e-01 4.000000000000000000e+00
-3.396380615234375000e+01 5.033511161804199219e+00 -5.993156433105468750e-01 1.300000000000000000e+01
-2.483756780624390093e+00 3.716431260108947754e-01 -6.729295253753662109e-01 1.400000000000000000e+01
-4.481105422973632812e+01 6.713048934936523438e+00 7.909081578254699707e-01 5.000000000000000000e+01
-2.881139755249022993e+00 4.321316182613372803e-01 -6.726036667823791504e-01 1.400000000000000000e+01
-4.481454086303710938e+01 6.721569061279296875e+00 2.374901056289672852e+00 3.500000000000000000e+01
-3.413133621215819868e+00 5.125325322151184082e-01 -6.708844304084777832e-01 1.200000000000000000e+01
-4.487828445434570312e+01 6.747148513793945312e+00 3.970467090606689009e+00 5.400000000000000000e+01
-4.232957363128662109e+00 6.371521353721618652e-01 -6.779869794845581055e-01 9.000000000000000000e+00
-4.490589904785156250e+01 6.767330169677734375e+00 5.576009750366210938e+00 7.800000000000000000e+01
-5.523533344268798828e+00 8.333838582038879395e-01 -6.858806610107421875e-01 1.200000000000000000e+01
-7.955020427703857422e+00 1.201663613319396973e+00 -7.038697600364685059e-01 1.000000000000000000e+00
-1.446504783630370916e+01 2.190215110778809038e+00 -7.667217850685119629e-01 4.000000000000000000e+00
-3.392823791503906250e+01 5.149335861206054688e+00 -5.990014672279357910e-01 1.900000000000000000e+01
-2.478558778762816939e+00 3.801582753658295233e-01 -6.718942523002624512e-01 1.500000000000000000e+01
-4.478614807128906250e+01 6.877244949340820312e+00 7.909081578254699707e-01 5.000000000000000000e+01
-2.883388757705688032e+00 4.432808458805084229e-01 -6.735034584999084473e-01 1.400000000000000000e+01
-4.483698272705078125e+01 6.893061161041259766e+00 2.377413034439086914e+00 3.500000000000000000e+01
-3.405410766601562944e+00 5.241428613662719727e-01 -6.697395443916320801e-01 1.200000000000000000e+01
-4.490445327758789062e+01 6.919479370117188388e+00 3.974999189376831055e+00 5.400000000000000000e+01
-4.214975357055664062e+00 6.502529978752136230e-01 -6.754840016365051270e-01 9.000000000000000000e+00
-4.488668060302733664e+01 6.932782173156738281e+00 5.576741218566895419e+00 7.800000000000000000e+01
-5.510632991790770596e+00 8.521062731742858887e-01 -6.846619844436645508e-01 1.000000000000000000e+01
-7.930873394012451172e+00 1.227764010429382102e+00 -7.021266818046569824e-01 1.000000000000000000e+00
-3.395853424072266336e+01 5.281337261199951172e+00 -5.998741388320922852e-01 1.300000000000000000e+01
-2.477216720581055132e+00 3.888077437877655029e-01 -6.718942523002624512e-01 1.700000000000000000e+01
-4.479347610473632812e+01 7.038502216339111328e+00 7.914666533470153809e-01 5.000000000000000000e+01
-2.872198581695557085e+00 4.518288671970366877e-01 -6.712539196014404297e-01 1.200000000000000000e+01
-4.481264877319335938e+01 7.049529552459716797e+00 2.377413034439086914e+00 3.500000000000000000e+01
-3.401621103286743164e+00 5.357213616371154785e-01 -6.693579554557800293e-01 1.100000000000000000e+01
-4.488002395629882812e+01 7.076183319091796875e+00 3.974999189376831055e+00 5.400000000000000000e+01
-4.204874992370604581e+00 6.637300252914428711e-01 -6.742325425148010254e-01 1.000000000000000000e+01
-4.488181304931641336e+01 7.092522144317626953e+00 5.579178333282470703e+00 7.800000000000000000e+01
-5.529192924499511719e+00 8.747488856315612793e-01 -6.873431205749511719e-01 1.200000000000000000e+01
-7.906860351562500000e+00 1.252323746681212935e+00 -7.003835439682006836e-01 1.000000000000000000e+00
-1.437799167633056996e+01 2.282395362854003906e+00 -7.629535794258117676e-01 4.000000000000000000e+00
-3.390434265136718750e+01 5.394186496734619141e+00 -5.992458462715148926e-01 1.900000000000000000e+01
-2.481636285781859907e+00 3.979379832744597834e-01 -6.734471321105957031e-01 1.500000000000000000e+01
-4.482122421264647727e+01 7.195244789123535156e+00 7.923741340637207031e-01 5.000000000000000000e+01
-2.857216119766234907e+00 4.591864347457885742e-01 -6.681046485900878906e-01 1.300000000000000000e+01
-4.481269073486328125e+01 7.201897621154785156e+00 2.378669261932373047e+00 3.500000000000000000e+01
-3.399826049804687944e+00 5.469985604286193848e-01 -6.693579554557800293e-01 1.100000000000000000e+01
-4.489565277099608664e+01 7.231308460235595703e+00 3.978485345840454102e+00 5.400000000000000000e+01
-4.202650547027587891e+00 6.776702404022216797e-01 -6.742325425148010254e-01 9.000000000000000000e+00
-4.489332199096679688e+01 7.247011184692382812e+00 5.583565711975097656e+00 7.900000000000000000e+01
-5.498826503753662109e+00 8.886458277702331543e-01 -6.839307546615600586e-01 1.200000000000000000e+01
-7.898730754852294922e+00 1.277900457382201926e+00 -7.000349164009094238e-01 2.000000000000000000e+00
-1.424416732788085938e+01 2.309603214263916016e+00 -7.562545537948608398e-01 4.000000000000000000e+00
-3.388626861572266336e+01 5.506587982177734375e+00 -5.992458462715148926e-01 1.300000000000000000e+01
-2.484044790267943892e+00 4.072231352329254150e-01 -6.744824051856994629e-01 1.400000000000000000e+01
-4.482740783691406250e+01 7.356837749481201172e+00 7.929326295852661133e-01 5.000000000000000000e+01
-2.863287687301636186e+00 4.704208970069885254e-01 -6.699042320251464844e-01 1.300000000000000000e+01
-4.479515838623046875e+01 7.359574317932128906e+00 2.379087924957274947e+00 3.500000000000000000e+01
-3.394021511077880859e+00 5.582256317138671875e-01 -6.685947179794311523e-01 1.200000000000000000e+01
-4.490945816040039062e+01 7.394453048706054688e+00 3.981971502304077148e+00 5.400000000000000000e+01
-4.192463397979736328e+00 6.910510659217834473e-01 -6.729810833930969238e-01 1.000000000000000000e+01
-4.487558746337891336e+01 7.404966831207275391e+00 5.584540843963623047e+00 7.900000000000000000e+01
-5.485898017883300781e+00 9.062172174453735352e-01 -6.827120780944824219e-01 1.200000000000000000e+01
-7.894221782684326172e+00 1.305464386940001997e+00 -7.000349164009094238e-01 1.000000000000000000e+00
-1.428724861145020064e+01 2.367800712585449219e+00 -7.589760422706604004e-01 4.000000000000000000e+00
-3.375242614746093750e+01 5.605836868286132812e+00 -5.972213745117187500e-01 1.300000000000000000e+01
-2.476892232894897017e+00 4.149340391159058172e-01 -6.729295253753662109e-01 1.600000000000000000e+01
-4.477779006958007812e+01 7.509301185607910156e+00 7.925137877464294434e-01 5.000000000000000000e+01
-2.865471839904785156e+00 4.810580611228942871e-01 -6.708040237426757812e-01 1.400000000000000000e+01
-4.485454940795897727e+01 7.538272380828857422e+00 2.383693456649779829e+00 3.600000000000000000e+01
-3.382371664047241211e+00 5.684426426887512207e-01 -6.666866540908813477e-01 1.200000000000000000e+01
-4.485586547851563211e+01 7.546543598175048828e+00 3.979531288146973100e+00 5.400000000000000000e+01
-4.201713085174561435e+00 7.076497077941894531e-01 -6.748582720756530762e-01 9.000000000000000000e+00
-4.490231704711914062e+01 7.570477485656738281e+00 5.591121673583984375e+00 7.900000000000000000e+01
