-8.985712528228759766e-01 -1.359654545783997026e+00 -2.844742313027381897e-02 5.500000000000000000e+01
-8.395484089851379395e-01 -1.269863367080688032e+00 4.078988134860991877e-01 5.500000000000000000e+01
-9.686749577522277832e-01 -1.462398886680603027e+00 -4.700153768062592108e-01 4.500000000000000000e+01
-8.880813717842102051e-01 -1.340219378471374956e+00 2.806346863508224140e-02 6.100000000000000000e+01
-9.668909311294555664e-01 -1.458599328994750977e+00 -4.040120840072631836e-01 4.600000000000000000e+01
-8.806118369102478027e-01 -1.328443408012389915e+00 8.352818340063095093e-02 5.400000000000000000e+01
-2.141831398010253906e+00 -3.229826688766479048e+00 -7.533138990402221680e-01 1.200000000000000000e+01
-8.635075092315673828e-01 -1.301653861999511941e+00 1.366602033376694003e-01 6.100000000000000000e+01
-2.701245784759521040e+00 -4.070323944091796875e+00 -7.737248539924621582e-01 1.200000000000000000e+01
-8.542098402976989746e-01 -1.286663293838500977e+00 1.896287053823471069e-01 7.100000000000000000e+01
-3.183811426162720171e+00 -4.793836593627929688e+00 -7.065984606742858887e-01 3.300000000000000000e+01
-8.415095806121826172e-01 -1.267053484916687012e+00 2.409090697765350064e-01 8.700000000000000000e+01
-9.173394441604614258e-01 -1.380706906318664995e+00 -1.450271606445313055e-01 5.700000000000000000e+01
-8.400452136993408203e-01 -1.263890981674193892e+00 2.949907183647155762e-01 9.700000000000000000e+01
-9.012652635574340820e-01 -1.355486512184143066e+00 -8.530760556459426880e-02 6.000000000000000000e+01
-8.461445569992065430e-01 -1.272104382514954057e+00 3.527232408523560125e-01 4.900000000000000000e+01
-9.072694182395935059e-01 -1.363484144210814986e+00 -2.858704142272472035e-02 5.500000000000000000e+01
-8.443826436996459961e-01 -1.268975138664246050e+00 4.084164500236511230e-01 5.900000000000000000e+01
-9.791359901428222656e-01 -1.467042803764343040e+00 -4.726035892963408869e-01 9.000000000000000000e+00
-8.971957564353942871e-01 -1.343763470649719016e+00 2.820308879017829895e-02 6.000000000000000000e+01
-9.784708023071289062e-01 -1.464938402175903098e+00 -4.067115187644957941e-01 1.000000000000000000e+01
-8.819156289100646973e-01 -1.320378780364990012e+00 8.321417123079299927e-02 5.700000000000000000e+01
-2.149820327758789062e+00 -3.217433452606201172e+00 -7.521690726280212402e-01 1.300000000000000000e+01
-8.702602386474609375e-01 -1.301944613456726074e+00 1.370088309049606046e-01 5.900000000000000000e+01
-2.715437412261962891e+00 -4.060870170593261719e+00 -7.737248539924621582e-01 1.200000000000000000e+01
-8.575922250747680664e-01 -1.282023787498473899e+00 1.893849670886993131e-01 6.700000000000000000e+01
-3.191693544387816939e+00 -4.769495487213134766e+00 -7.046485543251037598e-01 3.100000000000000000e+01
-8.415328860282897949e-01 -1.257541537284851074e+00 2.396575957536697110e-01 8.700000000000000000e+01
-9.343453645706176758e-01 -1.395708441734313965e+00 -1.469445824623107910e-01 4.800000000000000000e+01
-8.433594703674316406e-01 -1.259319782257080078e+00 2.946090996265410822e-01 8.800000000000000000e+01
-9.059912562370300293e-01 -1.352332234382628950e+00 -8.530760556459426880e-02 5.400000000000000000e+01
-8.473251461982727051e-01 -1.264286637306212935e+00 3.513735532760620117e-01 4.600000000000000000e+01
-9.109097719192504883e-01 -1.358647942543030007e+00 -2.855213731527328144e-02 5.300000000000000000e+01
-8.511801362037658691e-01 -1.269080638885498047e+00 4.094517230987548828e-01 6.000000000000000000e+01
-9.063456654548645020e-01 -1.347260236740112083e+00 2.834270894527434956e-02 5.500000000000000000e+01
-1.798512339591979980e+00 -2.672436714172362837e+00 -7.436881661415100098e-01 1.400000000000000000e+01
-8.900953531265258789e-01 -1.322107911109924094e+00 8.352818340063095093e-02 5.800000000000000000e+01
-2.151170492172241211e+00 -3.195252418518065962e+00 -7.487344741821289062e-01 1.300000000000000000e+01
-8.747996091842651367e-01 -1.298898816108704057e+00 1.370088309049606046e-01 5.900000000000000000e+01
-2.726284742355347124e+00 -4.046452045440673828e+00 -7.727862596511840820e-01 1.000000000000000000e+01
-8.620620965957641602e-01 -1.279022455215454102e+00 1.893849670886993131e-01 2.300000000000000000e+01
-3.231627702713013139e+00 -4.792889595031738281e+00 -7.097670435905456543e-01 3.500000000000000000e+01
-8.415000438690185547e-01 -1.248044967651366965e+00 2.384061217308043878e-01 9.000000000000000000e+01
-9.436681270599365234e-01 -1.399045467376708984e+00 -1.476418226957320889e-01 3.400000000000000000e+01
-8.576332330703735352e-01 -1.271015048027039018e+00 2.980436384677886963e-01 9.300000000000000000e+01
-9.263502955436706543e-01 -1.372337222099303977e+00 -8.677301555871963501e-02 5.400000000000000000e+01
-8.473708629608154297e-01 -1.254861235618591087e+00 3.495739400386809748e-01 4.600000000000000000e+01
-9.134080410003662109e-01 -1.352145910263061968e+00 -2.848232723772526134e-02 5.300000000000000000e+01
-8.478141427040100098e-01 -1.255045294761657937e+00 4.058282673358917236e-01 7.000000000000000000e+01
-1.545255899429321067e+00 -2.280618190765380859e+00 -7.381519079208374023e-01 1.400000000000000000e+01
-9.110429286956787109e-01 -1.344088315963744895e+00 2.834270894527434956e-02 5.500000000000000000e+01
-1.805642604827881081e+00 -2.662916421890258789e+00 -7.427883744239807129e-01 1.400000000000000000e+01
-8.969473242759704590e-01 -1.322298526763916016e+00 8.373752981424331665e-02 6.000000000000000000e+01
-2.170025587081909180e+00 -3.199097156524658203e+00 -7.514058351516723633e-01 1.300000000000000000e+01
-8.759720325469970703e-01 -1.290891408920288086e+00 1.364858895540236872e-01 6.400000000000000000e+01
-2.735954999923706055e+00 -4.030373096466063565e+00 -7.715348005294799805e-01 1.000000000000000000e+01
-8.698670864105224609e-01 -1.280932068824768066e+00 1.901161819696426114e-01 5.600000000000000000e+01
-3.253915786743164062e+00 -4.789789676666259766e+00 -7.109857201576232910e-01 2.000000000000000000e+01
-8.460687398910522461e-01 -1.244952321052551047e+00 2.384061217308043878e-01 9.000000000000000000e+01
-4.019281387329101562e+00 -5.914193153381347656e+00 -6.256039142608642578e-01 1.100000000000000000e+01
-8.598570823669433594e-01 -1.264766454696655051e+00 2.972804009914398193e-01 9.700000000000000000e+01
-9.243957996368408203e-01 -1.359186291694640891e+00 -8.614498376846313477e-02 3.000000000000000000e+01
-8.528422117233276367e-01 -1.253506898880005105e+00 3.500238358974456787e-01 5.100000000000000000e+01
-9.237480759620666504e-01 -1.357214927673340066e+00 -2.865685150027275085e-02 4.700000000000000000e+01
-8.447976112365722656e-01 -1.240751504898071067e+00 4.022047817707061768e-01 6.500000000000000000e+01
-1.545283436775207964e+00 -2.261907100677489790e+00 -7.340108156204223633e-01 1.400000000000000000e+01
-9.116838574409484863e-01 -1.333976387977600098e+00 2.820308879017829895e-02 5.400000000000000000e+01
-1.818053841590880904e+00 -2.659181118011475053e+00 -7.436881661415100098e-01 1.300000000000000000e+01
-9.076555967330932617e-01 -1.327087640762329102e+00 8.426088839769363403e-02 6.100000000000000000e+01
-2.182293176651000977e+00 -3.190741300582886186e+00 -7.514058351516723633e-01 1.300000000000000000e+01
-8.887977004051208496e-01 -1.299028754234313965e+00 1.377060711383820135e-01 6.700000000000000000e+01
-2.740252971649169922e+00 -4.003537178039550781e+00 -7.684060931205749512e-01 1.000000000000000000e+01
-8.747791051864624023e-01 -1.277582645416259988e+00 1.901161819696426114e-01 7.300000000000000000e+01
-3.272283315658568892e+00 -4.777260303497313565e+00 -7.109857201576232910e-01 1.600000000000000000e+01
-8.528586030006408691e-01 -1.245102405548095925e+00 2.390318661928176880e-01 9.000000000000000000e+01
-4.054348945617675781e+00 -5.916795730590820312e+00 -6.275213360786437988e-01 1.400000000000000000e+01
-8.591570258140563965e-01 -1.253358840942383035e+00 2.953723371028900146e-01 1.000000000000000000e+02
-8.653656840324401855e-01 -1.261471748352051003e+00 3.531731665134429932e-01 5.800000000000000000e+01
-9.425304532051086426e-01 -1.373443484306335005e+00 -2.907570824027061115e-02 2.300000000000000000e+01
-8.504326343536376953e-01 -1.239239692687988059e+00 4.027224481105803888e-01 7.000000000000000000e+01
-1.559741497039794922e+00 -2.266047239303588867e+00 -7.371166348457336426e-01 1.300000000000000000e+01
-9.276755452156066895e-01 -1.347256064414978027e+00 2.855213731527328144e-02 5.400000000000000000e+01
-1.818481326103210005e+00 -2.639979839324951172e+00 -7.400889396667480469e-01 1.400000000000000000e+01
-9.122824668884277344e-01 -1.323911190032958984e+00 8.426088839769363403e-02 6.100000000000000000e+01
-2.202329397201538086e+00 -3.196037054061890093e+00 -7.544587850570678711e-01 1.300000000000000000e+01
-8.978499174118041992e-01 -1.302479982376099077e+00 1.384033262729645053e-01 7.000000000000000000e+01
-2.758696794509888139e+00 -4.000452518463134766e+00 -7.696575522422790527e-01 1.000000000000000000e+01
-8.713427782058715820e-01 -1.263083338737488015e+00 1.884099990129471103e-01 7.400000000000000000e+01
-3.286684036254882812e+00 -4.762541294097900391e+00 -7.104982733726501465e-01 2.800000000000000000e+01
-8.596609830856323242e-01 -1.245219349861145020e+00 2.396575957536697110e-01 8.700000000000000000e+01
-4.069317817687988281e+00 -5.894409179687500000e+00 -6.266497969627380371e-01 1.100000000000000000e+01
-8.590641617774963379e-01 -1.243890404701232910e+00 2.938458621501923163e-01 1.000000000000000000e+02
-1.565662670135498047e+01 -2.266170692443848012e+01 -1.443530321121216042e+00 1.300000000000000000e+01
-8.631158471107482910e-01 -1.248824715614319070e+00 3.504737317562103271e-01 7.100000000000000000e+01
-9.484561681747436523e-01 -1.371789932250977007e+00 -2.911061421036719929e-02 3.000000000000000000e+00
-8.593646883964538574e-01 -1.242469668388366921e+00 4.047929942607880194e-01 7.000000000000000000e+01
-1.571649670600890891e+00 -2.267213106155395952e+00 -7.391871809959411621e-01 1.400000000000000000e+01
-9.378357529640197754e-01 -1.352388620376586914e+00 2.872666157782078136e-02 4.400000000000000000e+01
-1.829447388648987038e+00 -2.637137413024901900e+00 -7.409887909889221191e-01 1.300000000000000000e+01
-9.235000014305114746e-01 -1.330723762512207031e+00 8.488892018795013428e-02 4.900000000000000000e+01
-2.205080509185791016e+00 -3.177426099777222124e+00 -7.517874240875244141e-01 1.400000000000000000e+01
-8.976192474365234375e-01 -1.292948842048645020e+00 1.377060711383820135e-01 5.100000000000000000e+01
-2.771947622299193892e+00 -3.991282224655150923e+00 -7.696575522422790527e-01 1.000000000000000000e+01
-8.800570964813232422e-01 -1.266707897186279075e+00 1.893849670886993131e-01 7.400000000000000000e+01
-3.318320035934447798e+00 -4.774436950683593750e+00 -7.139106392860412598e-01 2.400000000000000000e+01
-8.624413013458251953e-01 -1.240890383720397949e+00 2.393447309732437134e-01 7.400000000000000000e+01
-4.066094875335693359e+00 -5.848165512084960938e+00 -6.231635808944702148e-01 1.100000000000000000e+01
-8.676683902740478516e-01 -1.247481822967529075e+00 2.953723371028900146e-01 1.000000000000000000e+02
-1.574081516265868963e+01 -2.262277984619140980e+01 -1.444367766380310059e+00 1.300000000000000000e+01
-8.605726361274719238e-01 -1.236359119415282981e+00 3.477743268012999933e-01 7.100000000000000000e+01
-2.032381057739258168e+01 -2.918774604797362926e+01 -6.208170056343078613e-01 7.000000000000000000e+00
-8.599520325660705566e-01 -1.235007643699645996e+00 4.032400846481323242e-01 5.900000000000000000e+01
-1.577341914176940918e+00 -2.258545637130736861e+00 -7.381519079208374023e-01 1.200000000000000000e+01
-9.540033936500549316e-01 -1.365499258041382058e+00 2.907570824027061115e-02 2.100000000000000000e+01
-1.843106985092163086e+00 -2.637124538421630859e+00 -7.427883744239807129e-01 1.400000000000000000e+01
-9.384393692016601562e-01 -1.342223763465880904e+00 8.583097159862518311e-02 4.200000000000000000e+01
-2.213908433914185014e+00 -3.166491508483887163e+00 -7.510241866111755371e-01 1.400000000000000000e+01
-9.078366756439208984e-01 -1.297971010208130105e+00 1.385776251554489136e-01 5.200000000000000000e+01
-2.790392875671387163e+00 -3.988056182861328125e+00 -7.709090709686279297e-01 1.000000000000000000e+01
-8.844733834266662598e-01 -1.263628244400023970e+00 1.893849670886993131e-01 7.400000000000000000e+01
-3.325856924057006836e+00 -4.749815940856933594e+00 -7.119607329368591309e-01 2.400000000000000000e+01
-8.635836839675903320e-01 -1.232867240905761941e+00 2.384061217308043878e-01 7.800000000000000000e+01
-4.125348567962645596e+00 -5.889420032501220703e+00 -6.290901303291320801e-01 7.000000000000000000e+00
-8.844106197357177734e-01 -1.262131333351135032e+00 2.995701134204865057e-01 1.000000000000000000e+02
-1.584261608123778942e+01 -2.260040473937987926e+01 -1.446461200714111106e+00 1.300000000000000000e+01
-8.637642264366149902e-01 -1.231752038002013938e+00 3.473244309425354004e-01 7.700000000000000000e+01
-8.600338697433471680e-01 -1.225522279739380105e+00 4.011695086956024170e-01 7.300000000000000000e+01
-1.576322913169861062e+00 -2.240386247634888139e+00 -7.340108156204223633e-01 1.100000000000000000e+01
-9.702737927436828613e-01 -1.378513336181641069e+00 2.942475676536560059e-02 1.000000000000000000e+00
-1.852301001548767090e+00 -2.630674839019774947e+00 -7.427883744239807129e-01 1.300000000000000000e+01
-9.442690610885620117e-01 -1.340572595596313032e+00 8.593563735485076904e-02 3.500000000000000000e+01
-2.220425844192504883e+00 -3.152323961257935014e+00 -7.494977116584777832e-01 1.300000000000000000e+01
-9.031808972358703613e-01 -1.281764864921570046e+00 1.371831446886062900e-01 5.200000000000000000e+01
-2.804296731948852983e+00 -3.978291511535644975e+00 -7.709090709686279297e-01 1.000000000000000000e+01
-8.934547901153564453e-01 -1.267022371292114036e+00 1.903599202632904053e-01 7.400000000000000000e+01
-3.326396942138671875e+00 -4.715467929840087891e+00 -7.085483670234680176e-01 2.400000000000000000e+01
-8.676672577857971191e-01 -1.229996800422668013e+00 2.384061217308043878e-01 7.800000000000000000e+01
-4.079253196716308594e+00 -5.780567646026611328e+00 -6.189801096916198730e-01 7.000000000000000000e+00
-8.797529339790344238e-01 -1.246205568313599077e+00 2.965171933174132746e-01 1.000000000000000000e+02
-8.714318871498107910e-01 -1.233504295349121094e+00 3.486741483211516779e-01 8.700000000000000000e+01
-8.607482910156250000e-01 -1.217930674552917036e+00 3.996165990829467773e-01 8.500000000000000000e+01
-1.593070983886718972e+00 -2.247478723526000977e+00 -7.381519079208374023e-01 1.200000000000000000e+01
-1.862599968910217063e+00 -2.625782489776610884e+00 -7.432382702827453613e-01 1.300000000000000000e+01
-9.316052198410034180e-01 -1.312835931777954102e+00 8.436556160449981689e-02 4.300000000000000000e+01
-2.235960483551024947e+00 -3.150958538055419922e+00 -7.510241866111755371e-01 1.400000000000000000e+01
-9.099562168121337891e-01 -1.281853675842284934e+00 1.375317573547363004e-01 5.800000000000000000e+01
-2.809016466140747070e+00 -3.955593824386597124e+00 -7.684060931205749512e-01 1.000000000000000000e+01
-8.909742236137390137e-01 -1.254186034202575906e+00 1.888974756002425870e-01 7.400000000000000000e+01
-3.360085487365723100e+00 -4.728099822998046875e+00 -7.122044563293457031e-01 2.200000000000000000e+01
-8.767479062080383301e-01 -1.233248233795166016e+00 2.396575957536697110e-01 8.300000000000000000e+01
-4.099406242370604581e+00 -5.766293048858642578e+00 -6.189801096916198730e-01 7.000000000000000000e+00
-8.749949932098388672e-01 -1.230327844619750977e+00 2.934642434120178223e-01 1.000000000000000000e+02
-8.791221976280212402e-01 -1.235217928886414018e+00 3.500238358974456787e-01 8.900000000000000000e+01
-8.674479126930236816e-01 -1.217914700508117898e+00 4.006518721580504816e-01 8.600000000000000000e+01
-1.598661184310913086e+00 -2.238759756088256836e+00 -7.371166348457336426e-01 1.200000000000000000e+01
-9.426782727241516113e-01 -1.319636464118957964e+00 2.830780297517776142e-02 1.000000000000000000e+00
-1.866089224815369096e+00 -2.611337423324584961e+00 -7.409887909889221191e-01 1.400000000000000000e+01
-9.257285594940185547e-01 -1.294952988624572976e+00 8.342351764440536499e-02 4.900000000000000000e+01
-2.248087406158446822e+00 -3.144731521606444868e+00 -7.514058351516723633e-01 1.300000000000000000e+01
-9.132661819458007812e-01 -1.277048826217650923e+00 1.373574435710906982e-01 5.300000000000000000e+01
-2.825105667114257812e+00 -3.948977470397949219e+00 -7.690318226814270020e-01 1.000000000000000000e+01
-8.941914439201354980e-01 -1.249454021453856978e+00 1.886537373065947931e-01 7.200000000000000000e+01
-3.405458450317382812e+00 -4.756693840026854581e+00 -7.182978987693786621e-01 1.500000000000000000e+01
-8.854323625564575195e-01 -1.236758828163146973e+00 2.409090697765350064e-01 8.500000000000000000e+01
-4.215797424316406250e+00 -5.886392593383789062e+00 -6.334479451179504395e-01 1.000000000000000000e+00
-8.815711140632629395e-01 -1.230457901954651101e+00 2.942274808883666992e-01 1.000000000000000000e+02
-8.777510523796081543e-01 -1.224223136901855025e+00 3.477743268012999933e-01 8.000000000000000000e+01
-8.793634772300720215e-01 -1.226020097732543945e+00 4.042753577232360840e-01 8.600000000000000000e+01
-1.605337977409363015e+00 -2.231597661972045898e+00 -7.365990281105041504e-01 1.200000000000000000e+01
-9.355984926223754883e-01 -1.300106763839721902e+00 2.795875445008277893e-02 2.300000000000000000e+01
-1.874054551124572976e+00 -2.603225946426392046e+00 -7.405388951301574707e-01 1.600000000000000000e+01
-9.185712933540344238e-01 -1.275506496429442915e+00 8.237679302692413330e-02 5.100000000000000000e+01
-2.253314495086669922e+00 -3.128899335861206055e+00 -7.494977116584777832e-01 1.300000000000000000e+01
-9.153891205787658691e-01 -1.270620107650757058e+00 1.370088309049606046e-01 5.500000000000000000e+01
-2.841182947158813032e+00 -3.942297220230102983e+00 -7.696575522422790527e-01 1.000000000000000000e+01
-8.962255716323852539e-01 -1.243104696273803933e+00 1.881662607192992887e-01 7.000000000000000000e+01
-3.370949029922484907e+00 -4.673935890197753906e+00 -7.075734138488769531e-01 7.000000000000000000e+00
-8.920550942420959473e-01 -1.236864805221558061e+00 2.415348142385483066e-01 9.200000000000000000e+01
-8.939036726951599121e-01 -1.238516569137573020e+00 2.968987822532653809e-01 1.000000000000000000e+02
-8.797369599342346191e-01 -1.217992186546325906e+00 3.468745350837708075e-01 7.000000000000000000e+01
-9.591735601425170898e-01 -1.327483654022217019e+00 -2.858704142272472035e-02 4.000000000000000000e+00
-8.813748955726623535e-01 -1.219811320304871050e+00 4.032400846481323242e-01 9.000000000000000000e+01
-1.613862752914428933e+00 -2.227826356887816939e+00 -7.371166348457336426e-01 1.200000000000000000e+01
-9.352110028266906738e-01 -1.290520191192626953e+00 2.781913615763187062e-02 4.000000000000000000e+01
-1.888395786285399947e+00 -2.604885816574097124e+00 -7.427883744239807129e-01 1.400000000000000000e+01
-9.274861812591552734e-01 -1.278920769691467063e+00 8.279548585414886475e-02 5.100000000000000000e+01
-2.264830350875854048e+00 -3.122999191284180132e+00 -7.498793601989746094e-01 1.300000000000000000e+01
-9.149177074432373047e-01 -1.261126756668091042e+00 1.363115757703781128e-01 5.500000000000000000e+01
-2.858881473541260210e+00 -3.939248561859130859e+00 -7.709090709686279297e-01 6.000000000000000000e+00
-9.003429412841796875e-01 -1.240125775337219016e+00 1.881662607192992887e-01 7.000000000000000000e+01
-8.917227387428283691e-01 -1.227351069450377974e+00 2.402833402156830112e-01 1.000000000000000000e+02
-9.049313664436340332e-01 -1.245074152946471946e+00 2.991884946823120117e-01 1.000000000000000000e+02
-9.760289192199707031e-01 -1.342402935028075950e+00 -8.698236197233200073e-02 1.000000000000000000e+00
-8.837711215019226074e-01 -1.215068221092223899e+00 3.468745350837708075e-01 6.100000000000000000e+01
-9.470990896224975586e-01 -1.301658153533935991e+00 -2.809837460517882954e-02 2.700000000000000000e+01
-8.854150772094726562e-01 -1.216881871223449929e+00 4.032400846481323242e-01 8.800000000000000000e+01
-1.615935564041137917e+00 -2.214376688003540039e+00 -7.345284223556518555e-01 1.000000000000000000e+01
-9.385310411453247070e-01 -1.285632729530334029e+00 2.778423018753528942e-02 5.100000000000000000e+01
-1.897477030754088911e+00 -2.598278284072875977e+00 -7.427883744239807129e-01 1.000000000000000000e+01
-9.343011975288391113e-01 -1.278900861740112083e+00 8.300482481718063354e-02 5.000000000000000000e+01
-2.274559736251831055e+00 -3.113489151000977007e+00 -7.494977116584777832e-01 8.000000000000000000e+00
-9.122607707977294922e-01 -1.248273849487304910e+00 1.352657079696654996e-01 5.500000000000000000e+01
-9.093536734580993652e-01 -1.243384718894958052e+00 1.891412138938904086e-01 7.000000000000000000e+01
-8.936681747436523438e-01 -1.221042752265929954e+00 2.396575957536697110e-01 1.000000000000000000e+02
-9.023132324218750000e-01 -1.232403278350830078e+00 2.968987822532653809e-01 1.000000000000000000e+02
-9.571057558059692383e-01 -1.306761860847472922e+00 -8.488892018795013428e-02 1.900000000000000000e+01
-8.972212076187133789e-01 -1.224551439285278098e+00 3.504737317562103271e-01 5.500000000000000000e+01
-9.528191089630126953e-01 -1.299957036972045898e+00 -2.813327871263026844e-02 5.100000000000000000e+01
-8.852999806404113770e-01 -1.207396745681762917e+00 4.011695086956024170e-01 8.800000000000000000e+01
-1.633196830749511941e+00 -2.220889806747436968e+00 -7.386695742607116699e-01 2.000000000000000000e+00
-9.325720667839050293e-01 -1.267687201499938965e+00 2.747008763253689159e-02 5.000000000000000000e+01
-1.908142566680907981e+00 -2.592875719070435014e+00 -7.432382702827453613e-01 1.000000000000000000e+00
-9.318777918815612793e-01 -1.265817523002624956e+00 8.237679302692413330e-02 5.000000000000000000e+01
-9.132853150367736816e-01 -1.240108966827393022e+00 1.347427815198898038e-01 5.600000000000000000e+01
-9.150825142860412598e-01 -1.241641402244568093e+00 1.893849670886993131e-01 6.700000000000000000e+01
-9.028275609016418457e-01 -1.224118113517761008e+00 2.409090697765350064e-01 1.000000000000000000e+02
-9.579071402549743652e-01 -1.298798918724060059e+00 -1.411923021078110019e-01 1.000000000000000000e+00
-9.068241715431213379e-01 -1.229087948799133079e+00 2.968987822532653809e-01 1.000000000000000000e+02
-9.500283002853393555e-01 -1.287175416946410911e+00 -8.384220302104949951e-02 4.200000000000000000e+01
-9.121209979057312012e-01 -1.235364198684691939e+00 3.545228540897368830e-01 5.300000000000000000e+01
-9.445086121559143066e-01 -1.278762459754944070e+00 -2.774932608008385052e-02 4.100000000000000000e+01
-8.941001892089843750e-01 -1.210514903068542036e+00 4.032400846481323242e-01 7.800000000000000000e+01
-9.544355273246765137e-01 -1.288434147834778054e+00 -4.296396076679229736e-01 1.000000000000000000e+00
-9.298478960990905762e-01 -1.254784345626831055e+00 2.726065926253795971e-02 5.000000000000000000e+01
-1.011974811553955078e+00 -1.365112543106079102e+00 -3.923146426677703857e-01 1.000000000000000000e+00
-9.351009130477905273e-01 -1.260952591896056907e+00 8.227211982011795044e-02 5.300000000000000000e+01
-9.235439300537109375e-01 -1.244914174079895020e+00 1.356143355369567871e-01 5.900000000000000000e+01
-9.759113192558288574e-01 -1.315024375915526900e+00 -2.593683302402495783e-01 1.000000000000000000e+00
-9.134946465492248535e-01 -1.230470180511475053e+00 1.881662607192992887e-01 7.200000000000000000e+01
-9.551340341567993164e-01 -1.286089062690735085e+00 -1.966971158981322965e-01 2.000000000000000000e+00
-9.094511270523071289e-01 -1.224130511283874956e+00 2.415348142385483066e-01 1.000000000000000000e+02
-9.588703513145446777e-01 -1.290649414062500000e+00 -1.406693756580353061e-01 2.300000000000000000e+01
-9.122800230979919434e-01 -1.227490782737731934e+00 2.972804009914398193e-01 1.000000000000000000e+02
-9.461740255355834961e-01 -1.272631764411926047e+00 -8.310949802398681641e-02 5.100000000000000000e+01
-9.129387140274047852e-01 -1.227481842041016069e+00 3.531731665134429932e-01 5.800000000000000000e+01
-9.489665627479553223e-01 -1.275457739830017090e+00 -2.774932608008385052e-02 4.400000000000000000e+01
-8.994733691215515137e-01 -1.208936452865601030e+00 4.037577211856842041e-01 6.000000000000000000e+01
-9.647038578987121582e-01 -1.292836189270019975e+00 -4.322278201580048163e-01 2.200000000000000000e+01
-9.366146326065063477e-01 -1.254735827445984109e+00 2.733046934008597981e-02 5.300000000000000000e+01
-9.677627086639404297e-01 -1.295991420745850053e+00 -3.734187483787537176e-01 7.000000000000000000e+00
-9.261321425437927246e-01 -1.240241408348083052e+00 8.112072944641113281e-02 5.700000000000000000e+01
-9.693237543106079102e-01 -1.297609448432921919e+00 -3.148348331451416016e-01 4.000000000000000000e+00
-9.278838634490966797e-01 -1.241682887077331987e+00 1.356143355369567871e-01 5.500000000000000000e+01
-9.568407535552978516e-01 -1.279966711997986062e+00 -2.531109750270844061e-01 1.000000000000000000e+01
-9.177842140197753906e-01 -1.227274060249329057e+00 1.881662607192992887e-01 7.200000000000000000e+01
-9.631848931312561035e-01 -1.287515759468079057e+00 -1.974283307790755948e-01 2.600000000000000000e+01
-9.135054945945739746e-01 -1.221107959747314009e+00 2.415348142385483066e-01 1.000000000000000000e+02
-9.597884416580200195e-01 -1.282508969306946023e+00 -1.401464343070983887e-01 5.000000000000000000e+01
-9.200890064239501953e-01 -1.229013681411742942e+00 2.984252572059630793e-01 1.000000000000000000e+02
-9.410326480865478516e-01 -1.256532073020935059e+00 -8.227211982011795044e-02 5.800000000000000000e+01
-9.160494208335876465e-01 -1.222728013992310014e+00 3.527232408523560125e-01 6.500000000000000000e+01
-9.450181126594543457e-01 -1.260936260223388894e+00 -2.750499173998833050e-02 4.600000000000000000e+01
-9.141150712966918945e-01 -1.219702243804932085e+00 4.084164500236511230e-01 7.000000000000000000e+01
-9.657286405563354492e-01 -1.284828186035156028e+00 -4.306748807430266779e-01 4.800000000000000000e+01
-9.421905279159545898e-01 -1.253057122230530007e+00 2.736537344753741871e-02 5.500000000000000000e+01
-9.769663214683532715e-01 -1.298834800720215066e+00 -3.752183616161345880e-01 4.100000000000000000e+01
-9.258681535720825195e-01 -1.230454921722412109e+00 8.070204406976699829e-02 5.700000000000000000e+01
-9.726669788360595703e-01 -1.292649269104003906e+00 -3.144532144069672186e-01 2.200000000000000000e+01
-9.286178350448608398e-01 -1.233660936355591042e+00 1.350913941860198975e-01 5.800000000000000000e+01
-9.589263200759887695e-01 -1.273462772369384988e+00 -2.524852156639099121e-01 3.000000000000000000e+01
-9.280345439910888672e-01 -1.231990814208983931e+00 1.893849670886993131e-01 6.900000000000000000e+01
-9.652839899063110352e-01 -1.280975103378295898e+00 -1.969408541917800903e-01 4.000000000000000000e+01
-9.084622263908386230e-01 -1.205132365226746050e+00 2.390318661928176880e-01 1.000000000000000000e+02
-9.558640718460083008e-01 -1.268013954162598100e+00 -1.389262527227402011e-01 4.800000000000000000e+01
-9.267375469207763672e-01 -1.228929519653320090e+00 2.991884946823120117e-01 1.000000000000000000e+02
-9.430073499679565430e-01 -1.250050663948059082e+00 -8.206278085708618164e-02 5.700000000000000000e+01
-9.250074625015258789e-01 -1.225744962692260964e+00 3.545228540897368830e-01 7.400000000000000000e+01
-9.445945024490356445e-01 -1.251245975494384988e+00 -2.736537344753741871e-02 5.000000000000000000e+01
-9.127581715583801270e-01 -1.208635568618773970e+00 4.058282673358917236e-01 7.300000000000000000e+01
-9.597126245498657227e-01 -1.267587423324584961e+00 -4.260161519050598145e-01 4.600000000000000000e+01
-9.405220746994018555e-01 -1.241790175437927024e+00 2.719084918498992920e-02 5.700000000000000000e+01
-9.814941883087158203e-01 -1.295416712760925071e+00 -3.752183616161345880e-01 5.100000000000000000e+01
-9.371803402900695801e-01 -1.236929416656493919e+00 8.133007586002349854e-02 5.700000000000000000e+01
-9.736155271530151367e-01 -1.284552335739135964e+00 -3.133083581924437921e-01 3.800000000000000000e+01
-9.184732437133789062e-01 -1.211360335350037065e+00 1.329996585845946988e-01 5.600000000000000000e+01
-9.490405321121215820e-01 -1.251221418380737083e+00 -2.487307935953139981e-01 3.500000000000000000e+01
-9.371289610862731934e-01 -1.235069394111633079e+00 1.903599202632904053e-01 7.000000000000000000e+01
-9.613482356071472168e-01 -1.266529560089111106e+00 -1.952346861362456998e-01 2.800000000000000000e+01
-9.198309183120727539e-01 -1.211393356323241965e+00 2.409090697765350064e-01 1.000000000000000000e+02
-9.434162378311157227e-01 -1.242454648017883079e+00 -1.364858895540236872e-01 6.200000000000000000e+01
-9.310216903686523438e-01 -1.225687146186829057e+00 2.991884946823120117e-01 1.000000000000000000e+02
-9.485734701156616211e-01 -1.248341679573059082e+00 -8.216745406389236450e-02 5.400000000000000000e+01
-9.351769089698791504e-01 -1.230265617370605025e+00 3.567723631858826239e-01 8.600000000000000000e+01
-9.453251957893371582e-01 -1.243165731430053933e+00 -2.726065926253795971e-02 5.400000000000000000e+01
-9.155917763710021973e-01 -1.204064369201659934e+00 4.053106307983397882e-01 6.800000000000000000e+01
-9.571025371551513672e-01 -1.255012989044189009e+00 -4.229103326797484796e-01 5.200000000000000000e+01
-9.375736117362976074e-01 -1.228960394859313965e+00 2.698142081499100078e-02 5.600000000000000000e+01
-9.741873741149902344e-01 -1.276491284370421919e+00 -3.707193434238433838e-01 5.500000000000000000e+01
-9.402806162834167480e-01 -1.232062816619873047e+00 8.122540265321731567e-02 5.800000000000000000e+01
-9.697541594505310059e-01 -1.270222663879394975e+00 -3.106370568275452215e-01 3.600000000000000000e+01
-9.263240098953247070e-01 -1.212897181510925071e+00 1.335225999355315885e-01 5.500000000000000000e+01
-9.342143535614013672e-01 -1.222786068916321023e+00 -2.437248975038527887e-01 4.500000000000000000e+01
-9.378182291984558105e-01 -1.227059125900268999e+00 1.896287053823471069e-01 6.900000000000000000e+01
-9.645577073097229004e-01 -1.261589050292968972e+00 -1.949909478425979892e-01 4.500000000000000000e+01
-9.240538477897644043e-01 -1.208175182342529075e+00 2.409090697765350064e-01 9.400000000000000000e+01
-9.441162347793579102e-01 -1.234406232833862083e+00 -1.359629631042479914e-01 7.000000000000000000e+01
-9.317154884338378906e-01 -1.217752099037169966e+00 2.980436384677886963e-01 1.000000000000000000e+02
-9.456417560577392578e-01 -1.235506772994994895e+00 -8.153942227363586426e-02 5.600000000000000000e+01
-9.394656419754028320e-01 -1.226993799209594949e+00 3.567723631858826239e-01 8.700000000000000000e+01
-9.533067941665649414e-01 -1.244620919227600098e+00 -2.736537344753741871e-02 6.100000000000000000e+01
-9.221385717391967773e-01 -1.203928351402282937e+00 4.063459038734436035e-01 6.100000000000000000e+01
-9.565528035163879395e-01 -1.245703220367432085e+00 -4.208397567272185724e-01 4.400000000000000000e+01
-9.379892945289611816e-01 -1.221087098121643066e+00 2.687670662999153137e-02 5.900000000000000000e+01
-9.689158797264099121e-01 -1.260892152786255105e+00 -3.671201169490814209e-01 5.100000000000000000e+01
-9.421411156654357910e-01 -1.225606203079224077e+00 8.101606369018554688e-02 6.000000000000000000e+01
-9.691749811172485352e-01 -1.260773777961730957e+00 -3.091105818748474121e-01 3.600000000000000000e+01
-9.327701330184936523e-01 -1.212977528572082964e+00 1.338712275028229037e-01 5.500000000000000000e+01
-9.394685626029968262e-01 -1.221247076988219993e+00 -2.440377622842788974e-01 4.700000000000000000e+01
-9.334076046943664551e-01 -1.212930083274841087e+00 1.879225224256516058e-01 7.200000000000000000e+01
-9.554158449172973633e-01 -1.241080760955810991e+00 -1.923098266124725064e-01 4.500000000000000000e+01
-9.278448820114135742e-01 -1.205266237258910911e+00 2.409090697765350064e-01 9.900000000000000000e+01
-9.506357908248901367e-01 -1.234425663948059082e+00 -1.363115757703781128e-01 7.700000000000000000e+01
-9.369467496871948242e-01 -1.216210961341857910e+00 2.984252572059630793e-01 1.000000000000000000e+02
-9.424186348915100098e-01 -1.222872257232666016e+00 -8.091139048337936401e-02 6.000000000000000000e+01
-9.423395395278930664e-01 -1.222328305244446023e+00 3.563224673271179199e-01 8.900000000000000000e+01
-9.549863934516906738e-01 -1.238285899162292036e+00 -2.729556336998939861e-02 6.100000000000000000e+01
-9.357758164405822754e-01 -1.212938547134398970e+00 4.104869961738585871e-01 6.200000000000000000e+01
-9.644410014152526855e-01 -1.246941089630126953e+00 -4.223926961421967108e-01 4.700000000000000000e+01
-9.434697031974792480e-01 -1.219387054443358931e+00 2.691161073744297028e-02 5.700000000000000000e+01
-9.685401320457458496e-01 -1.251338005065917969e+00 -3.653205037117003839e-01 4.700000000000000000e+01
-9.376428127288818359e-01 -1.211419224739074929e+00 8.028335869312286377e-02 6.300000000000000000e+01
-9.639544486999511719e-01 -1.244964480400085005e+00 -3.060576319694519043e-01 4.500000000000000000e+01
-9.369984865188598633e-01 -1.209714174270630105e+00 1.338712275028229037e-01 5.300000000000000000e+01
-9.388861656188964844e-01 -1.211714267730712891e+00 -2.427862882614136020e-01 4.800000000000000000e+01
-9.400680661201477051e-01 -1.212802410125731978e+00 1.884099990129471103e-01 6.600000000000000000e+01
-9.524437785148620605e-01 -1.228325724601746050e+00 -1.908473968505859097e-01 4.700000000000000000e+01
-9.322561621665954590e-01 -1.201857447624206987e+00 2.409090697765350064e-01 9.200000000000000000e+01
-9.573812484741210938e-01 -1.234248399734497070e+00 -1.366602033376694003e-01 8.000000000000000000e+01
-9.435935616493225098e-01 -1.216035127639770952e+00 2.991884946823120117e-01 1.000000000000000000e+02
-9.479061961174011230e-01 -1.221152901649475098e+00 -8.101606369018554688e-02 5.700000000000000000e+01
-9.418196678161621094e-01 -1.212874770164489968e+00 3.545228540897368830e-01 8.900000000000000000e+01
-9.580762982368469238e-01 -1.233365535736083984e+00 -2.726065926253795971e-02 6.300000000000000000e+01
-9.388186931610107422e-01 -1.208139300346374956e+00 4.099693596363068182e-01 6.000000000000000000e+01
-9.583172798156738281e-01 -1.229683876037598100e+00 -4.177339375019072931e-01 5.400000000000000000e+01
-9.516210556030273438e-01 -1.220652103424072044e+00 2.701632492244243969e-02 6.000000000000000000e+01
-9.707231521606445312e-01 -1.244706392288208008e+00 -3.644207119941710871e-01 5.500000000000000000e+01
-9.445331096649169922e-01 -1.211124300956726074e+00 8.049269765615463257e-02 6.100000000000000000e+01
-9.588500857353210449e-01 -1.229039788246155007e+00 -3.030046820640563965e-01 5.700000000000000000e+01
-9.402002096176147461e-01 -1.204701066017151101e+00 1.336969137191771906e-01 5.800000000000000000e+01
-9.542616009712219238e-01 -1.222278356552124023e+00 -2.456021159887314120e-01 5.500000000000000000e+01
-9.432850480079650879e-01 -1.207784295082092063e+00 1.881662607192992887e-01 6.200000000000000000e+01
-9.544951319694519043e-01 -1.221698045730591042e+00 -1.903599202632904053e-01 4.800000000000000000e+01
-9.291487932205200195e-01 -1.189256191253662109e+00 2.390318661928176880e-01 9.400000000000000000e+01
-9.569908976554870605e-01 -1.224451899528502974e+00 -1.359629631042479914e-01 7.700000000000000000e+01
-9.528811573982238770e-01 -1.218755125999450906e+00 3.007149696350098211e-01 1.000000000000000000e+02
-9.499146342277526855e-01 -1.214523911476135032e+00 -8.080671727657318115e-02 6.100000000000000000e+01
-9.474595785140991211e-01 -1.210949420928955078e+00 3.549727499485015869e-01 8.500000000000000000e+01
-9.551953077316284180e-01 -1.220397591590880904e+00 -2.705123089253902088e-02 6.500000000000000000e+01
-9.468133449554443359e-01 -1.209253430366515891e+00 4.115222692489624023e-01 6.400000000000000000e+01
-9.554468989372253418e-01 -1.217213511466979980e+00 -4.146281182765961248e-01 5.400000000000000000e+01
-9.521712064743041992e-01 -1.212604522705077903e+00 2.691161073744297028e-02 6.300000000000000000e+01
-9.714507460594177246e-01 -1.236712932586669922e+00 -3.630709946155548096e-01 5.700000000000000000e+01
-9.499887228012084961e-01 -1.209390521049499956e+00 8.059737086296081543e-02 6.000000000000000000e+01
-9.631343483924865723e-01 -1.225685238838196023e+00 -3.030046820640563965e-01 6.400000000000000000e+01
-9.370119571685791016e-01 -1.192013502120971902e+00 1.326510459184646884e-01 5.600000000000000000e+01
-9.548591971397399902e-01 -1.214281558990478960e+00 -2.446635067462920865e-01 5.500000000000000000e+01
-9.536318778991699219e-01 -1.212285280227660911e+00 1.893849670886993131e-01 6.300000000000000000e+01
-9.562986493110656738e-01 -1.215238809585571067e+00 -1.898724436759949008e-01 4.800000000000000000e+01
-9.332944154739379883e-01 -1.186005592346190962e+00 2.390318661928176880e-01 9.000000000000000000e+01
-9.501677155494689941e-01 -1.207014322280884011e+00 -1.343941539525985995e-01 7.000000000000000000e+01
-9.547003507614135742e-01 -1.212336659431457964e+00 2.999517321586608887e-01 1.000000000000000000e+02
-9.578561782836914062e-01 -1.215907454490662065e+00 -8.112072944641113281e-02 6.600000000000000000e+01
-9.613302946090698242e-01 -1.219879508018494096e+00 3.585719764232634943e-01 8.500000000000000000e+01
-9.619254469871520996e-01 -1.220196604728698953e+00 -2.712103910744189869e-02 6.500000000000000000e+01
-9.474398493766784668e-01 -1.201390385627747026e+00 4.099693596363068182e-01 5.900000000000000000e+01
-9.640564918518066406e-01 -1.220269322395324929e+00 -4.166986644268035889e-01 5.900000000000000000e+01
-9.460566639900207520e-01 -1.197056174278259055e+00 2.663237228989601135e-02 6.300000000000000000e+01
-9.692882895469665527e-01 -1.226011514663696067e+00 -3.608214855194091797e-01 5.800000000000000000e+01
-9.562608003616333008e-01 -1.209533572196960005e+00 8.080671727657318115e-02 6.000000000000000000e+01
-9.645444750785827637e-01 -1.219573736190795898e+00 -3.022414445877075195e-01 6.100000000000000000e+01
-9.407521486282348633e-01 -1.189063906669616921e+00 1.326510459184646884e-01 5.600000000000000000e+01
-9.525396823883056641e-01 -1.203531026840209961e+00 -2.430991530418395996e-01 5.600000000000000000e+01
-9.562034606933593750e-01 -1.207727074623107910e+00 1.891412138938904086e-01 5.900000000000000000e+01
-9.601116776466369629e-01 -1.212228536605834961e+00 -1.898724436759949008e-01 4.800000000000000000e+01
-9.394686222076416016e-01 -1.186164736747741921e+00 2.396575957536697110e-01 9.200000000000000000e+01
-9.601414799690246582e-01 -1.211831450462341087e+00 -1.352657079696654996e-01 7.200000000000000000e+01
-9.475290179252624512e-01 -1.195484161376952903e+00 2.965171933174132746e-01 1.000000000000000000e+02
-9.604304432868957520e-01 -1.211327314376831055e+00 -8.101606369018554688e-02 6.700000000000000000e+01
-9.651579260826110840e-01 -1.216853380203247070e+00 3.585719764232634943e-01 8.100000000000000000e+01
-9.632682204246520996e-01 -1.214035630226135032e+00 -2.705123089253902088e-02 6.300000000000000000e+01
-9.534018039703369141e-01 -1.201600670814513938e+00 4.110046327114105225e-01 5.900000000000000000e+01
-9.683101773262023926e-01 -1.216896772384643999e+00 -4.166986644268035889e-01 5.300000000000000000e+01
-9.514747858047485352e-01 -1.195311069488524947e+00 2.666727639734745026e-02 6.000000000000000000e+01
-9.626366496086120605e-01 -1.208900332450866921e+00 -3.567723631858826239e-01 5.700000000000000000e+01
-9.555004835128784180e-01 -1.199938535690308061e+00 8.038803189992904663e-02 6.500000000000000000e+01
-9.724653959274291992e-01 -1.220806241035460982e+00 -3.033863008022307794e-01 6.000000000000000000e+01
-9.498636126518249512e-01 -1.192005634307861106e+00 1.333482861518859863e-01 6.200000000000000000e+01
-9.591975808143615723e-01 -1.203288078308105025e+00 -2.437248975038527887e-01 5.800000000000000000e+01
-9.554628133773803711e-01 -1.198173761367798074e+00 1.881662607192992887e-01 5.900000000000000000e+01
-9.593856334686279297e-01 -1.202662467956542969e+00 -1.888974756002425870e-01 5.400000000000000000e+01
-9.460671544075012207e-01 -1.185966610908508079e+00 2.402833402156830112e-01 8.700000000000000000e+01
-9.643657207489013672e-01 -1.208472609519958052e+00 -1.352657079696654996e-01 7.500000000000000000e+01
-9.553707838058471680e-01 -1.196772336959839089e+00 2.976620197296143133e-01 1.000000000000000000e+02
-9.571749567985534668e-01 -1.198603272438049094e+00 -8.038803189992904663e-02 6.700000000000000000e+01
-9.742649197578430176e-01 -1.219567179679871050e+00 3.603715896606444757e-01 7.400000000000000000e+01
-9.712452888488769531e-01 -1.215352296829224077e+00 -2.715594507753849030e-02 5.900000000000000000e+01
-9.638309478759765625e-01 -1.205642938613892046e+00 4.135928452014923096e-01 5.500000000000000000e+01
-9.741842150688171387e-01 -1.214676737785338911e+00 -4.172163009643555243e-01 5.400000000000000000e+01
-9.598115682601928711e-01 -1.196328163146973100e+00 2.677199058234691967e-02 6.600000000000000000e+01
-9.709306955337524414e-01 -1.209754586219788042e+00 -3.581220805644989014e-01 6.000000000000000000e+01
-9.503064155578613281e-01 -1.183634042739867942e+00 7.955065369606018066e-02 6.600000000000000000e+01
-9.710001945495605469e-01 -1.209408760070801003e+00 -3.014782071113585871e-01 6.100000000000000000e+01
-9.581764340400695801e-01 -1.193009734153748003e+00 1.338712275028229037e-01 5.900000000000000000e+01
-9.737087488174438477e-01 -1.211915493011475053e+00 -2.462278455495834073e-01 6.000000000000000000e+01
-9.575691819190979004e-01 -1.191401600837707964e+00 1.876787841320038119e-01 5.900000000000000000e+01
-9.590209722518920898e-01 -1.192781567573546919e+00 -1.879225224256516058e-01 6.400000000000000000e+01
-9.530894756317138672e-01 -1.185404300689697044e+00 2.409090697765350064e-01 9.000000000000000000e+01
-9.702475070953369141e-01 -1.206313252449036089e+00 -1.354400217533112127e-01 8.700000000000000000e+01
-9.624204635620117188e-01 -1.196154356002808061e+00 2.984252572059630793e-01 1.000000000000000000e+02
-9.605179429054260254e-01 -1.193363308906554954e+00 -8.028335869312286377e-02 6.600000000000000000e+01
-9.703854918479919434e-01 -1.205192208290100098e+00 3.572222888469696045e-01 7.100000000000000000e+01
-9.721416234970092773e-01 -1.206941962242126021e+00 -2.705123089253902088e-02 6.500000000000000000e+01
-9.827852249145507812e-01 -1.220156311988831010e+00 4.198044836521149237e-01 5.300000000000000000e+01
-9.759904742240905762e-01 -1.208263158798217995e+00 -4.161810278892517090e-01 5.500000000000000000e+01
-9.664953351020812988e-01 -1.196081161499022993e+00 2.684180065989493977e-02 6.600000000000000000e+01
-9.751476049423217773e-01 -1.206358075141906960e+00 -3.581220805644989014e-01 6.500000000000000000e+01
-9.581997990608215332e-01 -1.184968709945678933e+00 7.986466586589813232e-02 6.300000000000000000e+01
-9.690436720848083496e-01 -1.198378920555114968e+00 -2.995701134204865057e-01 5.900000000000000000e+01
-9.623349905014038086e-01 -1.189657807350158913e+00 1.338712275028229037e-01 6.100000000000000000e+01
-9.816610217094421387e-01 -1.213115930557250977e+00 -2.471664547920227051e-01 6.100000000000000000e+01
-9.679670929908752441e-01 -1.195766448974608931e+00 1.888974756002425870e-01 5.600000000000000000e+01
-9.631787538528442383e-01 -1.189426660537719949e+00 -1.879225224256516058e-01 5.700000000000000000e+01
-9.524541497230529785e-01 -1.175763249397278054e+00 2.396575957536697110e-01 8.700000000000000000e+01
-9.669276475906372070e-01 -1.193630218505858931e+00 -1.343941539525985995e-01 8.700000000000000000e+01
-9.752422571182250977e-01 -1.203464746475219949e+00 3.010965883731842041e-01 1.000000000000000000e+02
-9.722240567207336426e-01 -1.199312210083008035e+00 -8.091139048337936401e-02 6.600000000000000000e+01
-9.794962406158447266e-01 -1.207852005958556907e+00 3.590218722820281982e-01 7.100000000000000000e+01
-9.725692868232727051e-01 -1.198882341384887917e+00 -2.694651484489440918e-02 6.900000000000000000e+01
-9.848160743713378906e-01 -1.213545918464661089e+00 4.187692105770111084e-01 5.000000000000000000e+01
-9.741063714027404785e-01 -1.197356104850769043e+00 -4.135928452014923096e-01 5.700000000000000000e+01
-9.731890559196472168e-01 -1.195802211761475053e+00 2.691161073744297028e-02 6.600000000000000000e+01
-9.830436706542968750e-01 -1.207480549812316895e+00 -3.594717979431151789e-01 6.000000000000000000e+01
-9.661139845848083496e-01 -1.186262726783751997e+00 8.017868548631668091e-02 6.500000000000000000e+01
-9.732208847999572754e-01 -1.194989085197448953e+00 -2.995701134204865057e-01 5.900000000000000000e+01
-9.564142823219299316e-01 -1.173934221267699973e+00 1.324767321348190030e-01 5.900000000000000000e+01
-9.846416115760803223e-01 -1.208150744438170943e+00 -2.468535900115967074e-01 6.700000000000000000e+01
-9.758983254432678223e-01 -1.196995973587035911e+00 1.896287053823471069e-01 5.400000000000000000e+01
-9.748525619506835938e-01 -1.195287346839905007e+00 -1.893849670886993131e-01 5.100000000000000000e+01
-9.526023864746093750e-01 -1.168005943298340066e+00 2.387189865112304965e-01 7.500000000000000000e+01
-9.660502672195434570e-01 -1.184072613716125044e+00 -1.336969137191771906e-01 8.500000000000000000e+01
-9.744717478752136230e-01 -1.193969249725342019e+00 2.995701134204865057e-01 1.000000000000000000e+02
-9.801939129829406738e-01 -1.200552463531493919e+00 -8.122540265321731567e-02 7.000000000000000000e+01
-9.874045848846435547e-01 -1.208953499794005904e+00 3.603715896606444757e-01 5.700000000000000000e+01
-9.742178320884704590e-01 -1.192383050918579102e+00 -2.687670662999153137e-02 6.900000000000000000e+01
-9.900571703910827637e-01 -1.211769461631774902e+00 4.192868471145629883e-01 3.900000000000000000e+01
-9.795043468475341797e-01 -1.195442914962768999e+00 -4.141104817390441895e-01 5.500000000000000000e+01
-9.710189700126647949e-01 -1.184665083885193093e+00 2.673708647489548076e-02 6.800000000000000000e+01
-9.860169887542724609e-01 -1.202534794807434082e+00 -3.590218722820281982e-01 6.500000000000000000e+01
-9.778487682342529297e-01 -1.192148447036742942e+00 8.080671727657318115e-02 6.500000000000000000e+01
-9.798763990402221680e-01 -1.194620490074157937e+00 -3.003333508968353271e-01 5.900000000000000000e+01
-9.668253660202026367e-01 -1.178289771080017090e+00 1.333482861518859863e-01 5.600000000000000000e+01
-9.850929975509643555e-01 -1.200125694274901900e+00 -2.459149807691574097e-01 6.300000000000000000e+01
-9.750317335128784180e-01 -1.187445521354675071e+00 1.886537373065947931e-01 5.700000000000000000e+01
-9.878389239311218262e-01 -1.202614784240723100e+00 -1.910911351442337036e-01 4.500000000000000000e+01
-9.706720709800720215e-01 -1.181295037269592063e+00 2.421605587005614957e-01 7.800000000000000000e+01
-9.727073311805725098e-01 -1.183771967887877974e+00 -1.340455263853073120e-01 8.800000000000000000e+01
-9.711535573005676270e-01 -1.181460618972778098e+00 2.972804009914398193e-01 9.300000000000000000e+01
-9.754989743232727051e-01 -1.186324834823607954e+00 -8.049269765615463257e-02 6.600000000000000000e+01
-9.990465044975280762e-01 -1.214529395103455034e+00 3.630709946155548096e-01 5.800000000000000000e+01
-9.859977364540100098e-01 -1.198239803314208984e+00 -2.708613499999045979e-02 6.700000000000000000e+01
-1.005541801452636941e+00 -1.221556305885314941e+00 4.239456057548522949e-01 1.700000000000000000e+01
-9.898192286491394043e-01 -1.199466586112976074e+00 -4.166986644268035889e-01 5.200000000000000000e+01
-9.738752841949462891e-01 -1.179726243019104004e+00 2.670218236744403839e-02 6.300000000000000000e+01
-9.840042591094970703e-01 -1.191572546958922896e+00 -3.567723631858826239e-01 6.300000000000000000e+01
-9.781880974769592285e-01 -1.184108495712280051e+00 8.049269765615463257e-02 6.300000000000000000e+01
-9.952937960624694824e-01 -1.204815030097960982e+00 -3.037679195404052734e-01 6.700000000000000000e+01
-9.734708666801452637e-01 -1.177979469299315962e+00 1.336969137191771906e-01 5.800000000000000000e+01
-9.917934536933898926e-01 -1.199724793434143066e+00 -2.465407103300094882e-01 6.600000000000000000e+01
