1.818431377410888894e+00 1.312942028045654075e+00 -6.009778380393981934e-01 2.000000000000000000e+01
2.081325769424438032e+00 1.501651763916016069e+00 -5.925210714340209961e-01 1.100000000000000000e+01
2.428294897079468218e+00 1.751341581344604048e+00 -5.819674134254455566e-01 1.300000000000000000e+01
2.876594781875609907e+00 2.073139667510985884e+00 -5.615997314453125000e-01 1.300000000000000000e+01
3.563193082809447798e+00 2.566076278686522993e+00 -5.391499996185302734e-01 1.000000000000000000e+01
3.155272102355957031e+01 2.272307014465332031e+01 6.158512115478515625e+00 1.400000000000000000e+01
4.700535774230957031e+00 3.383901596069335938e+00 -5.067234635353088379e-01 9.000000000000000000e+00
6.720416069030761719e+00 4.834446430206298828e+00 -4.338650703430175781e-01 2.000000000000000000e+00
3.193713188171387074e+01 2.296606636047362926e+01 9.081724166870117188e+00 1.200000000000000000e+01
1.097956752777099965e+01 7.892525672912597656e+00 -2.360263466835021973e-01 2.000000000000000000e+00
3.188707160949707031e+01 2.292162704467773082e+01 1.052254676818848012e+01 9.000000000000000000e+00
1.829284191131592019e+00 1.311088085174560991e+00 -6.030483841896057129e-01 1.800000000000000000e+01
2.086554765701293945e+00 1.494377374649048074e+00 -5.925210714340209961e-01 1.100000000000000000e+01
2.423219203948975053e+00 1.734854578971863015e+00 -5.792961120605468750e-01 1.200000000000000000e+01
2.890240192413330078e+00 2.067683219909667969e+00 -5.628511905670166016e-01 1.300000000000000000e+01
3.570513963699340820e+00 2.552468299865723100e+00 -5.389062166213989258e-01 1.000000000000000000e+01
4.712319374084472656e+00 3.367473125457764116e+00 -5.067234635353088379e-01 8.000000000000000000e+00
6.750253200531005859e+00 4.820243835449218750e+00 -4.347024559974669855e-01 2.000000000000000000e+00
1.104611778259276988e+01 7.882028102874755859e+00 -2.368640601634978970e-01 2.000000000000000000e+00
1.832275509834289995e+00 1.303574800491333008e+00 -6.025307178497314453e-01 1.900000000000000000e+01
2.093346595764160156e+00 1.488214015960692915e+00 -5.929709672927856445e-01 1.300000000000000000e+01
2.427659988403319868e+00 1.725248098373413086e+00 -5.789144635200500488e-01 1.200000000000000000e+01
2.907103776931763139e+00 2.064444065093994141e+00 -5.647284388542175293e-01 1.200000000000000000e+01
3.572926282882689986e+00 2.535394191741942915e+00 -5.379312634468078613e-01 9.000000000000000000e+00
4.728920459747313565e+00 3.354461669921875000e+00 -5.072464346885681152e-01 6.000000000000000000e+00
3.161507797241210938e+01 2.241787719726562855e+01 7.533520698547363281e+00 6.300000000000000000e+01
6.754002571105957031e+00 4.787411689758300781e+00 -4.338650703430175781e-01 1.000000000000000000e+00
3.231611251831054688e+01 2.289802360534667969e+01 9.143810272216796875e+00 1.200000000000000000e+01
1.106703662872313920e+01 7.838798522949218750e+00 -2.367244362831116000e-01 2.000000000000000000e+00
1.832080602645874023e+00 1.293827891349792036e+00 -6.009778380393981934e-01 1.800000000000000000e+01
2.103305339813231978e+00 1.484268546104430930e+00 -5.943207144737243652e-01 1.400000000000000000e+01
2.436875820159912109e+00 1.719026923179626021e+00 -5.796777009963989258e-01 1.200000000000000000e+01
2.909448623657227007e+00 2.050869703292847124e+00 -5.637897849082946777e-01 1.100000000000000000e+01
3.250931167602539062e+01 2.290731430053710938e+01 4.883060932159423828e+00 2.100000000000000000e+01
3.604475259780883789e+00 2.538910865783690962e+00 -5.413436293601989746e-01 9.000000000000000000e+00
4.742229938507080078e+00 3.339081287384033203e+00 -5.074207186698913574e-01 8.000000000000000000e+00
3.169314002990723012e+01 2.230738258361816051e+01 7.533520698547363281e+00 6.300000000000000000e+01
6.770672798156738281e+00 4.763806819915770596e+00 -4.338650703430175781e-01 1.000000000000000000e+00
3.139801979064941051e+01 2.208327484130859020e+01 8.862172126770019531e+00 1.200000000000000000e+01
1.107470130920409979e+01 7.786318302154541016e+00 -2.363055795431137085e-01 2.000000000000000000e+00
3.216406631469727273e+01 2.260528564453125000e+01 1.053393554687500000e+01 9.000000000000000000e+00
1.849014639854430930e+00 1.296618700027466042e+00 -6.051189303398132324e-01 1.900000000000000000e+01
2.106619834899901900e+00 1.476167321205138938e+00 -5.938707590103149414e-01 1.500000000000000000e+01
2.445779085159302202e+00 1.713189125061034934e+00 -5.804409384727478027e-01 1.200000000000000000e+01
2.912996768951416016e+00 2.038944721221923828e+00 -5.631640553474426270e-01 1.100000000000000000e+01
3.616128206253052202e+00 2.529219627380371094e+00 -5.418310761451721191e-01 1.000000000000000000e+01
3.183064460754394887e+01 2.226322937011719105e+01 6.152254581451416016e+00 1.400000000000000000e+01
4.754909515380859375e+00 3.324478864669799805e+00 -5.075950622558593750e-01 8.000000000000000000e+00
6.815903186798095703e+00 4.761917591094970703e+00 -4.357491731643676758e-01 2.000000000000000000e+00
1.111685752868651988e+01 7.760997295379638672e+00 -2.366546243429183960e-01 2.000000000000000000e+00
3.249470520019531250e+01 2.268548774719237926e+01 1.061882781982422053e+01 9.000000000000000000e+00
1.850358247756958008e+00 1.287949204444885032e+00 -6.040836572647094727e-01 1.800000000000000000e+01
2.103760719299315962e+00 1.463241219520569070e+00 -5.916212797164916992e-01 1.200000000000000000e+01
2.459804058074951172e+00 1.710245013236999956e+00 -5.823490619659423828e-01 1.200000000000000000e+01
2.923340797424315962e+00 2.031018257141112837e+00 -5.637897849082946777e-01 1.100000000000000000e+01
3.166338348388671875e+01 2.199023818969726918e+01 4.733405113220214844e+00 2.000000000000000000e+01
3.620042800903319868e+00 2.513185262680054155e+00 -5.410999059677124023e-01 1.000000000000000000e+01
4.792674541473388672e+00 3.326035737991333008e+00 -5.103840231895446777e-01 9.000000000000000000e+00
6.812788963317871094e+00 4.724439144134520596e+00 -4.344930946826934814e-01 2.000000000000000000e+00
3.032721519470214844e+01 2.102306175231933949e+01 8.519346237182617188e+00 1.100000000000000000e+01
1.114059352874756037e+01 7.719867229461669922e+00 -2.365848273038864136e-01 2.000000000000000000e+00
3.252046203613281250e+01 2.252663421630859020e+01 1.060019302368164062e+01 9.000000000000000000e+00
1.856432199478148970e+00 1.282580494880676047e+00 -6.046012639999389648e-01 1.600000000000000000e+01
2.112062931060791016e+00 1.458103060722351074e+00 -5.925210714340209961e-01 1.400000000000000000e+01
2.444752931594849077e+00 1.687151908874511941e+00 -5.773880481719970703e-01 1.100000000000000000e+01
2.927160263061522993e+00 2.018558740615845171e+00 -5.631640553474426270e-01 1.100000000000000000e+01
3.610812902450561968e+00 2.488143682479857954e+00 -5.384187698364257812e-01 9.000000000000000000e+00
4.810818672180175781e+00 3.313807010650635210e+00 -5.110812783241271973e-01 8.000000000000000000e+00
6.829238891601563388e+00 4.700629234313964844e+00 -4.344930946826934814e-01 2.000000000000000000e+00
3.037472915649414062e+01 2.089939689636230113e+01 8.512147903442382812e+00 1.100000000000000000e+01
1.120042514801025035e+01 7.703596591949462891e+00 -2.372829169034957886e-01 2.000000000000000000e+00
3.249311828613281250e+01 2.234860420227051137e+01 1.056706428527832031e+01 9.000000000000000000e+00
1.857711434364319070e+00 1.273907423019408958e+00 -6.035659909248352051e-01 1.900000000000000000e+01
2.117139816284180132e+00 1.450721740722656028e+00 -5.925210714340209961e-01 1.300000000000000000e+01
2.455486536026000977e+00 1.681936264038085938e+00 -5.785328745841979980e-01 1.100000000000000000e+01
2.940708875656127930e+00 2.012791633605957031e+00 -5.644155740737915039e-01 1.100000000000000000e+01
3.256648254394531250e+01 2.228204154968262074e+01 4.845037460327148438e+00 2.000000000000000000e+01
3.629307270050048828e+00 2.482248306274414062e+00 -5.398811697959899902e-01 9.000000000000000000e+00
4.833869934082031250e+00 3.304865121841431108e+00 -5.123014450073242188e-01 9.000000000000000000e+00
6.835711002349854404e+00 4.670001983642578125e+00 -4.338650703430175781e-01 2.000000000000000000e+00
3.055370712280273082e+01 2.086577796936035156e+01 8.541841506958007812e+00 1.100000000000000000e+01
1.123054981231688920e+01 7.666707515716552734e+00 -2.373527288436889926e-01 2.000000000000000000e+00
3.252693939208983664e+01 2.219669342041015980e+01 1.055153465270995916e+01 9.000000000000000000e+00
1.852784752845763938e+00 1.260569810867310014e+00 -6.004601716995239258e-01 1.900000000000000000e+01
2.132112264633179155e+00 1.449526071548461914e+00 -5.952205061912536621e-01 1.300000000000000000e+01
2.464882135391234907e+00 1.675132155418395996e+00 -5.792961120605468750e-01 1.100000000000000000e+01
2.944797992706298828e+00 1.999780416488647017e+00 -5.637897849082946777e-01 1.100000000000000000e+01
3.304539489746093750e+01 2.243234252929687855e+01 4.904022216796875000e+00 2.100000000000000000e+01
3.638380765914916992e+00 2.468929529190063032e+00 -5.398811697959899902e-01 1.000000000000000000e+01
3.181527900695801137e+01 2.158918762207030895e+01 6.089680671691895419e+00 1.400000000000000000e+01
4.834408283233642578e+00 3.279296875000000000e+00 -5.110812783241271973e-01 9.000000000000000000e+00
6.885846614837645596e+00 4.667328834533691406e+00 -4.359585046768187921e-01 2.000000000000000000e+00
3.060255432128905895e+01 2.073506927490234020e+01 8.534193038940429688e+00 1.100000000000000000e+01
1.124864101409911932e+01 7.618765830993652344e+00 -2.371432930231094083e-01 2.000000000000000000e+00
1.861976623535156028e+00 1.257338047027587891e+00 -6.020131111145019531e-01 1.700000000000000000e+01
2.132313013076781782e+00 1.438804745674133079e+00 -5.938707590103149414e-01 1.300000000000000000e+01
2.470714569091796875e+00 1.666517972946166992e+00 -5.792961120605468750e-01 1.100000000000000000e+01
2.946846485137939009e+00 1.986176729202270952e+00 -5.628511905670166016e-01 1.000000000000000000e+01
3.655209302902222124e+00 2.461758852005004883e+00 -5.410999059677124023e-01 1.000000000000000000e+01
3.181226158142089844e+01 2.141727447509765980e+01 6.074037551879882812e+00 1.400000000000000000e+01
4.855741977691650391e+00 3.269077777862548828e+00 -5.121271610260009766e-01 8.000000000000000000e+00
3.231623458862304688e+01 2.174837303161621094e+01 7.571682453155517578e+00 6.300000000000000000e+01
6.882210731506347656e+00 4.629886150360107422e+00 -4.347024559974669855e-01 2.000000000000000000e+00
1.129176235198974965e+01 7.590610504150390625e+00 -2.374923527240752896e-01 2.000000000000000000e+00
1.875763416290282981e+00 1.257611513137816939e+00 -6.051189303398132324e-01 1.700000000000000000e+01
2.135453462600708008e+00 1.430641174316406028e+00 -5.934208631515502930e-01 1.100000000000000000e+01
2.476227283477783203e+00 1.658315658569335938e+00 -5.792961120605468750e-01 1.100000000000000000e+01
2.956700086593627930e+00 1.978590965270996094e+00 -5.634769201278686523e-01 1.000000000000000000e+01
3.660052299499512163e+00 2.447417259216309038e+00 -5.406123995780944824e-01 1.000000000000000000e+01
3.185639953613280895e+01 2.130185508728026988e+01 6.069657325744628906e+00 1.400000000000000000e+01
4.873181819915770596e+00 3.257386445999145952e+00 -5.128244161605834961e-01 9.000000000000000000e+00
6.897526264190673828e+00 4.607038497924804688e+00 -4.347024559974669855e-01 2.000000000000000000e+00
3.206547164916992188e+01 2.140927696228026988e+01 8.901312828063964844e+00 1.200000000000000000e+01
1.134348392486572088e+01 7.570885181427001953e+00 -2.380508184432983121e-01 2.000000000000000000e+00
3.135904502868651988e+01 2.092970085144042969e+01 1.010222530364990057e+01 8.000000000000000000e+00
1.884966850280761941e+00 1.254266738891602007e+00 -6.066718697547912598e-01 1.700000000000000000e+01
2.137188673019409180e+00 1.421020388603210005e+00 -5.925210714340209961e-01 1.100000000000000000e+01
2.488540887832642046e+00 1.654008746147155984e+00 -5.808225870132446289e-01 1.200000000000000000e+01
2.968525171279906782e+00 1.971536755561829057e+00 -5.644155740737915039e-01 9.000000000000000000e+00
3.670227050781250000e+00 2.435724020004272017e+00 -5.408561229705810547e-01 1.000000000000000000e+01
4.882862091064453125e+00 3.239254474639893022e+00 -5.126500725746154785e-01 9.000000000000000000e+00
6.916894912719726562e+00 4.585140705108642578e+00 -4.349117875099182129e-01 2.000000000000000000e+00
1.131982803344726918e+01 7.498114585876464844e+00 -2.370036840438843051e-01 2.000000000000000000e+00
3.282022476196289062e+01 2.173971176147460938e+01 1.054842853546142933e+01 9.000000000000000000e+00
1.883102416992187944e+00 1.243092417716979980e+00 -6.046012639999389648e-01 1.800000000000000000e+01
2.148889541625977007e+00 1.417469739913939986e+00 -5.943207144737243652e-01 1.100000000000000000e+01
2.489669322967528853e+00 1.641634464263916016e+00 -5.796777009963989258e-01 1.300000000000000000e+01
2.972432374954224077e+00 1.958469629287719949e+00 -5.637897849082946777e-01 1.000000000000000000e+01
3.665865659713745117e+00 2.413522720336914062e+00 -5.389062166213989258e-01 9.000000000000000000e+00
4.899694919586181641e+00 3.224622249603271040e+00 -5.131729841232299805e-01 9.000000000000000000e+00
3.172213172912598012e+01 2.086926269531250000e+01 7.380873680114746094e+00 6.200000000000000000e+01
6.920303821563720703e+00 4.550978660583496094e+00 -4.340744316577910822e-01 2.000000000000000000e+00
3.232532501220703125e+01 2.124992561340332031e+01 8.931006431579589844e+00 1.200000000000000000e+01
1.139736938476563033e+01 7.489520072937011719e+00 -2.380508184432983121e-01 2.000000000000000000e+00
3.303207015991210938e+01 2.170626831054687855e+01 1.059087562561034979e+01 9.000000000000000000e+00
1.884198188781738059e+00 1.234394311904907005e+00 -6.035659909248352051e-01 1.800000000000000000e+01
2.155454874038695845e+00 1.411027431488037109e+00 -5.947706103324890137e-01 1.000000000000000000e+01
2.495384693145751953e+00 1.632933974266052024e+00 -5.796777009963989258e-01 1.300000000000000000e+01
2.985863685607910156e+00 1.952406287193297896e+00 -5.650413036346435547e-01 9.000000000000000000e+00
3.697533607482910156e+00 2.415913105010985884e+00 -5.423185825347900391e-01 9.000000000000000000e+00
4.900912284851074219e+00 3.200962305068970171e+00 -5.121271610260009766e-01 9.000000000000000000e+00
3.179478645324707031e+01 2.075840568542480113e+01 7.380873680114746094e+00 6.200000000000000000e+01
6.966253757476806641e+00 4.546442985534667969e+00 -4.359585046768187921e-01 2.000000000000000000e+00
3.249396514892578125e+01 2.119871711730957031e+01 8.957100868225097656e+00 1.200000000000000000e+01
1.142344284057617010e+01 7.449690341949462891e+00 -2.380508184432983121e-01 2.000000000000000000e+00
1.891520142555237038e+00 1.230245828628540039e+00 -6.046012639999389648e-01 1.900000000000000000e+01
2.160122156143188032e+00 1.403872013092041016e+00 -5.947706103324890137e-01 1.000000000000000000e+01
2.505724906921387163e+00 1.627858638763427956e+00 -5.808225870132446289e-01 1.300000000000000000e+01
2.977409839630126953e+00 1.932813763618469016e+00 -5.622254610061645508e-01 1.000000000000000000e+01
3.717182636260985884e+00 2.411200284957886186e+00 -5.440247654914855957e-01 1.000000000000000000e+01
3.292340850830078125e+01 2.134804725646973012e+01 6.214828491210938388e+00 1.400000000000000000e+01
4.916515350341796875e+00 3.187944650650023970e+00 -5.126500725746154785e-01 8.000000000000000000e+00
6.964530467987061435e+00 4.512456893920898438e+00 -4.349117875099182129e-01 2.000000000000000000e+00
1.144808387756348012e+01 7.411767482757568359e+00 -2.380508184432983121e-01 2.000000000000000000e+00
3.255958175659179688e+01 2.107986450195312855e+01 1.039313793182373047e+01 8.000000000000000000e+00
1.899049162864685059e+00 1.225731015205383079e+00 -6.056365370750427246e-01 1.800000000000000000e+01
2.151907920837401900e+00 1.387873411178589089e+00 -5.911713838577270508e-01 1.100000000000000000e+01
2.524592399597167969e+00 1.627612471580504927e+00 -5.838755369186401367e-01 1.300000000000000000e+01
2.992441654205321822e+00 1.927757859230041948e+00 -5.637897849082946777e-01 9.000000000000000000e+00
3.707215785980225053e+00 2.386391162872314009e+00 -5.413436293601989746e-01 9.000000000000000000e+00
4.935990810394287109e+00 3.176154136657714844e+00 -5.135216116905212402e-01 9.000000000000000000e+00
6.986959457397460938e+00 4.492439270019531250e+00 -4.353304803371428888e-01 2.000000000000000000e+00
3.076210975646973012e+01 1.977167701721191051e+01 8.442413330078125000e+00 1.100000000000000000e+01
1.150080490112305043e+01 7.389055728912354404e+00 -2.386092990636826117e-01 2.000000000000000000e+00
3.261346054077147727e+01 2.095355033874512074e+01 1.038692569732666016e+01 8.000000000000000000e+00
1.911450028419495073e+00 1.224304437637329102e+00 -6.082247495651245117e-01 1.900000000000000000e+01
2.163304805755614790e+00 1.384555339813231978e+00 -5.929709672927856445e-01 1.100000000000000000e+01
2.513720750808715820e+00 1.608209729194640891e+00 -5.800593495368957520e-01 1.300000000000000000e+01
3.002481222152709961e+00 1.919428586959839089e+00 -5.644155740737915039e-01 7.000000000000000000e+00
3.717195987701416016e+00 2.374504566192626953e+00 -5.415873527526855469e-01 1.000000000000000000e+01
3.135995483398437855e+01 2.003240013122558949e+01 5.893825054168701172e+00 1.300000000000000000e+01
4.931934356689453125e+00 3.149254322052001953e+00 -5.119528174400329590e-01 8.000000000000000000e+00
6.999230861663818359e+00 4.465874195098876953e+00 -4.351211488246917725e-01 2.000000000000000000e+00
3.092951774597167969e+01 1.972705078125000000e+01 8.469407081604003906e+00 1.100000000000000000e+01
1.152315521240234020e+01 7.346715450286865234e+00 -2.385394871234894076e-01 2.000000000000000000e+00
1.909190535545348899e+00 1.213479638099669966e+00 -6.061542034149169922e-01 1.900000000000000000e+01
2.171414613723754883e+00 1.379085183143615945e+00 -5.938707590103149414e-01 1.100000000000000000e+01
2.520976781845093218e+00 1.600477695465087891e+00 -5.804409384727478027e-01 1.400000000000000000e+01
3.002490758895874023e+00 1.904703497886657937e+00 -5.631640553474426270e-01 7.000000000000000000e+00
3.604010772705078125e+01 2.285410499572753906e+01 5.239894390106201172e+00 3.000000000000000000e+01
3.730491876602172852e+00 2.364703178405762163e+00 -5.423185825347900391e-01 9.000000000000000000e+00
4.961410045623779297e+00 3.143749952316284180e+00 -5.138702392578125000e-01 9.000000000000000000e+00
7.024901866912841797e+00 4.447825908660888672e+00 -4.357491731643676758e-01 2.000000000000000000e+00
3.098830986022948863e+01 1.961271286010741832e+01 8.466708183288574219e+00 1.100000000000000000e+01
1.154872989654541016e+01 7.306447029113770419e+00 -2.385394871234894076e-01 2.000000000000000000e+00
3.272338104248046875e+01 2.069485664367676137e+01 1.037450218200683949e+01 8.000000000000000000e+00
1.905034899711609109e+00 1.201987504959106001e+00 -6.035659909248352051e-01 1.800000000000000000e+01
2.179272890090941939e+00 1.373955488204956055e+00 -5.947706103324890137e-01 1.100000000000000000e+01
2.529592037200928178e+00 1.594202518463134988e+00 -5.812041759490966797e-01 1.400000000000000000e+01
3.017148256301879883e+00 1.899999618530272993e+00 -5.647284388542175293e-01 8.000000000000000000e+00
3.608881759643554688e+01 2.271754646301269887e+01 5.235994338989257812e+00 3.000000000000000000e+01
3.728232145309447798e+00 2.345976114273070845e+00 -5.408561229705810547e-01 9.000000000000000000e+00
4.956629276275634766e+00 3.117732763290404829e+00 -5.123014450073242188e-01 8.000000000000000000e+00
7.036230564117431641e+00 4.422380447387695312e+00 -4.355398416519165039e-01 2.000000000000000000e+00
3.101687622070312855e+01 1.948703765869140980e+01 8.456809997558593750e+00 1.100000000000000000e+01
1.157628154754639027e+01 7.270236968994140625e+00 -2.386092990636826117e-01 2.000000000000000000e+00
3.241850280761718750e+01 2.035975074768066051e+01 1.025751686096191051e+01 8.000000000000000000e+00
1.912493824958801047e+00 1.197380661964416948e+00 -6.046012639999389648e-01 1.800000000000000000e+01
2.180751323699951172e+00 1.364272952079772949e+00 -5.938707590103149414e-01 1.100000000000000000e+01
2.540135145187377930e+00 1.588485717773437944e+00 -5.823490619659423828e-01 1.400000000000000000e+01
3.018736362457274947e+00 1.886315822601317915e+00 -5.637897849082946777e-01 1.100000000000000000e+01
3.151769065856933949e+01 1.968679046630859020e+01 4.562788009643554688e+00 1.900000000000000000e+01
3.753236770629882812e+00 2.343461275100708008e+00 -5.432935357093811035e-01 1.000000000000000000e+01
4.959031105041503906e+00 3.095137357711791992e+00 -5.114299058914184570e-01 8.000000000000000000e+00
3.088300323486328125e+01 1.926787567138671875e+01 7.075579166412354404e+00 6.100000000000000000e+01
7.051624774932861328e+00 4.397792339324951172e+00 -4.355398416519165039e-01 2.000000000000000000e+00
3.113432121276855113e+01 1.940957832336426137e+01 8.470307350158691406e+00 1.100000000000000000e+01
1.165929126739501953e+01 7.265742778778076172e+00 -2.397960573434829989e-01 2.000000000000000000e+00
3.269595718383789062e+01 2.037520217895508168e+01 1.032273864746093928e+01 8.000000000000000000e+00
1.926716566085814986e+00 1.196477890014647993e+00 -6.077071428298950195e-01 2.000000000000000000e+01
2.189048767089844194e+00 1.358325839042664018e+00 -5.947706103324890137e-01 1.100000000000000000e+01
2.552613735198975053e+00 1.583304405212401900e+00 -5.838755369186401367e-01 1.400000000000000000e+01
3.030666828155518022e+00 1.878360867500304954e+00 -5.647284388542175293e-01 1.300000000000000000e+01
3.175838279724121094e+01 1.967568778991698863e+01 4.587162017822265625e+00 1.900000000000000000e+01
3.748299360275268999e+00 2.321327924728393999e+00 -5.413436293601989746e-01 9.000000000000000000e+00
4.999140739440917969e+00 3.094769001007080078e+00 -5.143932104110717773e-01 8.000000000000000000e+00
7.084681510925292969e+00 4.382424354553222656e+00 -4.365865588188170832e-01 1.000000000000000000e+00
3.120193672180176137e+01 1.929328536987305043e+01 8.469407081604003906e+00 1.100000000000000000e+01
1.170625591278075994e+01 7.235577106475830078e+00 -2.402149289846420011e-01 2.000000000000000000e+00
1.937460064888000044e+00 1.193798780441283958e+00 -6.097776889801025391e-01 2.000000000000000000e+01
2.190458059310913086e+00 1.348633050918579102e+00 -5.938707590103149414e-01 1.100000000000000000e+01
2.553108930587768999e+00 1.571297407150268999e+00 -5.827306509017944336e-01 1.300000000000000000e+01
3.649507522583007812e+01 2.245191955566405895e+01 3.748742818832397017e+00 5.400000000000000000e+01
3.042253255844116211e+00 1.870874762535094993e+00 -5.656670331954956055e-01 1.200000000000000000e+01
3.182686996459960938e+01 1.956471061706542969e+01 4.587162017822265625e+00 1.900000000000000000e+01
3.769909858703612837e+00 2.316543817520142046e+00 -5.432935357093811035e-01 9.000000000000000000e+00
4.999726772308349609e+00 3.071043014526367188e+00 -5.133473277091979980e-01 6.000000000000000000e+00
3.263291168212891336e+01 2.003666687011719105e+01 7.443459033966063565e+00 6.200000000000000000e+01
7.089722633361816406e+00 4.351398944854736328e+00 -4.359585046768187921e-01 2.000000000000000000e+00
3.139533042907714844e+01 1.926170158386230113e+01 8.503600120544433594e+00 1.100000000000000000e+01
1.172462272644042969e+01 7.190488815307617188e+00 -2.400753051042557040e-01 2.000000000000000000e+00
3.268961715698242188e+01 2.004007339477539062e+01 1.027408123016357067e+01 8.000000000000000000e+00
1.938112139701843040e+00 1.185351490974426047e+00 -6.087424159049987793e-01 2.000000000000000000e+01
2.194918155670166016e+00 1.341361761093140093e+00 -5.938707590103149414e-01 1.100000000000000000e+01
2.554954767227172852e+00 1.560775399208069070e+00 -5.819674134254455566e-01 1.300000000000000000e+01
3.051812648773192915e+00 1.862834453582763894e+00 -5.662927627563476562e-01 1.100000000000000000e+01
3.206103134155272727e+01 1.956245613098144887e+01 4.611536026000976562e+00 1.900000000000000000e+01
3.774181604385375977e+00 2.301962375640869141e+00 -5.428060293197631836e-01 9.000000000000000000e+00
5.014986991882324219e+00 3.057558059692382812e+00 -5.138702392578125000e-01 9.000000000000000000e+00
7.107524871826171875e+00 4.329942703247070312e+00 -4.361678659915924072e-01 2.000000000000000000e+00
3.176528358459473012e+01 1.934398269653319957e+01 8.586381912231445312e+00 1.100000000000000000e+01
1.175181865692139027e+01 7.153648376464843750e+00 -2.401451170444489081e-01 2.000000000000000000e+00
1.929025530815124956e+00 1.170561432838439941e+00 -6.046012639999389648e-01 2.300000000000000000e+01
2.212917804718018022e+00 1.341774940490723100e+00 -5.974699854850769043e-01 1.200000000000000000e+01
2.560387372970581055e+00 1.551847457885741965e+00 -5.819674134254455566e-01 1.300000000000000000e+01
3.061675786972045898e+00 1.854216814041137917e+00 -5.669184923171997070e-01 1.100000000000000000e+01
3.410916900634766336e+01 2.064911270141601918e+01 4.895735263824462891e+00 2.100000000000000000e+01
3.785590648651123047e+00 2.290829420089722124e+00 -5.432935357093811035e-01 9.000000000000000000e+00
3.323262786865233664e+01 2.011054229736328125e+01 6.152254581451416016e+00 1.400000000000000000e+01
5.010286331176757812e+00 3.030752897262572798e+00 -5.123014450073242188e-01 9.000000000000000000e+00
7.139688491821289062e+00 4.315437793731688565e+00 -4.372145831584929865e-01 2.000000000000000000e+00
3.179925537109375000e+01 1.921282768249512074e+01 8.577383995056152344e+00 1.100000000000000000e+01
1.180068206787109020e+01 7.127056598663330078e+00 -2.406337857246398926e-01 2.000000000000000000e+00
3.345703125000000000e+01 2.019850349426269887e+01 1.047181892395020064e+01 9.000000000000000000e+00
1.939719915390015093e+00 1.167806386947632058e+00 -6.066718697547912598e-01 2.000000000000000000e+01
2.210908651351929155e+00 1.330024003982543945e+00 -5.956704020500183105e-01 1.100000000000000000e+01
2.567471265792847124e+00 1.543912410736083984e+00 -5.823490619659423828e-01 1.300000000000000000e+01
3.056277036666870117e+00 1.836396574974060059e+00 -5.647284388542175293e-01 1.200000000000000000e+01
3.406872558593750000e+01 2.046246528625487926e+01 4.879648685455322266e+00 2.100000000000000000e+01
3.808881282806396040e+00 2.286797523498535156e+00 -5.454871654510498047e-01 1.000000000000000000e+01
5.015709877014160156e+00 3.010169267654418945e+00 -5.117785334587097168e-01 9.000000000000000000e+00
7.134154319763183594e+00 4.278163433074951172e+00 -4.359585046768187921e-01 2.000000000000000000e+00
3.206669998168945312e+01 1.922194290161133168e+01 8.631371498107910156e+00 1.100000000000000000e+01
1.183578014373778942e+01 7.091988086700438565e+00 -2.408432066440581998e-01 2.000000000000000000e+00
3.250634765625000000e+01 1.947777175903319957e+01 1.015398883819580078e+01 8.000000000000000000e+00
1.948760151863097922e+00 1.164000272750854048e+00 -6.082247495651245117e-01 2.200000000000000000e+01
2.212191104888916016e+00 1.320300936698914018e+00 -5.947706103324890137e-01 1.400000000000000000e+01
2.576216697692871094e+00 1.536952495574950950e+00 -5.831122994422912598e-01 1.300000000000000000e+01
3.062668561935424805e+00 1.825716972351073997e+00 -5.647284388542175293e-01 1.300000000000000000e+01
3.396941757202147727e+01 2.024180221557616832e+01 4.855274677276611328e+00 2.000000000000000000e+01
3.808313131332397017e+00 2.268408775329589844e+00 -5.442684888839721680e-01 9.000000000000000000e+00
3.167509078979491832e+01 1.886716079711914062e+01 5.839385509490966797e+00 1.300000000000000000e+01
5.036458492279052734e+00 2.998758792877196822e+00 -5.128244161605834961e-01 9.000000000000000000e+00
7.142178535461425781e+00 4.249149799346923828e+00 -4.355398416519165039e-01 2.000000000000000000e+00
3.230109405517578125e+01 1.920949935913085938e+01 8.676362037658691406e+00 1.100000000000000000e+01
1.187421512603759943e+01 7.058804988861083984e+00 -2.411224544048309049e-01 2.000000000000000000e+00
3.708815002441406250e+01 2.203884696960448863e+01 1.155989360809325994e+01 1.100000000000000000e+01
1.959459185600280984e+00 1.161130189895630105e+00 -6.102952957153320312e-01 2.100000000000000000e+01
2.216786384582519975e+00 1.312570929527282937e+00 -5.947706103324890137e-01 1.300000000000000000e+01
3.722511672973632812e+01 2.203241539001464844e+01 2.266984224319458008e+00 3.000000000000000000e+01
2.579876661300659180e+00 1.526950478553771973e+00 -5.827306509017944336e-01 1.300000000000000000e+01
3.077524423599243164e+00 1.820042848587035911e+00 -5.662927627563476562e-01 1.100000000000000000e+01
3.180471992492676137e+01 1.880176734924316051e+01 4.536464214324951172e+00 1.900000000000000000e+01
3.809372186660767046e+00 2.251061916351317915e+00 -5.432935357093811035e-01 9.000000000000000000e+00
3.179517745971680043e+01 1.878863716125487926e+01 5.849397659301757812e+00 1.300000000000000000e+01
5.045179843902587891e+00 2.980146646499633789e+00 -5.126500725746154785e-01 9.000000000000000000e+00
3.320414733886718750e+01 1.960560226440430043e+01 7.495358943939208984e+00 6.300000000000000000e+01
7.177607536315917969e+00 4.236375331878662109e+00 -4.367958903312683105e-01 2.000000000000000000e+00
1.188844776153563920e+01 7.011218070983886719e+00 -2.409130185842514038e-01 2.000000000000000000e+00
1.956838846206665039e+00 1.150367140769958052e+00 -6.082247495651245117e-01 2.100000000000000000e+01
2.224715232849121094e+00 1.306798934936522993e+00 -5.956704020500183105e-01 1.300000000000000000e+01
2.578418970108031782e+00 1.513959527015686035e+00 -5.812041759490966797e-01 1.300000000000000000e+01
3.090673923492432085e+00 1.813287615776062012e+00 -5.675442218780517578e-01 1.100000000000000000e+01
3.193180084228515980e+01 1.872678565979003906e+01 4.545238971710205078e+00 1.900000000000000000e+01
3.824056625366210938e+00 2.241766691207886186e+00 -5.442684888839721680e-01 9.000000000000000000e+00
5.064146995544433594e+00 2.967554092407227007e+00 -5.135216116905212402e-01 9.000000000000000000e+00
7.209587097167968750e+00 4.221386909484863281e+00 -4.378426074981688898e-01 1.000000000000000000e+00
3.377989196777343750e+01 1.977102279663085938e+01 9.036283493041992188e+00 1.200000000000000000e+01
1.189904117584229049e+01 6.961598873138427734e+00 -2.406337857246398926e-01 2.000000000000000000e+00
1.959173560142517090e+00 1.142556309700011985e+00 -6.077071428298950195e-01 2.000000000000000000e+01
2.235998153686522993e+00 1.302949786186218040e+00 -5.974699854850769043e-01 1.400000000000000000e+01
2.588777303695679155e+00 1.507914423942565918e+00 -5.823490619659423828e-01 1.200000000000000000e+01
3.096984624862670898e+00 1.802488088607788086e+00 -5.675442218780517578e-01 1.100000000000000000e+01
3.240191268920897727e+01 1.885079383850098012e+01 4.602761268615722656e+00 1.900000000000000000e+01
3.828426599502563032e+00 2.226408720016479048e+00 -5.437809824943542480e-01 9.000000000000000000e+00
5.064139842987061435e+00 2.943850994110106978e+00 -5.124757885932922363e-01 1.300000000000000000e+01
7.241549015045166016e+00 4.206226348876953125e+00 -4.388893246650695801e-01 1.000000000000000000e+00
1.193364620208740057e+01 6.926043510437011719e+00 -2.408432066440581998e-01 2.000000000000000000e+00
3.727970886230468750e+01 2.163637733459473012e+01 1.154954147338867010e+01 1.100000000000000000e+01
1.964822173118591087e+00 1.136677861213684082e+00 -6.082247495651245117e-01 2.100000000000000000e+01
2.232096910476685014e+00 1.290260553359984907e+00 -5.952205061912536621e-01 1.300000000000000000e+01
2.590625286102294922e+00 1.496904253959655984e+00 -5.815858244895935059e-01 1.200000000000000000e+01
3.096414804458618164e+00 1.787715911865233931e+00 -5.662927627563476562e-01 1.100000000000000000e+01
3.223369216918945312e+01 1.860263061523437855e+01 4.569612979888916016e+00 1.900000000000000000e+01
3.841333389282227007e+00 2.216007471084595171e+00 -5.445122122764587402e-01 1.000000000000000000e+01
5.079562664031982422e+00 2.929141759872436968e+00 -5.129987001419067383e-01 8.000000000000000000e+00
7.238882064819335938e+00 4.170951843261718750e+00 -4.378426074981688898e-01 1.000000000000000000e+00
3.290388870239257812e+01 1.895115470886230113e+01 8.766342163085937500e+00 1.100000000000000000e+01
1.199241065979004084e+01 6.904299736022949219e+00 -2.415413111448287964e-01 2.000000000000000000e+00
1.973804593086242898e+00 1.132697105407715066e+00 -6.097776889801025391e-01 2.000000000000000000e+01
2.234896659851074219e+00 1.281491756439208984e+00 -5.947706103324890137e-01 1.100000000000000000e+01
2.604351282119750977e+00 1.492733478546143022e+00 -5.834938883781433105e-01 1.000000000000000000e+01
3.109492778778076172e+00 1.780823349952697976e+00 -5.675442218780517578e-01 1.000000000000000000e+01
3.233633041381835938e+01 1.851169776916503906e+01 4.574975013732910156e+00 1.900000000000000000e+01
3.845599412918090820e+00 2.200613260269165039e+00 -5.440247654914855957e-01 1.000000000000000000e+01
5.086297512054443359e+00 2.909414291381835938e+00 -5.126500725746154785e-01 8.000000000000000000e+00
7.242992877960205078e+00 4.139711380004882812e+00 -4.372145831584929865e-01 2.000000000000000000e+00
3.353160476684570312e+01 1.915712738037109020e+01 8.915710449218750000e+00 1.200000000000000000e+01
1.201643753051757990e+01 6.862396240234375000e+00 -2.415413111448287964e-01 2.000000000000000000e+00
3.709769058227539062e+01 2.118590164184569957e+01 1.144704914093017933e+01 1.100000000000000000e+01
1.971030831336975098e+00 1.121977567672729048e+00 -6.077071428298950195e-01 2.000000000000000000e+01
2.246131896972655806e+00 1.277536511421204057e+00 -5.965701937675476074e-01 1.200000000000000000e+01
2.595892429351807085e+00 1.475870966911315918e+00 -5.804409384727478027e-01 1.000000000000000000e+01
3.108819723129272017e+00 1.766055464744568093e+00 -5.662927627563476562e-01 9.000000000000000000e+00
3.860162973403931108e+00 2.191095829010010210e+00 -5.449997186660766602e-01 1.000000000000000000e+01
5.106819629669188565e+00 2.897541522979735884e+00 -5.136959552764892578e-01 8.000000000000000000e+00
7.257399082183837891e+00 4.114403724670410156e+00 -4.372145831584929865e-01 1.000000000000000000e+00
3.367287063598632812e+01 1.908223915100098012e+01 8.935505867004394531e+00 1.200000000000000000e+01
1.201595973968506037e+01 6.806610584259033203e+00 -2.410526424646378119e-01 5.000000000000000000e+00
3.727595520019531250e+01 2.110690116882323863e+01 1.147810745239257990e+01 1.100000000000000000e+01
1.983150839805603027e+00 1.120185852050781028e+00 -6.102952957153320312e-01 2.200000000000000000e+01
2.245264768600463867e+00 1.267207622528075950e+00 -5.952205061912536621e-01 1.200000000000000000e+01
2.602482080459595171e+00 1.468219161033629927e+00 -5.808225870132446289e-01 1.200000000000000000e+01
3.124984025955200195e+00 1.761556625366210938e+00 -5.681699514389038086e-01 9.000000000000000000e+00
3.863948583602904829e+00 2.176334619522095171e+00 -5.445122122764587402e-01 1.000000000000000000e+01
5.125080585479736328e+00 2.885478019714355025e+00 -5.145674943923950195e-01 9.000000000000000000e+00
7.302336215972900391e+00 4.107941150665283203e+00 -4.390986859798430841e-01 1.000000000000000000e+00
1.204543781280517933e+01 6.770646572113037109e+00 -2.411922514438628873e-01 2.000000000000000000e+00
1.973566055297852007e+00 1.105702638626099077e+00 -6.061542034149169922e-01 2.100000000000000000e+01
2.256476163864136186e+00 1.263170003890990989e+00 -5.970200896263122559e-01 1.200000000000000000e+01
2.604164838790893999e+00 1.457208514213562012e+00 -5.800593495368957520e-01 1.100000000000000000e+01
3.127665519714355025e+00 1.748709678649901900e+00 -5.675442218780517578e-01 9.000000000000000000e+00
3.881919860839844194e+00 2.168642520904541016e+00 -5.459746718406677246e-01 1.000000000000000000e+01
3.241030502319335938e+01 1.809866142272948863e+01 5.879433155059813565e+00 1.300000000000000000e+01
5.135121822357177734e+00 2.867570638656616211e+00 -5.145674943923950195e-01 6.000000000000000000e+00
7.295701503753662109e+00 4.070747852325438565e+00 -4.378426074981688898e-01 2.000000000000000000e+00
3.365561294555664062e+01 1.877096176147460938e+01 8.896814346313476562e+00 1.200000000000000000e+01
1.207598495483398082e+01 6.732453823089599609e+00 -2.413318753242492953e-01 2.000000000000000000e+00
3.262961959838867188e+01 1.818379783630371094e+01 1.000905036926270064e+01 8.000000000000000000e+00
1.982287287712096946e+00 1.101967930793761985e+00 -6.077071428298950195e-01 2.000000000000000000e+01
2.264059782028197798e+00 1.257572889328002930e+00 -5.979198813438415527e-01 1.300000000000000000e+01
2.619281530380249023e+00 1.454282760620116965e+00 -5.823490619659423828e-01 1.300000000000000000e+01
3.131720066070557085e+00 1.737370014190674050e+00 -5.672313570976257324e-01 1.000000000000000000e+01
3.275894165039063211e+01 1.816605186462401988e+01 4.599349021911621094e+00 1.900000000000000000e+01
3.896034717559814009e+00 2.159607410430908203e+00 -5.469496250152587891e-01 1.000000000000000000e+01
5.137631893157958984e+00 2.846663713455200195e+00 -5.138702392578125000e-01 9.000000000000000000e+00
7.316149711608886719e+00 4.050401687622070312e+00 -4.382613003253936768e-01 2.000000000000000000e+00
3.356421661376953125e+01 1.857432937622069957e+01 8.856323242187500000e+00 1.200000000000000000e+01
1.209824371337890980e+01 6.692371368408203125e+00 -2.413318753242492953e-01 2.000000000000000000e+00
3.300100708007813211e+01 1.825512886047362926e+01 1.010533046722411932e+01 1.600000000000000000e+01
1.991197109222412109e+00 1.097839951515197976e+00 -6.092600226402282715e-01 1.900000000000000000e+01
2.263314962387084961e+00 1.246841311454772949e+00 -5.965701937675476074e-01 1.100000000000000000e+01
2.631220817565917969e+00 1.448918938636780007e+00 -5.838755369186401367e-01 1.300000000000000000e+01
3.144688129425048828e+00 1.730236768722533958e+00 -5.684828162193298340e-01 1.000000000000000000e+01
3.894851684570312944e+00 2.141212701797484907e+00 -5.457309484481811523e-01 9.000000000000000000e+00
5.168490409851074219e+00 2.840227127075194868e+00 -5.159620046615600586e-01 9.000000000000000000e+00
3.276466751098632812e+01 1.799763679504394887e+01 7.266387939453125000e+00 6.200000000000000000e+01
7.323240756988525391e+00 4.020993709564208984e+00 -4.378426074981688898e-01 1.000000000000000000e+00
3.348876571655272727e+01 1.838017082214355113e+01 8.819431304931640625e+00 1.200000000000000000e+01
1.218113899230957031e+01 6.682801723480224609e+00 -2.425186336040497104e-01 2.000000000000000000e+00
3.297984313964843750e+01 1.809336280822753906e+01 1.007944869995117010e+01 8.000000000000000000e+00
2.003683328628540039e+00 1.095167160034179910e+00 -6.118482351303100586e-01 2.000000000000000000e+01
2.264449119567871094e+00 1.236669301986693892e+00 -5.956704020500183105e-01 1.200000000000000000e+01
2.641683340072631836e+00 1.442087411880492942e+00 -5.850203633308410645e-01 1.300000000000000000e+01
3.154477119445800781e+00 1.720591068267822044e+00 -5.691086053848266602e-01 1.100000000000000000e+01
3.402096557617188211e+01 1.854883193969726918e+01 4.757779121398925781e+00 2.000000000000000000e+01
3.906159400939940962e+00 2.128823041915893999e+00 -5.462183952331542969e-01 1.000000000000000000e+01
5.166618347167968750e+00 2.814592599868773970e+00 -5.147418379783630371e-01 1.100000000000000000e+01
7.337929248809813565e+00 3.994125843048096147e+00 -4.378426074981688898e-01 2.000000000000000000e+00
3.467540740966796875e+01 1.886640930175780895e+01 9.113667488098144531e+00 1.200000000000000000e+01
1.219149780273438033e+01 6.630467891693115234e+00 -2.422394007444381991e-01 2.000000000000000000e+00
3.282022476196289062e+01 1.784960556030273082e+01 1.001060295104979936e+01 1.600000000000000000e+01
1.999001979827881081e+00 1.083563208580017090e+00 -6.092600226402282715e-01 1.900000000000000000e+01
2.280746936798096147e+00 1.235253810882567915e+00 -5.988197326660156250e-01 1.200000000000000000e+01
2.638068675994873047e+00 1.428184032440185991e+00 -5.831122994422912598e-01 1.200000000000000000e+01
3.163938760757445845e+00 1.711449027061461958e+00 -5.697343349456787109e-01 1.100000000000000000e+01
3.593296813964843750e+01 1.942888259887694957e+01 5.015654563903808594e+00 2.400000000000000000e+01
3.908327579498291016e+00 2.112343311309814009e+00 -5.454871654510498047e-01 1.000000000000000000e+01
5.181670665740966797e+00 2.799381732940673828e+00 -5.152647495269775391e-01 1.100000000000000000e+01
7.362371921539306641e+00 3.974179744720458984e+00 -4.384706318378447931e-01 1.000000000000000000e+00
3.480279159545897727e+01 1.877856826782226918e+01 9.129863739013671875e+00 1.200000000000000000e+01
1.218992805480957031e+01 6.574581623077392578e+00 -2.417507320642471036e-01 2.000000000000000000e+00
3.279870223999022727e+01 1.768243980407714844e+01 9.984203338623046875e+00 8.000000000000000000e+00
2.004473686218262163e+00 1.077493429183959961e+00 -6.097776889801025391e-01 1.900000000000000000e+01
2.290195226669311968e+00 1.230051279067992942e+00 -6.001694202423095703e-01 1.200000000000000000e+01
2.648227214813231978e+00 1.421752691268920898e+00 -5.842571258544921875e-01 1.300000000000000000e+01
3.162930727005004883e+00 1.696659326553344949e+00 -5.684828162193298340e-01 1.100000000000000000e+01
3.915677309036254883e+00 2.098687887191772017e+00 -5.454871654510498047e-01 1.000000000000000000e+01
3.476195526123046875e+01 1.862357711791991832e+01 6.246115207672119141e+00 1.400000000000000000e+01
5.207216739654541016e+00 2.789745330810546875e+00 -5.168335437774658203e-01 1.100000000000000000e+01
7.404373168945313388e+00 3.963537216186522993e+00 -4.401454031467437744e-01 1.000000000000000000e+00
1.224806976318359020e+01 6.550852775573729581e+00 -2.424488365650177002e-01 2.000000000000000000e+00
3.358625793457031250e+01 1.796353530883789062e+01 1.020575237274169922e+01 8.000000000000000000e+00
2.004813194274901900e+00 1.068672537803649902e+00 -6.087424159049987793e-01 2.000000000000000000e+01
2.287595033645629883e+00 1.218385219573975053e+00 -5.983697772026062012e-01 1.100000000000000000e+01
2.646241903305054155e+00 1.408809542655945046e+00 -5.827306509017944336e-01 1.200000000000000000e+01
3.177553892135620117e+00 1.690246820449829102e+00 -5.700471997261047363e-01 9.000000000000000000e+00
3.937002420425415039e+00 2.092459917068481001e+00 -5.474370718002319336e-01 1.000000000000000000e+01
5.202847003936767578e+00 2.764073610305786133e+00 -5.154390335083007812e-01 1.300000000000000000e+01
3.284242630004882812e+01 1.744057655334473012e+01 7.228226184844970703e+00 6.100000000000000000e+01
7.379352569580078125e+00 3.917065620422362837e+00 -4.378426074981688898e-01 2.000000000000000000e+00
1.227086162567139027e+01 6.508059024810791016e+00 -2.424488365650177002e-01 2.000000000000000000e+00
3.341664886474608664e+01 1.772308540344237926e+01 1.013535404205322088e+01 8.000000000000000000e+00
2.015177011489868164e+00 1.065630793571471946e+00 -6.108129620552062988e-01 1.800000000000000000e+01
2.283007621765137163e+00 1.206240653991698997e+00 -5.961202979087829590e-01 1.200000000000000000e+01
2.663051366806029829e+00 1.406444549560547097e+00 -5.854020118713378906e-01 1.300000000000000000e+01
3.176153182983397993e+00 1.676012754440308061e+00 -5.687957406044006348e-01 1.000000000000000000e+01
3.928115844726562944e+00 2.071060419082642046e+00 -5.452434420585632324e-01 1.000000000000000000e+01
3.366154098510742188e+01 1.774771690368651988e+01 6.027107238769531250e+00 1.300000000000000000e+01
5.219034671783447266e+00 2.750520706176757812e+00 -5.161362886428833008e-01 1.600000000000000000e+01
7.409973621368408203e+00 3.901879072189331055e+00 -4.388893246650695801e-01 2.000000000000000000e+00
3.515124130249022727e+01 1.850179672241210938e+01 9.170804977416992188e+00 1.200000000000000000e+01
1.232069110870360973e+01 6.482229232788085938e+00 -2.430073022842406949e-01 2.000000000000000000e+00
3.347523880004882812e+01 1.761217498779296875e+01 1.013535404205322088e+01 8.000000000000000000e+00
2.022306442260742188e+00 1.060384154319762962e+00 -6.118482351303100586e-01 1.900000000000000000e+01
2.297561407089232954e+00 1.203690290451050027e+00 -5.988197326660156250e-01 1.200000000000000000e+01
2.660987615585327148e+00 1.393496990203856978e+00 -5.838755369186401367e-01 1.200000000000000000e+01
3.187234878540039062e+00 1.667663097381592019e+00 -5.697343349456787109e-01 1.000000000000000000e+01
3.945876359939575195e+00 2.062854290008544922e+00 -5.467059016227722168e-01 1.000000000000000000e+01
3.357929992675781250e+01 1.754737281799316051e+01 6.000825881958007812e+00 1.300000000000000000e+01
5.228603839874267578e+00 2.732286214828491211e+00 -5.161362886428833008e-01 1.600000000000000000e+01
7.434171676635742188e+00 3.881536006927489790e+00 -4.395173490047454834e-01 2.000000000000000000e+00
3.590665435791016336e+01 1.873963737487792969e+01 9.350765228271484375e+00 1.200000000000000000e+01
1.235742664337158025e+01 6.446581840515136719e+00 -2.432865500450134000e-01 2.000000000000000000e+00
3.349160003662108664e+01 1.746435356140137074e+01 1.012086009979248047e+01 8.000000000000000000e+00
2.022383928298950195e+00 1.051889300346374956e+00 -6.108129620552062988e-01 1.800000000000000000e+01
2.301540374755858931e+00 1.196064591407776101e+00 -5.988197326660156250e-01 1.200000000000000000e+01
2.656883001327515093e+00 1.380140185356139915e+00 -5.819674134254455566e-01 1.200000000000000000e+01
3.196254253387451172e+00 1.658904552459717019e+00 -5.703600645065307617e-01 1.000000000000000000e+01
3.950933218002318892e+00 2.048844099044799805e+00 -5.464621186256408691e-01 1.000000000000000000e+01
5.221715927124023438e+00 2.706680536270142046e+00 -5.145674943923950195e-01 1.100000000000000000e+01
7.461190700531005859e+00 3.864210128784180132e+00 -4.403547346591948908e-01 1.000000000000000000e+00
1.235387229919433949e+01 6.392701148986816406e+00 -2.427978813648223877e-01 2.000000000000000000e+00
3.896806716918945312e+01 2.016462516784667969e+01 1.175659656524658025e+01 1.200000000000000000e+01
2.022609233856201172e+00 1.043052554130553977e+00 -6.097776889801025391e-01 1.600000000000000000e+01
2.312630653381348100e+00 1.191593766212462935e+00 -6.006193161010742188e-01 1.200000000000000000e+01
2.673901796340941939e+00 1.377149939537047896e+00 -5.846387743949890137e-01 1.200000000000000000e+01
3.203781843185424805e+00 1.648641347885132058e+00 -5.706729292869567871e-01 9.000000000000000000e+00
3.970418691635131836e+00 2.041394233703612837e+00 -5.481683015823364258e-01 1.000000000000000000e+01
5.215183734893798828e+00 2.680240392684936968e+00 -5.129987001419067383e-01 1.300000000000000000e+01
7.481740474700927734e+00 3.841791391372681108e+00 -4.407734274864196777e-01 1.000000000000000000e+00
3.404308319091796875e+01 1.747323989868164062e+01 8.834278106689453125e+00 1.200000000000000000e+01
1.238678741455077947e+01 6.355016231536865234e+00 -2.430073022842406949e-01 2.000000000000000000e+00
3.388858032226563211e+01 1.738646888732910156e+01 1.020575237274169922e+01 8.000000000000000000e+00
2.019537925720214844e+00 1.032115817070007102e+00 -6.077071428298950195e-01 1.600000000000000000e+01
2.316982507705688032e+00 1.183109641075134055e+00 -6.006193161010742188e-01 1.300000000000000000e+01
2.682428836822510210e+00 1.369125485420227051e+00 -5.854020118713378906e-01 1.200000000000000000e+01
3.208043098449707031e+00 1.635990381240844949e+00 -5.703600645065307617e-01 1.100000000000000000e+01
3.562966918945313211e+01 1.816205596923828125e+01 4.910359382629395419e+00 2.200000000000000000e+01
3.981411695480347124e+00 2.028630495071411133e+00 -5.486558079719543457e-01 1.100000000000000000e+01
5.224972248077392578e+00 2.661107778549193892e+00 -5.129987001419067383e-01 1.900000000000000000e+01
7.488650798797607422e+00 3.810720443725585938e+00 -4.403547346591948908e-01 1.000000000000000000e+00
1.238860607147216975e+01 6.298697948455811435e+00 -2.425884455442428866e-01 2.000000000000000000e+00
3.884616851806641336e+01 1.974189758300780895e+01 1.167584514617919922e+01 1.100000000000000000e+01
2.024851560592650923e+00 1.025933146476746050e+00 -6.082247495651245117e-01 1.600000000000000000e+01
2.312405109405518022e+00 1.170613765716552956e+00 -5.983697772026062012e-01 1.500000000000000000e+01
