4.060768127441406250e+01 -1.635712432861328125e+01 6.933801174163818359e+00 1.500000000000000000e+01
6.682229995727539062e+00 -2.693015336990356001e+00 -6.303103566169738770e-01 3.000000000000000000e+00
4.231018066406250000e+01 -1.706007194519042969e+01 8.867657661437988281e+00 6.300000000000000000e+01
1.026313877105713068e+01 -4.140327930450438565e+00 -5.799870491027832031e-01 6.000000000000000000e+00
3.367626953125000000e+01 -1.359926033020020064e+01 -6.339412331581115723e-01 1.500000000000000000e+01
2.280837297439575195e+00 -9.247611165046691895e-01 -6.594709157943725586e-01 1.900000000000000000e+01
2.648949384689331055e+00 -1.075088262557982954e+00 -6.600064039230346680e-01 1.400000000000000000e+01
3.110509395599364790e+00 -1.263046860694885032e+00 -6.525667905807495117e-01 1.200000000000000000e+01
3.788065910339355025e+00 -1.539714574813842995e+00 -6.476386785507202148e-01 9.000000000000000000e+00
4.944326400756835938e+00 -2.011704683303833008e+00 -6.554133296012878418e-01 1.100000000000000000e+01
6.680170536041259766e+00 -2.719329118728638139e+00 -6.310075521469116211e-01 3.000000000000000000e+00
1.039474201202392933e+01 -4.235668182373046875e+00 -5.882561206817626953e-01 1.200000000000000000e+01
3.368784713745117188e+01 -1.374089717864990057e+01 -6.350581645965576172e-01 2.200000000000000000e+01
2.282958745956420898e+00 -9.349134564399719238e-01 -6.610238552093505859e-01 1.700000000000000000e+01
2.639771223068236861e+00 -1.082110881805419922e+00 -6.586567163467407227e-01 1.300000000000000000e+01
3.111531019210814986e+00 -1.276131868362426980e+00 -6.537116169929504395e-01 1.200000000000000000e+01
3.786323070526123047e+00 -1.554428458213805930e+00 -6.482644081115722656e-01 9.000000000000000000e+00
4.950126647949218750e+00 -2.034233093261719194e+00 -6.571195125579833984e-01 8.000000000000000000e+00
6.681694030761718750e+00 -2.747176408767700195e+00 -6.320534348487854004e-01 3.000000000000000000e+00
1.031340312957764027e+01 -4.244562149047851562e+00 -5.844879746437072754e-01 9.000000000000000000e+00
3.369884109497070312e+01 -1.388278007507324041e+01 -6.361750960350036621e-01 1.500000000000000000e+01
2.283251762390137163e+00 -9.443534612655639648e-01 -6.620591282844543457e-01 1.800000000000000000e+01
2.635977745056151900e+00 -1.091318726539612038e+00 -6.586567163467407227e-01 1.600000000000000000e+01
3.101615905761719194e+00 -1.284731388092041016e+00 -6.525667905807495117e-01 1.100000000000000000e+01
3.777224540710449219e+00 -1.566122531890868919e+00 -6.476386785507202148e-01 9.000000000000000000e+00
4.937495231628417969e+00 -2.049217224121094194e+00 -6.563882827758789062e-01 9.000000000000000000e+00
6.679423809051513672e+00 -2.773539543151855025e+00 -6.327506899833679199e-01 4.000000000000000000e+00
1.006798744201659979e+01 -4.184715270996093750e+00 -5.714039802551269531e-01 9.000000000000000000e+00
4.357685470581054688e+01 -1.812145042419433949e+01 1.089572906494140980e+01 1.300000000000000000e+01
3.370741271972656250e+01 -1.402413940429688033e+01 -6.372571587562561035e-01 2.300000000000000000e+01
2.283506631851195845e+00 -9.538069367408752441e-01 -6.630944013595581055e-01 1.800000000000000000e+01
2.641141891479492188e+00 -1.104272007942199929e+00 -6.609061956405639648e-01 2.300000000000000000e+01
3.098923683166503906e+00 -1.296307921409606934e+00 -6.529483795166015625e-01 1.100000000000000000e+01
3.789955615997314009e+00 -1.586927413940429910e+00 -6.507673859596252441e-01 1.000000000000000000e+01
4.944958209991455078e+00 -2.072578430175780806e+00 -6.583381891250610352e-01 9.000000000000000000e+00
6.662352561950683594e+00 -2.793756246566772017e+00 -6.320534348487854004e-01 3.000000000000000000e+00
1.003121948242188033e+01 -4.210557460784912109e+00 -5.701479315757751465e-01 6.000000000000000000e+00
4.344865036010742188e+01 -1.824628639221191051e+01 1.087953281402588068e+01 1.300000000000000000e+01
3.371540451049804688e+01 -1.416572666168213068e+01 -6.383392214775085449e-01 2.300000000000000000e+01
2.285503149032593218e+00 -9.640244245529174805e-01 -6.646472811698913574e-01 1.900000000000000000e+01
2.633680582046508789e+00 -1.111968636512755904e+00 -6.600064039230346680e-01 1.400000000000000000e+01
3.083528757095336914e+00 -1.302533507347106934e+00 -6.506586670875549316e-01 1.200000000000000000e+01
3.784393072128295898e+00 -1.600147128105164018e+00 -6.507673859596252441e-01 9.000000000000000000e+00
4.937693595886229581e+00 -2.089826822280883789e+00 -6.583381891250610352e-01 9.000000000000000000e+00
6.652559757232666016e+00 -2.816995143890380859e+00 -6.320534348487854004e-01 2.000000000000000000e+00
1.023345088958740057e+01 -4.337520122528076172e+00 -5.824992060661315918e-01 9.000000000000000000e+00
3.372465896606445312e+01 -1.430832195281982067e+01 -6.394561529159545898e-01 2.300000000000000000e+01
2.271122217178345171e+00 -9.682472348213195801e-01 -6.615414619445800781e-01 1.900000000000000000e+01
2.643730401992797852e+00 -1.128191947937011941e+00 -6.636056303977966309e-01 1.400000000000000000e+01
3.083921432495117188e+00 -1.316676497459412065e+00 -6.518035531044006348e-01 1.100000000000000000e+01
3.780037403106689009e+00 -1.615442633628844993e+00 -6.510802507400512695e-01 1.000000000000000000e+01
4.913207054138183594e+00 -2.101744174957274947e+00 -6.561445593833923340e-01 8.000000000000000000e+00
6.667337894439697266e+00 -2.853493213653564009e+00 -6.344938278198242188e-01 3.000000000000000000e+00
1.011574649810791016e+01 -4.333524703979492188e+00 -5.767422318458557129e-01 9.000000000000000000e+00
4.422722244262695312e+01 -1.895581245422362926e+01 1.110898303985596058e+01 1.400000000000000000e+01
3.372460556030272727e+01 -1.446135234832764027e+01 -6.405032873153686523e-01 2.300000000000000000e+01
2.271277427673339844e+00 -9.776967167854309082e-01 -6.625767350196838379e-01 1.900000000000000000e+01
2.627248525619506836e+00 -1.132015585899353027e+00 -6.604562997817993164e-01 1.500000000000000000e+01
3.088320970535277876e+00 -1.331319332122802956e+00 -6.537116169929504395e-01 1.100000000000000000e+01
3.768934249877930132e+00 -1.626279711723328081e+00 -6.501416563987731934e-01 9.000000000000000000e+00
4.911307811737061435e+00 -2.121243000030518022e+00 -6.568757891654968262e-01 9.000000000000000000e+00
6.673797130584716797e+00 -2.883862018585205078e+00 -6.360626220703125000e-01 3.000000000000000000e+00
9.398468971252441406e+00 -4.065133094787597656e+00 -5.366529226303100586e-01 2.000000000000000000e+00
3.374181747436522727e+01 -1.460838127136229936e+01 -6.417948007583618164e-01 2.300000000000000000e+01
2.266078948974608931e+00 -9.848489761352539062e-01 -6.620591282844543457e-01 1.700000000000000000e+01
2.617919921875000000e+00 -1.138847351074218972e+00 -6.591066122055053711e-01 1.300000000000000000e+01
3.089055299758911133e+00 -1.344441890716552956e+00 -6.548564434051513672e-01 1.100000000000000000e+01
3.761423587799071822e+00 -1.638636946678162065e+00 -6.498287916183471680e-01 1.000000000000000000e+01
4.745566368103027344e+00 -2.069342851638793945e+00 -6.356704831123352051e-01 7.000000000000000000e+00
6.649080753326416016e+00 -2.900766849517821822e+00 -6.346681118011474609e-01 3.000000000000000000e+00
9.384221076965332031e+00 -4.097915172576904297e+00 -5.366529226303100586e-01 2.000000000000000000e+00
3.377674102783203125e+01 -1.476371574401854936e+01 -6.434352993965148926e-01 1.500000000000000000e+01
2.280318021774291992e+00 -1.000514984130858931e+00 -6.672354936599731445e-01 1.900000000000000000e+01
2.617497205734252930e+00 -1.149545907974242942e+00 -6.600064039230346680e-01 1.400000000000000000e+01
3.093330621719359907e+00 -1.359165191650391069e+00 -6.567645668983459473e-01 1.100000000000000000e+01
3.770146608352661133e+00 -1.658118844032288042e+00 -6.523317098617553711e-01 1.000000000000000000e+01
4.776467800140380859e+00 -2.102691173553466797e+00 -6.407890319824218750e-01 9.000000000000000000e+00
6.666265010833740234e+00 -2.936004877090454102e+00 -6.372827887535095215e-01 2.000000000000000000e+00
3.379085922241210938e+01 -1.491059112548827947e+01 -6.446918845176696777e-01 8.000000000000000000e+00
2.269746303558350053e+00 -1.005339264869689941e+00 -6.651649475097656250e-01 2.000000000000000000e+01
2.613468647003173828e+00 -1.158675670623779075e+00 -6.600064039230346680e-01 1.300000000000000000e+01
3.076004981994628906e+00 -1.364382505416869895e+00 -6.540932655334472656e-01 1.000000000000000000e+01
3.762530326843262163e+00 -1.670467495918273926e+00 -6.520188450813293457e-01 1.000000000000000000e+01
4.845288276672363281e+00 -2.153209447860718218e+00 -6.510260105133056641e-01 9.000000000000000000e+00
4.252949523925781250e+01 -1.889978599548339844e+01 7.371191978454589844e+00 1.500000000000000000e+01
6.668719768524169922e+00 -2.964922428131103960e+00 -6.385029554367065430e-01 3.000000000000000000e+00
9.373631477355957031e+00 -4.171449184417724609e+00 -5.376996397972106934e-01 2.000000000000000000e+00
3.380802154541016336e+01 -1.505937099456786932e+01 -6.460182666778564453e-01 8.000000000000000000e+00
2.255641698837279829e+00 -1.008524894714355025e+00 -6.620591282844543457e-01 1.800000000000000000e+01
2.614744424819945845e+00 -1.170179367065429910e+00 -6.613560914993286133e-01 1.300000000000000000e+01
3.067639827728271040e+00 -1.373506903648376021e+00 -6.533300280570983887e-01 1.000000000000000000e+01
3.763886928558350053e+00 -1.686822414398192915e+00 -6.532703042030334473e-01 1.000000000000000000e+01
4.607718944549561435e+00 -2.066925764083861861e+00 -6.200712323188781738e-01 1.000000000000000000e+01
4.245993804931641336e+01 -1.905553817749023082e+01 7.371191978454589844e+00 1.500000000000000000e+01
6.674689292907714844e+00 -2.995524644851685014e+00 -6.400717496871948242e-01 3.000000000000000000e+00
9.391806602478027344e+00 -4.218875408172607422e+00 -5.395836830139160156e-01 2.000000000000000000e+00
3.387926864624022727e+01 -1.523305416107177912e+01 -6.483917832374572754e-01 8.000000000000000000e+00
2.263028860092163086e+00 -1.020370602607727051e+00 -6.651649475097656250e-01 1.900000000000000000e+01
2.616384029388428178e+00 -1.180792927742003950e+00 -6.627057790756225586e-01 1.300000000000000000e+01
3.079413652420043945e+00 -1.390408515930176003e+00 -6.567645668983459473e-01 9.000000000000000000e+00
3.747768402099608931e+00 -1.693757534027100053e+00 -6.513931155204772949e-01 9.000000000000000000e+00
4.271642303466796875e+01 -1.931413650512694957e+01 5.756132602691650391e+00 4.300000000000000000e+01
4.733233928680419922e+00 -2.141116619110106978e+00 -6.378641724586486816e-01 9.000000000000000000e+00
6.657985210418701172e+00 -3.013192892074584961e+00 -6.393745541572570801e-01 3.000000000000000000e+00
9.316650390625000000e+00 -4.220339298248291016e+00 -5.360248684883117676e-01 7.000000000000000000e+00
3.374746704101563211e+01 -1.530142879486083984e+01 -6.467861533164978027e-01 8.000000000000000000e+00
2.264728307723999023e+00 -1.030664443969727007e+00 -6.667178869247436523e-01 1.600000000000000000e+01
2.605152606964110884e+00 -1.186687350273132102e+00 -6.609061956405639648e-01 1.400000000000000000e+01
3.079900979995727983e+00 -1.403591752052306907e+00 -6.579093933105468750e-01 1.100000000000000000e+01
3.745427846908568892e+00 -1.708468914031981978e+00 -6.520188450813293457e-01 1.000000000000000000e+01
4.761847019195556641e+00 -2.174114942550659180e+00 -6.427389383316040039e-01 6.000000000000000000e+00
6.669173717498779297e+00 -3.046349048614501953e+00 -6.414662599563598633e-01 3.000000000000000000e+00
9.539812088012695312e+00 -4.361626625061035156e+00 -5.497368574142456055e-01 7.000000000000000000e+00
3.360657119750977273e+01 -1.537919425964354936e+01 -6.451107263565063477e-01 8.000000000000000000e+00
2.266383409500122070e+00 -1.040982484817505105e+00 -6.682707667350769043e-01 1.700000000000000000e+01
2.595682621002196822e+00 -1.193331837654113992e+00 -6.595565080642700195e-01 1.300000000000000000e+01
3.064280986785889116e+00 -1.409411787986754927e+00 -6.556196808815002441e-01 1.000000000000000000e+01
3.750207424163817915e+00 -1.726488947868346946e+00 -6.538960933685302734e-01 9.000000000000000000e+00
4.258054733276367188e+01 -1.961188125610351918e+01 5.756132602691650391e+00 4.300000000000000000e+01
4.700142383575438565e+00 -2.165800571441649947e+00 -6.354267597198486328e-01 9.000000000000000000e+00
6.680212020874023438e+00 -3.079619884490966797e+00 -6.435580253601074219e-01 3.000000000000000000e+00
9.241622924804687500e+00 -4.264358520507813388e+00 -5.334080457687377930e-01 1.000000000000000000e+01
3.339655303955078125e+01 -1.542430210113525035e+01 -6.421089172363281250e-01 7.000000000000000000e+00
2.253972291946411133e+00 -1.044824957847594993e+00 -6.656825542449951172e-01 1.900000000000000000e+01
2.600340127944945845e+00 -1.206486105918884055e+00 -6.618059873580932617e-01 1.300000000000000000e+01
3.070027112960814986e+00 -1.425059080123900923e+00 -6.579093933105468750e-01 1.100000000000000000e+01
3.751323938369750977e+00 -1.742898464202881081e+00 -6.551475524902343750e-01 9.000000000000000000e+00
4.260183334350585938e+01 -1.980223274230957031e+01 5.768319606781005859e+00 4.400000000000000000e+01
4.904951572418212891e+00 -2.280966043472290039e+00 -6.641879081726074219e-01 9.000000000000000000e+00
6.662195682525634766e+00 -3.099557638168334961e+00 -6.428607702255249023e-01 4.000000000000000000e+00
9.471108436584472656e+00 -4.410414218902587891e+00 -5.475387573242187500e-01 5.000000000000000000e+00
3.332438659667968750e+01 -1.553233623504639027e+01 -6.417598724365234375e-01 7.000000000000000000e+00
2.245061874389647993e+00 -1.050230741500854048e+00 -6.641296744346618652e-01 1.700000000000000000e+01
2.608466863632202148e+00 -1.221340060234070046e+00 -6.649553179740905762e-01 1.500000000000000000e+01
3.072145462036132812e+00 -1.439098000526428001e+00 -6.594358682632446289e-01 1.000000000000000000e+01
3.745217084884643999e+00 -1.755982398986815962e+00 -6.551475524902343750e-01 9.000000000000000000e+00
4.262231063842772727e+01 -1.999297142028808949e+01 5.780506610870361328e+00 4.400000000000000000e+01
4.898756504058837891e+00 -2.298917055130004883e+00 -6.644316315650939941e-01 8.000000000000000000e+00
6.671174049377441406e+00 -3.132108211517333984e+00 -6.447781920433044434e-01 3.000000000000000000e+00
3.328443908691406250e+01 -1.565537357330322088e+01 -6.420391201972961426e-01 7.000000000000000000e+00
2.244876146316527876e+00 -1.059710502624511941e+00 -6.651649475097656250e-01 1.800000000000000000e+01
2.605949640274047852e+00 -1.231270313262939009e+00 -6.654052138328552246e-01 1.300000000000000000e+01
3.065328359603881836e+00 -1.448974013328552024e+00 -6.590542793273925781e-01 9.000000000000000000e+00
3.728351116180419922e+00 -1.763975977897644043e+00 -6.532703042030334473e-01 9.000000000000000000e+00
4.867378711700438565e+00 -2.304958105087279829e+00 -6.612630486488342285e-01 9.000000000000000000e+00
6.674604415893554688e+00 -3.162200212478638139e+00 -6.461727023124694824e-01 3.000000000000000000e+00
9.071940422058105469e+00 -4.301854133605957031e+00 -5.261856913566589355e-01 2.000000000000000000e+00
2.248139858245850053e+00 -1.070863127708435059e+00 -6.672354936599731445e-01 1.800000000000000000e+01
2.587563276290893999e+00 -1.233650088310241921e+00 -6.618059873580932617e-01 1.400000000000000000e+01
3.069111824035644975e+00 -1.463891267776489036e+00 -6.609623432159423828e-01 1.000000000000000000e+01
3.720388412475585938e+00 -1.776128649711609109e+00 -6.529574394226074219e-01 8.000000000000000000e+00
4.776911735534667969e+00 -2.282565116882324219e+00 -6.500510573387145996e-01 9.000000000000000000e+00
6.659930706024169922e+00 -3.183761119842528853e+00 -6.458240747451782227e-01 3.000000000000000000e+00
1.006578922271729049e+01 -4.816239833831787109e+00 -5.848019719123840332e-01 6.000000000000000000e+00
3.292905426025391336e+01 -1.576989269256591975e+01 -6.372920870780944824e-01 7.000000000000000000e+00
2.246129274368286133e+00 -1.079540967941283958e+00 -6.677531599998474121e-01 1.600000000000000000e+01
2.588509798049927202e+00 -1.245209217071532981e+00 -6.631557345390319824e-01 1.300000000000000000e+01
3.055137872695922852e+00 -1.470338582992553933e+00 -6.590542793273925781e-01 9.000000000000000000e+00
3.730182886123656782e+00 -1.796819686889647993e+00 -6.557732820510864258e-01 9.000000000000000000e+00
4.860109329223632812e+00 -2.343192815780640093e+00 -6.624817252159118652e-01 9.000000000000000000e+00
6.672105789184570312e+00 -3.218241691589355025e+00 -6.480901241302490234e-01 4.000000000000000000e+00
2.240609169006348100e+00 -1.086531877517699973e+00 -6.672354936599731445e-01 1.800000000000000000e+01
2.582394123077393022e+00 -1.253386259078979048e+00 -6.627057790756225586e-01 1.400000000000000000e+01
3.049986839294434038e+00 -1.480994105339050071e+00 -6.590542793273925781e-01 9.000000000000000000e+00
3.729218006134033203e+00 -1.812419891357422097e+00 -6.567118763923645020e-01 9.000000000000000000e+00
4.864396095275878906e+00 -2.366221904754639116e+00 -6.641879081726074219e-01 9.000000000000000000e+00
6.666205883026123047e+00 -3.244127750396728960e+00 -6.486130356788635254e-01 3.000000000000000000e+00
9.478880882263183594e+00 -4.617017269134520596e+00 -5.525630116462707520e-01 1.300000000000000000e+01
2.236802816390991211e+00 -1.094346523284912109e+00 -6.672354936599731445e-01 1.700000000000000000e+01
2.592004776000977007e+00 -1.269249081611633079e+00 -6.663050055503845215e-01 1.300000000000000000e+01
3.044798612594604048e+00 -1.491631507873534934e+00 -6.590542793273925781e-01 1.000000000000000000e+01
3.719321489334106001e+00 -1.823686957359313965e+00 -6.560861468315124512e-01 8.000000000000000000e+00
4.884619712829589844e+00 -2.397180318832397017e+00 -6.680877208709716797e-01 1.100000000000000000e+01
6.663783550262451172e+00 -3.271767854690552202e+00 -6.494845747947692871e-01 3.000000000000000000e+00
9.378458976745605469e+00 -4.608675956726074219e+00 -5.476434230804443359e-01 1.000000000000000000e+01
2.222383737564086914e+00 -1.097405314445496050e+00 -6.641296744346618652e-01 1.800000000000000000e+01
2.578600168228148970e+00 -1.274423599243164062e+00 -6.640555262565612793e-01 1.500000000000000000e+01
3.041070938110352007e+00 -1.503651380538939986e+00 -6.594358682632446289e-01 1.000000000000000000e+01
3.707301139831542969e+00 -1.834678292274475098e+00 -6.551475524902343750e-01 1.000000000000000000e+01
4.895368099212645596e+00 -2.424759387969971147e+00 -6.707688570022583008e-01 1.000000000000000000e+01
6.651747226715087891e+00 -3.296169757843018022e+00 -6.494845747947692871e-01 3.000000000000000000e+00
9.345400810241699219e+00 -4.635031700134277344e+00 -5.467013716697692871e-01 1.800000000000000000e+01
2.235831260681151900e+00 -1.113770127296447976e+00 -6.693060398101806641e-01 1.700000000000000000e+01
2.563671827316284180e+00 -1.278199672698975053e+00 -6.613560914993286133e-01 1.300000000000000000e+01
3.037560701370238814e+00 -1.515133857727051003e+00 -6.598175168037414551e-01 1.000000000000000000e+01
3.711478471755981001e+00 -1.852901935577393022e+00 -6.570247411727905273e-01 9.000000000000000000e+00
4.881546974182128906e+00 -2.439170598983765093e+00 -6.700376272201538086e-01 9.000000000000000000e+00
6.647329330444335938e+00 -3.322932004928588867e+00 -6.501818299293518066e-01 2.000000000000000000e+00
9.341667175292968750e+00 -4.673881053924561435e+00 -5.474340915679931641e-01 1.500000000000000000e+01
2.231930017471313032e+00 -1.121567845344543013e+00 -6.693060398101806641e-01 1.800000000000000000e+01
2.574863195419311968e+00 -1.295021176338196023e+00 -6.654052138328552246e-01 1.300000000000000000e+01
3.035760879516602007e+00 -1.527492523193358931e+00 -6.605807542800903320e-01 9.000000000000000000e+00
3.704988002777100053e+00 -1.865846157073975053e+00 -6.570247411727905273e-01 9.000000000000000000e+00
4.874775409698486328e+00 -2.457089185714722124e+00 -6.702814102172851562e-01 8.000000000000000000e+00
6.655258655548095703e+00 -3.355983257293701172e+00 -6.520992517471313477e-01 3.000000000000000000e+00
9.398400306701660156e+00 -4.743356704711914062e+00 -5.517256259918212891e-01 1.100000000000000000e+01
2.219385623931885210e+00 -1.124984622001647949e+00 -6.667178869247436523e-01 1.600000000000000000e+01
2.575540542602539062e+00 -1.306646347045897993e+00 -6.667549014091491699e-01 1.300000000000000000e+01
3.019906282424927202e+00 -1.532748699188231978e+00 -6.582910418510437012e-01 9.000000000000000000e+00
3.712541818618773970e+00 -1.885924816131592019e+00 -6.595277190208435059e-01 9.000000000000000000e+00
4.869708061218261719e+00 -2.475889682769774947e+00 -6.707688570022583008e-01 1.000000000000000000e+01
6.650607109069824219e+00 -3.382807254791260210e+00 -6.527965068817138672e-01 3.000000000000000000e+00
9.385345458984375000e+00 -4.777946472167968750e+00 -5.519350171089172363e-01 1.600000000000000000e+01
2.213922739028931108e+00 -1.131459116935729980e+00 -6.662002205848693848e-01 1.800000000000000000e+01
2.574663400650023970e+00 -1.316954851150512917e+00 -6.676547527313232422e-01 1.300000000000000000e+01
3.013059139251708984e+00 -1.541860342025757058e+00 -6.579093933105468750e-01 9.000000000000000000e+00
3.706267356872559038e+00 -1.898225665092468040e+00 -6.595277190208435059e-01 9.000000000000000000e+00
4.870303630828857422e+00 -2.496552228927611861e+00 -6.719875335693359375e-01 1.000000000000000000e+01
6.630488395690917969e+00 -3.400296926498413086e+00 -6.519249677658081055e-01 3.000000000000000000e+00
9.454739570617675781e+00 -4.852819919586181641e+00 -5.569592714309692383e-01 5.000000000000000000e+00
2.209959745407104048e+00 -1.139180183410644975e+00 -6.662002205848693848e-01 1.600000000000000000e+01
2.570050716400146040e+00 -1.325934052467345969e+00 -6.676547527313232422e-01 1.200000000000000000e+01
3.025104522705078125e+00 -1.561372876167296919e+00 -6.617255806922912598e-01 1.000000000000000000e+01
3.682068347930908203e+00 -1.902085185050963911e+00 -6.563990116119384766e-01 9.000000000000000000e+00
4.824528694152832031e+00 -2.494391918182373047e+00 -6.668690443038940430e-01 8.000000000000000000e+00
6.650432586669921875e+00 -3.439897298812866211e+00 -6.550625562667846680e-01 2.000000000000000000e+00
9.556578636169433594e+00 -4.947313308715820312e+00 -5.639722347259521484e-01 1.700000000000000000e+01
2.209197282791138139e+00 -1.149055361747741921e+00 -6.672354936599731445e-01 1.600000000000000000e+01
2.547888040542602983e+00 -1.326346516609191895e+00 -6.631557345390319824e-01 1.300000000000000000e+01
3.028067827224731001e+00 -1.576984167098999023e+00 -6.636337041854858398e-01 9.000000000000000000e+00
3.685582399368286133e+00 -1.921046137809752974e+00 -6.582762002944946289e-01 9.000000000000000000e+00
4.783674240112304688e+00 -2.495531320571898970e+00 -6.624817252159118652e-01 9.000000000000000000e+00
6.651910781860351562e+00 -3.471623897552489790e+00 -6.564570665359497070e-01 3.000000000000000000e+00
9.570247650146484375e+00 -4.998951435089111328e+00 -5.658563375473022461e-01 8.000000000000000000e+00
2.215437412261962891e+00 -1.162144303321837935e+00 -6.703413128852844238e-01 1.500000000000000000e+01
2.557045936584473100e+00 -1.342479109764098899e+00 -6.667549014091491699e-01 1.200000000000000000e+01
3.031235218048096147e+00 -1.592108964920043945e+00 -6.655417680740356445e-01 1.000000000000000000e+01
3.685848236083983931e+00 -1.937576174736022949e+00 -6.595277190208435059e-01 9.000000000000000000e+00
4.803042411804199219e+00 -2.527002811431885210e+00 -6.663815975189208984e-01 8.000000000000000000e+00
6.643278121948242188e+00 -3.496678352355957031e+00 -6.568056941032409668e-01 3.000000000000000000e+00
9.446715354919433594e+00 -4.976474761962890625e+00 -5.595760345458984375e-01 8.000000000000000000e+00
2.211775541305541992e+00 -1.169098615646362083e+00 -6.703413128852844238e-01 1.500000000000000000e+01
2.551093101501464844e+00 -1.349594354629517046e+00 -6.663050055503845215e-01 1.200000000000000000e+01
3.001925468444824219e+00 -1.588766932487488015e+00 -6.601991057395935059e-01 1.000000000000000000e+01
3.686725378036499023e+00 -1.952844619750977007e+00 -6.607791781425476074e-01 1.000000000000000000e+01
4.763510227203369141e+00 -2.525343179702758789e+00 -6.619942784309387207e-01 8.000000000000000000e+00
6.646341323852539062e+00 -3.524999618530272993e+00 -6.582001447677612305e-01 3.000000000000000000e+00
9.388695716857910156e+00 -4.983653545379638672e+00 -5.570639371871948242e-01 1.600000000000000000e+01
2.197452545166016069e+00 -1.171359658241271973e+00 -6.672354936599731445e-01 1.600000000000000000e+01
2.556682825088500977e+00 -1.363994836807250977e+00 -6.690044403076171875e-01 1.400000000000000000e+01
3.018877267837523970e+00 -1.611253380775452104e+00 -6.651601791381835938e-01 1.000000000000000000e+01
3.681628704071044922e+00 -1.966632485389709029e+00 -6.610920429229736328e-01 1.100000000000000000e+01
4.842196941375732422e+00 -2.588751316070557085e+00 -6.741812229156494141e-01 8.000000000000000000e+00
6.630482673645020419e+00 -3.546298980712891069e+00 -6.578515172004699707e-01 3.000000000000000000e+00
9.313134193420410156e+00 -4.985291004180908203e+00 -5.536097288131713867e-01 1.600000000000000000e+01
2.199950218200684038e+00 -1.183065652847290039e+00 -6.693060398101806641e-01 1.700000000000000000e+01
2.548234462738037109e+00 -1.371509194374084029e+00 -6.681046485900878906e-01 1.300000000000000000e+01
3.007765769958496094e+00 -1.619514942169189009e+00 -6.640152931213378906e-01 1.000000000000000000e+01
3.662223339080810991e+00 -1.973553299903870073e+00 -6.589019894599914551e-01 9.000000000000000000e+00
4.836170196533203125e+00 -2.608366250991820845e+00 -6.746686697006225586e-01 8.000000000000000000e+00
6.638481140136718750e+00 -3.581930160522460938e+00 -6.599432826042175293e-01 3.000000000000000000e+00
9.301829338073730469e+00 -5.023188114166259766e+00 -5.540284514427185059e-01 5.000000000000000000e+00
6.516059112548828125e+01 -3.521750259399414062e+01 -1.292874217033386008e+00 3.800000000000000000e+01
2.195807218551636186e+00 -1.190737724304198997e+00 -6.693060398101806641e-01 1.700000000000000000e+01
2.534867763519287109e+00 -1.375748038291930930e+00 -6.658551096916198730e-01 1.300000000000000000e+01
3.010720968246459961e+00 -1.634688138961791992e+00 -6.659234166145324707e-01 1.000000000000000000e+01
3.662254571914672852e+00 -1.990097522735595925e+00 -6.601534485816955566e-01 9.000000000000000000e+00
4.772975921630859375e+00 -2.595830678939818892e+00 -6.671127676963806152e-01 6.000000000000000000e+00
6.648689270019531250e+00 -3.617459774017333984e+00 -6.622093319892883301e-01 3.000000000000000000e+00
9.178995132446289062e+00 -4.998317718505859375e+00 -5.477480888366699219e-01 1.000000000000000000e+01
2.201597213745117188e+00 -1.204340577125549094e+00 -6.724118590354919434e-01 1.600000000000000000e+01
2.540064334869385210e+00 -1.390644550323486106e+00 -6.685545444488525391e-01 1.200000000000000000e+01
3.001265525817871094e+00 -1.643825769424438032e+00 -6.651601791381835938e-01 1.000000000000000000e+01
3.656668186187744141e+00 -2.004456520080565962e+00 -6.604663133621215820e-01 9.000000000000000000e+00
4.782574176788330078e+00 -2.623809814453125000e+00 -6.697939038276672363e-01 9.000000000000000000e+00
6.630146026611328125e+00 -3.638928174972534180e+00 -6.616864204406738281e-01 3.000000000000000000e+00
9.090591430664062500e+00 -4.993463516235351562e+00 -5.435612201690673828e-01 7.000000000000000000e+00
2.187230348587036133e+00 -1.206420063972472922e+00 -6.693060398101806641e-01 1.600000000000000000e+01
2.543724775314331055e+00 -1.404211521148682085e+00 -6.708040237426757812e-01 1.400000000000000000e+01
2.992072105407714844e+00 -1.652393937110901101e+00 -6.643969416618347168e-01 1.000000000000000000e+01
3.661751031875609907e+00 -2.023897409439086914e+00 -6.626563668251037598e-01 1.000000000000000000e+01
4.775123119354248047e+00 -2.641449213027954102e+00 -6.700376272201538086e-01 9.000000000000000000e+00
6.641808986663818359e+00 -3.675555706024169922e+00 -6.641267538070678711e-01 3.000000000000000000e+00
9.071358680725097656e+00 -5.024197578430175781e+00 -5.434565544128417969e-01 7.000000000000000000e+00
2.176463603973389116e+00 -1.209911942481995073e+00 -6.672354936599731445e-01 1.600000000000000000e+01
2.545866012573242188e+00 -1.416428923606873003e+00 -6.726036667823791504e-01 1.200000000000000000e+01
2.986576080322266069e+00 -1.662306904792786089e+00 -6.643969416618347168e-01 1.000000000000000000e+01
3.651568174362183061e+00 -2.034106492996215820e+00 -6.620306372642517090e-01 1.000000000000000000e+01
4.646702289581298828e+00 -2.590571880340576172e+00 -6.532196998596191406e-01 1.100000000000000000e+01
6.634804248809813565e+00 -3.700471878051757812e+00 -6.646496653556823730e-01 3.000000000000000000e+00
9.433087348937988281e+00 -5.265494346618652344e+00 -5.661703944206237793e-01 5.000000000000000000e+00
2.178967714309691939e+00 -1.221279978752136008e+00 -6.693060398101806641e-01 1.700000000000000000e+01
2.532408237457274947e+00 -1.420540094375609907e+00 -6.703541278839111328e-01 1.300000000000000000e+01
2.989315748214722124e+00 -1.677525758743285911e+00 -6.663050055503845215e-01 1.100000000000000000e+01
3.634111642837523970e+00 -2.041036605834960938e+00 -6.601534485816955566e-01 9.000000000000000000e+00
4.791642189025878906e+00 -2.693344354629517046e+00 -6.749124526977539062e-01 1.000000000000000000e+01
6.627056598663330078e+00 -3.726538896560668945e+00 -6.651726365089416504e-01 3.000000000000000000e+00
9.254519462585449219e+00 -5.208271503448486328e+00 -5.565405488014221191e-01 5.000000000000000000e+00
2.181419134140015093e+00 -1.232680201530456987e+00 -6.713765859603881836e-01 1.600000000000000000e+01
2.517256498336791992e+00 -1.423615336418152078e+00 -6.676547527313232422e-01 1.300000000000000000e+01
2.991985559463500977e+00 -1.692783951759337935e+00 -6.682131290435791016e-01 1.000000000000000000e+01
3.644154310226439986e+00 -2.063442945480347124e+00 -6.632821559906005859e-01 1.000000000000000000e+01
4.790846347808837891e+00 -2.714947462081909180e+00 -6.761311292648315430e-01 8.000000000000000000e+00
6.617474555969238281e+00 -3.751614093780518022e+00 -6.655212640762329102e-01 2.000000000000000000e+00
9.465582847595214844e+00 -5.370645999908447266e+00 -5.703572630882263184e-01 6.000000000000000000e+00
2.182138681411743164e+00 -1.243156075477600098e+00 -6.729295253753662109e-01 1.600000000000000000e+01
2.517350673675537109e+00 -1.435289144515990989e+00 -6.690044403076171875e-01 1.300000000000000000e+01
2.986058473587036133e+00 -1.703217625617980957e+00 -6.682131290435791016e-01 1.100000000000000000e+01
3.633498191833496094e+00 -2.074192047119141069e+00 -6.626563668251037598e-01 1.000000000000000000e+01
4.652068614959716797e+00 -2.657799005508422852e+00 -6.578507423400878906e-01 9.000000000000000000e+00
6.614717483520507812e+00 -3.780622482299805132e+00 -6.665671467781066895e-01 2.000000000000000000e+00
9.432909011840820312e+00 -5.395720958709716797e+00 -5.695198774337768555e-01 5.000000000000000000e+00
2.166276454925537109e+00 -1.243652582168579102e+00 -6.693060398101806641e-01 1.600000000000000000e+01
2.515956640243529829e+00 -1.445570826530456987e+00 -6.699042320251464844e-01 1.200000000000000000e+01
2.966777086257935014e+00 -1.705283522605895996e+00 -6.651601791381835938e-01 1.000000000000000000e+01
3.642010450363159180e+00 -2.095094919204711914e+00 -6.654722094535827637e-01 1.100000000000000000e+01
4.756772518157958984e+00 -2.738580703735352007e+00 -6.739374399185180664e-01 7.000000000000000000e+00
6.612503051757813388e+00 -3.808503150939940962e+00 -6.676129698753356934e-01 3.000000000000000000e+00
9.487639427185058594e+00 -5.468863487243652344e+00 -5.739160776138305664e-01 3.000000000000000000e+00
2.161921977996826172e+00 -1.251206755638123003e+00 -6.693060398101806641e-01 1.600000000000000000e+01
2.519326686859130859e+00 -1.459227919578552024e+00 -6.721537709236145020e-01 1.200000000000000000e+01
2.964203834533690962e+00 -1.717597723007201926e+00 -6.659234166145324707e-01 1.000000000000000000e+01
3.626130819320679155e+00 -2.102840185165404829e+00 -6.639078855514526367e-01 1.000000000000000000e+01
4.637303352355957031e+00 -2.691395759582519975e+00 -6.583381891250610352e-01 8.000000000000000000e+00
6.599168777465820312e+00 -3.831562042236328125e+00 -6.676129698753356934e-01 2.000000000000000000e+00
9.382147789001464844e+00 -5.451775550842285156e+00 -5.686824917793273926e-01 5.000000000000000000e+00
2.154204130172729048e+00 -1.256798624992371050e+00 -6.682707667350769043e-01 1.600000000000000000e+01
2.509169101715087891e+00 -1.465065360069274902e+00 -6.708040237426757812e-01 1.200000000000000000e+01
2.964971065521239790e+00 -1.731895089149475098e+00 -6.674498915672302246e-01 1.000000000000000000e+01
3.611947059631348100e+00 -2.111497163772583008e+00 -6.626563668251037598e-01 1.000000000000000000e+01
4.576478481292724609e+00 -2.677493572235106978e+00 -6.510260105133056641e-01 1.300000000000000000e+01
6.599509716033936435e+00 -3.862625360488892046e+00 -6.690074801445007324e-01 2.000000000000000000e+00
9.404421806335449219e+00 -5.508719444274902344e+00 -5.711946487426757812e-01 3.000000000000000000e+00
2.154799699783325195e+00 -1.267248511314392090e+00 -6.698237061500549316e-01 1.600000000000000000e+01
2.488924741744995117e+00 -1.464918732643126997e+00 -6.667549014091491699e-01 1.300000000000000000e+01
2.962291240692139116e+00 -1.744226574897765891e+00 -6.682131290435791016e-01 1.000000000000000000e+01
3.618169546127318892e+00 -2.132115364074707031e+00 -6.651593446731567383e-01 1.000000000000000000e+01
4.560265064239501953e+00 -2.689418554306029829e+00 -6.500510573387145996e-01 1.300000000000000000e+01
6.585986614227294922e+00 -3.885638475418090820e+00 -6.690074801445007324e-01 2.000000000000000000e+00
2.157010078430175781e+00 -1.278702974319458008e+00 -6.718942523002624512e-01 1.500000000000000000e+01
2.498879909515380859e+00 -1.482546806335448997e+00 -6.708040237426757812e-01 1.100000000000000000e+01
2.956184625625609907e+00 -1.754556179046631081e+00 -6.682131290435791016e-01 1.100000000000000000e+01
3.617498397827147993e+00 -2.148767471313477007e+00 -6.664108037948608398e-01 1.000000000000000000e+01
4.530373096466063565e+00 -2.693148136138916016e+00 -6.471261978149414062e-01 1.900000000000000000e+01
6.596357345581054688e+00 -3.922861576080321822e+00 -6.714478135108947754e-01 2.000000000000000000e+00
2.155850172042847124e+00 -1.288206458091736062e+00 -6.729295253753662109e-01 1.600000000000000000e+01
2.507069587707519975e+00 -1.499261856079102007e+00 -6.744032502174377441e-01 1.100000000000000000e+01
2.939933538436890093e+00 -1.758817076683043990e+00 -6.659234166145324707e-01 1.000000000000000000e+01
3.616755008697510210e+00 -2.165440797805786133e+00 -6.676623225212097168e-01 1.000000000000000000e+01
4.527755737304688388e+00 -2.713027000427246094e+00 -6.481011509895324707e-01 1.400000000000000000e+01
6.575788497924804688e+00 -3.941765785217285156e+00 -6.707506179809570312e-01 2.000000000000000000e+00
2.139756202697753906e+00 -1.288746953010559082e+00 -6.693060398101806641e-01 1.600000000000000000e+01
2.500151872634888139e+00 -1.506998062133789062e+00 -6.739533543586730957e-01 1.300000000000000000e+01
2.947226047515869141e+00 -1.777179002761841042e+00 -6.689763665199279785e-01 1.000000000000000000e+01
3.602409124374390093e+00 -2.173969745635985884e+00 -6.664108037948608398e-01 1.000000000000000000e+01
4.577731132507324219e+00 -2.764734268188477007e+00 -6.566320061683654785e-01 1.100000000000000000e+01
6.579041957855224609e+00 -3.974998950958251953e+00 -6.724936962127685547e-01 1.000000000000000000e+00
2.138547420501708984e+00 -1.298213124275207964e+00 -6.703413128852844238e-01 1.600000000000000000e+01
2.498207330703734907e+00 -1.517739653587341087e+00 -6.748531460762023926e-01 1.300000000000000000e+01
2.939327001571654829e+00 -1.786436200141906960e+00 -6.685947179794311523e-01 1.100000000000000000e+01
3.588047981262207031e+00 -2.182425022125244141e+00 -6.651593446731567383e-01 1.000000000000000000e+01
4.634182453155517578e+00 -2.820951700210570845e+00 -6.661378145217895508e-01 9.000000000000000000e+00
6.575336456298828125e+00 -4.004157543182373047e+00 -6.735395789146423340e-01 1.000000000000000000e+00
2.138717889785767046e+00 -1.309068202972412109e+00 -6.718942523002624512e-01 1.600000000000000000e+01
2.479333639144897017e+00 -1.518742442131042036e+00 -6.712539196014404297e-01 1.200000000000000000e+01
2.946151256561278853e+00 -1.805403709411621094e+00 -6.716476678848266602e-01 1.100000000000000000e+01
3.595180034637451172e+00 -2.204855918884276900e+00 -6.679751873016357422e-01 9.000000000000000000e+00
4.573056697845458984e+00 -2.806766271591186968e+00 -6.588256955146789551e-01 9.000000000000000000e+00
6.570803642272949219e+00 -4.034485340118408203e+00 -6.745854616165161133e-01 2.000000000000000000e+00
8.894614219665527344e+00 -5.465585231781005859e+00 -5.471200942993164062e-01 2.000000000000000000e+00
2.140712022781372070e+00 -1.320582866668700950e+00 -6.739647984504699707e-01 1.500000000000000000e+01
2.470700740814208984e+00 -1.525340318679810014e+00 -6.703541278839111328e-01 1.500000000000000000e+01
2.936490535736083984e+00 -1.813613533973694070e+00 -6.708844304084777832e-01 1.200000000000000000e+01
3.584101200103760210e+00 -2.215314626693726030e+00 -6.673493981361389160e-01 1.000000000000000000e+01
4.624007225036621094e+00 -2.860306501388549805e+00 -6.676002740859985352e-01 9.000000000000000000e+00
6.570234775543212891e+00 -4.065784454345703125e+00 -6.759799122810363770e-01 2.000000000000000000e+00
8.705680847167968750e+00 -5.391441822052001953e+00 -5.366529226303100586e-01 2.000000000000000000e+00
4.538226699829102273e+01 -2.812723350524901988e+01 -9.319584965705871582e-01 1.400000000000000000e+01
2.134680271148682085e+00 -1.326654672622681108e+00 -6.734471321105957031e-01 1.600000000000000000e+01
2.482176780700684038e+00 -1.543817162513732910e+00 -6.748531460762023926e-01 1.300000000000000000e+01
2.923792362213135210e+00 -1.819192528724669966e+00 -6.693579554557800293e-01 1.200000000000000000e+01
3.591826915740966797e+00 -2.236585140228271040e+00 -6.701652407646179199e-01 1.000000000000000000e+01
4.589225292205811435e+00 -2.859876155853271040e+00 -6.639441847801208496e-01 1.100000000000000000e+01
6.568551063537597656e+00 -4.094928264617919922e+00 -6.772001385688781738e-01 2.000000000000000000e+00
2.118575811386107954e+00 -1.326919913291930930e+00 -6.698237061500549316e-01 1.500000000000000000e+01
2.480075120925902876e+00 -1.554542064666748047e+00 -6.757529377937316895e-01 1.200000000000000000e+01
2.920751094818114790e+00 -1.831473350524901900e+00 -6.701211929321289062e-01 1.200000000000000000e+01
3.590690851211547852e+00 -2.253309488296508789e+00 -6.714166998863220215e-01 1.000000000000000000e+01
4.557360649108886719e+00 -2.862153291702270952e+00 -6.607756018638610840e-01 1.300000000000000000e+01
6.542407512664794922e+00 -4.110412120819091797e+00 -6.759799122810363770e-01 1.000000000000000000e+00
2.120465755462646040e+00 -1.338431715965270996e+00 -6.718942523002624512e-01 1.400000000000000000e+01
2.472986221313477007e+00 -1.562148928642272949e+00 -6.753030419349670410e-01 1.100000000000000000e+01
2.915999889373778853e+00 -1.842706322669982910e+00 -6.705027818679809570e-01 1.200000000000000000e+01
3.572786092758179155e+00 -2.259494543075561968e+00 -6.695395112037658691e-01 1.000000000000000000e+01
4.538955211639404297e+00 -2.872735977172852007e+00 -6.595568656921386719e-01 1.600000000000000000e+01
6.546536445617675781e+00 -4.144948482513427734e+00 -6.778973937034606934e-01 2.000000000000000000e+00
4.517466735839843750e+01 -2.864660072326660156e+01 -9.337037205696105957e-01 1.400000000000000000e+01
2.127191066741942915e+00 -1.353083252906799094e+00 -6.755176782608032227e-01 1.500000000000000000e+01
2.457654714584351030e+00 -1.564492940902709961e+00 -6.726036667823791504e-01 1.100000000000000000e+01
2.919485807418822798e+00 -1.859201312065124956e+00 -6.727924942970275879e-01 1.100000000000000000e+01
3.574872255325316939e+00 -2.278321981430054155e+00 -6.714166998863220215e-01 1.000000000000000000e+01
4.533921241760253906e+00 -2.891764879226685014e+00 -6.602880954742431641e-01 1.400000000000000000e+01
6.530348777770996094e+00 -4.166703224182128906e+00 -6.777230501174926758e-01 2.000000000000000000e+00
2.121065616607666016e+00 -1.359087586402893066e+00 -6.750000715255737305e-01 1.500000000000000000e+01
2.457374334335327148e+00 -1.575789928436279075e+00 -6.739533543586730957e-01 1.300000000000000000e+01
2.911651849746704102e+00 -1.867812395095824973e+00 -6.724109053611755371e-01 1.200000000000000000e+01
3.560648202896118164e+00 -2.285895586013793945e+00 -6.701652407646179199e-01 1.000000000000000000e+01
4.522636413574218750e+00 -2.905710935592650923e+00 -6.600443720817565918e-01 1.900000000000000000e+01
6.543312072753906250e+00 -4.205571651458740234e+00 -6.805120110511779785e-01 0.000000000000000000e+00
2.116308689117432085e+00 -1.366483211517333984e+00 -6.750000715255737305e-01 1.600000000000000000e+01
2.456769227981566939e+00 -1.587531089782715066e+00 -6.753030419349670410e-01 1.100000000000000000e+01
2.898519277572631836e+00 -1.873701333999634011e+00 -6.708844304084777832e-01 1.100000000000000000e+01
3.562598705291748047e+00 -2.304748535156250000e+00 -6.720424890518188477e-01 1.000000000000000000e+01
4.534128665924072266e+00 -2.935504913330078125e+00 -6.632129549980163574e-01 4.500000000000000000e+01
6.533608913421630859e+00 -4.231635570526123047e+00 -6.810349822044372559e-01 3.000000000000000000e+00
2.105048894882202148e+00 -1.369647860527039018e+00 -6.729295253753662109e-01 1.600000000000000000e+01
2.454478740692139116e+00 -1.598223924636841042e+00 -6.762028932571411133e-01 1.100000000000000000e+01
2.895251274108887163e+00 -1.885950684547424094e+00 -6.716476678848266602e-01 1.100000000000000000e+01
3.549567461013793945e+00 -2.313933849334716797e+00 -6.711038351058959961e-01 9.000000000000000000e+00
4.517203807830811435e+00 -2.946975708007812944e+00 -6.622380018234252930e-01 1.700000000000000000e+01
6.495439052581787109e+00 -4.239171504974365234e+00 -6.785945892333984375e-01 3.000000000000000000e+00
1.325209617614745916e+01 -8.655421257019042969e+00 -8.295249342918395996e-01 4.000000000000000000e+00
2.101870536804199219e+00 -1.378046751022339089e+00 -6.734471321105957031e-01 1.600000000000000000e+01
2.448884963989257812e+00 -1.606781840324402078e+00 -6.762028932571411133e-01 1.100000000000000000e+01
2.891932964324951172e+00 -1.898200154304503950e+00 -6.724109053611755371e-01 1.200000000000000000e+01
3.544770717620850053e+00 -2.328479290008544922e+00 -6.717295646667480469e-01 9.000000000000000000e+00
4.521818637847900391e+00 -2.972539663314818892e+00 -6.644316315650939941e-01 1.700000000000000000e+01
6.505572319030761719e+00 -4.278240203857421875e+00 -6.812092661857604980e-01 2.000000000000000000e+00
4.467296981811522727e+01 -2.942284774780273082e+01 -9.337037205696105957e-01 1.400000000000000000e+01
2.116145849227904829e+00 -1.398522853851317915e+00 -6.796588301658630371e-01 1.500000000000000000e+01
2.436477661132812944e+00 -1.611446619033813032e+00 -6.744032502174377441e-01 1.100000000000000000e+01
2.889868259429932085e+00 -1.912036776542664018e+00 -6.735557317733764648e-01 1.200000000000000000e+01
3.531271457672119141e+00 -2.338184118270874023e+00 -6.707909703254699707e-01 1.000000000000000000e+01
4.507583618164063388e+00 -2.986899852752685991e+00 -6.639441847801208496e-01 1.700000000000000000e+01
6.496490955352783203e+00 -4.306458950042724609e+00 -6.819065213203430176e-01 4.000000000000000000e+00
2.108035326004027876e+00 -1.403759598731995073e+00 -6.786235570907592773e-01 2.000000000000000000e+01
2.440567731857299805e+00 -1.626425862312316895e+00 -6.771026849746704102e-01 1.100000000000000000e+01
2.879909276962279829e+00 -1.919934630393981934e+00 -6.727924942970275879e-01 1.100000000000000000e+01
3.529661178588867188e+00 -2.354881525039672852e+00 -6.720424890518188477e-01 1.000000000000000000e+01
4.497129917144775391e+00 -3.002616167068481001e+00 -6.639441847801208496e-01 2.400000000000000000e+01
6.454909801483154297e+00 -4.311403751373291016e+00 -6.791175603866577148e-01 3.000000000000000000e+00
2.101764440536499023e+00 -1.409666299819946067e+00 -6.781058907508850098e-01 2.400000000000000000e+01
2.435160875320435014e+00 -1.634510040283202903e+00 -6.771026849746704102e-01 1.100000000000000000e+01
2.870266914367675781e+00 -1.927285313606261985e+00 -6.720292568206787109e-01 1.200000000000000000e+01
3.534949302673339844e+00 -2.375387430191040039e+00 -6.745454072952270508e-01 1.000000000000000000e+01
4.511857032775878906e+00 -3.034128904342650923e+00 -6.676002740859985352e-01 2.700000000000000000e+01
6.458761692047119141e+00 -4.345018386840820312e+00 -6.810349822044372559e-01 4.000000000000000000e+00
2.087227106094359907e+00 -1.410504102706908958e+00 -6.750000715255737305e-01 2.400000000000000000e+01
2.442354440689086914e+00 -1.651733994483947976e+00 -6.807019114494323730e-01 1.100000000000000000e+01
2.874904394149779829e+00 -1.944993495941162109e+00 -6.747006177902221680e-01 1.100000000000000000e+01
3.526636123657227007e+00 -2.387712240219116211e+00 -6.745454072952270508e-01 1.000000000000000000e+01
4.504525661468505859e+00 -3.052086591720581055e+00 -6.680877208709716797e-01 2.100000000000000000e+01
6.399025917053222656e+00 -4.337354660034179688e+00 -6.763285398483276367e-01 5.000000000000000000e+00
2.085484504699707031e+00 -1.419955849647521973e+00 -6.760353446006774902e-01 2.400000000000000000e+01
2.430132389068603960e+00 -1.655860066413878950e+00 -6.789022684097290039e-01 1.100000000000000000e+01
2.866475343704224077e+00 -1.953911066055298074e+00 -6.743189692497253418e-01 1.000000000000000000e+01
3.508488893508911133e+00 -2.393328905105590820e+00 -6.726682186126708984e-01 1.000000000000000000e+01
4.524994373321533203e+00 -3.089056968688964844e+00 -6.727187633514404297e-01 2.400000000000000000e+01
6.362457752227783203e+00 -4.345057964324951172e+00 -6.740624904632568359e-01 5.000000000000000000e+00
2.086887359619141069e+00 -1.431598186492919922e+00 -6.781058907508850098e-01 2.500000000000000000e+01
2.421124219894409180e+00 -1.662126779556273970e+00 -6.780024766921997070e-01 1.100000000000000000e+01
2.861255884170531782e+00 -1.965016484260559082e+00 -6.747006177902221680e-01 1.100000000000000000e+01
3.503369092941284180e+00 -2.407799005508422852e+00 -6.732939481735229492e-01 1.000000000000000000e+01
4.520726680755615234e+00 -3.109333276748656782e+00 -6.736937165260314941e-01 2.400000000000000000e+01
6.307858467102050781e+00 -4.340135574340820312e+00 -6.698790192604064941e-01 6.000000000000000000e+00
2.085055828094481978e+00 -1.441070795059204102e+00 -6.791411638259887695e-01 2.400000000000000000e+01
2.415307760238647017e+00 -1.670567989349365012e+00 -6.780024766921997070e-01 1.100000000000000000e+01
2.854379177093505859e+00 -1.974992156028748003e+00 -6.747006177902221680e-01 1.100000000000000000e+01
3.491694927215576172e+00 -2.417764186859130859e+00 -6.726682186126708984e-01 1.000000000000000000e+01
4.518003463745117188e+00 -3.130747795104980025e+00 -6.749124526977539062e-01 2.600000000000000000e+01
6.264833927154541016e+00 -4.342831611633300781e+00 -6.669157147407531738e-01 6.000000000000000000e+00
2.075256824493408203e+00 -1.445028543472290039e+00 -6.775882840156555176e-01 2.300000000000000000e+01
2.419054746627808061e+00 -1.685673594474792036e+00 -6.807019114494323730e-01 1.100000000000000000e+01
2.841025590896606001e+00 -1.980453014373779075e+00 -6.731741428375244141e-01 1.200000000000000000e+01
3.496195077896118164e+00 -2.438979387283325195e+00 -6.751711368560791016e-01 1.000000000000000000e+01
4.511930465698242188e+00 -3.149908542633057085e+00 -6.756436228752136230e-01 2.400000000000000000e+01
6.272504806518554688e+00 -4.380644321441650391e+00 -6.693561077117919922e-01 7.000000000000000000e+00
2.068618535995482954e+00 -1.451154232025146040e+00 -6.770706176757812500e-01 2.500000000000000000e+01
2.416345834732056108e+00 -1.696346759796143022e+00 -6.816017031669616699e-01 1.200000000000000000e+01
2.838915109634398970e+00 -1.993742942810059038e+00 -6.743189692497253418e-01 1.100000000000000000e+01
