2.817250490188599077e+00 -2.054374456405640093e+00 -6.777535676956176758e-01 1.100000000000000000e+01
3.449855804443358931e+00 -2.517523288726807085e+00 -6.764226555824279785e-01 1.000000000000000000e+01
4.488729000091552734e+00 -3.278040170669556108e+00 -6.824682950973510742e-01 1.500000000000000000e+01
6.037846565246582031e+00 -4.410949707031250000e+00 -6.541910171508789062e-01 1.200000000000000000e+01
2.049712657928466797e+00 -1.504011988639831987e+00 -6.812117099761962891e-01 2.200000000000000000e+01
2.373397350311278853e+00 -1.742796063423156960e+00 -6.798020601272583008e-01 1.200000000000000000e+01
2.810062170028686968e+00 -2.064195871353148970e+00 -6.777535676956176758e-01 1.100000000000000000e+01
3.447413444519042969e+00 -2.534230232238769975e+00 -6.776741147041320801e-01 1.000000000000000000e+01
4.486853599548339844e+00 -3.300746679306029829e+00 -6.839307546615600586e-01 1.500000000000000000e+01
6.012784957885742188e+00 -4.424913406372070312e+00 -6.531451344490051270e-01 1.200000000000000000e+01
2.043160200119018999e+00 -1.509652853012084961e+00 -6.806941032409667969e-01 2.000000000000000000e+01
2.366038084030150923e+00 -1.749498248100280984e+00 -6.793521642684936523e-01 1.200000000000000000e+01
2.798466444015502930e+00 -2.070000410079956055e+00 -6.766086816787719727e-01 1.100000000000000000e+01
3.445341587066649947e+00 -2.550349235534667969e+00 -6.789255738258361816e-01 1.000000000000000000e+01
4.461527347564697266e+00 -3.304972887039185014e+00 -6.817371249198913574e-01 1.400000000000000000e+01
6.055706024169921875e+00 -4.487532615661621094e+00 -6.594203710556030273e-01 1.000000000000000000e+01
2.039427995681763139e+00 -1.517928957939147949e+00 -6.812117099761962891e-01 2.100000000000000000e+01
2.372419595718383789e+00 -1.767059206962585005e+00 -6.829513907432556152e-01 1.100000000000000000e+01
2.789649486541748047e+00 -2.078583240509033203e+00 -6.762270927429199219e-01 1.200000000000000000e+01
3.442752599716186968e+00 -2.567083597183227983e+00 -6.801770329475402832e-01 1.000000000000000000e+01
4.470646381378173828e+00 -3.335959672927856001e+00 -6.849057078361511230e-01 1.500000000000000000e+01
6.062356948852539062e+00 -4.525329113006591797e+00 -6.618607044219970703e-01 6.000000000000000000e+00
2.034116983413695845e+00 -1.525038719177246094e+00 -6.812117099761962891e-01 1.900000000000000000e+01
2.360001802444458008e+00 -1.770651698112488015e+00 -6.811518073081970215e-01 1.100000000000000000e+01
2.779236555099486861e+00 -2.085951328277587891e+00 -6.754638552665710449e-01 1.100000000000000000e+01
3.433770895004272017e+00 -2.579085350036621094e+00 -6.801770329475402832e-01 1.000000000000000000e+01
4.451040267944335938e+00 -3.345581293106079102e+00 -6.836870312690734863e-01 1.400000000000000000e+01
5.966901302337645596e+00 -4.486593723297119141e+00 -6.531451344490051270e-01 7.000000000000000000e+00
2.033406019210814986e+00 -1.535622477531433105e+00 -6.827646493911743164e-01 1.900000000000000000e+01
2.360025644302368164e+00 -1.783578634262084961e+00 -6.829513907432556152e-01 1.100000000000000000e+01
2.789165019989014116e+00 -2.108663797378540039e+00 -6.796616315841674805e-01 1.100000000000000000e+01
3.415295362472534180e+00 -2.583904743194580078e+00 -6.782998442649841309e-01 1.000000000000000000e+01
4.455161094665527344e+00 -3.373080492019652876e+00 -6.861243844032287598e-01 1.200000000000000000e+01
5.954380512237548828e+00 -4.509800910949707031e+00 -6.534937620162963867e-01 7.000000000000000000e+00
2.023420572280883789e+00 -1.539202213287353960e+00 -6.812117099761962891e-01 1.400000000000000000e+01
2.341380596160889116e+00 -1.782362818717956987e+00 -6.793521642684936523e-01 1.200000000000000000e+01
2.777101516723632812e+00 -2.114818572998046875e+00 -6.785168051719665527e-01 1.100000000000000000e+01
3.412539482116699219e+00 -2.600599765777587891e+00 -6.795513033866882324e-01 1.000000000000000000e+01
4.435467720031738281e+00 -3.382592439651488814e+00 -6.849057078361511230e-01 1.200000000000000000e+01
5.937017917633056641e+00 -4.529349327087402344e+00 -6.533194184303283691e-01 7.000000000000000000e+00
2.031836748123168945e+00 -1.556830644607543945e+00 -6.858704686164855957e-01 1.600000000000000000e+01
2.339784145355225053e+00 -1.794082283973694070e+00 -6.807019114494323730e-01 1.100000000000000000e+01
2.779049158096313032e+00 -2.131668806076049805e+00 -6.808065176010131836e-01 1.100000000000000000e+01
3.412842750549315962e+00 -2.619712829589844194e+00 -6.814285516738891602e-01 1.000000000000000000e+01
4.423633098602294922e+00 -3.398054599761962891e+00 -6.849057078361511230e-01 1.200000000000000000e+01
5.913272380828857422e+00 -4.543975830078125000e+00 -6.524478793144226074e-01 7.000000000000000000e+00
2.019015073776245117e+00 -1.557659626007080078e+00 -6.832822561264038086e-01 1.400000000000000000e+01
2.350789546966553178e+00 -1.814931273460387962e+00 -6.856508255004882812e-01 1.200000000000000000e+01
2.759534597396851030e+00 -2.131272554397583008e+00 -6.777535676956176758e-01 1.100000000000000000e+01
3.407262563705443892e+00 -2.633431911468505859e+00 -6.820542812347412109e-01 1.000000000000000000e+01
4.428042888641357422e+00 -3.424849987030028853e+00 -6.873431205749511719e-01 1.200000000000000000e+01
5.879261970520020419e+00 -4.548929214477539062e+00 -6.503561735153198242e-01 6.000000000000000000e+00
2.002887487411499023e+00 -1.556400179862976074e+00 -6.796588301658630371e-01 1.300000000000000000e+01
2.339824914932250977e+00 -1.819537162780761941e+00 -6.843010783195495605e-01 1.100000000000000000e+01
2.755177497863769975e+00 -2.143302917480469194e+00 -6.785168051719665527e-01 1.200000000000000000e+01
3.401166915893555132e+00 -2.647736310958861861e+00 -6.826800107955932617e-01 1.000000000000000000e+01
4.422324657440186435e+00 -3.445165634155272993e+00 -6.883180737495422363e-01 1.200000000000000000e+01
5.899492740631104404e+00 -4.597592830657958984e+00 -6.543653011322021484e-01 6.000000000000000000e+00
2.002006292343140093e+00 -1.566954135894774947e+00 -6.812117099761962891e-01 1.400000000000000000e+01
2.333459138870238814e+00 -1.827693581581115945e+00 -6.843010783195495605e-01 1.100000000000000000e+01
2.747679233551024947e+00 -2.152907371520996094e+00 -6.785168051719665527e-01 1.100000000000000000e+01
3.379467964172362837e+00 -2.649841308593750000e+00 -6.801770329475402832e-01 1.000000000000000000e+01
4.416518688201904297e+00 -3.465483188629149947e+00 -6.892930269241333008e-01 1.200000000000000000e+01
5.816016674041748047e+00 -4.565259456634520596e+00 -6.468698978424072266e-01 7.000000000000000000e+00
2.002592802047729048e+00 -1.578716874122620073e+00 -6.832822561264038086e-01 1.400000000000000000e+01
2.314825534820557085e+00 -1.826171875000000000e+00 -6.807019114494323730e-01 1.100000000000000000e+01
2.754017591476439986e+00 -2.173431634902954102e+00 -6.819513440132141113e-01 1.100000000000000000e+01
3.376398563385010210e+00 -2.666518926620482954e+00 -6.814285516738891602e-01 1.000000000000000000e+01
4.404395103454589844e+00 -3.480878591537476030e+00 -6.892930269241333008e-01 1.200000000000000000e+01
5.690640449523925781e+00 -4.499036788940429688e+00 -6.346681118011474609e-01 2.000000000000000000e+01
2.004634618759154829e+00 -1.591704130172729048e+00 -6.858704686164855957e-01 1.500000000000000000e+01
2.311488389968872070e+00 -1.836665630340575950e+00 -6.816017031669616699e-01 1.100000000000000000e+01
2.740266561508179155e+00 -2.178145170211791992e+00 -6.804248690605163574e-01 1.100000000000000000e+01
3.376345872879027876e+00 -2.685666799545288086e+00 -6.833057403564453125e-01 1.100000000000000000e+01
4.393770694732666016e+00 -3.497467994689940962e+00 -6.895367503166198730e-01 1.400000000000000000e+01
5.768417835235595703e+00 -4.593339920043945312e+00 -6.451268196105957031e-01 6.000000000000000000e+00
1.994540095329284890e+00 -1.595072150230407937e+00 -6.843175292015075684e-01 1.400000000000000000e+01
2.320278167724608931e+00 -1.856899380683898926e+00 -6.861007213592529297e-01 1.200000000000000000e+01
2.720386028289794922e+00 -2.177881479263306108e+00 -6.773719191551208496e-01 1.000000000000000000e+01
3.368492126464844194e+00 -2.698671102523804155e+00 -6.836186051368713379e-01 1.100000000000000000e+01
4.389279365539550781e+00 -3.518992185592650923e+00 -6.907554268836975098e-01 1.200000000000000000e+01
5.795868396759033203e+00 -4.648350715637207031e+00 -6.500075459480285645e-01 6.000000000000000000e+00
1.983499407768249956e+00 -1.596485137939452903e+00 -6.822469830513000488e-01 1.500000000000000000e+01
2.315950632095336914e+00 -1.865401983261107954e+00 -6.865506172180175781e-01 1.200000000000000000e+01
2.730346679687500000e+00 -2.199966669082642046e+00 -6.815697550773620605e-01 1.100000000000000000e+01
3.364610671997069868e+00 -2.712960004806518999e+00 -6.845571994781494141e-01 1.000000000000000000e+01
4.375113010406494141e+00 -3.530271053314208984e+00 -6.902679800987243652e-01 1.200000000000000000e+01
5.827746868133544922e+00 -4.704078674316406250e+00 -6.552368998527526855e-01 8.000000000000000000e+00
1.983917355537414995e+00 -1.608265280723571999e+00 -6.843175292015075684e-01 1.500000000000000000e+01
2.307911634445189986e+00 -1.872247099876404031e+00 -6.861007213592529297e-01 1.300000000000000000e+01
2.728748559951781782e+00 -2.214432477951049805e+00 -6.830962300300598145e-01 9.000000000000000000e+00
3.348986625671387163e+00 -2.719707012176514116e+00 -6.833057403564453125e-01 1.000000000000000000e+01
4.368925571441650391e+00 -3.550529241561890093e+00 -6.912429332733154297e-01 1.200000000000000000e+01
5.797377586364746094e+00 -4.713081359863281250e+00 -6.536680459976196289e-01 7.000000000000000000e+00
1.976231455802917036e+00 -1.614648818969727007e+00 -6.837999224662780762e-01 1.300000000000000000e+01
2.291653871536254883e+00 -1.873694062232970969e+00 -6.834012866020202637e-01 1.200000000000000000e+01
2.715666532516479048e+00 -2.221164941787720171e+00 -6.819513440132141113e-01 1.000000000000000000e+01
3.335461616516112837e+00 -2.730043888092041016e+00 -6.826800107955932617e-01 1.000000000000000000e+01
4.349117279052734375e+00 -3.562247037887572798e+00 -6.902679800987243652e-01 1.400000000000000000e+01
5.830094814300537109e+00 -4.776977539062500000e+00 -6.594203710556030273e-01 7.000000000000000000e+00
1.978041887283324973e+00 -1.627674818038939986e+00 -6.863881349563598633e-01 1.400000000000000000e+01
2.291116952896118164e+00 -1.886637091636657937e+00 -6.852009296417236328e-01 1.300000000000000000e+01
2.709412097930908203e+00 -2.231878995895386186e+00 -6.823329925537109375e-01 1.100000000000000000e+01
3.335057258605957031e+00 -2.749209165573120117e+00 -6.845571994781494141e-01 1.000000000000000000e+01
4.351969242095947266e+00 -3.590038776397705078e+00 -6.927053332328796387e-01 1.200000000000000000e+01
5.836435317993164062e+00 -4.816320896148681641e+00 -6.620350480079650879e-01 7.000000000000000000e+00
1.972918629646301047e+00 -1.633880972862244096e+00 -6.863881349563598633e-01 1.400000000000000000e+01
2.285178422927856001e+00 -1.893825531005858931e+00 -6.852009296417236328e-01 1.300000000000000000e+01
2.697852849960327148e+00 -2.236620903015137163e+00 -6.811881065368652344e-01 1.000000000000000000e+01
3.332485198974608931e+00 -2.764718055725098100e+00 -6.858087182044982910e-01 1.100000000000000000e+01
4.331505298614501953e+00 -3.596085071563721147e+00 -6.912429332733154297e-01 1.200000000000000000e+01
5.815145015716552734e+00 -4.829541206359863281e+00 -6.613377928733825684e-01 8.000000000000000000e+00
1.962752699851989968e+00 -1.637045741081238015e+00 -6.848351955413818359e-01 1.300000000000000000e+01
2.292018651962279829e+00 -1.913029074668884055e+00 -6.892500519752502441e-01 1.300000000000000000e+01
2.690029144287108931e+00 -2.246024370193481001e+00 -6.811881065368652344e-01 1.000000000000000000e+01
3.315234661102294922e+00 -2.770000696182250977e+00 -6.842443346977233887e-01 1.100000000000000000e+01
4.331109523773193359e+00 -3.621369600296020952e+00 -6.931928396224975586e-01 1.200000000000000000e+01
5.443692684173583984e+00 -4.553248405456542969e+00 -6.208975315093994141e-01 7.000000000000000000e+00
1.955547094345092995e+00 -1.642644524574280007e+00 -6.843175292015075684e-01 1.500000000000000000e+01
2.270409822463988814e+00 -1.908478856086730957e+00 -6.847510337829589844e-01 1.300000000000000000e+01
2.691188335418701172e+00 -2.262981891632080078e+00 -6.834778189659118652e-01 1.000000000000000000e+01
3.301011085510253906e+00 -2.777740716934204102e+00 -6.833057403564453125e-01 1.000000000000000000e+01
4.339700222015380859e+00 -3.654366970062255859e+00 -6.966051459312438965e-01 1.200000000000000000e+01
5.734049320220947266e+00 -4.830228328704833984e+00 -6.559340953826904297e-01 8.000000000000000000e+00
1.952751040458678977e+00 -1.651955962181091087e+00 -6.853528022766113281e-01 1.500000000000000000e+01
2.263734102249145952e+00 -1.916392445564270020e+00 -6.847510337829589844e-01 1.300000000000000000e+01
2.689265489578247070e+00 -2.277437210083007812e+00 -6.850042939186096191e-01 1.000000000000000000e+01
3.300336837768555132e+00 -2.796909093856811968e+00 -6.851829290390014648e-01 1.000000000000000000e+01
2.840925407409667969e+01 -2.408427619934082031e+01 4.573025226593017578e+00 1.900000000000000000e+01
4.317833900451660156e+00 -3.661789417266846147e+00 -6.951427459716796875e-01 1.200000000000000000e+01
5.668535709381104404e+00 -4.808969020843505859e+00 -6.503561735153198242e-01 6.000000000000000000e+00
1.953145265579224077e+00 -1.663432836532592995e+00 -6.874234080314636230e-01 1.400000000000000000e+01
2.263299226760863814e+00 -1.928944945335387962e+00 -6.865506172180175781e-01 1.200000000000000000e+01
2.672734498977661133e+00 -2.278700113296508789e+00 -6.827145814895629883e-01 1.000000000000000000e+01
3.291043758392333984e+00 -2.807838201522827148e+00 -6.851829290390014648e-01 1.000000000000000000e+01
4.302648067474365234e+00 -3.673509836196898970e+00 -6.946552395820617676e-01 1.200000000000000000e+01
5.358642578125000000e+00 -4.576713085174561435e+00 -6.165397167205810547e-01 7.000000000000000000e+00
1.948793172836303933e+00 -1.671498179435729980e+00 -6.879410147666931152e-01 1.600000000000000000e+01
2.250637292861938032e+00 -1.931756615638732910e+00 -6.847510337829589844e-01 1.200000000000000000e+01
2.667743206024169922e+00 -2.290573835372924805e+00 -6.834778189659118652e-01 1.000000000000000000e+01
3.287215709686278853e+00 -2.824458360671997070e+00 -6.864344477653503418e-01 1.000000000000000000e+01
4.301840305328369141e+00 -3.698860168457030806e+00 -6.966051459312438965e-01 1.200000000000000000e+01
5.409096240997313565e+00 -4.652556896209716797e+00 -6.242094039916992188e-01 5.000000000000000000e+00
1.931251049041748047e+00 -1.668187975883484109e+00 -6.837999224662780762e-01 1.500000000000000000e+01
2.254200696945189986e+00 -1.948521733283997026e+00 -6.879003047943115234e-01 1.200000000000000000e+01
2.658246278762816939e+00 -2.298587799072266069e+00 -6.830962300300598145e-01 1.000000000000000000e+01
3.283311605453491211e+00 -2.841085910797119141e+00 -6.876859068870544434e-01 1.000000000000000000e+01
4.291903972625732422e+00 -3.716452836990356001e+00 -6.970926523208618164e-01 1.200000000000000000e+01
5.368727684020996094e+00 -4.650537490844726562e+00 -6.214204430580139160e-01 8.000000000000000000e+00
1.931246399879456010e+00 -1.679990768432616965e+00 -6.858704686164855957e-01 1.600000000000000000e+01
2.244445562362670898e+00 -1.953819394111633079e+00 -6.870005130767822266e-01 1.400000000000000000e+01
2.653167724609375000e+00 -2.310431480407714844e+00 -6.838594675064086914e-01 9.000000000000000000e+00
3.270395755767821822e+00 -2.849933862686156782e+00 -6.870601773262023926e-01 1.000000000000000000e+01
4.290874004364013672e+00 -3.741849422454833984e+00 -6.990425586700439453e-01 1.200000000000000000e+01
5.612202167510986328e+00 -4.895835876464843750e+00 -6.515763401985168457e-01 8.000000000000000000e+00
1.934089064598083052e+00 -1.694359898567199929e+00 -6.889762878417968750e-01 1.500000000000000000e+01
2.233215808868408203e+00 -1.957788228988647017e+00 -6.856508255004882812e-01 1.300000000000000000e+01
2.655418872833251953e+00 -2.328739881515502930e+00 -6.865307688713073730e-01 1.100000000000000000e+01
3.257458209991455078e+00 -2.858726501464844194e+00 -6.864344477653503418e-01 1.000000000000000000e+01
4.289718627929688388e+00 -3.767283678054810014e+00 -7.009924650192260742e-01 1.300000000000000000e+01
5.629505157470703125e+00 -4.945641040802001953e+00 -6.555854678153991699e-01 1.100000000000000000e+01
1.933957457542418990e+00 -1.706212997436522993e+00 -6.910468339920043945e-01 1.500000000000000000e+01
2.221985578536986861e+00 -1.961702346801758035e+00 -6.843010783195495605e-01 1.200000000000000000e+01
2.642859458923339844e+00 -2.334095954895019975e+00 -6.853858828544616699e-01 1.100000000000000000e+01
3.256340503692626953e+00 -2.877928495407104048e+00 -6.883116364479064941e-01 1.000000000000000000e+01
4.264646530151367188e+00 -3.771713733673096147e+00 -6.990425586700439453e-01 1.200000000000000000e+01
5.595792770385742188e+00 -4.950739383697509766e+00 -6.536680459976196289e-01 7.000000000000000000e+00
1.920768976211548074e+00 -1.706537842750549094e+00 -6.884586811065673828e-01 1.600000000000000000e+01
2.223862648010253906e+00 -1.977215647697448953e+00 -6.870005130767822266e-01 1.400000000000000000e+01
2.633228778839110884e+00 -2.342002391815185991e+00 -6.850042939186096191e-01 1.100000000000000000e+01
3.252177238464355025e+00 -2.894531011581420898e+00 -6.895630955696105957e-01 1.000000000000000000e+01
2.834743690490723012e+01 -2.523890113830566051e+01 4.660283565521240234e+00 2.000000000000000000e+01
4.261831283569335938e+00 -3.795819282531737837e+00 -7.007487416267395020e-01 1.200000000000000000e+01
5.553188323974609375e+00 -4.947710514068604404e+00 -6.507048010826110840e-01 1.100000000000000000e+01
1.907601833343506081e+00 -1.706791400909424050e+00 -6.858704686164855957e-01 1.600000000000000000e+01
2.225658178329468218e+00 -1.992765784263611062e+00 -6.896999478340148926e-01 1.300000000000000000e+01
2.629424810409545898e+00 -2.355109453201293945e+00 -6.861491203308105469e-01 1.100000000000000000e+01
3.236169576644897017e+00 -2.900591850280762163e+00 -6.883116364479064941e-01 1.000000000000000000e+01
4.247077941894531250e+00 -3.809347152709960938e+00 -7.005049586296081543e-01 1.200000000000000000e+01
5.524020195007324219e+00 -4.956419944763183594e+00 -6.493102908134460449e-01 9.000000000000000000e+00
1.907373189926147017e+00 -1.718612432479857954e+00 -6.879410147666931152e-01 1.700000000000000000e+01
2.215794086456298828e+00 -1.997912764549254927e+00 -6.888001561164855957e-01 1.100000000000000000e+01
2.624103784561156782e+00 -2.366903305053710938e+00 -6.869123578071594238e-01 1.100000000000000000e+01
3.228957653045653853e+00 -2.914517641067504883e+00 -6.889373660087585449e-01 1.000000000000000000e+01
4.244066715240479404e+00 -3.833463191986083984e+00 -7.022111415863037109e-01 1.300000000000000000e+01
5.494858741760253906e+00 -4.964985847473145419e+00 -6.479157805442810059e-01 1.800000000000000000e+01
1.912807822227478027e+00 -1.735645294189452903e+00 -6.920821070671081543e-01 1.700000000000000000e+01
2.200150251388549805e+00 -1.997774958610534890e+00 -6.861007213592529297e-01 1.300000000000000000e+01
2.618732213973999023e+00 -2.378688812255858931e+00 -6.876755952835083008e-01 1.100000000000000000e+01
3.224611520767211914e+00 -2.931085824966431108e+00 -6.901888847351074219e-01 1.000000000000000000e+01
4.239470481872558594e+00 -3.856268882751464844e+00 -7.036736011505126953e-01 1.100000000000000000e+01
5.474547386169433594e+00 -4.981454849243164062e+00 -6.475671529769897461e-01 1.900000000000000000e+01
3.736924743652343750e+01 -3.405111694335938211e+01 -8.824634552001953125e-01 1.300000000000000000e+01
1.900729894638061968e+00 -1.737430810928344949e+00 -6.900115609169006348e-01 1.600000000000000000e+01
2.197126865386962891e+00 -2.009771347045897993e+00 -6.874504089355468750e-01 1.300000000000000000e+01
2.604202747344971147e+00 -2.382969617843627930e+00 -6.861491203308105469e-01 1.000000000000000000e+01
3.216760635375977007e+00 -2.945553064346313032e+00 -6.908146142959594727e-01 1.000000000000000000e+01
4.210672378540039062e+00 -3.858370304107666016e+00 -7.012361884117126465e-01 1.100000000000000000e+01
5.469470977783203125e+00 -5.013603210449218750e+00 -6.491359472274780273e-01 1.400000000000000000e+01
1.891810894012450950e+00 -1.741438269615172896e+00 -6.889762878417968750e-01 1.600000000000000000e+01
2.200131416320800781e+00 -2.026670694351195845e+00 -6.905997395515441895e-01 1.400000000000000000e+01
2.600199937820435014e+00 -2.396036624908446822e+00 -6.872940063476562500e-01 1.000000000000000000e+01
3.202102422714232954e+00 -2.952746391296387163e+00 -6.898760199546813965e-01 1.000000000000000000e+01
4.211767196655273438e+00 -3.886507034301757812e+00 -7.036736011505126953e-01 1.100000000000000000e+01
5.453400611877441406e+00 -5.034016132354736328e+00 -6.493102908134460449e-01 1.000000000000000000e+01
1.882887005805969016e+00 -1.745404720306396040e+00 -6.879410147666931152e-01 1.600000000000000000e+01
2.190186023712158203e+00 -2.031687736511230025e+00 -6.896999478340148926e-01 1.400000000000000000e+01
2.596137762069702148e+00 -2.409104585647583008e+00 -6.884388327598571777e-01 9.000000000000000000e+00
3.196118593215941939e+00 -2.967938184738159180e+00 -6.908146142959594727e-01 1.000000000000000000e+01
4.206900119781494141e+00 -3.909292936325072798e+00 -7.051360011100769043e-01 1.100000000000000000e+01
5.507299900054931641e+00 -5.119490623474121094e+00 -6.578515172004699707e-01 7.000000000000000000e+00
1.883843898773192915e+00 -1.758557796478271040e+00 -6.905292272567749023e-01 1.500000000000000000e+01
2.183080911636352983e+00 -2.039320468902587891e+00 -6.896999478340148926e-01 1.300000000000000000e+01
2.587712526321411133e+00 -2.418152093887329102e+00 -6.884388327598571777e-01 9.000000000000000000e+00
3.175639390945435014e+00 -2.969632148742675781e+00 -6.886245012283325195e-01 9.000000000000000000e+00
4.196127414703369141e+00 -3.926666498184204102e+00 -7.056235074996948242e-01 1.100000000000000000e+01
5.447214603424072266e+00 -5.099196910858154297e+00 -6.527965068817138672e-01 1.200000000000000000e+01
1.876901865005492942e+00 -1.763144731521606001e+00 -6.900115609169006348e-01 1.500000000000000000e+01
2.170983791351317915e+00 -2.040829658508300781e+00 -6.879003047943115234e-01 1.400000000000000000e+01
2.584393501281737837e+00 -2.430304527282714844e+00 -6.895837187767028809e-01 1.100000000000000000e+01
3.179241418838500977e+00 -2.991777658462523970e+00 -6.914403438568115234e-01 1.000000000000000000e+01
2.619369697570801137e+01 -2.465781021118164062e+01 4.417032718658447266e+00 1.800000000000000000e+01
4.180880546569824219e+00 -3.937107801437377930e+00 -7.051360011100769043e-01 1.100000000000000000e+01
5.442770004272460938e+00 -5.127213954925537109e+00 -6.541910171508789062e-01 1.000000000000000000e+01
1.880559682846068892e+00 -1.778978824615478960e+00 -6.936350464820861816e-01 1.500000000000000000e+01
2.166677236557006836e+00 -2.051074981689453125e+00 -6.888001561164855957e-01 1.400000000000000000e+01
2.575894355773925781e+00 -2.439311027526855025e+00 -6.895837187767028809e-01 1.000000000000000000e+01
3.165911197662353960e+00 -3.000139713287353960e+00 -6.908146142959594727e-01 1.000000000000000000e+01
4.167111873626708984e+00 -3.951677799224853960e+00 -7.051360011100769043e-01 1.100000000000000000e+01
2.768395614624023082e+01 -2.625273513793944957e+01 6.042750358581542969e+00 1.300000000000000000e+01
5.433512687683104581e+00 -5.154408931732177734e+00 -6.552368998527526855e-01 8.000000000000000000e+00
1.864237189292907937e+00 -1.776530265808105025e+00 -6.900115609169006348e-01 1.500000000000000000e+01
2.169017076492310014e+00 -2.068416357040404829e+00 -6.919494271278381348e-01 1.900000000000000000e+01
2.561254501342772993e+00 -2.443315267562866211e+00 -6.880572438240051270e-01 1.100000000000000000e+01
3.167753458023070845e+00 -3.023999214172362837e+00 -6.936303973197937012e-01 1.000000000000000000e+01
2.698132705688476918e+01 -2.576590347290039062e+01 4.580824851989746094e+00 1.900000000000000000e+01
4.161212444305419922e+00 -3.975151777267456055e+00 -7.065984606742858887e-01 1.100000000000000000e+01
2.713451576232910156e+01 -2.593030738830566051e+01 5.944509506225585938e+00 1.300000000000000000e+01
5.427547931671142578e+00 -5.186677455902099609e+00 -6.568056941032409668e-01 6.000000000000000000e+00
1.856630682945251021e+00 -1.781689286231995073e+00 -6.894939541816711426e-01 1.600000000000000000e+01
2.164594888687133789e+00 -2.078674793243408203e+00 -6.928492188453674316e-01 1.900000000000000000e+01
2.552710056304932085e+00 -2.452240705490111861e+00 -6.880572438240051270e-01 1.200000000000000000e+01
3.152906179428101030e+00 -3.030931234359741211e+00 -6.926918029785156250e-01 1.000000000000000000e+01
4.145880699157714844e+00 -3.988276720046997070e+00 -7.063547372817993164e-01 1.100000000000000000e+01
5.433815479278563565e+00 -5.229077816009520596e+00 -6.597689986228942871e-01 7.000000000000000000e+00
1.846543908119202104e+00 -1.783809661865233931e+00 -6.879410147666931152e-01 1.500000000000000000e+01
2.153486728668212891e+00 -2.081778049468994141e+00 -6.914995312690734863e-01 2.100000000000000000e+01
2.822662925720214844e+01 -2.729624748229980113e+01 2.057849884033203125e+00 2.200000000000000000e+01
2.557265758514403853e+00 -2.472975254058837891e+00 -6.914917826652526855e-01 1.100000000000000000e+01
3.139998912811278853e+00 -3.038622617721558061e+00 -6.920660734176635742e-01 1.000000000000000000e+01
4.138336658477783203e+00 -4.007526874542236328e+00 -7.073296904563903809e-01 9.000000000000000000e+00
5.354911327362061435e+00 -5.187458038330078125e+00 -6.522735953330993652e-01 8.000000000000000000e+00
1.847229599952697976e+00 -1.796979665756226030e+00 -6.905292272567749023e-01 1.600000000000000000e+01
2.137828588485718218e+00 -2.081126451492310014e+00 -6.888001561164855957e-01 1.900000000000000000e+01
2.548617839813231978e+00 -2.481886863708496094e+00 -6.914917826652526855e-01 1.100000000000000000e+01
3.132202386856079102e+00 -3.052322149276732954e+00 -6.926918029785156250e-01 1.000000000000000000e+01
2.774654579162598012e+01 -2.704837036132812855e+01 4.757779121398925781e+00 2.000000000000000000e+01
4.135692119598388672e+00 -4.033035278320313388e+00 -7.092795968055725098e-01 9.000000000000000000e+00
5.286854743957520419e+00 -5.157424449920654297e+00 -6.461727023124694824e-01 1.300000000000000000e+01
2.791925048828125000e+01 -2.727380943298339844e+01 -6.812721490859985352e-01 9.000000000000000000e+00
1.842325806617737038e+00 -1.804768681526184082e+00 -6.910468339920043945e-01 1.500000000000000000e+01
2.133334159851074219e+00 -2.091304540634154829e+00 -6.896999478340148926e-01 1.900000000000000000e+01
2.545545816421508789e+00 -2.496266365051269975e+00 -6.930182576179504395e-01 1.200000000000000000e+01
2.765502166748046875e+01 -2.712911605834960938e+01 3.389312505722045898e+00 5.100000000000000000e+01
3.124348402023314986e+00 -3.066004037857056108e+00 -6.933175325393676758e-01 1.000000000000000000e+01
2.673117256164551137e+01 -2.624115180969237926e+01 4.599349021911621094e+00 1.900000000000000000e+01
4.120172500610351562e+00 -4.046056270599365234e+00 -7.090358138084411621e-01 1.100000000000000000e+01
5.281611442565917969e+00 -5.188413619995117188e+00 -6.477414965629577637e-01 8.000000000000000000e+00
2.765566062927246094e+01 -2.720562171936035156e+01 -6.771533489227294922e-01 8.000000000000000000e+00
1.844266414642333984e+00 -1.819328784942626953e+00 -6.941526532173156738e-01 1.700000000000000000e+01
2.124634504318236861e+00 -2.097369432449340820e+00 -6.892500519752502441e-01 1.900000000000000000e+01
2.529832124710083008e+00 -2.498239517211914062e+00 -6.911101937294006348e-01 1.000000000000000000e+01
3.124867677688599077e+00 -3.087999343872069868e+00 -6.958205103874206543e-01 1.100000000000000000e+01
2.690764045715332031e+01 -2.659945869445801137e+01 4.645659446716308594e+00 1.900000000000000000e+01
4.100378036499023438e+00 -4.054830551147460938e+00 -7.080608606338500977e-01 1.100000000000000000e+01
2.798567199707030895e+01 -2.768446350097655895e+01 6.234851837158203125e+00 1.400000000000000000e+01
5.307377815246582031e+00 -5.250255107879638672e+00 -6.531451344490051270e-01 7.000000000000000000e+00
2.695842933654785156e+01 -2.669622230529785156e+01 8.759143829345703125e+00 1.100000000000000000e+01
2.758325767517089844e+01 -2.732450866699219105e+01 -6.777118444442749023e-01 8.000000000000000000e+00
1.831051826477051003e+00 -1.818947911262511985e+00 -6.915645003318786621e-01 1.600000000000000000e+01
2.128356695175170898e+00 -2.115764141082764116e+00 -6.928492188453674316e-01 2.000000000000000000e+01
2.519704103469849077e+00 -2.505670547485352007e+00 -6.907285451889038086e-01 1.100000000000000000e+01
3.109868764877318892e+00 -3.094708204269409180e+00 -6.948819160461425781e-01 9.000000000000000000e+00
2.692717552185058949e+01 -2.680525970458984020e+01 4.665158271789550781e+00 2.000000000000000000e+01
4.100265026092529297e+00 -4.083126068115234375e+00 -7.104982733726501465e-01 1.100000000000000000e+01
5.102696418762207031e+00 -5.083140850067138672e+00 -6.301360130310058594e-01 1.000000000000000000e+01
1.827422976493835005e+00 -1.828060984611511008e+00 -6.925997734069824219e-01 1.600000000000000000e+01
2.120958328247069868e+00 -2.123180627822875977e+00 -6.928492188453674316e-01 2.000000000000000000e+01
2.510942459106444868e+00 -2.514450788497924805e+00 -6.907285451889038086e-01 1.100000000000000000e+01
3.100442647933959961e+00 -3.106943130493164062e+00 -6.951947808265686035e-01 1.000000000000000000e+01
2.660913085937500000e+01 -2.667422866821289062e+01 4.626160144805908203e+00 1.900000000000000000e+01
4.097201347351074219e+00 -4.108658790588378906e+00 -7.124481797218322754e-01 1.100000000000000000e+01
5.090548038482666016e+00 -5.106565475463867188e+00 -6.308332681655883789e-01 1.200000000000000000e+01
1.825113773345947044e+00 -1.838541746139525923e+00 -6.941526532173156738e-01 1.800000000000000000e+01
2.108044385910034180e+00 -2.125037193298339844e+00 -6.910496354103088379e-01 1.900000000000000000e+01
2.518738746643065962e+00 -2.539928674697875977e+00 -6.953079700469970703e-01 1.100000000000000000e+01
3.092359542846680132e+00 -3.120553016662598100e+00 -6.958205103874206543e-01 1.100000000000000000e+01
2.643203544616698863e+01 -2.668233299255371094e+01 4.611536026000976562e+00 1.900000000000000000e+01
4.074453353881835938e+00 -4.114472389221191406e+00 -7.109857201576232910e-01 1.100000000000000000e+01
5.128759384155273438e+00 -5.180941581726074219e+00 -6.378057003021240234e-01 7.000000000000000000e+00
1.820041179656981978e+00 -1.846277236938477007e+00 -6.946703195571899414e-01 1.600000000000000000e+01
2.104716539382935014e+00 -2.136547565460205078e+00 -6.923993229866027832e-01 2.100000000000000000e+01
2.504347324371337891e+00 -2.543109893798828125e+00 -6.937814950942993164e-01 1.100000000000000000e+01
3.092532157897949219e+00 -3.142591953277587891e+00 -6.983234286308288574e-01 1.100000000000000000e+01
4.064241886138916016e+00 -4.132915973663330078e+00 -7.117169499397277832e-01 1.300000000000000000e+01
5.077121734619140625e+00 -5.164712905883789062e+00 -6.336222290992736816e-01 1.300000000000000000e+01
1.809853672981261985e+00 -1.848161697387695090e+00 -6.931173801422119141e-01 1.600000000000000000e+01
2.100345849990845171e+00 -2.146300792694091797e+00 -6.932991743087768555e-01 2.200000000000000000e+01
2.487663030624390093e+00 -2.542980194091796875e+00 -6.914917826652526855e-01 1.100000000000000000e+01
3.086236476898192915e+00 -3.157067775726317915e+00 -6.992620825767517090e-01 1.000000000000000000e+01
4.051901817321777344e+00 -4.147790908813476562e+00 -7.119607329368591309e-01 1.300000000000000000e+01
5.040478706359863281e+00 -5.161564350128173828e+00 -6.311818957328796387e-01 1.300000000000000000e+01
1.800697803497314009e+00 -1.851698160171509011e+00 -6.920821070671081543e-01 1.700000000000000000e+01
2.099631547927856001e+00 -2.160607099533081055e+00 -6.955486536026000977e-01 2.000000000000000000e+01
2.750432777404785156e+01 -2.830308151245116832e+01 2.068316936492919922e+00 2.200000000000000000e+01
2.484243154525756836e+00 -2.557281017303466797e+00 -6.930182576179504395e-01 1.100000000000000000e+01
3.073821544647216797e+00 -3.166404008865356001e+00 -6.989492177963256836e-01 1.100000000000000000e+01
4.038780689239501953e+00 -4.163334369659423828e+00 -7.122044563293457031e-01 1.300000000000000000e+01
2.589114189147948863e+01 -2.668960762023926137e+01 5.889444828033447266e+00 1.300000000000000000e+01
5.059880256652832031e+00 -5.217745780944824219e+00 -6.358882784843444824e-01 9.000000000000000000e+00
1.798249125480652078e+00 -1.862141370773314986e+00 -6.936350464820861816e-01 1.900000000000000000e+01
2.083957672119141069e+00 -2.159509420394897017e+00 -6.928492188453674316e-01 2.000000000000000000e+01
2.476664543151855025e+00 -2.567349910736083984e+00 -6.933999061584472656e-01 1.200000000000000000e+01
3.058637142181396040e+00 -3.172847986221313032e+00 -6.980105638504028320e-01 1.100000000000000000e+01
2.682750511169433949e+01 -2.783897781372069957e+01 4.747054576873779297e+00 2.000000000000000000e+01
4.037995338439941406e+00 -4.191703319549561435e+00 -7.146418094635009766e-01 1.300000000000000000e+01
5.117647647857666016e+00 -5.314308643341063565e+00 -6.454754471778869629e-01 1.300000000000000000e+01
1.797086477279663086e+00 -1.873984456062316895e+00 -6.957055926322937012e-01 1.900000000000000000e+01
2.073710203170775923e+00 -2.163956642150878906e+00 -6.919494271278381348e-01 2.000000000000000000e+01
2.474478244781494141e+00 -2.583068132400513139e+00 -6.953079700469970703e-01 1.100000000000000000e+01
3.047543287277222124e+00 -3.183505296707152876e+00 -6.980105638504028320e-01 1.000000000000000000e+01
4.023339271545410156e+00 -4.205772876739501953e+00 -7.146418094635009766e-01 1.300000000000000000e+01
5.077033996582031250e+00 -5.309101104736328125e+00 -6.426864266395568848e-01 1.100000000000000000e+01
1.786537408828734907e+00 -1.876049041748047097e+00 -6.941526532173156738e-01 1.700000000000000000e+01
2.071517467498778853e+00 -2.176828622817993164e+00 -6.937490701675415039e-01 1.900000000000000000e+01
2.464093446731566939e+00 -2.590267419815063032e+00 -6.949263811111450195e-01 1.200000000000000000e+01
3.045939207077025923e+00 -3.204145669937133789e+00 -7.002006769180297852e-01 1.100000000000000000e+01
3.999063253402709961e+00 -4.209716796875000000e+00 -7.129356861114501953e-01 1.500000000000000000e+01
5.061214923858642578e+00 -5.329680442810058594e+00 -6.430350542068481445e-01 1.000000000000000000e+01
1.786614656448364036e+00 -1.889292001724242942e+00 -6.967408657073974609e-01 1.900000000000000000e+01
2.062567949295043945e+00 -2.182630062103271040e+00 -6.932991743087768555e-01 2.200000000000000000e+01
2.450992107391356978e+00 -2.594571352005004883e+00 -6.937814950942993164e-01 1.100000000000000000e+01
3.040160179138184038e+00 -3.220504283905028853e+00 -7.014521360397338867e-01 1.100000000000000000e+01
2.659445762634276988e+01 -2.818190765380859020e+01 4.757779121398925781e+00 2.000000000000000000e+01
3.996603727340697798e+00 -4.236646175384520596e+00 -7.151293158531188965e-01 1.500000000000000000e+01
5.035745143890380859e+00 -5.340067386627197266e+00 -6.421635150909423828e-01 9.000000000000000000e+00
1.762489438056946023e+00 -1.877517223358154075e+00 -6.900115609169006348e-01 1.600000000000000000e+01
2.062553882598876953e+00 -2.198702573776245117e+00 -6.959985494613647461e-01 2.100000000000000000e+01
2.441466093063354048e+00 -2.603537321090697798e+00 -6.937814950942993164e-01 1.200000000000000000e+01
3.025634527206420898e+00 -3.228742599487305132e+00 -7.008264064788818359e-01 1.100000000000000000e+01
2.644213104248046875e+01 -2.822703742980957031e+01 4.749004364013671875e+00 2.000000000000000000e+01
3.983762502670288086e+00 -4.254164218902587891e+00 -7.156167626380920410e-01 1.500000000000000000e+01
5.033840179443359375e+00 -5.377397060394287109e+00 -6.444295644760131836e-01 9.000000000000000000e+00
1.770414948463439941e+00 -1.899202108383178933e+00 -6.957055926322937012e-01 1.900000000000000000e+01
2.057523012161254883e+00 -2.208740711212158203e+00 -6.968983411788940430e-01 2.200000000000000000e+01
2.440390825271606001e+00 -2.620664358139038086e+00 -6.960712075233459473e-01 1.100000000000000000e+01
3.004925727844237837e+00 -3.229161500930786133e+00 -6.986362934112548828e-01 1.100000000000000000e+01
3.970240354537963867e+00 -4.269497871398925781e+00 -7.158605456352233887e-01 1.500000000000000000e+01
5.000117301940917969e+00 -5.378883838653563565e+00 -6.425121426582336426e-01 7.000000000000000000e+00
1.763774752616882102e+00 -1.905370354652405007e+00 -6.957055926322937012e-01 1.600000000000000000e+01
2.041860580444335938e+00 -2.207326173782349077e+00 -6.941989660263061523e-01 1.900000000000000000e+01
2.440558433532714844e+00 -2.639256954193114790e+00 -6.987425684928894043e-01 1.200000000000000000e+01
2.998998165130614790e+00 -3.245434045791625977e+00 -6.998878121376037598e-01 1.000000000000000000e+01
3.956659555435181108e+00 -4.284789085388183594e+00 -7.161042690277099609e-01 1.300000000000000000e+01
4.982662200927734375e+00 -5.397768974304199219e+00 -6.426864266395568848e-01 1.000000000000000000e+01
1.762342453002929910e+00 -1.917204618453979048e+00 -6.977761387825012207e-01 1.600000000000000000e+01
2.042052984237670898e+00 -2.223051071166992188e+00 -6.968983411788940430e-01 1.600000000000000000e+01
2.424691438674927202e+00 -2.640529632568358931e+00 -6.968344449996948242e-01 1.300000000000000000e+01
3.001006841659545898e+00 -3.270437479019165039e+00 -7.030164599418640137e-01 1.000000000000000000e+01
3.938995599746704102e+00 -4.295648097991943359e+00 -7.156167626380920410e-01 1.300000000000000000e+01
4.985331058502197266e+00 -5.438627719879150391e+00 -6.454754471778869629e-01 1.000000000000000000e+01
1.754672527313231978e+00 -1.921611547470092995e+00 -6.972585320472717285e-01 1.800000000000000000e+01
2.028102159500122070e+00 -2.222612857818603960e+00 -6.946488618850708008e-01 1.400000000000000000e+01
2.410629510879517046e+00 -2.642753839492797852e+00 -6.953079700469970703e-01 1.200000000000000000e+01
2.990145206451416016e+00 -3.280371189117432085e+00 -7.030164599418640137e-01 1.000000000000000000e+01
3.927402496337891069e+00 -4.311621665954589844e+00 -7.161042690277099609e-01 1.300000000000000000e+01
4.945805549621582031e+00 -5.431559562683104581e+00 -6.426864266395568848e-01 9.000000000000000000e+00
1.734977483749390093e+00 -1.913413524627685991e+00 -6.920821070671081543e-01 1.600000000000000000e+01
2.028182506561278853e+00 -2.238343238830565962e+00 -6.973482966423034668e-01 1.400000000000000000e+01
2.414569854736328125e+00 -2.665703296661376953e+00 -6.991241574287414551e-01 1.200000000000000000e+01
2.983978748321533203e+00 -3.296646833419799805e+00 -7.042679786682128906e-01 1.000000000000000000e+01
3.917654752731322798e+00 -4.331193447113037109e+00 -7.170792222023010254e-01 1.500000000000000000e+01
4.884055137634277344e+00 -5.401499271392822266e+00 -6.371085047721862793e-01 7.000000000000000000e+00
1.741214513778686968e+00 -1.933814525604248047e+00 -6.972585320472717285e-01 1.700000000000000000e+01
2.028177738189696822e+00 -2.254101276397705078e+00 -7.000476717948913574e-01 1.400000000000000000e+01
2.403937339782714844e+00 -2.672655582427978960e+00 -6.987425684928894043e-01 1.200000000000000000e+01
2.960568666458129883e+00 -3.293820619583129883e+00 -7.014521360397338867e-01 1.100000000000000000e+01
3.915776968002318892e+00 -4.359610557556152344e+00 -7.195165753364562988e-01 1.300000000000000000e+01
4.807933330535888672e+00 -5.354767799377441406e+00 -6.296131014823913574e-01 7.000000000000000000e+00
1.738316535949707031e+00 -1.944201231002808061e+00 -6.988114118576049805e-01 1.600000000000000000e+01
2.003417968750000000e+00 -2.242275714874268022e+00 -6.941989660263061523e-01 1.500000000000000000e+01
2.397208929061890093e+00 -2.683959245681763139e+00 -6.995058059692382812e-01 1.200000000000000000e+01
2.958260536193848100e+00 -3.314450979232788086e+00 -7.036422491073608398e-01 1.000000000000000000e+01
3.895249843597412109e+00 -4.367326736450195312e+00 -7.185416221618652344e-01 1.300000000000000000e+01
4.844901084899902344e+00 -5.433977603912354404e+00 -6.369341611862182617e-01 9.000000000000000000e+00
1.727331876754760964e+00 -1.946224808692931907e+00 -6.972585320472717285e-01 1.500000000000000000e+01
1.992599964141845925e+00 -2.246687650680541992e+00 -6.932991743087768555e-01 1.300000000000000000e+01
2.386053085327147993e+00 -2.691258430480957031e+00 -6.991241574287414551e-01 1.200000000000000000e+01
2.957882404327393022e+00 -3.338578224182128906e+00 -7.064580321311950684e-01 1.100000000000000000e+01
3.870005607604980025e+00 -4.371170043945313388e+00 -7.168354988098144531e-01 1.600000000000000000e+01
4.805145263671875000e+00 -5.429318904876708984e+00 -6.343194842338562012e-01 6.000000000000000000e+00
1.724359750747681108e+00 -1.956590414047240989e+00 -6.988114118576049805e-01 1.400000000000000000e+01
1.996337056159972922e+00 -2.266791582107543945e+00 -6.973482966423034668e-01 1.300000000000000000e+01
2.372752428054810014e+00 -2.695150136947631836e+00 -6.979793310165405273e-01 1.200000000000000000e+01
2.954039096832274947e+00 -3.357781648635863814e+00 -7.083352804183959961e-01 1.100000000000000000e+01
3.846859693527222124e+00 -4.375707149505615234e+00 -7.153730392456054688e-01 1.500000000000000000e+01
4.755913257598876953e+00 -5.411637306213378906e+00 -6.303103566169738770e-01 7.000000000000000000e+00
2.210670089721680043e+01 -2.519011688232421875e+01 -5.850046873092651367e-01 6.000000000000000000e+00
1.710227012634276900e+00 -1.953576564788817915e+00 -6.957055926322937012e-01 1.400000000000000000e+01
1.990092277526855025e+00 -2.274865865707397017e+00 -6.977981925010681152e-01 1.200000000000000000e+01
2.367679357528686968e+00 -2.707437276840209961e+00 -6.991241574287414551e-01 1.200000000000000000e+01
2.933789014816284180e+00 -3.357146978378295898e+00 -7.061451673507690430e-01 1.100000000000000000e+01
3.832328081130981001e+00 -4.388439655303955078e+00 -7.153730392456054688e-01 2.000000000000000000e+01
4.735321044921875000e+00 -5.424376964569091797e+00 -6.299617290496826172e-01 7.000000000000000000e+00
2.202304458618164062e+01 -2.526328659057616832e+01 -5.850046873092651367e-01 6.000000000000000000e+00
1.699595093727112038e+00 -1.955160498619080034e+00 -6.941526532173156738e-01 1.400000000000000000e+01
1.984695315361022949e+00 -2.284740924835205078e+00 -6.986979842185974121e-01 1.200000000000000000e+01
2.359501361846923828e+00 -2.717167854309082031e+00 -6.995058059692382812e-01 1.100000000000000000e+01
2.915579319000244141e+00 -3.359907627105712891e+00 -7.045808434486389160e-01 1.100000000000000000e+01
3.810483694076538086e+00 -4.394291400909423828e+00 -7.141543626785278320e-01 2.200000000000000000e+01
4.648496150970458984e+00 -5.362587451934813565e+00 -6.208975315093994141e-01 8.000000000000000000e+00
2.175935173034667969e+01 -2.513740921020508168e+01 -5.803273916244506836e-01 6.000000000000000000e+00
1.702858448028564009e+00 -1.972780466079711914e+00 -6.982938051223754883e-01 1.500000000000000000e+01
1.967798233032227007e+00 -2.281325578689575195e+00 -6.955486536026000977e-01 1.200000000000000000e+01
2.356412649154663086e+00 -2.732821702957152876e+00 -7.014138698577880859e-01 1.200000000000000000e+01
2.918017148971558061e+00 -3.386525630950928178e+00 -7.080224156379699707e-01 1.000000000000000000e+01
3.776987791061400923e+00 -4.386505603790283203e+00 -7.107419967651367188e-01 3.300000000000000000e+01
4.585557460784912109e+00 -5.327439308166503906e+00 -6.149709224700927734e-01 8.000000000000000000e+00
2.182007026672362926e+01 -2.538608932495116832e+01 -5.843065381050109863e-01 6.000000000000000000e+00
1.698476195335387962e+00 -1.981646180152893066e+00 -6.993290781974792480e-01 1.600000000000000000e+01
1.966161251068115012e+00 -2.295580863952637163e+00 -6.977981925010681152e-01 1.200000000000000000e+01
2.341751337051392046e+00 -2.735065221786499023e+00 -6.998873949050903320e-01 1.200000000000000000e+01
2.903609752655028853e+00 -3.393688917160034180e+00 -7.073966264724731445e-01 1.000000000000000000e+01
3.755203008651732954e+00 -4.392118930816650391e+00 -7.095233201980590820e-01 3.900000000000000000e+01
4.573405742645263672e+00 -5.350986480712890625e+00 -6.158424615859985352e-01 7.000000000000000000e+00
2.161968040466308949e+01 -2.533129310607910156e+01 -5.813047289848327637e-01 6.000000000000000000e+00
1.691548585891724077e+00 -1.987562894821166992e+00 -6.993290781974792480e-01 1.600000000000000000e+01
1.951823711395263894e+00 -2.295007705688477007e+00 -6.955486536026000977e-01 1.200000000000000000e+01
2.337276458740233931e+00 -2.749205827713013139e+00 -7.014138698577880859e-01 1.200000000000000000e+01
2.899419784545897993e+00 -3.412836313247681108e+00 -7.092738747596740723e-01 1.000000000000000000e+01
3.725716829299927202e+00 -4.388554096221923828e+00 -7.068421840667724609e-01 3.300000000000000000e+01
4.610134124755859375e+00 -5.432238578796386719e+00 -6.233378648757934570e-01 7.000000000000000000e+00
1.679612636566162109e+00 -1.987553238868712935e+00 -6.972585320472717285e-01 1.600000000000000000e+01
1.951344609260559082e+00 -2.310740232467650923e+00 -6.982480883598327637e-01 1.100000000000000000e+01
2.325133085250854048e+00 -2.754347324371337891e+00 -7.006506323814392090e-01 1.200000000000000000e+01
2.881120443344116211e+00 -3.415386915206909180e+00 -7.077094912528991699e-01 1.100000000000000000e+01
3.700139760971068892e+00 -4.389390468597412109e+00 -7.048922777175903320e-01 2.800000000000000000e+01
4.561614990234375000e+00 -5.413255691528320312e+00 -6.193287372589111328e-01 8.000000000000000000e+00
1.672664642333983931e+00 -1.993404030799865945e+00 -6.972585320472717285e-01 1.600000000000000000e+01
1.945770978927612083e+00 -2.320523977279663086e+00 -6.991478800773620605e-01 1.400000000000000000e+01
2.316765546798706055e+00 -2.763951301574707031e+00 -7.010322213172912598e-01 1.200000000000000000e+01
2.872986316680908203e+00 -3.429966211318970171e+00 -7.086481451988220215e-01 1.000000000000000000e+01
3.703907251358031782e+00 -4.425113201141357422e+00 -7.085483670234680176e-01 2.400000000000000000e+01
4.605340480804443359e+00 -5.504019737243652344e+00 -6.278699636459350586e-01 7.000000000000000000e+00
1.671879172325134055e+00 -2.006651639938354048e+00 -6.998466849327087402e-01 1.400000000000000000e+01
1.936412096023560014e+00 -2.325804233551024947e+00 -6.986979842185974121e-01 1.200000000000000000e+01
2.314638853073120117e+00 -2.781075477600098100e+00 -7.033219337463378906e-01 1.200000000000000000e+01
2.860996007919311968e+00 -3.439973831176757812e+00 -7.086481451988220215e-01 1.100000000000000000e+01
3.675750255584716797e+00 -4.422748565673828125e+00 -7.061109542846679688e-01 2.400000000000000000e+01
4.596285343170166016e+00 -5.532321929931640625e+00 -6.292644739151000977e-01 7.000000000000000000e+00
1.664864420890808105e+00 -2.012475252151488814e+00 -6.998466849327087402e-01 1.500000000000000000e+01
1.924556732177733931e+00 -2.328043460845946822e+00 -6.973482966423034668e-01 1.200000000000000000e+01
2.306167602539062944e+00 -2.790651559829711914e+00 -7.037035822868347168e-01 1.100000000000000000e+01
2.854002237319945845e+00 -3.456032276153564009e+00 -7.098996043205261230e-01 1.000000000000000000e+01
3.648918151855469194e+00 -4.421772480010986328e+00 -7.039173245429992676e-01 2.600000000000000000e+01
4.614981651306152344e+00 -5.594440460205078125e+00 -6.344938278198242188e-01 7.000000000000000000e+00
1.656603217124938965e+00 -2.016781806945800781e+00 -6.993290781974792480e-01 1.400000000000000000e+01
1.926309823989867942e+00 -2.346797704696654829e+00 -7.009474635124206543e-01 1.400000000000000000e+01
2.288940429687500000e+00 -2.789578199386597124e+00 -7.014138698577880859e-01 1.100000000000000000e+01
2.853193521499633789e+00 -3.479721307754517046e+00 -7.127154469490051270e-01 1.100000000000000000e+01
