2.064218997955321822e+00 -1.470762968063354048e+00 -6.791411638259887695e-01 2.300000000000000000e+01
2.391152381896973100e+00 -1.704962849617003950e+00 -6.780024766921997070e-01 1.100000000000000000e+01
2.817830801010131836e+00 -2.009939193725585938e+00 -6.727924942970275879e-01 1.200000000000000000e+01
3.479245185852050781e+00 -2.483554363250731978e+00 -6.770483851432800293e-01 1.000000000000000000e+01
4.448506832122802734e+00 -3.177777051925659180e+00 -6.712563633918762207e-01 1.500000000000000000e+01
6.167999744415283203e+00 -4.407717704772949219e+00 -6.632552146911621094e-01 1.000000000000000000e+01
2.052794694900513139e+00 -1.473453402519226074e+00 -6.770706176757812500e-01 2.300000000000000000e+01
2.401013851165771040e+00 -1.724668145179748979e+00 -6.825014948844909668e-01 1.200000000000000000e+01
2.820363521575928178e+00 -2.026636838912963867e+00 -6.750822067260742188e-01 1.100000000000000000e+01
3.480177402496337891e+00 -2.502603769302368164e+00 -6.789255738258361816e-01 1.000000000000000000e+01
4.487335681915283203e+00 -3.229230642318726030e+00 -6.788122653961181641e-01 1.500000000000000000e+01
6.107300758361816406e+00 -4.396627426147460938e+00 -6.583744883537292480e-01 1.200000000000000000e+01
2.052076339721680132e+00 -1.484364151954651101e+00 -6.786235570907592773e-01 2.200000000000000000e+01
2.391519308090209961e+00 -1.731171369552612083e+00 -6.816017031669616699e-01 1.300000000000000000e+01
2.814506769180297852e+00 -2.038111925125122070e+00 -6.754638552665710449e-01 1.100000000000000000e+01
3.461384296417235884e+00 -2.508387565612792969e+00 -6.770483851432800293e-01 1.000000000000000000e+01
4.491539955139160156e+00 -3.257309913635253906e+00 -6.812496185302734375e-01 1.400000000000000000e+01
6.100821495056152344e+00 -4.426002025604248047e+00 -6.594203710556030273e-01 9.000000000000000000e+00
2.057811498641968218e+00 -1.499482035636902078e+00 -6.822469830513000488e-01 1.900000000000000000e+01
2.376014471054077148e+00 -1.732619643211364968e+00 -6.789022684097290039e-01 1.300000000000000000e+01
2.813719749450684038e+00 -2.052551984786986861e+00 -6.769903302192687988e-01 1.200000000000000000e+01
3.449416399002075195e+00 -2.518125295639038086e+00 -6.764226555824279785e-01 1.000000000000000000e+01
4.472127914428710938e+00 -3.267113447189331055e+00 -6.800309419631958008e-01 1.500000000000000000e+01
6.037076950073242188e+00 -4.412003517150878906e+00 -6.541910171508789062e-01 1.200000000000000000e+01
2.054122209548950195e+00 -1.507799148559570090e+00 -6.827646493911743164e-01 2.200000000000000000e+01
2.371522665023804155e+00 -1.742056608200073020e+00 -6.793521642684936523e-01 1.200000000000000000e+01
2.803373813629149947e+00 -2.060036182403564009e+00 -6.762270927429199219e-01 1.100000000000000000e+01
3.443788290023804155e+00 -2.532491207122803178e+00 -6.770483851432800293e-01 1.000000000000000000e+01
4.471888065338134766e+00 -3.290940284729003906e+00 -6.817371249198913574e-01 1.400000000000000000e+01
6.012012481689453125e+00 -4.425962448120117188e+00 -6.531451344490051270e-01 1.200000000000000000e+01
2.050399780273437944e+00 -1.516108751296997070e+00 -6.832822561264038086e-01 1.900000000000000000e+01
2.370126724243164062e+00 -1.753801584243773970e+00 -6.807019114494323730e-01 1.200000000000000000e+01
2.802477598190308061e+00 -2.074481487274169922e+00 -6.777535676956176758e-01 1.100000000000000000e+01
3.447625637054442915e+00 -2.553903579711914062e+00 -6.795513033866882324e-01 1.000000000000000000e+01
4.461967945098876953e+00 -3.307712316513061968e+00 -6.819808483123779297e-01 1.500000000000000000e+01
6.044537067413330078e+00 -4.482525348663330078e+00 -6.583744883537292480e-01 1.000000000000000000e+01
2.034514427185059038e+00 -1.514823794364928977e+00 -6.796588301658630371e-01 2.100000000000000000e+01
2.368985891342163086e+00 -1.765144586563109907e+00 -6.820515990257263184e-01 1.100000000000000000e+01
2.789286613464355025e+00 -2.079070091247559038e+00 -6.762270927429199219e-01 1.200000000000000000e+01
3.439137697219849077e+00 -2.565322160720825195e+00 -6.795513033866882324e-01 1.000000000000000000e+01
4.465291500091552734e+00 -3.333177566528319868e+00 -6.841744780540466309e-01 1.400000000000000000e+01
6.051988601684570312e+00 -4.519234180450438565e+00 -6.608148217201232910e-01 6.000000000000000000e+00
2.030759811401367188e+00 -1.523075461387634055e+00 -6.801764369010925293e-01 2.000000000000000000e+01
2.362809896469116211e+00 -1.773403167724608931e+00 -6.820515990257263184e-01 1.100000000000000000e+01
2.782012462615966797e+00 -2.088793992996215820e+00 -6.762270927429199219e-01 1.200000000000000000e+01
3.425424337387084961e+00 -2.573751449584960938e+00 -6.786127090454101562e-01 1.000000000000000000e+01
4.466322422027587891e+00 -3.358288049697875977e+00 -6.861243844032287598e-01 1.500000000000000000e+01
5.970895290374755859e+00 -4.491228103637695312e+00 -6.536680459976196289e-01 7.000000000000000000e+00
2.036220788955688032e+00 -1.538306355476378950e+00 -6.837999224662780762e-01 1.900000000000000000e+01
2.356605291366577148e+00 -1.781640052795409934e+00 -6.820515990257263184e-01 1.100000000000000000e+01
2.784099340438843218e+00 -2.105597734451293945e+00 -6.785168051719665527e-01 1.100000000000000000e+01
3.421144723892211914e+00 -2.589269161224364790e+00 -6.795513033866882324e-01 1.000000000000000000e+01
4.452990055084229404e+00 -3.372659444808959961e+00 -6.858806610107421875e-01 1.200000000000000000e+01
5.956769466400145596e+00 -4.513246536254882812e+00 -6.538423895835876465e-01 7.000000000000000000e+00
2.032376050949097124e+00 -1.546574592590332031e+00 -6.843175292015075684e-01 1.500000000000000000e+01
2.344170331954956055e+00 -1.785132765769958052e+00 -6.802520155906677246e-01 1.200000000000000000e+01
2.775170803070067915e+00 -2.114113569259643999e+00 -6.781351566314697266e-01 1.100000000000000000e+01
3.418369293212891069e+00 -2.605985879898070845e+00 -6.808027625083923340e-01 1.000000000000000000e+01
4.445924758911132812e+00 -3.391794919967650923e+00 -6.866118907928466797e-01 1.000000000000000000e+01
5.925140380859375000e+00 -4.521924495697020596e+00 -6.520992517471313477e-01 7.000000000000000000e+00
2.024169445037841797e+00 -1.550955772399901900e+00 -6.832822561264038086e-01 1.400000000000000000e+01
2.347516298294066939e+00 -1.800011157989501953e+00 -6.829513907432556152e-01 1.300000000000000000e+01
2.763471603393555132e+00 -2.119719982147216797e+00 -6.769903302192687988e-01 1.200000000000000000e+01
3.412842750549315962e+00 -2.619712829589844194e+00 -6.814285516738891602e-01 1.000000000000000000e+01
4.428355693817138672e+00 -3.401682376861571822e+00 -6.856369376182556152e-01 1.000000000000000000e+01
5.897474288940429688e+00 -4.531836032867431641e+00 -6.507048010826110840e-01 7.000000000000000000e+00
2.008037805557250977e+00 -1.549749851226807085e+00 -6.796588301658630371e-01 1.500000000000000000e+01
2.344303607940673828e+00 -1.810576915740967019e+00 -6.838511824607849121e-01 1.100000000000000000e+01
2.762269735336304155e+00 -2.134154796600341797e+00 -6.785168051719665527e-01 1.100000000000000000e+01
3.403677463531494141e+00 -2.631609916687012163e+00 -6.814285516738891602e-01 1.000000000000000000e+01
4.433724880218505859e+00 -3.430481910705565962e+00 -6.883180737495422363e-01 1.200000000000000000e+01
5.876892566680908203e+00 -4.548736095428466797e+00 -6.501818299293518066e-01 6.000000000000000000e+00
2.011494159698485884e+00 -1.564214706420897993e+00 -6.827646493911743164e-01 1.400000000000000000e+01
2.334575891494750977e+00 -1.816763401031493919e+00 -6.829513907432556152e-01 1.200000000000000000e+01
2.760625839233397993e+00 -2.149088621139525923e+00 -6.800432801246643066e-01 1.100000000000000000e+01
3.387775897979735884e+00 -2.639211416244506836e+00 -6.801770329475402832e-01 1.000000000000000000e+01
4.427383899688720703e+00 -3.451591253280640093e+00 -6.892930269241333008e-01 1.200000000000000000e+01
5.902600765228270596e+00 -4.603327274322509766e+00 -6.548882722854614258e-01 6.000000000000000000e+00
2.009063482284545898e+00 -1.573608994483947976e+00 -6.837999224662780762e-01 1.500000000000000000e+01
2.325152397155762163e+00 -1.822497129440308061e+00 -6.820515990257263184e-01 1.100000000000000000e+01
2.760832071304320845e+00 -2.164768934249877930e+00 -6.819513440132141113e-01 1.000000000000000000e+01
3.387867212295531782e+00 -2.658337354660034180e+00 -6.820542812347412109e-01 1.000000000000000000e+01
4.412186145782470703e+00 -3.464572668075561968e+00 -6.888055205345153809e-01 1.200000000000000000e+01
5.787786960601806641e+00 -4.546366691589354581e+00 -6.439066529273986816e-01 7.000000000000000000e+00
2.005351066589355025e+00 -1.581458926200866921e+00 -6.843175292015075684e-01 1.300000000000000000e+01
2.317566156387329102e+00 -1.828990340232848899e+00 -6.816017031669616699e-01 1.200000000000000000e+01
2.745933771133422852e+00 -2.167829751968383789e+00 -6.800432801246643066e-01 1.100000000000000000e+01
3.375933170318603960e+00 -2.667108297348022017e+00 -6.814285516738891602e-01 1.000000000000000000e+01
4.397558689117431641e+00 -3.476722717285155806e+00 -6.883180737495422363e-01 1.200000000000000000e+01
5.702356815338134766e+00 -4.509917736053466797e+00 -6.360626220703125000e-01 2.100000000000000000e+01
1.998305797576904075e+00 -1.587247729301453081e+00 -6.837999224662780762e-01 1.500000000000000000e+01
2.309642314910889116e+00 -1.835856437683105025e+00 -6.811518073081970215e-01 1.200000000000000000e+01
2.738349914550780806e+00 -2.177401542663574219e+00 -6.800432801246643066e-01 1.100000000000000000e+01
3.375877141952515093e+00 -2.686255931854248047e+00 -6.833057403564453125e-01 1.000000000000000000e+01
4.386948585510253906e+00 -3.493288516998291016e+00 -6.885617971420288086e-01 1.400000000000000000e+01
5.801900386810302734e+00 -4.621656894683837891e+00 -6.489616632461547852e-01 7.000000000000000000e+00
1.985487699508666992e+00 -1.587832808494568093e+00 -6.812117099761962891e-01 1.400000000000000000e+01
2.321799516677856001e+00 -1.858117103576659934e+00 -6.865506172180175781e-01 1.100000000000000000e+01
2.724983692169189009e+00 -2.181562423706055132e+00 -6.785168051719665527e-01 1.100000000000000000e+01
3.370033740997314009e+00 -2.699906110763549805e+00 -6.839314699172973633e-01 1.000000000000000000e+01
4.386181831359863281e+00 -3.516508817672729048e+00 -6.902679800987243652e-01 1.200000000000000000e+01
5.788096904754638672e+00 -4.642117977142333984e+00 -6.491359472274780273e-01 6.000000000000000000e+00
1.988960146903991921e+00 -1.602024674415587935e+00 -6.843175292015075684e-01 1.400000000000000000e+01
2.309230327606201172e+00 -1.861318588256835938e+00 -6.847510337829589844e-01 1.200000000000000000e+01
2.732635259628295898e+00 -2.203384160995482954e+00 -6.823329925537109375e-01 1.200000000000000000e+01
3.354439496994018999e+00 -2.706691503524779829e+00 -6.826800107955932617e-01 1.100000000000000000e+01
4.376969337463378906e+00 -3.534292221069335938e+00 -6.907554268836975098e-01 1.400000000000000000e+01
5.823004722595214844e+00 -4.703608512878417969e+00 -6.548882722854614258e-01 8.000000000000000000e+00
1.983355879783629927e+00 -1.608957767486572044e+00 -6.843175292015075684e-01 1.500000000000000000e+01
2.292128562927246094e+00 -1.860770344734191895e+00 -6.816017031669616699e-01 1.200000000000000000e+01
2.726451396942139116e+00 -2.214147090911864790e+00 -6.827145814895629883e-01 1.000000000000000000e+01
3.348037004470825195e+00 -2.720875978469849077e+00 -6.833057403564453125e-01 1.000000000000000000e+01
4.367685794830322266e+00 -3.552054166793822798e+00 -6.912429332733154297e-01 1.200000000000000000e+01
5.786458492279052734e+00 -4.707560539245604581e+00 -6.526222229003906250e-01 6.000000000000000000e+00
1.983711481094359907e+00 -1.620760321617126021e+00 -6.863881349563598633e-01 1.400000000000000000e+01
2.291653871536254883e+00 -1.873694062232970969e+00 -6.834012866020202637e-01 1.200000000000000000e+01
2.718705892562866211e+00 -2.223650693893433061e+00 -6.827145814895629883e-01 1.100000000000000000e+01
3.338518857955933061e+00 -2.732546091079711914e+00 -6.833057403564453125e-01 1.000000000000000000e+01
4.358331680297851562e+00 -3.569794178009033203e+00 -6.917303800582885742e-01 1.200000000000000000e+01
5.836259365081787109e+00 -4.782028198242188388e+00 -6.601175665855407715e-01 7.000000000000000000e+00
1.969091534614562988e+00 -1.620309829711914062e+00 -6.832822561264038086e-01 1.500000000000000000e+01
2.289612531661986861e+00 -1.885398268699645996e+00 -6.847510337829589844e-01 1.100000000000000000e+01
2.704866170883179155e+00 -2.228134155273437944e+00 -6.811881065368652344e-01 1.100000000000000000e+01
3.341154336929320845e+00 -2.754235029220581055e+00 -6.858087182044982910e-01 1.000000000000000000e+01
4.345844268798828125e+00 -3.584985971450806108e+00 -6.917303800582885742e-01 1.200000000000000000e+01
5.831825256347656250e+00 -4.812516689300537109e+00 -6.615120768547058105e-01 7.000000000000000000e+00
1.969373345375061035e+00 -1.632104158401489036e+00 -6.853528022766113281e-01 1.400000000000000000e+01
2.292017459869385210e+00 -1.900843024253844993e+00 -6.874504089355468750e-01 1.400000000000000000e+01
2.700093984603881836e+00 -2.240069389343262163e+00 -6.819513440132141113e-01 1.100000000000000000e+01
3.331519842147827148e+00 -2.765881061553955078e+00 -6.858087182044982910e-01 1.100000000000000000e+01
4.345518589019775391e+00 -3.610282421112060991e+00 -6.936802864074707031e-01 1.200000000000000000e+01
5.807329654693604404e+00 -4.826476573944091797e+00 -6.606405377388000488e-01 7.000000000000000000e+00
1.951799154281615989e+00 -1.629065513610840066e+00 -6.812117099761962891e-01 1.300000000000000000e+01
2.279385566711425781e+00 -1.903835177421570046e+00 -6.856508255004882812e-01 1.100000000000000000e+01
2.698284387588500977e+00 -2.254516124725341797e+00 -6.834778189659118652e-01 1.000000000000000000e+01
3.315783023834228960e+00 -2.772424936294556108e+00 -6.845571994781494141e-01 1.200000000000000000e+01
4.335935115814208984e+00 -3.627976655960083008e+00 -6.941677927970886230e-01 1.200000000000000000e+01
5.529189109802246094e+00 -4.628040790557861328e+00 -6.308332681655883789e-01 6.000000000000000000e+00
1.960888862609863059e+00 -1.648299217224121094e+00 -6.863881349563598633e-01 1.400000000000000000e+01
2.268252134323120117e+00 -1.908016800880431907e+00 -6.843010783195495605e-01 1.300000000000000000e+01
2.693402767181396040e+00 -2.266449213027954102e+00 -6.842410564422607422e-01 1.000000000000000000e+01
3.303063154220581055e+00 -2.781437635421752930e+00 -6.839314699172973633e-01 1.000000000000000000e+01
4.320208549499511719e+00 -3.640531539916992188e+00 -6.936802864074707031e-01 1.200000000000000000e+01
5.726269245147705078e+00 -4.827093124389648438e+00 -6.552368998527526855e-01 9.000000000000000000e+00
1.952751040458678977e+00 -1.651955962181091087e+00 -6.853528022766113281e-01 1.500000000000000000e+01
2.265221357345581055e+00 -1.917651534080504927e+00 -6.852009296417236328e-01 1.300000000000000000e+01
2.674283504486083984e+00 -2.264749526977539062e+00 -6.811881065368652344e-01 1.000000000000000000e+01
3.295815944671630859e+00 -2.793077707290648970e+00 -6.842443346977233887e-01 1.100000000000000000e+01
2.843650817871094105e+01 -2.410738182067871094e+01 4.577412605285645419e+00 1.900000000000000000e+01
4.308750152587890625e+00 -3.654085874557495117e+00 -6.936802864074707031e-01 1.200000000000000000e+01
5.667016506195068359e+00 -4.807680130004882812e+00 -6.501818299293518066e-01 6.000000000000000000e+00
1.954325437545775923e+00 -1.665026545524596946e+00 -6.879410147666931152e-01 1.400000000000000000e+01
2.262962579727172852e+00 -1.929339885711669922e+00 -6.865506172180175781e-01 1.300000000000000000e+01
2.663374185562133789e+00 -2.271522760391234907e+00 -6.804248690605163574e-01 1.100000000000000000e+01
3.310086727142333984e+00 -2.825083494186400923e+00 -6.892502307891845703e-01 1.100000000000000000e+01
4.311063766479492188e+00 -3.681996107101439986e+00 -6.961176991462707520e-01 1.200000000000000000e+01
5.416921138763427734e+00 -4.628122806549072266e+00 -6.233378648757934570e-01 7.000000000000000000e+00
1.936772346496582031e+00 -1.661774516105652078e+00 -6.837999224662780762e-01 1.500000000000000000e+01
2.257692813873291016e+00 -1.938496828079224077e+00 -6.870005130767822266e-01 1.200000000000000000e+01
2.662875413894652876e+00 -2.287201881408690962e+00 -6.823329925537109375e-01 1.000000000000000000e+01
3.286722660064696822e+00 -2.825031995773314986e+00 -6.864344477653503418e-01 1.000000000000000000e+01
4.298184871673583984e+00 -3.697022199630736861e+00 -6.961176991462707520e-01 1.200000000000000000e+01
5.365996360778808594e+00 -4.617115020751953125e+00 -6.193287372589111328e-01 6.000000000000000000e+00
1.938268542289734109e+00 -1.674840331077575906e+00 -6.863881349563598633e-01 1.500000000000000000e+01
2.247964143753052202e+00 -1.943816542625427024e+00 -6.861007213592529297e-01 1.200000000000000000e+01
2.668238878250122070e+00 -2.308042526245117188e+00 -6.857675313949584961e-01 1.000000000000000000e+01
3.276841402053833008e+00 -2.836487531661986861e+00 -6.864344477653503418e-01 1.000000000000000000e+01
4.312261581420898438e+00 -3.735398054122924805e+00 -7.005049586296081543e-01 1.200000000000000000e+01
5.408570289611816406e+00 -4.686703205108642578e+00 -6.261268854141235352e-01 7.000000000000000000e+00
1.936782479286194070e+00 -1.685400485992432085e+00 -6.879410147666931152e-01 1.600000000000000000e+01
2.242635011672974077e+00 -1.952931404113769975e+00 -6.865506172180175781e-01 1.300000000000000000e+01
2.663126707077025923e+00 -2.319921493530272993e+00 -6.865307688713073730e-01 1.000000000000000000e+01
3.263942241668701172e+00 -2.845312595367432085e+00 -6.858087182044982910e-01 1.000000000000000000e+01
4.299196243286132812e+00 -3.750427961349486861e+00 -7.005049586296081543e-01 1.200000000000000000e+01
5.615850925445556641e+00 -4.900745391845703125e+00 -6.520992517471313477e-01 8.000000000000000000e+00
1.938151955604553001e+00 -1.698517084121704102e+00 -6.905292272567749023e-01 1.500000000000000000e+01
2.232873916625977007e+00 -1.958177924156188965e+00 -6.856508255004882812e-01 1.400000000000000000e+01
2.649109125137329102e+00 -2.324024438858031782e+00 -6.850042939186096191e-01 1.100000000000000000e+01
3.268835306167602983e+00 -2.869720935821533203e+00 -6.889373660087585449e-01 1.000000000000000000e+01
4.271165370941162109e+00 -3.752310276031494141e+00 -6.980676054954528809e-01 1.200000000000000000e+01
5.631634712219238281e+00 -4.949254035949707031e+00 -6.559340953826904297e-01 1.000000000000000000e+01
1.927568912506103960e+00 -1.701773762702941895e+00 -6.889762878417968750e-01 1.500000000000000000e+01
2.230063199996947798e+00 -1.970219373703002930e+00 -6.870005130767822266e-01 1.300000000000000000e+01
2.631747007369995117e+00 -2.325917482376099077e+00 -6.827145814895629883e-01 1.000000000000000000e+01
3.252376317977904829e+00 -2.876447677612305132e+00 -6.876859068870544434e-01 1.000000000000000000e+01
4.267789363861083984e+00 -3.777149200439453125e+00 -6.997737884521484375e-01 1.200000000000000000e+01
5.573179721832275391e+00 -4.934202194213867188e+00 -6.512277126312255859e-01 8.000000000000000000e+00
1.917285680770874023e+00 -1.704640984535217063e+00 -6.874234080314636230e-01 1.400000000000000000e+01
2.233363628387451172e+00 -1.987059235572814941e+00 -6.901498436927795410e-01 1.300000000000000000e+01
2.630944490432738814e+00 -2.341616153717041016e+00 -6.846227049827575684e-01 1.100000000000000000e+01
3.245266199111938032e+00 -2.890410900115966797e+00 -6.883116364479064941e-01 1.000000000000000000e+01
4.251614570617675781e+00 -3.789381742477416992e+00 -6.992862820625305176e-01 1.000000000000000000e+01
5.542538166046142578e+00 -4.941692829132080078e+00 -6.496589183807373047e-01 1.100000000000000000e+01
1.909041523933411089e+00 -1.708079576492310014e+00 -6.863881349563598633e-01 1.400000000000000000e+01
2.219850778579711914e+00 -1.987566113471985085e+00 -6.879003047943115234e-01 1.500000000000000000e+01
2.632349729537963867e+00 -2.357728958129882812e+00 -6.869123578071594238e-01 1.100000000000000000e+01
3.224401712417602983e+00 -2.890044212341309038e+00 -6.858087182044982910e-01 1.000000000000000000e+01
4.261855602264404297e+00 -3.822601795196533203e+00 -7.029423713684082031e-01 1.300000000000000000e+01
5.518088340759277344e+00 -4.951097488403320312e+00 -6.486130356788635254e-01 1.000000000000000000e+01
1.913113951683043990e+00 -1.723785161972045898e+00 -6.900115609169006348e-01 1.500000000000000000e+01
2.205662965774536133e+00 -1.988777875900268999e+00 -6.856508255004882812e-01 1.200000000000000000e+01
2.624103784561156782e+00 -2.366903305053710938e+00 -6.869123578071594238e-01 1.100000000000000000e+01
3.231890439987183061e+00 -2.917164802551269975e+00 -6.895630955696105957e-01 1.000000000000000000e+01
4.244066715240479404e+00 -3.833463191986083984e+00 -7.022111415863037109e-01 1.100000000000000000e+01
5.500771999359130859e+00 -4.970329284667968750e+00 -6.486130356788635254e-01 1.800000000000000000e+01
1.914238452911376953e+00 -1.736943483352660911e+00 -6.925997734069824219e-01 1.600000000000000000e+01
2.205921173095703125e+00 -2.003015041351317915e+00 -6.879003047943115234e-01 1.400000000000000000e+01
2.610012769699097124e+00 -2.370768547058105025e+00 -6.853858828544616699e-01 1.100000000000000000e+01
3.218764543533325195e+00 -2.925770998001099077e+00 -6.889373660087585449e-01 1.000000000000000000e+01
4.230659484863281250e+00 -3.848254442214965820e+00 -7.022111415863037109e-01 1.100000000000000000e+01
5.480441570281982422e+00 -4.986818313598632812e+00 -6.482644081115722656e-01 1.900000000000000000e+01
3.736924743652343750e+01 -3.405111694335938211e+01 -8.824634552001953125e-01 1.300000000000000000e+01
1.903885364532470925e+00 -1.739705324172974077e+00 -6.910468339920043945e-01 1.500000000000000000e+01
2.204668283462523970e+00 -2.015963077545166016e+00 -6.896999478340148926e-01 1.400000000000000000e+01
2.608964443206787109e+00 -2.386490345001221147e+00 -6.872940063476562500e-01 1.000000000000000000e+01
3.228931427001953125e+00 -2.955661773681641069e+00 -6.933175325393676758e-01 1.000000000000000000e+01
4.225983619689941406e+00 -3.871043920516968218e+00 -7.036736011505126953e-01 1.100000000000000000e+01
5.463001251220703125e+00 -5.005918025970458984e+00 -6.482644081115722656e-01 1.600000000000000000e+01
1.883282780647278054e+00 -1.733588099479675071e+00 -6.858704686164855957e-01 1.600000000000000000e+01
2.200131416320800781e+00 -2.026670694351195845e+00 -6.905997395515441895e-01 1.400000000000000000e+01
2.592981100082397017e+00 -2.389384508132935014e+00 -6.853858828544616699e-01 9.000000000000000000e+00
3.207911252975463867e+00 -2.958102703094481978e+00 -6.911274790763854980e-01 9.000000000000000000e+00
4.214684963226318359e+00 -3.889199256896973100e+00 -7.041610479354858398e-01 1.100000000000000000e+01
5.447544574737548828e+00 -5.028610229492188388e+00 -6.486130356788635254e-01 1.000000000000000000e+01
1.884303808212280051e+00 -1.746718049049376997e+00 -6.884586811065673828e-01 1.500000000000000000e+01
2.187328815460205078e+00 -2.029036998748778853e+00 -6.888001561164855957e-01 1.400000000000000000e+01
2.593259572982788086e+00 -2.406433820724486861e+00 -6.876755952835083008e-01 9.000000000000000000e+00
3.187433481216431108e+00 -2.959873199462891069e+00 -6.889373660087585449e-01 1.000000000000000000e+01
4.206900119781494141e+00 -3.909292936325072798e+00 -7.051360011100769043e-01 1.100000000000000000e+01
5.507299900054931641e+00 -5.119490623474121094e+00 -6.578515172004699707e-01 7.000000000000000000e+00
1.882431745529175027e+00 -1.757239580154418945e+00 -6.900115609169006348e-01 1.400000000000000000e+01
2.180232763290404829e+00 -2.036659955978393999e+00 -6.888001561164855957e-01 1.200000000000000000e+01
2.587712526321411133e+00 -2.418152093887329102e+00 -6.884388327598571777e-01 9.000000000000000000e+00
3.185739040374755859e+00 -2.979076623916625977e+00 -6.908146142959594727e-01 1.000000000000000000e+01
4.204823970794677734e+00 -3.934804677963256836e+00 -7.070859074592590332e-01 1.100000000000000000e+01
5.458850860595703125e+00 -5.110089778900145596e+00 -6.541910171508789062e-01 1.200000000000000000e+01
1.881916522979736106e+00 -1.769092559814452903e+00 -6.920821070671081543e-01 1.700000000000000000e+01
2.180207252502440962e+00 -2.050934076309204102e+00 -6.910496354103088379e-01 1.300000000000000000e+01
2.579255819320679155e+00 -2.427170276641846147e+00 -6.884388327598571777e-01 1.100000000000000000e+01
3.183949232101439986e+00 -2.998304367065430132e+00 -6.926918029785156250e-01 1.000000000000000000e+01
2.619953727722167969e+01 -2.468056297302246094e+01 4.419469833374023438e+00 1.800000000000000000e+01
4.175171852111816406e+00 -3.934482812881470171e+00 -7.044048309326171875e-01 1.100000000000000000e+01
5.438080787658691406e+00 -5.126379966735839844e+00 -6.538423895835876465e-01 1.000000000000000000e+01
1.876039743423461914e+00 -1.775323390960692915e+00 -6.920821070671081543e-01 1.600000000000000000e+01
2.166319131851195845e+00 -2.051452875137329102e+00 -6.888001561164855957e-01 1.400000000000000000e+01
2.569767475128173828e+00 -2.434359788894652876e+00 -6.880572438240051270e-01 1.000000000000000000e+01
3.172555446624755859e+00 -3.007487297058105025e+00 -6.923789381980895996e-01 9.000000000000000000e+00
4.167862415313720703e+00 -3.953771352767943892e+00 -7.053797841072082520e-01 9.000000000000000000e+00
2.765071296691894887e+01 -2.623037528991698863e+01 6.036493301391601562e+00 1.300000000000000000e+01
5.432612895965576172e+00 -5.155356884002686435e+00 -6.552368998527526855e-01 8.000000000000000000e+00
1.860041499137877974e+00 -1.772532105445862038e+00 -6.884586811065673828e-01 1.600000000000000000e+01
2.170427322387694868e+00 -2.069761276245117188e+00 -6.923993229866027832e-01 1.600000000000000000e+01
2.558413267135620117e+00 -2.440604925155640093e+00 -6.872940063476562500e-01 1.100000000000000000e+01
3.163466930389403853e+00 -3.019907236099243164e+00 -6.926918029785156250e-01 1.000000000000000000e+01
2.698132705688476918e+01 -2.576590347290039062e+01 4.580824851989746094e+00 1.900000000000000000e+01
4.156906604766845703e+00 -3.971038103103638139e+00 -7.058672308921813965e-01 1.100000000000000000e+01
2.708310317993164062e+01 -2.588117599487305043e+01 5.933246612548828125e+00 1.300000000000000000e+01
5.416024684906005859e+00 -5.175665378570556641e+00 -6.554111838340759277e-01 6.000000000000000000e+00
1.855547547340393066e+00 -1.780027866363524947e+00 -6.889762878417968750e-01 1.700000000000000000e+01
2.156522750854492188e+00 -2.070199728012084961e+00 -6.901498436927795410e-01 1.800000000000000000e+01
2.659894371032714844e+01 -2.553421783447265980e+01 1.932348132133484109e+00 2.000000000000000000e+01
2.568714618682860884e+00 -2.466753482818603960e+00 -6.922550201416015625e-01 1.200000000000000000e+01
3.146313428878784180e+00 -3.023537397384643999e+00 -6.911274790763854980e-01 9.000000000000000000e+00
4.165177822113037109e+00 -4.005440711975097656e+00 -7.095233201980590820e-01 1.100000000000000000e+01
2.700166130065917969e+01 -2.596613311767578125e+01 5.933246612548828125e+00 1.300000000000000000e+01
5.434728145599365234e+00 -5.228129386901854581e+00 -6.597689986228942871e-01 7.000000000000000000e+00
1.857659220695496050e+00 -1.794547438621520996e+00 -6.920821070671081543e-01 1.500000000000000000e+01
2.147882223129272017e+00 -2.076360225677489790e+00 -6.896999478340148926e-01 1.900000000000000000e+01
2.562910795211791992e+00 -2.478434562683105025e+00 -6.930182576179504395e-01 1.200000000000000000e+01
3.137159824371337891e+00 -3.035875320434569868e+00 -6.914403438568115234e-01 1.000000000000000000e+01
4.142614364624023438e+00 -4.011669635772705078e+00 -7.080608606338500977e-01 1.100000000000000000e+01
5.367790699005126953e+00 -5.199934482574462891e+00 -6.538423895835876465e-01 8.000000000000000000e+00
1.855538010597229004e+00 -1.805062055587768999e+00 -6.936350464820861816e-01 1.600000000000000000e+01
2.139225006103516069e+00 -2.082485914230347124e+00 -6.892500519752502441e-01 1.800000000000000000e+01
2.544398307800292969e+00 -2.477777719497681108e+00 -6.903469562530517578e-01 1.000000000000000000e+01
3.140690803527832031e+00 -3.060594081878662109e+00 -6.945690512657165527e-01 1.000000000000000000e+01
2.774654579162598012e+01 -2.704837036132812855e+01 4.757779121398925781e+00 2.000000000000000000e+01
4.132849693298339844e+00 -4.030263423919677734e+00 -7.087920904159545898e-01 1.100000000000000000e+01
5.289707183837890625e+00 -5.160206794738770419e+00 -6.465212702751159668e-01 1.300000000000000000e+01
2.797646713256835938e+01 -2.732970428466796875e+01 -6.826683282852172852e-01 9.000000000000000000e+00
1.847845792770385964e+00 -1.810176253318787065e+00 -6.931173801422119141e-01 1.600000000000000000e+01
2.140292406082152876e+00 -2.098125457763671875e+00 -6.919494271278381348e-01 1.900000000000000000e+01
2.534332036972045898e+00 -2.485269546508789062e+00 -6.899653077125549316e-01 1.100000000000000000e+01
3.129988193511962891e+00 -3.071538448333739790e+00 -6.945690512657165527e-01 1.000000000000000000e+01
2.673117256164551137e+01 -2.624115180969237926e+01 4.599349021911621094e+00 1.900000000000000000e+01
4.118756294250488281e+00 -4.044665336608886719e+00 -7.087920904159545898e-01 1.100000000000000000e+01
5.275926113128662109e+00 -5.182828426361083984e+00 -6.470442414283752441e-01 7.000000000000000000e+00
2.763855552673339844e+01 -2.718879318237305043e+01 -6.767345070838928223e-01 8.000000000000000000e+00
1.831888794898987038e+00 -1.807118535041809082e+00 -6.894939541816711426e-01 1.600000000000000000e+01
2.135729074478148970e+00 -2.108321905136107954e+00 -6.928492188453674316e-01 1.900000000000000000e+01
2.525641441345214844e+00 -2.494101047515869141e+00 -6.899653077125549316e-01 1.100000000000000000e+01
3.123462677001953125e+00 -3.086610794067382812e+00 -6.955076456069946289e-01 1.000000000000000000e+01
2.688787651062012074e+01 -2.657991981506348012e+01 4.642247200012207031e+00 1.900000000000000000e+01
4.103200912475585938e+00 -4.057621955871582031e+00 -7.085483670234680176e-01 1.100000000000000000e+01
2.795117378234862926e+01 -2.764068794250487926e+01 6.226091861724854404e+00 1.400000000000000000e+01
5.293213367462158203e+00 -5.236243247985839844e+00 -6.514019966125488281e-01 6.000000000000000000e+00
2.698196983337401988e+01 -2.671953201293944957e+01 8.766792297363281250e+00 1.100000000000000000e+01
2.757189369201660156e+01 -2.731325149536133168e+01 -6.774325966835021973e-01 8.000000000000000000e+00
1.832422375679015891e+00 -1.820309400558471902e+00 -6.920821070671081543e-01 1.700000000000000000e+01
2.129738807678223100e+00 -2.117137908935546875e+00 -6.932991743087768555e-01 2.000000000000000000e+01
2.519704103469849077e+00 -2.505670547485352007e+00 -6.907285451889038086e-01 1.100000000000000000e+01
3.108468770980834961e+00 -3.093314886093140093e+00 -6.945690512657165527e-01 1.000000000000000000e+01
2.689903831481933949e+01 -2.677725028991698863e+01 4.660283565521240234e+00 2.000000000000000000e+01
4.103078365325927734e+00 -4.085927486419677734e+00 -7.109857201576232910e-01 1.100000000000000000e+01
5.097050189971923828e+00 -5.077516078948974609e+00 -6.294387578964233398e-01 1.000000000000000000e+01
1.824691414833069070e+00 -1.825328469276428001e+00 -6.915645003318786621e-01 1.500000000000000000e+01
2.109940290451049805e+00 -2.112151145935059038e+00 -6.892500519752502441e-01 1.900000000000000000e+01
2.513716936111450195e+00 -2.517229080200194868e+00 -6.914917826652526855e-01 1.100000000000000000e+01
3.099047422409058061e+00 -3.105544805526732954e+00 -6.948819160461425781e-01 1.000000000000000000e+01
2.656987571716308949e+01 -2.663487625122069957e+01 4.619335651397705078e+00 1.900000000000000000e+01
4.085987567901611328e+00 -4.097413539886474609e+00 -7.104982733726501465e-01 1.100000000000000000e+01
5.104614257812500000e+00 -5.120676040649414062e+00 -6.325764060020446777e-01 1.100000000000000000e+01
1.822391748428344949e+00 -1.835799694061279075e+00 -6.931173801422119141e-01 1.500000000000000000e+01
2.114906549453734907e+00 -2.131954669952393022e+00 -6.932991743087768555e-01 1.900000000000000000e+01
2.510444402694702148e+00 -2.531564474105834961e+00 -6.930182576179504395e-01 1.100000000000000000e+01
3.092359542846680132e+00 -3.120553016662598100e+00 -6.958205103874206543e-01 1.100000000000000000e+01
2.643203544616698863e+01 -2.668233299255371094e+01 4.611536026000976562e+00 1.900000000000000000e+01
4.070262908935546875e+00 -4.110240936279296875e+00 -7.102545499801635742e-01 1.300000000000000000e+01
2.621557426452637074e+01 -2.648230552673339844e+01 5.901959419250488281e+00 1.300000000000000000e+01
5.130160808563232422e+00 -5.182357788085938388e+00 -6.379800438880920410e-01 7.000000000000000000e+00
1.815972447395324929e+00 -1.842149853706360085e+00 -6.931173801422119141e-01 1.800000000000000000e+01
2.104716539382935014e+00 -2.136547565460205078e+00 -6.923993229866027832e-01 2.000000000000000000e+01
2.502969741821289062e+00 -2.541710853576660156e+00 -6.933999061584472656e-01 1.200000000000000000e+01
3.089761018753052202e+00 -3.139776229858397993e+00 -6.976976990699768066e-01 1.100000000000000000e+01
4.064241886138916016e+00 -4.132915973663330078e+00 -7.117169499397277832e-01 1.300000000000000000e+01
5.072931289672851562e+00 -5.160450458526611328e+00 -6.330993175506591797e-01 1.400000000000000000e+01
1.808179736137389915e+00 -1.847097158432007058e+00 -6.925997734069824219e-01 1.600000000000000000e+01
2.753173065185546875e+01 -2.813411712646484020e+01 6.871012449264526367e-01 3.300000000000000000e+01
2.106785058975220171e+00 -2.153632640838623047e+00 -6.955486536026000977e-01 2.100000000000000000e+01
2.499572992324829102e+00 -2.556046962738037109e+00 -6.949263811111450195e-01 1.100000000000000000e+01
3.084304809570312944e+00 -3.156193494796752930e+00 -6.989492177963256836e-01 1.100000000000000000e+01
4.051177501678466797e+00 -4.148498058319091797e+00 -7.119607329368591309e-01 1.300000000000000000e+01
2.603005599975585938e+01 -2.666467666625976918e+01 5.901959419250488281e+00 1.300000000000000000e+01
5.042361259460449219e+00 -5.165295600891113281e+00 -6.315305233001708984e-01 1.300000000000000000e+01
1.802044510841370073e+00 -1.853083133697509988e+00 -6.925997734069824219e-01 1.600000000000000000e+01
2.098273515701293945e+00 -2.159209489822388139e+00 -6.950987577438354492e-01 1.900000000000000000e+01
2.750078010559082031e+01 -2.830931472778319957e+01 2.068421602249145952e+00 2.200000000000000000e+01
2.485611200332642046e+00 -2.558689117431641069e+00 -6.933999061584472656e-01 1.100000000000000000e+01
3.069693803787231001e+00 -3.162152051925659180e+00 -6.980105638504028320e-01 1.000000000000000000e+01
4.041544914245604581e+00 -4.166183948516845703e+00 -7.126919031143188477e-01 1.300000000000000000e+01
2.589664268493651988e+01 -2.669527816772460938e+01 5.890696048736572266e+00 1.300000000000000000e+01
5.064041614532470703e+00 -5.222036838531494141e+00 -6.364112496376037598e-01 1.000000000000000000e+01
1.794223189353943093e+00 -1.857972502708435059e+00 -6.920821070671081543e-01 1.700000000000000000e+01
2.079897880554199219e+00 -2.155302524566649947e+00 -6.914995312690734863e-01 2.000000000000000000e+01
2.719379425048828125e+01 -2.818952178955078125e+01 2.052720785140991211e+00 2.200000000000000000e+01
2.482116699218750000e+00 -2.573001861572266069e+00 -6.949263811111450195e-01 1.200000000000000000e+01
3.053153276443481001e+00 -3.167159318923950195e+00 -6.967591047286987305e-01 1.100000000000000000e+01
2.684403610229491832e+01 -2.785613059997558949e+01 4.749979496002197266e+00 2.000000000000000000e+01
4.032486438751220703e+00 -4.185984611511229581e+00 -7.136668562889099121e-01 1.300000000000000000e+01
5.120411872863770419e+00 -5.317179203033447266e+00 -6.458240747451782227e-01 1.300000000000000000e+01
1.802434921264647993e+00 -1.879561781883239968e+00 -6.977761387825012207e-01 1.900000000000000000e+01
2.083148479461669922e+00 -2.173805475234984907e+00 -6.950987577438354492e-01 2.000000000000000000e+01
2.473120212554932085e+00 -2.581650257110596147e+00 -6.949263811111450195e-01 1.100000000000000000e+01
3.050275325775146040e+00 -3.186359167098999023e+00 -6.986362934112548828e-01 1.000000000000000000e+01
4.012361526489257812e+00 -4.194297313690186435e+00 -7.126919031143188477e-01 1.300000000000000000e+01
5.088050365447998047e+00 -5.320621013641357422e+00 -6.440809369087219238e-01 1.200000000000000000e+01
1.786537408828734907e+00 -1.876049041748047097e+00 -6.941526532173156738e-01 1.900000000000000000e+01
2.075547695159912109e+00 -2.181063890457152876e+00 -6.950987577438354492e-01 1.900000000000000000e+01
2.462740182876586914e+00 -2.588845014572143999e+00 -6.945447325706481934e-01 1.200000000000000000e+01
3.047300338745117188e+00 -3.205577373504639116e+00 -7.005135416984558105e-01 1.100000000000000000e+01
4.000430583953857422e+00 -4.211155891418457031e+00 -7.131794095039367676e-01 1.300000000000000000e+01
5.055727005004882812e+00 -5.323901653289794922e+00 -6.423377990722656250e-01 9.000000000000000000e+00
1.775995850563049094e+00 -1.878062963485717995e+00 -6.925997734069824219e-01 1.900000000000000000e+01
2.071937084197998047e+00 -2.192544698715209961e+00 -6.964484453201293945e-01 2.200000000000000000e+01
2.446947574615478960e+00 -2.590289831161499023e+00 -6.926366686820983887e-01 1.100000000000000000e+01
3.027956008911132812e+00 -3.207576274871826172e+00 -6.986362934112548828e-01 1.000000000000000000e+01
2.659445762634276988e+01 -2.818190765380859020e+01 4.757779121398925781e+00 2.000000000000000000e+01
3.996603727340697798e+00 -4.236646175384520596e+00 -7.151293158531188965e-01 1.300000000000000000e+01
5.039845943450927734e+00 -5.344415664672851562e+00 -6.426864266395568848e-01 9.000000000000000000e+00
1.773396730422974077e+00 -1.888475656509398970e+00 -6.941526532173156738e-01 1.700000000000000000e+01
2.065604686737060991e+00 -2.201184749603271040e+00 -6.968983411788940430e-01 2.000000000000000000e+01
2.443263530731201172e+00 -2.604542970657349077e+00 -6.941631436347961426e-01 1.100000000000000000e+01
3.022145032882689986e+00 -3.223890781402587891e+00 -6.998878121376037598e-01 1.100000000000000000e+01
2.642805290222167969e+01 -2.820214462280273082e+01 4.745592117309570312e+00 2.000000000000000000e+01
3.988576412200928178e+00 -4.257814884185791016e+00 -7.163479924201965332e-01 1.500000000000000000e+01
5.030693054199218750e+00 -5.372155666351318359e+00 -6.439066529273986816e-01 9.000000000000000000e+00
1.770414948463439941e+00 -1.899202108383178933e+00 -6.957055926322937012e-01 1.900000000000000000e+01
2.056194782257080078e+00 -2.207314968109130859e+00 -6.964484453201293945e-01 2.200000000000000000e+01
2.448418378829956055e+00 -2.629285097122191939e+00 -6.983609199523925781e-01 1.200000000000000000e+01
3.013000011444091797e+00 -3.237838268280028853e+00 -7.005135416984558105e-01 1.000000000000000000e+01
3.962129592895507812e+00 -4.260775566101074219e+00 -7.143980860710144043e-01 1.500000000000000000e+01
4.985195159912109375e+00 -5.362832069396972656e+00 -6.405947208404541016e-01 7.000000000000000000e+00
1.763774752616882102e+00 -1.905370354652405007e+00 -6.957055926322937012e-01 1.600000000000000000e+01
2.040537357330321822e+00 -2.205895662307738814e+00 -6.937490701675415039e-01 1.900000000000000000e+01
2.433893918991088867e+00 -2.632049798965454102e+00 -6.968344449996948242e-01 1.200000000000000000e+01
3.013745069503784180e+00 -3.261392831802368164e+00 -7.033293843269348145e-01 8.000000000000000000e+00
3.951272726058959961e+00 -4.278955459594726562e+00 -7.151293158531188965e-01 1.300000000000000000e+01
4.969148159027099609e+00 -5.383128643035888672e+00 -6.409433484077453613e-01 1.100000000000000000e+01
1.755805611610413042e+00 -1.910093307495116965e+00 -6.951879262924194336e-01 1.700000000000000000e+01
2.040734767913817915e+00 -2.221615791320800781e+00 -6.964484453201293945e-01 1.600000000000000000e+01
2.420707941055297852e+00 -2.636191368103026900e+00 -6.956896185874938965e-01 1.200000000000000000e+01
3.006349086761475053e+00 -3.276259422302246094e+00 -7.042679786682128906e-01 1.000000000000000000e+01
3.941678762435913086e+00 -4.298573970794677734e+00 -7.161042690277099609e-01 1.300000000000000000e+01
4.979945659637451172e+00 -5.432753086090087891e+00 -6.447781920433044434e-01 1.000000000000000000e+01
1.746522665023803933e+00 -1.913356900215148926e+00 -6.941526532173156738e-01 1.800000000000000000e+01
2.036907196044921875e+00 -2.233045101165771040e+00 -6.977981925010681152e-01 1.400000000000000000e+01
2.416782379150391069e+00 -2.650428056716918945e+00 -6.972160935401916504e-01 1.300000000000000000e+01
2.990903139114379883e+00 -3.282353162765502930e+00 -7.033293843269348145e-01 1.100000000000000000e+01
3.937341928482056108e+00 -4.324048995971679688e+00 -7.180541753768920898e-01 1.300000000000000000e+01
4.940834045410156250e+00 -5.428002357482910156e+00 -6.421635150909423828e-01 7.000000000000000000e+00
1.736275196075439009e+00 -1.914844751358032005e+00 -6.925997734069824219e-01 1.600000000000000000e+01
2.026874065399169922e+00 -2.236899375915526900e+00 -6.968983411788940430e-01 1.400000000000000000e+01
2.413251876831055132e+00 -2.664248228073120117e+00 -6.987425684928894043e-01 1.200000000000000000e+01
2.981327533721923828e+00 -3.293717861175537109e+00 -7.036422491073608398e-01 1.100000000000000000e+01
3.932302713394165039e+00 -4.347387313842773438e+00 -7.197603583335876465e-01 1.500000000000000000e+01
4.884055137634277344e+00 -5.401499271392822266e+00 -6.371085047721862793e-01 7.000000000000000000e+00
1.745092391967772993e+00 -1.938121557235717995e+00 -6.988114118576049805e-01 1.700000000000000000e+01
2.016446590423583984e+00 -2.241063356399536133e+00 -6.959985494613647461e-01 1.400000000000000000e+01
2.402624368667602983e+00 -2.671195983886719194e+00 -6.983609199523925781e-01 1.200000000000000000e+01
2.967171192169189009e+00 -3.301166296005249023e+00 -7.030164599418640137e-01 1.100000000000000000e+01
3.918429851531981978e+00 -4.362564086914063388e+00 -7.200040817260742188e-01 1.300000000000000000e+01
4.825237751007080078e+00 -5.374040126800537109e+00 -6.318791508674621582e-01 7.000000000000000000e+00
1.738316535949707031e+00 -1.944201231002808061e+00 -6.988114118576049805e-01 1.500000000000000000e+01
2.008611440658568892e+00 -2.248088598251343218e+00 -6.959985494613647461e-01 1.400000000000000000e+01
2.391977787017821822e+00 -2.678102254867554155e+00 -6.979793310165405273e-01 1.200000000000000000e+01
2.958260536193848100e+00 -3.314450979232788086e+00 -7.036422491073608398e-01 1.100000000000000000e+01
3.878072738647460938e+00 -4.348067760467529297e+00 -7.153730392456054688e-01 1.300000000000000000e+01
4.854182243347167969e+00 -5.444387435913085938e+00 -6.381543278694152832e-01 9.000000000000000000e+00
1.726388931274414062e+00 -1.944478631019592063e+00 -6.967408657073974609e-01 1.500000000000000000e+01
2.004631996154785156e+00 -2.259459257125854048e+00 -6.973482966423034668e-01 1.200000000000000000e+01
2.382614850997924805e+00 -2.686435461044311968e+00 -6.979793310165405273e-01 1.200000000000000000e+01
2.957154750823975053e+00 -3.336583614349364790e+00 -7.061451673507690430e-01 1.100000000000000000e+01
3.870768547058105025e+00 -4.370494365692138672e+00 -7.168354988098144531e-01 1.600000000000000000e+01
4.783640384674072266e+00 -5.403120517730712891e+00 -6.313561797142028809e-01 6.000000000000000000e+00
1.718313336372375044e+00 -1.949043989181518999e+00 -6.962232589721679688e-01 1.500000000000000000e+01
1.998020887374877930e+00 -2.267905235290526900e+00 -6.977981925010681152e-01 1.100000000000000000e+01
2.375818014144897017e+00 -2.697682619094849077e+00 -6.987425684928894043e-01 1.200000000000000000e+01
2.944184780120850053e+00 -3.345402956008911133e+00 -7.058323025703430176e-01 1.100000000000000000e+01
3.848934173583983931e+00 -4.376526355743408203e+00 -7.156167626380920410e-01 1.300000000000000000e+01
4.767381668090820312e+00 -5.422778129577636719e+00 -6.317048072814941406e-01 7.000000000000000000e+00
2.211109542846680043e+01 -2.518625831604003906e+01 -5.850046873092651367e-01 6.000000000000000000e+00
1.711499452590941939e+00 -1.955030083656311035e+00 -6.962232589721679688e-01 1.400000000000000000e+01
1.990092277526855025e+00 -2.274865865707397017e+00 -6.977981925010681152e-01 1.300000000000000000e+01
2.374141216278076172e+00 -2.714826583862305132e+00 -7.010322213172912598e-01 1.200000000000000000e+01
2.931189298629761186e+00 -3.354172229766846147e+00 -7.055194377899169922e-01 1.000000000000000000e+01
3.834939718246459961e+00 -4.391429901123046875e+00 -7.158605456352233887e-01 2.000000000000000000e+01
4.719597816467285156e+00 -5.406365871429443359e+00 -6.278699636459350586e-01 7.000000000000000000e+00
1.709734320640563965e+00 -1.966824412345886008e+00 -6.982938051223754883e-01 1.400000000000000000e+01
1.974471569061279075e+00 -2.272971630096435991e+00 -6.950987577438354492e-01 1.100000000000000000e+01
2.359501361846923828e+00 -2.717167854309082031e+00 -6.995058059692382812e-01 1.100000000000000000e+01
2.923347234725952148e+00 -3.368859291076660156e+00 -7.064580321311950684e-01 1.100000000000000000e+01
3.809183359146118164e+00 -4.392791748046875000e+00 -7.139106392860412598e-01 2.000000000000000000e+01
4.668071746826171875e+00 -5.385169982910156250e+00 -6.235122084617614746e-01 9.000000000000000000e+00
2.177767562866210938e+01 -2.515857505798339844e+01 -5.808160901069641113e-01 6.000000000000000000e+00
1.706645369529723899e+00 -1.977167725563049094e+00 -6.998466849327087402e-01 1.600000000000000000e+01
1.970343828201293945e+00 -2.284276723861693892e+00 -6.964484453201293945e-01 1.200000000000000000e+01
2.353848457336425781e+00 -2.729848146438599077e+00 -7.006506323814392090e-01 1.200000000000000000e+01
2.916727781295775923e+00 -3.385029077529906782e+00 -7.077094912528991699e-01 1.100000000000000000e+01
3.776987791061400923e+00 -4.386505603790283203e+00 -7.107419967651367188e-01 3.500000000000000000e+01
4.579058647155761719e+00 -5.319889068603515625e+00 -6.140993833541870117e-01 8.000000000000000000e+00
2.184613800048828125e+01 -2.541641998291015980e+01 -5.850046873092651367e-01 6.000000000000000000e+00
1.698476195335387962e+00 -1.981646180152893066e+00 -6.993290781974792480e-01 1.600000000000000000e+01
1.967428922653198020e+00 -2.297060966491699219e+00 -6.982480883598327637e-01 1.300000000000000000e+01
2.337920904159545898e+00 -2.730591297149658203e+00 -6.987425684928894043e-01 1.200000000000000000e+01
2.906178236007689986e+00 -3.396690845489501953e+00 -7.080224156379699707e-01 1.100000000000000000e+01
3.757783174514770952e+00 -4.395136833190917969e+00 -7.100107669830322266e-01 3.900000000000000000e+01
4.598000526428222656e+00 -5.379763126373291016e+00 -6.191543936729431152e-01 7.000000000000000000e+00
2.162746810913085938e+01 -2.534041976928710938e+01 -5.815141797065734863e-01 6.000000000000000000e+00
1.685288190841675027e+00 -1.980206966400146040e+00 -6.967408657073974609e-01 1.500000000000000000e+01
1.965711236000061035e+00 -2.311336994171143022e+00 -7.004975676536560059e-01 1.300000000000000000e+01
2.329646825790404829e+00 -2.740231275558472124e+00 -6.991241574287414551e-01 1.200000000000000000e+01
2.894303798675537109e+00 -3.406814575195312944e+00 -7.080224156379699707e-01 1.000000000000000000e+01
3.732140541076660156e+00 -4.396120548248291016e+00 -7.080608606338500977e-01 3.300000000000000000e+01
4.612712860107421875e+00 -5.435276508331298828e+00 -6.236864924430847168e-01 7.000000000000000000e+00
1.679612636566162109e+00 -1.987553238868712935e+00 -6.972585320472717285e-01 1.600000000000000000e+01
1.952601909637450950e+00 -2.312228918075561968e+00 -6.986979842185974121e-01 1.100000000000000000e+01
2.327665805816649947e+00 -2.757347822189331055e+00 -7.014138698577880859e-01 1.200000000000000000e+01
2.882394313812255859e+00 -3.416896820068358931e+00 -7.080224156379699707e-01 1.000000000000000000e+01
3.709095716476439986e+00 -4.400014877319335938e+00 -7.065984606742858887e-01 2.800000000000000000e+01
4.573169708251953125e+00 -5.426967620849609375e+00 -6.208975315093994141e-01 8.000000000000000000e+00
