-1.640068769454956055e+00 4.250337600708007812e+00 -5.593802928924560547e-01 1.000000000000000000e+01
-2.151504993438721147e+00 5.578654766082763672e+00 -5.231087803840637207e-01 1.100000000000000000e+01
-3.142822265625000000e+00 8.157528877258300781e+00 -4.581489562988281250e-01 1.000000000000000000e+00
-5.938537597656250000e+00 1.543015861511229936e+01 -2.885929942131041925e-01 2.000000000000000000e+00
-8.158157467842102051e-01 2.128603458404541016e+00 -6.108129620552062988e-01 1.900000000000000000e+01
-9.364697337150573730e-01 2.445965051651000977e+00 -6.046684384346008301e-01 1.200000000000000000e+01
-1.086150646209717019e+00 2.838399887084960938e+00 -5.907446742057800293e-01 1.100000000000000000e+01
-1.307693004608154075e+00 3.420925855636597124e+00 -5.800589919090270996e-01 9.000000000000000000e+00
-1.630887508392333984e+00 4.270872116088867188e+00 -5.613301992416381836e-01 1.000000000000000000e+01
-2.120651960372924805e+00 5.556347846984863281e+00 -5.203197598457336426e-01 1.100000000000000000e+01
-3.120020151138306108e+00 8.183380126953125000e+00 -4.589863419532775879e-01 1.000000000000000000e+00
-5.859017372131347656e+00 1.538351917266846058e+01 -2.873364090919495184e-01 2.000000000000000000e+00
-8.083806037902832031e-01 2.131438016891479048e+00 -6.108129620552062988e-01 2.000000000000000000e+01
-9.251643419265747070e-01 2.441929578781127930e+00 -6.028688549995422363e-01 1.300000000000000000e+01
-1.080407619476317915e+00 2.853190183639525923e+00 -5.930343866348266602e-01 1.100000000000000000e+01
-1.292948246002197044e+00 3.418079376220703125e+00 -5.788075327873229980e-01 1.000000000000000000e+01
-1.614566087722778098e+00 4.272825241088867188e+00 -5.608426928520202637e-01 1.000000000000000000e+01
-2.099835872650146040e+00 5.559988975524902344e+00 -5.199711322784423828e-01 1.100000000000000000e+01
-3.091435909271239790e+00 8.194220542907714844e+00 -4.589863419532775879e-01 1.000000000000000000e+00
-5.779895782470703125e+00 1.533651256561278942e+01 -2.860798537731171209e-01 2.000000000000000000e+00
-8.002567887306213379e-01 2.132438182830810991e+00 -6.102952957153320312e-01 2.200000000000000000e+01
-9.091101884841918945e-01 2.425071954727172852e+00 -5.979198813438415527e-01 1.300000000000000000e+01
-1.072507977485656960e+00 2.862459421157836914e+00 -5.941792130470275879e-01 1.100000000000000000e+01
-1.281701445579529031e+00 3.424421787261962891e+00 -5.791203975677490234e-01 1.000000000000000000e+01
-1.596860527992248979e+00 4.270997524261474609e+00 -5.598677396774291992e-01 1.100000000000000000e+01
-2.088784217834473100e+00 5.589680671691895419e+00 -5.220628976821899414e-01 1.100000000000000000e+01
-3.061416864395142046e+00 8.201219558715820312e+00 -4.587769806385039728e-01 1.000000000000000000e+00
-5.717942237854003906e+00 1.533411121368408025e+01 -2.856609821319580078e-01 2.000000000000000000e+00
-7.958719730377197266e-01 2.142323970794678178e+00 -6.123658418655395508e-01 1.900000000000000000e+01
-9.051313400268554688e-01 2.439035415649414062e+00 -6.006193161010742188e-01 1.200000000000000000e+01
-1.054817080497741921e+00 2.843911647796630859e+00 -5.895997881889343262e-01 1.000000000000000000e+01
-1.269652366638184038e+00 3.426800966262816939e+00 -5.788075327873229980e-01 1.000000000000000000e+01
-1.575798392295836958e+00 4.257652759552001953e+00 -5.574303865432739258e-01 1.000000000000000000e+01
-2.066780328750609907e+00 5.587233543395996094e+00 -5.211913585662841797e-01 9.000000000000000000e+00
-3.039741992950439009e+00 8.226314544677734375e+00 -4.596143662929534912e-01 1.000000000000000000e+00
-5.655981540679931641e+00 1.532297229766846058e+01 -2.851025164127349854e-01 2.000000000000000000e+00
-7.863897681236267090e-01 2.139649152755736861e+00 -6.108129620552062988e-01 2.000000000000000000e+01
-8.959404230117797852e-01 2.440350770950316939e+00 -6.001694202423095703e-01 1.100000000000000000e+01
-1.044207334518433061e+00 2.845733165740966797e+00 -5.892181992530822754e-01 1.100000000000000000e+01
-1.257682800292968972e+00 3.431211948394774947e+00 -5.788075327873229980e-01 1.000000000000000000e+01
-1.567752003669738992e+00 4.281767845153808594e+00 -5.598677396774291992e-01 1.000000000000000000e+01
-2.041102409362792969e+00 5.577574729919433594e+00 -5.196225643157958984e-01 9.000000000000000000e+00
-3.009636878967285156e+00 8.233122825622558594e+00 -4.594050347805023193e-01 1.000000000000000000e+00
-5.602459907531738281e+00 1.534262180328368963e+01 -2.851025164127349854e-01 2.000000000000000000e+00
-7.756156921386718750e-01 2.133303403854370117e+00 -6.082247495651245117e-01 2.100000000000000000e+01
-8.940688371658325195e-01 2.461780071258544922e+00 -6.046684384346008301e-01 1.100000000000000000e+01
-1.039626359939574973e+00 2.864124298095703125e+00 -5.922711491584777832e-01 1.100000000000000000e+01
-1.245024681091309038e+00 3.433724164962768999e+00 -5.784946680068969727e-01 1.000000000000000000e+01
-1.551444292068481001e+00 4.283481597900390625e+00 -5.593802928924560547e-01 1.000000000000000000e+01
-2.012804508209228960e+00 5.560310840606688565e+00 -5.173565149307250977e-01 8.000000000000000000e+00
-2.978163003921508789e+00 8.236065864562988281e+00 -4.589863419532775879e-01 1.000000000000000000e+00
-5.548870086669921875e+00 1.536208534240723012e+01 -2.851025164127349854e-01 2.000000000000000000e+00
-7.681643366813659668e-01 2.135997772216796875e+00 -6.082247495651245117e-01 2.100000000000000000e+01
-8.828348517417907715e-01 2.457550048828125000e+00 -6.028688549995422363e-01 1.300000000000000000e+01
-1.026305317878722922e+00 2.858496904373168945e+00 -5.903630256652832031e-01 1.100000000000000000e+01
-1.232364296913146973e+00 3.436189651489257812e+00 -5.781818032264709473e-01 1.100000000000000000e+01
-1.539830207824707031e+00 4.298214912414550781e+00 -5.605989694595336914e-01 8.000000000000000000e+00
-2.004129171371459961e+00 5.597315311431884766e+00 -5.201454758644104004e-01 9.000000000000000000e+00
-2.939979076385498047e+00 8.220083236694335938e+00 -4.575209319591522217e-01 1.000000000000000000e+00
-5.495212554931640625e+00 1.538136005401610973e+01 -2.851025164127349854e-01 2.000000000000000000e+00
-7.632932662963867188e-01 2.145946741104125977e+00 -6.102952957153320312e-01 2.100000000000000000e+01
-8.690316081047058105e-01 2.445926427841186968e+00 -5.992696285247802734e-01 1.300000000000000000e+01
-1.016978025436400923e+00 2.863912105560303178e+00 -5.907446742057800293e-01 1.100000000000000000e+01
-1.218381166458130105e+00 3.434885501861571822e+00 -5.772431492805480957e-01 1.000000000000000000e+01
-1.525480151176453081e+00 4.305434703826904297e+00 -5.608426928520202637e-01 1.000000000000000000e+01
-1.983248472213744895e+00 5.600520610809326172e+00 -5.197968482971191406e-01 9.000000000000000000e+00
-2.920592308044434038e+00 8.256656646728515625e+00 -4.589863419532775879e-01 1.000000000000000000e+00
-5.428164005279541016e+00 1.536273956298827947e+01 -2.844044268131256104e-01 2.000000000000000000e+00
-7.577210068702697754e-01 2.154065132141112837e+00 -6.118482351303100586e-01 2.000000000000000000e+01
-8.611344695091247559e-01 2.450783491134643999e+00 -5.997195243835449219e-01 1.300000000000000000e+01
-1.007625341415405051e+00 2.869297027587891069e+00 -5.911262631416320801e-01 1.100000000000000000e+01
-1.209653019905090110e+00 3.448437452316284180e+00 -5.788075327873229980e-01 1.000000000000000000e+01
-1.505847096443176047e+00 4.297619819641113281e+00 -5.591365694999694824e-01 1.000000000000000000e+01
-1.962369799613953081e+00 5.603648662567138672e+00 -5.194482207298278809e-01 9.000000000000000000e+00
-2.877245187759398970e+00 8.225325584411621094e+00 -4.566835463047028143e-01 1.000000000000000000e+00
-5.354716777801513672e+00 1.532496070861816051e+01 -2.833572626113892157e-01 2.000000000000000000e+00
-7.501972913742065430e-01 2.156697034835814986e+00 -6.118482351303100586e-01 2.000000000000000000e+01
-8.538535237312316895e-01 2.457456111907958984e+00 -6.006193161010742188e-01 1.300000000000000000e+01
-9.956713914871215820e-01 2.867232799530028853e+00 -5.899814367294311523e-01 1.100000000000000000e+01
-1.198903083801269975e+00 3.456371545791625977e+00 -5.794332623481750488e-01 9.000000000000000000e+00
-1.489536643028259055e+00 4.299098491668701172e+00 -5.586490631103515625e-01 8.000000000000000000e+00
-1.944101452827454057e+00 5.614229679107666016e+00 -5.197968482971191406e-01 9.000000000000000000e+00
-2.838069677352904829e+00 8.205118179321289062e+00 -4.550088047981262207e-01 1.000000000000000000e+00
-5.281599521636962891e+00 1.528685665130615057e+01 -2.823101282119750977e-01 2.000000000000000000e+00
-7.388945817947387695e-01 2.148341655731201172e+00 -6.087424159049987793e-01 2.000000000000000000e+01
-8.459033966064453125e-01 2.462264776229857954e+00 -6.010692119598388672e-01 1.400000000000000000e+01
-9.875695109367370605e-01 2.876261472702025923e+00 -5.911262631416320801e-01 1.100000000000000000e+01
-1.184267401695251021e+00 3.453061342239379883e+00 -5.781818032264709473e-01 9.000000000000000000e+00
-1.474520921707153098e+00 4.304271697998046875e+00 -5.586490631103515625e-01 8.000000000000000000e+00
-1.921265363693237083e+00 5.611557006835938388e+00 -5.189253091812133789e-01 9.000000000000000000e+00
-2.823629617691040039e+00 8.256550788879394531e+00 -4.573116004467009943e-01 1.000000000000000000e+00
-5.232084751129150391e+00 1.531655406951903942e+01 -2.825195491313933771e-01 2.000000000000000000e+00
-7.313910126686096191e-01 2.150907754898070845e+00 -6.087424159049987793e-01 1.900000000000000000e+01
-8.354231715202331543e-01 2.459666728973389116e+00 -5.997195243835449219e-01 1.600000000000000000e+01
-9.756302237510681152e-01 2.874114036560059038e+00 -5.899814367294311523e-01 1.100000000000000000e+01
-1.167132377624511941e+00 3.442208051681518999e+00 -5.756788253784179688e-01 9.000000000000000000e+00
-1.461397528648376021e+00 4.315032958984375000e+00 -5.593802928924560547e-01 1.000000000000000000e+01
-1.901026964187622070e+00 5.616342067718505859e+00 -5.187509655952453613e-01 9.000000000000000000e+00
-2.783277273178101030e+00 8.232299804687500000e+00 -4.554274976253510077e-01 1.000000000000000000e+00
-5.178588390350341797e+00 1.533472347259520951e+01 -2.825195491313933771e-01 2.000000000000000000e+00
-7.263406515121459961e-01 2.160772323608397993e+00 -6.108129620552062988e-01 1.800000000000000000e+01
-8.255916833877563477e-01 2.458873271942139116e+00 -5.988197326660156250e-01 1.500000000000000000e+01
-9.668409228324890137e-01 2.881224632263184038e+00 -5.907446742057800293e-01 1.100000000000000000e+01
-1.155109643936157005e+00 3.446261167526245117e+00 -5.756788253784179688e-01 1.000000000000000000e+01
-1.444435834884643999e+00 4.314460754394531250e+00 -5.586490631103515625e-01 8.000000000000000000e+00
-1.881410598754883035e+00 5.622943878173828125e+00 -5.187509655952453613e-01 9.000000000000000000e+00
-2.751991987228393999e+00 8.234388351440429688e+00 -4.550088047981262207e-01 1.000000000000000000e+00
-5.127561092376708984e+00 1.536029434204101918e+01 -2.826591730117797852e-01 2.000000000000000000e+00
-7.184161543846130371e-01 2.163419961929320845e+00 -6.108129620552062988e-01 1.800000000000000000e+01
-8.147333860397338867e-01 2.456333637237548828e+00 -5.974699854850769043e-01 1.400000000000000000e+01
-9.575096964836120605e-01 2.888475894927978960e+00 -5.915079116821289062e-01 1.100000000000000000e+01
-1.146196126937865989e+00 3.461723089218140093e+00 -5.775560736656188965e-01 9.000000000000000000e+00
-1.427366137504578081e+00 4.315956592559813565e+00 -5.581616163253784180e-01 8.000000000000000000e+00
-1.865790963172913042e+00 5.644935607910156250e+00 -5.201454758644104004e-01 9.000000000000000000e+00
-2.721792936325072798e+00 8.244419097900390625e+00 -4.550088047981262207e-01 1.000000000000000000e+00
-5.062461376190186435e+00 1.535239696502686080e+01 -2.821705043315886896e-01 2.000000000000000000e+00
-7.108600139617919922e-01 2.165914535522460938e+00 -6.108129620552062988e-01 1.700000000000000000e+01
-8.079753518104553223e-01 2.464718103408813032e+00 -5.988197326660156250e-01 1.300000000000000000e+01
-9.425312876701354980e-01 2.876875400543212891e+00 -5.884549617767333984e-01 1.200000000000000000e+01
-1.132876753807068093e+00 3.461948156356811968e+00 -5.769302845001220703e-01 9.000000000000000000e+00
-1.410441875457763894e+00 4.315252304077148438e+00 -5.574303865432739258e-01 1.000000000000000000e+01
-1.838651180267333984e+00 5.628686904907226562e+00 -5.180537104606628418e-01 9.000000000000000000e+00
-2.689280748367310014e+00 8.242477416992187500e+00 -4.543807804584503174e-01 1.000000000000000000e+00
-4.975382328033447266e+00 1.526730537414550959e+01 -2.802856564521790106e-01 2.000000000000000000e+00
-6.971139907836914062e-01 2.148047208786011186e+00 -6.051189303398132324e-01 1.600000000000000000e+01
-8.016002774238586426e-01 2.472945213317871094e+00 -6.001694202423095703e-01 1.100000000000000000e+01
-9.329860806465148926e-01 2.879985094070435014e+00 -5.884549617767333984e-01 1.200000000000000000e+01
-1.122606635093688965e+00 3.469444751739501953e+00 -5.775560736656188965e-01 9.000000000000000000e+00
-1.397955536842345969e+00 4.325572490692138672e+00 -5.581616163253784180e-01 8.000000000000000000e+00
-1.819975733757019043e+00 5.634753227233886719e+00 -5.180537104606628418e-01 8.000000000000000000e+00
-2.660706520080565962e+00 8.247548103332519531e+00 -4.541714191436768133e-01 1.000000000000000000e+00
-4.948031902313232422e+00 1.535604667663574041e+01 -2.816120386123657227e-01 2.000000000000000000e+00
-6.937410831451416016e-01 2.163344621658325195e+00 -6.087424159049987793e-01 1.800000000000000000e+01
-7.947465181350708008e-01 2.481295824050902876e+00 -6.015191078186035156e-01 1.200000000000000000e+01
-9.271170496940612793e-01 2.896312713623046875e+00 -5.911262631416320801e-01 1.000000000000000000e+01
-1.106879711151123047e+00 3.462053060531616211e+00 -5.756788253784179688e-01 9.000000000000000000e+00
-1.385867238044738992e+00 4.339880943298339844e+00 -5.593802928924560547e-01 1.000000000000000000e+01
-1.797266960144042969e+00 5.631581306457520419e+00 -5.171821713447570801e-01 8.000000000000000000e+00
-2.630687952041625977e+00 8.252980232238769531e+00 -4.539620876312255859e-01 1.000000000000000000e+00
-4.882266044616699219e+00 1.533511638641357067e+01 -2.809139192104340155e-01 2.000000000000000000e+00
-6.888986229896545410e-01 2.172999382019042969e+00 -6.108129620552062988e-01 1.700000000000000000e+01
-7.800429463386535645e-01 2.463481426239014116e+00 -5.965701937675476074e-01 1.100000000000000000e+01
-9.169151186943054199e-01 2.897499561309814009e+00 -5.907446742057800293e-01 1.100000000000000000e+01
-1.093011736869812012e+00 3.458170413970946822e+00 -5.744273662567138672e-01 9.000000000000000000e+00
-1.371468067169189009e+00 4.344452857971191406e+00 -5.593802928924560547e-01 1.000000000000000000e+01
-1.782178759574889915e+00 5.648910999298095703e+00 -5.182280540466308594e-01 8.000000000000000000e+00
-2.603305578231811968e+00 8.261657714843750000e+00 -4.539620876312255859e-01 1.000000000000000000e+00
-4.825382709503173828e+00 1.533214759826659979e+01 -2.805648744106292725e-01 2.000000000000000000e+00
-6.807318329811096191e-01 2.173547267913817915e+00 -6.102952957153320312e-01 1.600000000000000000e+01
-7.737661600112915039e-01 2.473628759384154829e+00 -5.983697772026062012e-01 1.000000000000000000e+01
-9.038664102554321289e-01 2.891313314437866211e+00 -5.888365507125854492e-01 1.100000000000000000e+01
-1.083288788795470969e+00 3.469506978988647017e+00 -5.756788253784179688e-01 9.000000000000000000e+00
-1.351566910743712935e+00 4.334053039550781250e+00 -5.574303865432739258e-01 1.000000000000000000e+01
-1.765413641929626021e+00 5.664608001708984375e+00 -5.190995931625366211e-01 8.000000000000000000e+00
-2.568515062332152876e+00 8.251625061035156250e+00 -4.529153704643250067e-01 1.000000000000000000e+00
-4.768272399902343750e+00 1.533744049072265980e+01 -2.803554534912108820e-01 2.000000000000000000e+00
-6.714277863502502441e-01 2.170373678207397017e+00 -6.087424159049987793e-01 1.800000000000000000e+01
-7.662774324417114258e-01 2.480038404464722124e+00 -5.992696285247802734e-01 1.100000000000000000e+01
-8.897136449813842773e-01 2.881319761276245117e+00 -5.861652493476867676e-01 1.100000000000000000e+01
-1.073500037193297896e+00 3.480817794799805132e+00 -5.769302845001220703e-01 9.000000000000000000e+00
-1.335261344909667969e+00 4.334949970245361328e+00 -5.569428801536560059e-01 1.000000000000000000e+01
-1.746802091598510964e+00 5.674544811248779297e+00 -5.194482207298278809e-01 9.000000000000000000e+00
-2.550261020660399947e+00 8.294903755187988281e+00 -4.547994732856749933e-01 1.000000000000000000e+00
-4.690052032470703125e+00 1.527370357513427912e+01 -2.788894474506378174e-01 2.000000000000000000e+00
-6.604607105255126953e-01 2.161618947982788086e+00 -6.056365370750427246e-01 1.700000000000000000e+01
-7.564782500267028809e-01 2.478970289230347124e+00 -5.983697772026062012e-01 1.100000000000000000e+01
-8.830866813659667969e-01 2.895675182342528853e+00 -5.884549617767333984e-01 1.100000000000000000e+01
-1.062494277954102007e+00 3.488323211669921875e+00 -5.775560736656188965e-01 9.000000000000000000e+00
-1.321276903152466042e+00 4.343382835388183594e+00 -5.574303865432739258e-01 1.000000000000000000e+01
-1.725244998931884988e+00 5.674888610839843750e+00 -5.189253091812133789e-01 8.000000000000000000e+00
-2.501561403274536133e+00 8.238777160644531250e+00 -4.512406289577484131e-01 1.000000000000000000e+00
-4.652956962585449219e+00 1.534356403350830078e+01 -2.798667848110198975e-01 2.000000000000000000e+00
-6.551433801651000977e-01 2.171308994293212891e+00 -6.077071428298950195e-01 1.800000000000000000e+01
-7.500694990158081055e-01 2.489059448242187944e+00 -6.001694202423095703e-01 1.100000000000000000e+01
-8.752380609512329102e-01 2.906259536743164062e+00 -5.899814367294311523e-01 1.100000000000000000e+01
-1.045759558677672896e+00 3.476877450942993164e+00 -5.750530958175659180e-01 9.000000000000000000e+00
-1.308391928672790971e+00 4.355573177337645596e+00 -5.584053397178649902e-01 1.000000000000000000e+01
-1.699123859405518022e+00 5.659885406494140625e+00 -5.170078873634338379e-01 6.000000000000000000e+00
-2.476229190826416016e+00 8.258937835693359375e+00 -4.518686532974243164e-01 1.000000000000000000e+00
-4.593633651733398438e+00 1.534055614471436080e+01 -2.795177400112152100e-01 2.000000000000000000e+00
-6.486632823944091797e-01 2.177285671234130859e+00 -6.087424159049987793e-01 1.800000000000000000e+01
-7.358189225196838379e-01 2.472984313964844194e+00 -5.956704020500183105e-01 1.100000000000000000e+01
-8.650879859924316406e-01 2.909296989440917969e+00 -5.899814367294311523e-01 1.100000000000000000e+01
-1.033616662025452104e+00 3.480506658554077148e+00 -5.750530958175659180e-01 1.000000000000000000e+01
-1.286406636238097922e+00 4.337275981903076172e+00 -5.554804801940917969e-01 1.100000000000000000e+01
-1.682754039764404075e+00 5.677243709564208984e+00 -5.180537104606628418e-01 8.000000000000000000e+00
-2.447384834289550781e+00 8.267531394958496094e+00 -4.518686532974243164e-01 1.000000000000000000e+00
-4.529851913452148438e+00 1.532197952270507990e+01 -2.788894474506378174e-01 2.000000000000000000e+00
-6.443299055099487305e-01 2.190656661987305132e+00 -6.118482351303100586e-01 1.700000000000000000e+01
-7.304775118827819824e-01 2.486756086349486861e+00 -5.983697772026062012e-01 1.200000000000000000e+01
-8.560333251953125000e-01 2.916066408157349077e+00 -5.907446742057800293e-01 1.200000000000000000e+01
-1.025351285934448020e+00 3.497362613677978960e+00 -5.772431492805480957e-01 1.000000000000000000e+01
-1.269027709960937944e+00 4.334119796752929688e+00 -5.545055270195007324e-01 1.000000000000000000e+01
-1.662366986274719016e+00 5.681170940399169922e+00 -5.178794264793395996e-01 9.000000000000000000e+00
-2.415149688720703125e+00 8.264521598815917969e+00 -4.512406289577484131e-01 1.000000000000000000e+00
-4.453930854797363281e+00 1.526091384887694957e+01 -2.774932682514191229e-01 2.000000000000000000e+00
-6.345245838165283203e-01 2.185471534729003906e+00 -6.097776889801025391e-01 1.500000000000000000e+01
-7.234207391738891602e-01 2.494905710220336914e+00 -5.997195243835449219e-01 1.200000000000000000e+01
-8.409314155578613281e-01 2.902065753936768022e+00 -5.873100757598876953e-01 1.000000000000000000e+01
-1.011489629745482954e+00 3.495227813720703125e+00 -5.763045549392700195e-01 9.000000000000000000e+00
-1.253890991210937944e+00 4.338522911071777344e+00 -5.545055270195007324e-01 1.100000000000000000e+01
-1.648054361343384011e+00 5.706080436706542969e+00 -5.196225643157958984e-01 9.000000000000000000e+00
-2.388500452041625977e+00 8.280577659606933594e+00 -4.516592919826508123e-01 1.000000000000000000e+00
-4.396204948425292969e+00 1.526099586486816051e+01 -2.772140204906464178e-01 2.000000000000000000e+00
-6.235463619232177734e-01 2.174564599990845171e+00 -6.061542034149169922e-01 1.600000000000000000e+01
-7.167528271675109863e-01 2.502911329269409180e+00 -6.010692119598388672e-01 1.300000000000000000e+01
-8.291425704956054688e-01 2.897288322448730025e+00 -5.857836008071899414e-01 1.100000000000000000e+01
-9.988077878952026367e-01 3.494764089584351030e+00 -5.756788253784179688e-01 1.000000000000000000e+01
-1.241131544113158958e+00 4.348383903503417969e+00 -5.552367568016052246e-01 1.100000000000000000e+01
-1.618193268775939941e+00 5.673194885253906250e+00 -5.161362886428833008e-01 6.000000000000000000e+00
-2.359933614730834961e+00 8.284610748291015625e+00 -4.514499604701995850e-01 1.000000000000000000e+00
-4.345573425292968750e+00 1.527548980712890980e+01 -2.772140204906464178e-01 2.000000000000000000e+00
-6.154258847236633301e-01 2.174869060516356978e+00 -6.056365370750427246e-01 1.600000000000000000e+01
-7.037721276283264160e-01 2.490395545959473100e+00 -5.974699854850769043e-01 1.200000000000000000e+01
-8.238261938095092773e-01 2.917169332504272017e+00 -5.892181992530822754e-01 1.100000000000000000e+01
-9.812407493591308594e-01 3.479217290878295898e+00 -5.725501179695129395e-01 1.000000000000000000e+01
-1.223254561424254927e+00 4.343135833740234375e+00 -5.540180206298828125e-01 1.000000000000000000e+01
-1.601079344749450906e+00 5.688397884368895596e+00 -5.170078873634338379e-01 6.000000000000000000e+00
-2.334243297576903853e+00 8.304334640502929688e+00 -4.520779848098754883e-01 1.000000000000000000e+00
-4.274931430816650391e+00 1.522895717620849965e+01 -2.760970592498778742e-01 2.000000000000000000e+00
-6.114670634269714355e-01 2.190028905868529829e+00 -6.092600226402282715e-01 1.600000000000000000e+01
-6.945512890815734863e-01 2.490959882736206055e+00 -5.970200896263122559e-01 1.200000000000000000e+01
-8.141653537750244141e-01 2.921918392181396040e+00 -5.895997881889343262e-01 1.200000000000000000e+01
-9.701491594314575195e-01 3.486427307128905806e+00 -5.731759071350097656e-01 1.000000000000000000e+01
-1.210212707519531028e+00 4.355029582977294922e+00 -5.549929738044738770e-01 1.000000000000000000e+01
-1.578547716140747070e+00 5.684353351593017578e+00 -5.161362886428833008e-01 8.000000000000000000e+00
-2.300971508026123047e+00 8.297035217285156250e+00 -4.512406289577484131e-01 1.000000000000000000e+00
-4.220678806304931641e+00 1.523993206024169922e+01 -2.760272622108458918e-01 2.000000000000000000e+00
-6.043316721916198730e-01 2.194012403488159180e+00 -6.097776889801025391e-01 1.600000000000000000e+01
-6.863688826560974121e-01 2.495248079299927202e+00 -5.974699854850769043e-01 1.200000000000000000e+01
-8.034406304359436035e-01 2.922849416732788086e+00 -5.892181992530822754e-01 1.100000000000000000e+01
-9.584962725639343262e-01 3.491697549819945845e+00 -5.734887719154357910e-01 1.000000000000000000e+01
-1.191854476928710938e+00 4.347740650177001953e+00 -5.535305738449096680e-01 1.000000000000000000e+01
-1.559222459793091042e+00 5.691750526428222656e+00 -5.163106322288513184e-01 8.000000000000000000e+00
-2.273049592971802202e+00 8.308869361877441406e+00 -4.514499604701995850e-01 1.000000000000000000e+00
-4.173779964447020596e+00 1.527772045135498047e+01 -2.764461040496826172e-01 2.000000000000000000e+00
-5.966694951057434082e-01 2.196108579635620117e+00 -6.097776889801025391e-01 1.700000000000000000e+01
-6.791854500770568848e-01 2.503271102905272993e+00 -5.988197326660156250e-01 1.200000000000000000e+01
-7.870680093765258789e-01 2.902898073196411133e+00 -5.846387743949890137e-01 1.100000000000000000e+01
-9.463021159172058105e-01 3.495022058486938032e+00 -5.734887719154357910e-01 1.000000000000000000e+01
-1.178743362426758035e+00 4.359539985656738281e+00 -5.545055270195007324e-01 1.000000000000000000e+01
-1.541423797607422097e+00 5.704852104187011719e+00 -5.170078873634338379e-01 9.000000000000000000e+00
-2.231545209884643999e+00 8.270474433898925781e+00 -4.489378333091735840e-01 1.000000000000000000e+00
-4.113141536712645596e+00 1.526516437530517933e+01 -2.759574651718140204e-01 2.000000000000000000e+00
-5.845000147819519043e-01 2.181383609771728960e+00 -6.051189303398132324e-01 1.600000000000000000e+01
-6.704432964324951172e-01 2.505626678466796875e+00 -5.988197326660156250e-01 1.300000000000000000e+01
-7.799730300903320312e-01 2.917007446289062944e+00 -5.869284868240356445e-01 1.200000000000000000e+01
-9.330772757530212402e-01 3.494486808776855025e+00 -5.728629827499389648e-01 1.000000000000000000e+01
-1.161472797393799050e+00 4.355955600738525391e+00 -5.535305738449096680e-01 1.000000000000000000e+01
-1.514832019805907981e+00 5.685170173645020419e+00 -5.147418379783630371e-01 9.000000000000000000e+00
-2.198553800582886186e+00 8.262772560119628906e+00 -4.481004476547241211e-01 2.000000000000000000e+00
-4.051615238189697266e+00 1.524850749969482067e+01 -2.753989696502686102e-01 2.000000000000000000e+00
-5.796206593513488770e-01 2.190679550170897993e+00 -6.071894764900207520e-01 1.700000000000000000e+01
-6.610749363899230957e-01 2.502068281173706055e+00 -5.974699854850769043e-01 1.100000000000000000e+01
-7.728098630905151367e-01 2.927036285400391069e+00 -5.884549617767333984e-01 1.100000000000000000e+01
-9.175620079040527344e-01 3.480210065841674805e+00 -5.700471997261047363e-01 1.000000000000000000e+01
-1.150814890861511008e+00 4.371100902557373047e+00 -5.549929738044738770e-01 1.000000000000000000e+01
-1.493922472000122070e+00 5.678340435028076172e+00 -5.136959552764892578e-01 9.000000000000000000e+00
-2.170554637908935991e+00 8.261912345886230469e+00 -4.476817548274993896e-01 2.000000000000000000e+00
-3.993541717529296875e+00 1.522247600555419922e+01 -2.747008800506591797e-01 2.000000000000000000e+00
-5.719702243804931641e-01 2.192689418792725053e+00 -6.071894764900207520e-01 1.800000000000000000e+01
-6.508634090423583984e-01 2.498703241348267046e+00 -5.961202979087829590e-01 1.100000000000000000e+01
-7.625879049301147461e-01 2.929716110229492188e+00 -5.884549617767333984e-01 1.100000000000000000e+01
-9.068989753723144531e-01 3.489127397537231001e+00 -5.709857940673828125e-01 1.000000000000000000e+01
-1.130064129829406960e+00 4.353955745697020596e+00 -5.523118376731872559e-01 1.100000000000000000e+01
-1.482095479965209961e+00 5.714377880096436435e+00 -5.164849162101745605e-01 8.000000000000000000e+00
-2.135693073272705078e+00 8.246236801147460938e+00 -4.464257061481475830e-01 2.000000000000000000e+00
-3.940381050109862837e+00 1.523632335662841975e+01 -2.747008800506591797e-01 2.000000000000000000e+00
-5.662371516227722168e-01 2.202156543731689009e+00 -6.092600226402282715e-01 1.600000000000000000e+01
-6.440758705139160156e-01 2.508509874343872070e+00 -5.979198813438415527e-01 1.100000000000000000e+01
-7.499170899391174316e-01 2.922851800918579102e+00 -5.865468382835388184e-01 1.000000000000000000e+01
-8.976556658744812012e-01 3.503753185272216797e+00 -5.728629827499389648e-01 1.000000000000000000e+01
-1.115351080894469993e+00 4.359797000885009766e+00 -5.525556206703186035e-01 1.000000000000000000e+01
-1.460165739059448020e+00 5.711794853210449219e+00 -5.157876610755920410e-01 8.000000000000000000e+00
-2.103931427001953125e+00 8.242030143737792969e+00 -4.457976818084716797e-01 3.000000000000000000e+00
-3.873342514038085938e+00 1.519572830200194957e+01 -2.737235426902770996e-01 2.000000000000000000e+00
-5.580722093582153320e-01 2.202247142791748047e+00 -6.087424159049987793e-01 1.600000000000000000e+01
-6.343595385551452637e-01 2.506964445114136186e+00 -5.970200896263122559e-01 1.100000000000000000e+01
-7.392286062240600586e-01 2.923548460006713867e+00 -5.861652493476867676e-01 1.100000000000000000e+01
-8.868705630302429199e-01 3.512611150741577148e+00 -5.738016366958618164e-01 1.100000000000000000e+01
-1.101096272468566895e+00 4.367513656616210938e+00 -5.530430674552917480e-01 1.000000000000000000e+01
-1.435351729393004927e+00 5.697536945343017578e+00 -5.140445828437805176e-01 8.000000000000000000e+00
-2.075148582458496094e+00 8.249323844909667969e+00 -4.457976818084716797e-01 2.000000000000000000e+00
-3.812481403350830078e+00 1.517812442779541016e+01 -2.731650769710540771e-01 2.000000000000000000e+00
-5.452333688735961914e-01 2.183564424514770952e+00 -6.030483841896057129e-01 1.500000000000000000e+01
-6.274905204772949219e-01 2.516726970672606978e+00 -5.988197326660156250e-01 1.200000000000000000e+01
-7.309174537658691406e-01 2.933731079101562944e+00 -5.876917243003845215e-01 1.100000000000000000e+01
-8.712656497955322266e-01 3.502266645431518999e+00 -5.716115236282348633e-01 1.100000000000000000e+01
-1.083929896354675071e+00 4.363624095916748047e+00 -5.520681142807006836e-01 1.000000000000000000e+01
-1.413534879684448020e+00 5.694777965545654297e+00 -5.133473277091979980e-01 8.000000000000000000e+00
-2.054988861083983931e+00 8.291412353515625000e+00 -4.476817548274993896e-01 1.000000000000000000e+00
-3.756594419479370117e+00 1.517969322204590021e+01 -2.729556262493134100e-01 2.000000000000000000e+00
-5.408383011817932129e-01 2.198585748672484907e+00 -6.066718697547912598e-01 1.600000000000000000e+01
-6.168423295021057129e-01 2.511332035064696822e+00 -5.970200896263122559e-01 1.100000000000000000e+01
-7.178645730018615723e-01 2.924824714660644975e+00 -5.854020118713378906e-01 1.100000000000000000e+01
-8.571543693542480469e-01 3.497612237930297852e+00 -5.703600645065307617e-01 1.000000000000000000e+01
-1.070578694343566895e+00 4.375093936920166016e+00 -5.530430674552917480e-01 1.000000000000000000e+01
-1.393174648284912109e+00 5.697741985321044922e+00 -5.131729841232299805e-01 6.000000000000000000e+00
-2.028876066207886186e+00 8.310176849365234375e+00 -4.483098089694976807e-01 1.000000000000000000e+00
-3.694112300872803178e+00 1.515385818481444957e+01 -2.722575366497039795e-01 2.000000000000000000e+00
-5.331605076789855957e-01 2.200460195541381836e+00 -6.066718697547912598e-01 1.600000000000000000e+01
-6.071559190750122070e-01 2.509681701660155806e+00 -5.961202979087829590e-01 1.100000000000000000e+01
-7.094959020614624023e-01 2.934945821762084961e+00 -5.869284868240356445e-01 1.100000000000000000e+01
-8.444767594337463379e-01 3.498662710189818892e+00 -5.700471997261047363e-01 9.000000000000000000e+00
-1.053439855575561968e+00 4.371085166931152344e+00 -5.520681142807006836e-01 1.000000000000000000e+01
-1.376542568206787109e+00 5.716129302978515625e+00 -5.143932104110717773e-01 9.000000000000000000e+00
-1.987715721130371094e+00 8.266718864440917969e+00 -4.455883204936981201e-01 1.000000000000000000e+00
-3.633723974227904829e+00 1.513554954528808949e+01 -2.716990709304810125e-01 2.000000000000000000e+00
-1.312627696990966975e+01 5.467487716674804688e+01 1.506637382507324041e+01 1.900000000000000000e+01
-5.259245634078979492e-01 2.204186916351317915e+00 -6.071894764900207520e-01 1.800000000000000000e+01
-5.974885225296020508e-01 2.507994413375854048e+00 -5.952205061912536621e-01 1.100000000000000000e+01
-7.001559734344482422e-01 2.941224336624145952e+00 -5.876917243003845215e-01 1.100000000000000000e+01
-8.349996805191040039e-01 3.513120174407958984e+00 -5.719243884086608887e-01 9.000000000000000000e+00
-1.033591985702515093e+00 4.355421066284179688e+00 -5.496307611465454102e-01 1.100000000000000000e+01
-1.356121420860290971e+00 5.718960762023925781e+00 -5.142188668251037598e-01 8.000000000000000000e+00
-1.966209769248961958e+00 8.304702758789062500e+00 -4.472630918025969904e-01 1.000000000000000000e+00
-3.581789016723632812e+00 1.515203285217284979e+01 -2.717688679695128839e-01 2.000000000000000000e+00
-5.194965600967407227e-01 2.209680080413817915e+00 -6.082247495651245117e-01 1.800000000000000000e+01
-7.768354415893554688e+00 3.306862258911132812e+01 5.929280519485473633e-01 2.600000000000000000e+01
-5.909497737884521484e-01 2.517550706863402876e+00 -5.970200896263122559e-01 1.100000000000000000e+01
-6.868122220039367676e-01 2.928238868713378906e+00 -5.846387743949890137e-01 1.200000000000000000e+01
-8.242459893226623535e-01 3.519716501235961914e+00 -5.725501179695129395e-01 9.000000000000000000e+00
-1.020047068595886008e+00 4.362690448760986328e+00 -5.501182079315185547e-01 1.100000000000000000e+01
-1.335336208343506081e+00 5.715665817260742188e+00 -5.135216116905212402e-01 6.000000000000000000e+00
-1.933215141296386941e+00 8.287837028503417969e+00 -4.460070133209229071e-01 2.000000000000000000e+00
-3.533337593078612837e+00 1.517161750793457031e+01 -2.719084918498992920e-01 2.000000000000000000e+00
-5.104734897613525391e-01 2.205833673477172852e+00 -6.066718697547912598e-01 1.900000000000000000e+01
-7.613230705261229581e+00 3.292408752441406250e+01 5.898564457893371582e-01 2.500000000000000000e+01
-5.830357074737548828e-01 2.523395538330078125e+00 -5.979198813438415527e-01 1.100000000000000000e+01
-6.774698495864868164e-01 2.934444189071654829e+00 -5.854020118713378906e-01 1.100000000000000000e+01
-8.123985528945922852e-01 3.524497270584106001e+00 -5.728629827499389648e-01 1.000000000000000000e+01
-1.003476619720458984e+00 4.360421180725097656e+00 -5.493869781494140625e-01 1.100000000000000000e+01
-1.314483642578125000e+00 5.716408729553222656e+00 -5.131729841232299805e-01 8.000000000000000000e+00
-1.914105415344238059e+00 8.337360382080078125e+00 -4.483098089694976807e-01 1.000000000000000000e+00
-3.471421718597412109e+00 1.514487648010254084e+01 -2.712104022502899170e-01 2.000000000000000000e+00
-5.036285519599914551e-01 2.211369276046752930e+00 -6.077071428298950195e-01 1.600000000000000000e+01
-7.473410129547119141e+00 3.284127044677733664e+01 5.879017710685729980e-01 2.500000000000000000e+01
-5.742238163948059082e-01 2.525415420532227007e+00 -5.979198813438415527e-01 1.100000000000000000e+01
-6.685274839401245117e-01 2.942534685134888139e+00 -5.865468382835388184e-01 1.200000000000000000e+01
-7.948471903800964355e-01 3.504194259643555132e+00 -5.691086053848266602e-01 1.000000000000000000e+01
-9.886882901191711426e-01 4.365833282470703125e+00 -5.496307611465454102e-01 1.100000000000000000e+01
-1.291883349418639915e+00 5.709302902221679688e+00 -5.121271610260009766e-01 8.000000000000000000e+00
-1.877949118614196999e+00 8.312820434570312500e+00 -4.466350376605988104e-01 1.000000000000000000e+00
-3.411495685577393022e+00 1.512569046020507990e+01 -2.706519067287445068e-01 2.000000000000000000e+00
-4.980184137821198065e-01 2.222539424896239790e+00 -6.102952957153320312e-01 1.900000000000000000e+01
-5.620015263557434082e-01 2.512190580368041992e+00 -5.943207144737243652e-01 1.000000000000000000e+01
-6.582520008087158203e-01 2.944850206375122070e+00 -5.865468382835388184e-01 1.100000000000000000e+01
-7.826104164123535156e-01 3.506947517395019975e+00 -5.691086053848266602e-01 1.000000000000000000e+01
-9.743059873580932617e-01 4.373133182525634766e+00 -5.501182079315185547e-01 1.100000000000000000e+01
-1.273677945137023926e+00 5.721556663513183594e+00 -5.128244161605834961e-01 9.000000000000000000e+00
-1.842854261398314986e+00 8.292029380798339844e+00 -4.451696574687957764e-01 2.000000000000000000e+00
-3.354344844818114790e+00 1.511798477172851918e+01 -2.703028619289398193e-01 2.000000000000000000e+00
-4.894256293773651123e-01 2.220491170883179155e+00 -6.092600226402282715e-01 1.700000000000000000e+01
-5.532289147377014160e-01 2.514137029647827148e+00 -5.943207144737243652e-01 1.100000000000000000e+01
-6.462822556495666504e-01 2.939460277557373047e+00 -5.850203633308410645e-01 1.100000000000000000e+01
-7.703641057014465332e-01 3.509657859802246094e+00 -5.691086053848266602e-01 1.000000000000000000e+01
-9.552107453346252441e-01 4.359055519104003906e+00 -5.479245781898498535e-01 1.000000000000000000e+01
-1.256255149841309038e+00 5.737645626068115234e+00 -5.138702392578125000e-01 9.000000000000000000e+00
-1.816457390785217063e+00 8.310118675231933594e+00 -4.457976818084716797e-01 3.000000000000000000e+00
-3.298994779586791992e+00 1.511787891387938920e+01 -2.700934410095214844e-01 2.000000000000000000e+00
-4.796254932880402166e-01 2.212745904922484907e+00 -6.066718697547912598e-01 1.600000000000000000e+01
-5.460981726646423340e-01 2.523671388626099077e+00 -5.961202979087829590e-01 1.100000000000000000e+01
-6.335283517837524414e-01 2.930184841156005859e+00 -5.827306509017944336e-01 1.000000000000000000e+01
-7.606090307235717773e-01 3.523910999298096147e+00 -5.709857940673828125e-01 1.000000000000000000e+01
-9.391527175903320312e-01 4.358482360839843750e+00 -5.474370718002319336e-01 1.000000000000000000e+01
-1.237477421760559082e+00 5.747838973999023438e+00 -5.143932104110717773e-01 8.000000000000000000e+00
-1.790796041488647017e+00 8.332030296325683594e+00 -4.466350376605988104e-01 2.000000000000000000e+00
-3.235296010971068892e+00 1.507846736907958984e+01 -2.691859304904937744e-01 2.000000000000000000e+00
-4.710762202739716131e-01 2.208656311035155806e+00 -6.051189303398132324e-01 1.700000000000000000e+01
-5.369147062301635742e-01 2.521656513214110884e+00 -5.952205061912536621e-01 1.100000000000000000e+01
-6.233995556831359863e-01 2.930349111557006836e+00 -5.823490619659423828e-01 1.100000000000000000e+01
-7.497398853302001953e-01 3.530278444290161133e+00 -5.716115236282348633e-01 1.000000000000000000e+01
-9.271645545959472656e-01 4.373224258422851562e+00 -5.488995313644409180e-01 1.100000000000000000e+01
-1.215519905090332031e+00 5.738266944885253906e+00 -5.131729841232299805e-01 9.000000000000000000e+00
-1.767288327217102051e+00 8.357462882995605469e+00 -4.476817548274993896e-01 1.000000000000000000e+00
-3.180319786071776900e+00 1.506563377380370916e+01 -2.687670588493347168e-01 2.000000000000000000e+00
-1.161375141143799006e+01 5.501601791381835938e+01 1.506637382507324041e+01 1.900000000000000000e+01
-4.637600779533386230e-01 2.212177991867064986e+00 -6.056365370750427246e-01 1.600000000000000000e+01
-5.289075374603271484e-01 2.527330160140991211e+00 -5.961202979087829590e-01 1.100000000000000000e+01
-6.155777573585510254e-01 2.944037675857543945e+00 -5.846387743949890137e-01 1.100000000000000000e+01
-7.329725623130798340e-01 3.511603355407714844e+00 -5.681699514389038086e-01 9.000000000000000000e+00
-9.127033352851867676e-01 4.380321025848388672e+00 -5.493869781494140625e-01 1.100000000000000000e+01
-1.192639708518981934e+00 5.728821277618408203e+00 -5.119528174400329590e-01 9.000000000000000000e+00
-1.731602430343627930e+00 8.332293510437011719e+00 -4.460070133209229071e-01 2.000000000000000000e+00
-3.135835647583007812e+00 1.511580371856688920e+01 -2.694651484489440918e-01 2.000000000000000000e+00
-1.138850498199463068e+01 5.494471359252929688e+01 1.503531551361083984e+01 1.900000000000000000e+01
-4.568189680576323908e-01 2.221511363983153853e+00 -6.077071428298950195e-01 1.900000000000000000e+01
-6.755701065063476562e+00 3.288207244873046875e+01 5.859470963478088379e-01 2.500000000000000000e+01
-5.176320075988769531e-01 2.521706581115723100e+00 -5.943207144737243652e-01 1.100000000000000000e+01
-6.074244379997253418e-01 2.961765289306641069e+00 -5.876917243003845215e-01 1.100000000000000000e+01
-7.206721901893615723e-01 3.520197629928588867e+00 -5.691086053848266602e-01 1.000000000000000000e+01
-8.942875862121582031e-01 4.376013278961181641e+00 -5.484120249748229980e-01 1.000000000000000000e+01
-1.170235276222229004e+00 5.731406211853027344e+00 -5.117785334587097168e-01 9.000000000000000000e+00
-1.698000550270081010e+00 8.331052780151367188e+00 -4.455883204936981201e-01 1.000000000000000000e+00
-3.077772140502930132e+00 1.512773323059082031e+01 -2.694651484489440918e-01 2.000000000000000000e+00
-4.505916833877562921e-01 2.230666875839232954e+00 -6.097776889801025391e-01 1.900000000000000000e+01
-6.625056266784667969e+00 3.282704544067382812e+01 5.845509171485900879e-01 2.500000000000000000e+01
-5.095968246459960938e-01 2.527318716049193892e+00 -5.952205061912536621e-01 1.100000000000000000e+01
-5.947559475898742676e-01 2.952320098876953125e+00 -5.854020118713378906e-01 1.100000000000000000e+01
-7.095482945442199707e-01 3.528501510620117188e+00 -5.700471997261047363e-01 9.000000000000000000e+00
-8.747096061706542969e-01 4.357699394226074219e+00 -5.457309484481811523e-01 1.000000000000000000e+01
-1.151005268096924050e+00 5.739363193511962891e+00 -5.121271610260009766e-01 8.000000000000000000e+00
-1.668125271797179954e+00 8.333012580871582031e+00 -4.453789889812468927e-01 1.000000000000000000e+00
-3.014760017395019975e+00 1.508740043640137074e+01 -2.685576379299163818e-01 2.000000000000000000e+00
-4.409347176551818848e-01 2.220779657363892046e+00 -6.066718697547912598e-01 1.900000000000000000e+01
-6.512270450592041016e+00 3.282921981811522727e+01 5.842018723487854004e-01 2.500000000000000000e+01
-5.031073689460754395e-01 2.538552522659302202e+00 -5.974699854850769043e-01 1.200000000000000000e+01
-5.834370851516723633e-01 2.946572780609130859e+00 -5.838755369186401367e-01 1.100000000000000000e+01
-6.993755102157592773e-01 3.538586616516112837e+00 -5.712986588478088379e-01 9.000000000000000000e+00
-8.614068031311035156e-01 4.366418838500976562e+00 -5.464621186256408691e-01 1.000000000000000000e+01
-1.129269599914551003e+00 5.729465007781982422e+00 -5.109069347381591797e-01 9.000000000000000000e+00
-1.642796158790587935e+00 8.350255966186523438e+00 -4.460070133209229071e-01 1.000000000000000000e+00
-2.963170528411864790e+00 1.508946514129639027e+01 -2.684180140495299738e-01 2.000000000000000000e+00
-4.313320219516754150e-01 2.212824344635010210e+00 -6.040836572647094727e-01 1.700000000000000000e+01
-6.390754699707031250e+00 3.281642150878906250e+01 5.835735797882080078e-01 2.500000000000000000e+01
-4.938709437847136896e-01 2.538380384445189986e+00 -5.970200896263122559e-01 1.200000000000000000e+01
-5.735226869583129883e-01 2.950518369674683061e+00 -5.842571258544921875e-01 1.100000000000000000e+01
-6.843855381011962891e-01 3.527431964874268022e+00 -5.691086053848266602e-01 8.000000000000000000e+00
-8.472921252250671387e-01 4.375245571136474609e+00 -5.471933484077453613e-01 1.300000000000000000e+01
-1.109641551971435991e+00 5.735328197479248047e+00 -5.110812783241271973e-01 6.000000000000000000e+00
-1.613638281822205034e+00 8.355939865112304688e+00 -4.460070133209229071e-01 1.000000000000000000e+00
-2.921834707260131836e+00 1.515862369537354049e+01 -2.694651484489440918e-01 2.000000000000000000e+00
-4.243311583995819092e-01 2.218111276626586914e+00 -6.051189303398132324e-01 1.700000000000000000e+01
-6.274663925170898438e+00 3.283067321777343750e+01 5.834339261054992676e-01 5.000000000000000000e+01
-4.853728115558624268e-01 2.542002916336060014e+00 -5.974699854850769043e-01 1.200000000000000000e+01
-5.628520846366882324e-01 2.950573921203612837e+00 -5.838755369186401367e-01 1.100000000000000000e+01
-6.709599494934082031e-01 3.523977756500244141e+00 -5.681699514389038086e-01 9.000000000000000000e+00
-8.331263661384582520e-01 4.384027481079101562e+00 -5.479245781898498535e-01 1.000000000000000000e+01
-1.088871479034424050e+00 5.735251426696777344e+00 -5.107326507568359375e-01 8.000000000000000000e+00
-1.585948228836060014e+00 8.369371414184570312e+00 -4.464257061481475830e-01 1.000000000000000000e+00
-2.861470937728881836e+00 1.512943363189697088e+01 -2.687670588493347168e-01 2.000000000000000000e+00
-4.180113673210144043e-01 2.227173805236815962e+00 -6.071894764900207520e-01 1.800000000000000000e+01
-6.159287929534912109e+00 3.284844589233397727e+01 5.833641290664672852e-01 2.500000000000000000e+01
-4.718320965766906738e-01 2.518781185150146040e+00 -5.916212797164916992e-01 1.000000000000000000e+01
-5.547161102294921875e-01 2.964099168777465820e+00 -5.861652493476867676e-01 1.100000000000000000e+01
-6.608310341835021973e-01 3.537949085235596147e+00 -5.700471997261047363e-01 9.000000000000000000e+00
-8.141801953315734863e-01 4.367393970489501953e+00 -5.454871654510498047e-01 1.000000000000000000e+01
-1.068115592002869096e+00 5.735100269317626953e+00 -5.103840231895446777e-01 8.000000000000000000e+00
-1.550153970718384011e+00 8.339510917663574219e+00 -4.445416033267974854e-01 1.000000000000000000e+00
-2.811560153961182085e+00 1.515505886077881037e+01 -2.690463066101074219e-01 2.000000000000000000e+00
-1.029963302612305043e+01 5.557184982299804688e+01 1.514402008056640980e+01 2.000000000000000000e+01
-4.116736948490142822e-01 2.234247446060181108e+00 -6.087424159049987793e-01 1.600000000000000000e+01
-6.044532775878906250e+00 3.283722305297852273e+01 5.828056335449218750e-01 2.500000000000000000e+01
-4.634769260883330744e-01 2.520332098007202148e+00 -5.916212797164916992e-01 1.100000000000000000e+01
-5.420458316802978516e-01 2.950474977493286133e+00 -5.831122994422912598e-01 1.000000000000000000e+01
-6.480264067649841309e-01 3.534292221069335938e+00 -5.691086053848266602e-01 8.000000000000000000e+00
-7.989782691001892090e-01 4.366164684295654297e+00 -5.449997186660766602e-01 1.000000000000000000e+01
-1.050524592399596946e+00 5.746450424194335938e+00 -5.110812783241271973e-01 9.000000000000000000e+00
-1.523924589157104048e+00 8.352464675903320312e+00 -4.449602961540222168e-01 2.000000000000000000e+00
-2.765587568283081055e+00 1.518790721893311080e+01 -2.694651484489440918e-01 2.000000000000000000e+00
-4.024984836578369141e-01 2.228066444396973100e+00 -6.066718697547912598e-01 1.600000000000000000e+01
-5.931648254394531250e+00 3.286796188354492188e+01 5.829801559448242188e-01 5.000000000000000000e+01
-4.567510783672332764e-01 2.533441305160522017e+00 -5.943207144737243652e-01 1.200000000000000000e+01
-5.300034284591674805e-01 2.942688226699829102e+00 -5.812041759490966797e-01 1.100000000000000000e+01
-6.395296454429626465e-01 3.557919025421143022e+00 -5.725501179695129395e-01 9.000000000000000000e+00
-7.837326526641845703e-01 4.368927001953125000e+00 -5.449997186660766602e-01 1.000000000000000000e+01
-1.027999162673949973e+00 5.736354351043701172e+00 -5.098611116409301758e-01 8.000000000000000000e+00
-1.497572779655456987e+00 8.373461723327636719e+00 -4.457976818084716797e-01 1.000000000000000000e+00
-2.699905633926392046e+00 1.512659931182860973e+01 -2.682085931301116943e-01 2.000000000000000000e+00
-3.940963745117188055e-01 2.223682403564453125e+00 -6.051189303398132324e-01 1.600000000000000000e+01
-5.817392349243164062e+00 3.285791397094727273e+01 5.824565887451171875e-01 2.500000000000000000e+01
-4.483473896980286200e-01 2.534942150115966797e+00 -5.943207144737243652e-01 1.100000000000000000e+01
-5.226333141326904297e-01 2.957962751388549805e+00 -5.838755369186401367e-01 1.100000000000000000e+01
-6.229253411293029785e-01 3.532785177230834961e+00 -5.681699514389038086e-01 9.000000000000000000e+00
-7.719926238059997559e-01 4.387142181396484375e+00 -5.469496250152587891e-01 1.000000000000000000e+01
-1.010695815086364968e+00 5.749543190002441406e+00 -5.107326507568359375e-01 8.000000000000000000e+00
-1.470487356185913086e+00 8.382316589355468750e+00 -4.460070133209229071e-01 1.000000000000000000e+00
-2.644901514053345171e+00 1.510789299011229936e+01 -2.677199244499207098e-01 2.000000000000000000e+00
-9.762940406799316406e+00 5.576670837402343750e+01 1.516990184783936080e+01 2.000000000000000000e+01
-3.860013782978057861e-01 2.223140954971313032e+00 -6.046012639999389648e-01 1.600000000000000000e+01
