4.290324211120604581e+00 3.744007110595703125e+00 -4.981822371482849121e-01 9.000000000000000000e+00
6.176206588745117188e+00 5.385950565338134766e+00 -4.294688701629639227e-01 2.000000000000000000e+00
3.618014907836914062e+01 3.153972053527832031e+01 1.108108901977539062e+01 1.400000000000000000e+01
1.010986709594726918e+01 8.810081481933593750e+00 -2.340716719627380094e-01 2.000000000000000000e+00
1.685688614845276101e+00 1.464830279350280984e+00 -5.983896255493164062e-01 1.600000000000000000e+01
1.939307928085326926e+00 1.684032678604125977e+00 -5.929709672927856445e-01 1.200000000000000000e+01
2.235739231109619141e+00 1.940759897232056108e+00 -5.754799246788024902e-01 1.300000000000000000e+01
2.668039321899414062e+00 2.314390420913695845e+00 -5.594096183776855469e-01 1.000000000000000000e+01
3.307467222213745117e+00 2.867039442062377930e+00 -5.374438166618347168e-01 1.000000000000000000e+01
4.285298347473145419e+00 3.713351249694824219e+00 -4.960905015468596857e-01 9.000000000000000000e+00
6.197989463806152344e+00 5.366973400115966797e+00 -4.296782016754149836e-01 2.000000000000000000e+00
1.019802093505859020e+01 8.824460983276367188e+00 -2.353980541229248047e-01 2.000000000000000000e+00
1.695179462432861106e+00 1.462723374366760032e+00 -5.999425649642944336e-01 1.600000000000000000e+01
1.942222714424133079e+00 1.674707889556884988e+00 -5.920711755752563477e-01 1.300000000000000000e+01
2.245474338531494141e+00 1.935507416725158913e+00 -5.762431621551513672e-01 1.300000000000000000e+01
2.664128303527832031e+00 2.294749736785889116e+00 -5.569067001342773438e-01 9.000000000000000000e+00
3.311436891555786133e+00 2.850296735763549805e+00 -5.364688634872436523e-01 9.000000000000000000e+00
4.293703556060791016e+00 3.694471597671508789e+00 -4.955675601959229071e-01 9.000000000000000000e+00
6.219714641571044922e+00 5.347909927368164062e+00 -4.298875331878662109e-01 2.000000000000000000e+00
1.018022632598876953e+01 8.747106552124023438e+00 -2.342811077833175937e-01 2.000000000000000000e+00
1.704421043395996094e+00 1.460865497589111106e+00 -6.014954447746276855e-01 1.800000000000000000e+01
1.940365314483643022e+00 1.661919713020324929e+00 -5.898216366767883301e-01 1.100000000000000000e+01
2.257845640182495117e+00 1.933157920837401900e+00 -5.777696371078491211e-01 1.100000000000000000e+01
2.682229995727539062e+00 2.294892072677611861e+00 -5.590967535972595215e-01 1.000000000000000000e+01
3.320870637893677202e+00 2.839299917221068892e+00 -5.364688634872436523e-01 9.000000000000000000e+00
4.328649520874023438e+00 3.699630022048950195e+00 -4.981822371482849121e-01 9.000000000000000000e+00
6.231339931488037109e+00 5.322066783905029297e+00 -4.294688701629639227e-01 2.000000000000000000e+00
1.024568176269531072e+01 8.744455337524414062e+00 -2.351188212633132935e-01 2.000000000000000000e+00
3.601571273803710938e+01 3.073859024047851918e+01 1.268730926513672053e+01 1.400000000000000000e+01
1.715394735336303933e+00 1.459915399551392046e+00 -6.035659909248352051e-01 1.700000000000000000e+01
1.956546068191528098e+00 1.663973927497863992e+00 -5.929709672927856445e-01 1.300000000000000000e+01
2.260092496871947798e+00 1.921449899673461914e+00 -5.766248106956481934e-01 9.000000000000000000e+00
2.703773260116577148e+00 2.297025918960570845e+00 -5.619125962257385254e-01 1.000000000000000000e+01
3.333787918090819868e+00 2.830260038375854048e+00 -5.369563102722167969e-01 9.000000000000000000e+00
4.350651741027832031e+00 3.692232847213745117e+00 -4.992280900478363037e-01 9.000000000000000000e+00
6.268158435821533203e+00 5.315784931182861328e+00 -4.307249188423156738e-01 2.000000000000000000e+00
1.023952960968017933e+01 8.677609443664550781e+00 -2.342811077833175937e-01 2.000000000000000000e+00
3.642293930053710938e+01 3.085612487792969105e+01 1.279083728790283025e+01 1.400000000000000000e+01
1.714578151702881081e+00 1.448930859565735085e+00 -6.014954447746276855e-01 1.800000000000000000e+01
1.959364652633666992e+00 1.654619455337523970e+00 -5.920711755752563477e-01 1.200000000000000000e+01
2.257784843444824219e+00 1.905950546264647993e+00 -5.743350982666015625e-01 7.000000000000000000e+00
2.705735445022583008e+00 2.282479286193848100e+00 -5.606611371040344238e-01 1.100000000000000000e+01
3.340611457824707031e+00 2.816046953201293945e+00 -5.364688634872436523e-01 1.000000000000000000e+01
4.354372501373291016e+00 3.669320344924927202e+00 -4.981822371482849121e-01 9.000000000000000000e+00
6.280564785003662109e+00 5.288726329803466797e+00 -4.303062260150908869e-01 2.000000000000000000e+00
1.025751781463623047e+01 8.631514549255371094e+00 -2.340018600225448886e-01 2.000000000000000000e+00
1.715185761451720969e+00 1.439211726188659890e+00 -5.999425649642944336e-01 1.900000000000000000e+01
1.969608187675476074e+00 1.651526331901550071e+00 -5.934208631515502930e-01 1.200000000000000000e+01
2.265928506851195845e+00 1.899318933486938032e+00 -5.747166872024536133e-01 6.000000000000000000e+00
2.716714859008789062e+00 2.275557279586791992e+00 -5.612868666648864746e-01 1.100000000000000000e+01
3.354987621307373047e+00 2.808191299438477007e+00 -5.372000932693481445e-01 1.000000000000000000e+01
4.365625858306884766e+00 3.652819871902465820e+00 -4.980079233646392822e-01 9.000000000000000000e+00
6.323503017425537109e+00 5.287269115447998047e+00 -4.319809973239899237e-01 2.000000000000000000e+00
1.031213760375976918e+01 8.616170883178710938e+00 -2.345603406429291049e-01 2.000000000000000000e+00
1.723167538642883079e+00 1.435689091682434082e+00 -6.009778380393981934e-01 1.900000000000000000e+01
1.976858735084533913e+00 1.645887851715087891e+00 -5.938707590103149414e-01 1.200000000000000000e+01
2.272544622421265093e+00 1.891397833824157937e+00 -5.747166872024536133e-01 8.000000000000000000e+00
2.709454059600830078e+00 2.253429174423218218e+00 -5.581581592559814453e-01 1.000000000000000000e+01
3.369349718093872070e+00 2.800269365310668945e+00 -5.379312634468078613e-01 9.000000000000000000e+00
4.381415367126464844e+00 3.640105247497559038e+00 -4.983565509319304865e-01 9.000000000000000000e+00
6.320406913757324219e+00 5.247303009033203125e+00 -4.305155873298645020e-01 1.000000000000000000e+00
1.035754108428955078e+01 8.592890739440917969e+00 -2.349093854427337924e-01 2.000000000000000000e+00
1.732634067535399947e+00 1.433359622955322044e+00 -6.025307178497314453e-01 1.800000000000000000e+01
1.967572331428528054e+00 1.626560807228087935e+00 -5.893717408180236816e-01 1.200000000000000000e+01
2.289726495742797852e+00 1.892207980155945046e+00 -5.773880481719970703e-01 1.200000000000000000e+01
2.724919080734252930e+00 2.250246763229370117e+00 -5.597225427627563477e-01 1.000000000000000000e+01
3.372979640960692915e+00 2.783437252044678178e+00 -5.369563102722167969e-01 1.000000000000000000e+01
4.395631790161132812e+00 3.626056909561156782e+00 -4.985308349132537842e-01 1.100000000000000000e+01
6.344849586486816406e+00 5.230290412902832031e+00 -4.309342503547667902e-01 1.000000000000000000e+00
1.038438606262207031e+01 8.554141044616699219e+00 -2.348395884037018100e-01 2.000000000000000000e+00
3.636702346801757812e+01 2.994669342041015980e+01 1.262312221527099965e+01 1.400000000000000000e+01
1.743598103523253950e+00 1.432207703590393066e+00 -6.046012639999389648e-01 1.800000000000000000e+01
1.983782052993773970e+00 1.628337621688842995e+00 -5.925210714340209961e-01 1.500000000000000000e+01
2.291764497756958008e+00 1.880467891693115012e+00 -5.762431621551513672e-01 1.300000000000000000e+01
2.737339973449707031e+00 2.244478702545166016e+00 -5.606611371040344238e-01 1.100000000000000000e+01
3.371926546096802202e+00 2.762839555740356001e+00 -5.352501273155212402e-01 1.000000000000000000e+01
4.411345005035400391e+00 3.613216161727904829e+00 -4.988794624805449884e-01 1.100000000000000000e+01
6.372341156005859375e+00 5.215701103210449219e+00 -4.315623044967650812e-01 1.000000000000000000e+00
1.041418170928955078e+01 8.517840385437011719e+00 -2.348395884037018100e-01 2.000000000000000000e+00
3.620593643188477273e+01 2.961311531066894887e+01 1.253305339813232067e+01 1.300000000000000000e+01
1.739604353904723899e+00 1.418786764144897017e+00 -6.014954447746276855e-01 1.800000000000000000e+01
1.990964531898498979e+00 1.622634172439574973e+00 -5.929709672927856445e-01 1.400000000000000000e+01
2.301358699798583984e+00 1.874936699867248979e+00 -5.770063996315002441e-01 1.300000000000000000e+01
2.755881309509276900e+00 2.243640184402465820e+00 -5.628511905670166016e-01 1.000000000000000000e+01
3.389249563217163086e+00 2.757316350936890093e+00 -5.364688634872436523e-01 9.000000000000000000e+00
4.417747497558593750e+00 3.592767238616942915e+00 -4.981822371482849121e-01 1.100000000000000000e+01
6.396708488464354581e+00 5.198463916778563565e+00 -4.319809973239899237e-01 1.000000000000000000e+00
1.043143272399901988e+01 8.471350669860839844e+00 -2.345603406429291049e-01 2.000000000000000000e+00
3.641022109985352273e+01 2.955814170837401988e+01 1.256618213653563920e+01 1.400000000000000000e+01
1.740042328834533913e+00 1.409058451652527078e+00 -5.999425649642944336e-01 1.900000000000000000e+01
1.993586659431457964e+00 1.613222837448119895e+00 -5.920711755752563477e-01 1.100000000000000000e+01
2.309415817260742188e+00 1.868126749992371050e+00 -5.773880481719970703e-01 1.300000000000000000e+01
2.756015062332152876e+00 2.227797508239746094e+00 -5.612868666648864746e-01 1.000000000000000000e+01
3.408118963241577148e+00 2.752953052520751953e+00 -5.379312634468078613e-01 1.000000000000000000e+01
4.428711414337158203e+00 3.576072931289672852e+00 -4.980079233646392822e-01 1.100000000000000000e+01
6.414815425872802734e+00 5.176103591918945312e+00 -4.319809973239899237e-01 2.000000000000000000e+00
3.682959747314453125e+01 2.970712661743164062e+01 1.092407321929931996e+01 1.300000000000000000e+01
1.050141334533691051e+01 8.467521667480468750e+00 -2.354678660631180087e-01 2.000000000000000000e+00
1.746455788612365945e+00 1.404186487197875977e+00 -6.004601716995239258e-01 2.000000000000000000e+01
2.002243995666503906e+00 1.608695149421691895e+00 -5.929709672927856445e-01 1.100000000000000000e+01
2.314392089843750000e+00 1.858824610710144043e+00 -5.770063996315002441e-01 1.300000000000000000e+01
2.751450300216674805e+00 2.208272218704224077e+00 -5.587838888168334961e-01 1.000000000000000000e+01
3.420804977416992188e+00 2.743523597717285156e+00 -5.384187698364257812e-01 1.000000000000000000e+01
4.464484691619873047e+00 3.579286098480225053e+00 -5.006225705146789551e-01 9.000000000000000000e+00
6.442196846008300781e+00 5.161172866821289062e+00 -4.326090216636658270e-01 2.000000000000000000e+00
1.049031925201416016e+01 8.398320198059082031e+00 -2.345603406429291049e-01 2.000000000000000000e+00
1.755876064300537109e+00 1.401697397232056108e+00 -6.020131111145019531e-01 2.200000000000000000e+01
2.004800558090209961e+00 1.599265694618225098e+00 -5.920711755752563477e-01 1.100000000000000000e+01
2.331611156463623047e+00 1.859302759170532005e+00 -5.796777009963989258e-01 1.400000000000000000e+01
2.769955873489379883e+00 2.207271814346313032e+00 -5.609740018844604492e-01 1.000000000000000000e+01
3.422596454620360884e+00 2.725383281707764116e+00 -5.372000932693481445e-01 1.000000000000000000e+01
4.472275257110595703e+00 3.559957742691040039e+00 -5.000996589660644531e-01 9.000000000000000000e+00
6.450795173645020419e+00 5.131194114685058594e+00 -4.319809973239899237e-01 2.000000000000000000e+00
1.057279491424561080e+01 8.403957366943359375e+00 -2.357470989227294922e-01 2.000000000000000000e+00
3.761399078369141336e+01 2.989808654785155895e+01 1.287469482421875000e+01 1.400000000000000000e+01
1.768328070640563965e+00 1.401559591293334961e+00 -6.046012639999389648e-01 2.000000000000000000e+01
2.007315397262572798e+00 1.589838027954102007e+00 -5.911713838577270508e-01 1.100000000000000000e+01
2.335008621215819868e+00 1.848715305328368919e+00 -5.789144635200500488e-01 1.500000000000000000e+01
2.782291173934936968e+00 2.201266288757324219e+00 -5.619125962257385254e-01 9.000000000000000000e+00
3.425860166549683061e+00 2.708495140075684038e+00 -5.362251400947570801e-01 1.000000000000000000e+01
4.450284957885742188e+00 3.517146587371826172e+00 -4.962647855281829834e-01 1.300000000000000000e+01
6.462397098541259766e+00 5.103693962097167969e+00 -4.315623044967650812e-01 2.000000000000000000e+00
1.059578704833984020e+01 8.362044334411621094e+00 -2.356074899435043057e-01 2.000000000000000000e+00
1.766894221305846946e+00 1.390908122062683105e+00 -6.025307178497314453e-01 1.800000000000000000e+01
2.018702983856201172e+00 1.587992191314697044e+00 -5.929709672927856445e-01 1.100000000000000000e+01
2.333410263061522993e+00 1.834894180297852007e+00 -5.770063996315002441e-01 1.400000000000000000e+01
2.788022518157958984e+00 2.190807342529296875e+00 -5.615997314453125000e-01 1.000000000000000000e+01
3.442629337310791016e+00 2.703249454498291016e+00 -5.374438166618347168e-01 9.000000000000000000e+00
4.465058326721191406e+00 3.504829883575439009e+00 -4.966134130954741877e-01 1.100000000000000000e+01
6.476143360137938565e+00 5.079770565032958984e+00 -4.313529431819915771e-01 2.000000000000000000e+00
1.060771942138672053e+01 8.314525604248046875e+00 -2.352584451436995905e-01 2.000000000000000000e+00
1.768694400787353960e+00 1.382352709770203081e+00 -6.014954447746276855e-01 1.800000000000000000e+01
2.027305603027344194e+00 1.583334922790526900e+00 -5.938707590103149414e-01 1.200000000000000000e+01
2.342895984649658203e+00 1.829154253005981001e+00 -5.777696371078491211e-01 1.400000000000000000e+01
2.806555032730102983e+00 2.189567565917969194e+00 -5.637897849082946777e-01 9.000000000000000000e+00
3.555826187133789062e+01 2.773122215270996094e+01 5.536767959594726562e+00 3.800000000000000000e+01
3.455175638198852983e+00 2.693656921386719194e+00 -5.379312634468078613e-01 9.000000000000000000e+00
4.472550868988037109e+00 3.485548496246337891e+00 -4.960905015468596857e-01 1.100000000000000000e+01
6.519048213958740234e+00 5.076767921447753906e+00 -4.330277144908905029e-01 2.000000000000000000e+00
1.063036537170409979e+01 8.272534370422363281e+00 -2.351188212633132935e-01 2.000000000000000000e+00
1.767164587974547896e+00 1.371741652488708052e+00 -5.994248986244201660e-01 1.800000000000000000e+01
2.034084796905518022e+00 1.577797889709473100e+00 -5.943207144737243652e-01 1.200000000000000000e+01
2.345845699310303178e+00 1.818968772888184038e+00 -5.770063996315002441e-01 1.300000000000000000e+01
2.804431676864624023e+00 2.172989130020142046e+00 -5.619125962257385254e-01 9.000000000000000000e+00
3.549309158325195312e+01 2.749159622192383168e+01 5.512393951416015625e+00 3.700000000000000000e+01
3.475076198577880859e+00 2.690691471099853960e+00 -5.396374464035034180e-01 1.000000000000000000e+01
4.490386962890625000e+00 3.475575685501099077e+00 -4.967877268791198730e-01 1.100000000000000000e+01
6.532687664031982422e+00 5.052678585052490234e+00 -4.328183531761168878e-01 2.000000000000000000e+00
1.067989063262938920e+01 8.254357337951660156e+00 -2.356074899435043057e-01 2.000000000000000000e+00
1.784183502197266069e+00 1.374998688697814941e+00 -6.035659909248352051e-01 1.900000000000000000e+01
2.028772115707397017e+00 1.562364935874938965e+00 -5.911713838577270508e-01 1.000000000000000000e+01
2.358403444290161133e+00 1.815559625625609907e+00 -5.785328745841979980e-01 1.300000000000000000e+01
2.805736780166625977e+00 2.158368825912476030e+00 -5.606611371040344238e-01 9.000000000000000000e+00
3.476578235626221147e+00 2.672495603561400923e+00 -5.384187698364257812e-01 1.000000000000000000e+01
4.513550281524658203e+00 3.468378067016602007e+00 -4.980079233646392822e-01 9.000000000000000000e+00
6.543948650360107422e+00 5.024978637695313388e+00 -4.323996603488922119e-01 2.000000000000000000e+00
1.071498489379882990e+01 8.221897125244140625e+00 -2.357470989227294922e-01 2.000000000000000000e+00
1.796643614768981934e+00 1.374631762504578081e+00 -6.061542034149169922e-01 1.900000000000000000e+01
2.034213542938231978e+00 1.555273652076720969e+00 -5.911713838577270508e-01 1.100000000000000000e+01
2.367846250534058061e+00 1.809700489044189009e+00 -5.792961120605468750e-01 1.200000000000000000e+01
2.821103334426879883e+00 2.154556751251221147e+00 -5.622254610061645508e-01 1.100000000000000000e+01
3.479573726654053178e+00 2.655526638031005859e+00 -5.374438166618347168e-01 9.000000000000000000e+00
4.562062740325927734e+00 3.480396509170531782e+00 -5.020170807838439941e-01 9.000000000000000000e+00
6.580509185791015625e+00 5.016635894775390625e+00 -4.336557388305664062e-01 2.000000000000000000e+00
1.076907062530517933e+01 8.203833580017089844e+00 -2.363055795431137085e-01 2.000000000000000000e+00
3.592276000976563211e+01 2.736580848693848012e+01 1.210030841827392933e+01 1.200000000000000000e+01
1.798354387283324973e+00 1.366014957427978960e+00 -6.051189303398132324e-01 1.900000000000000000e+01
2.045838832855225053e+00 1.552876234054564986e+00 -5.929709672927856445e-01 1.200000000000000000e+01
2.364764928817749023e+00 1.794303894042968972e+00 -5.770063996315002441e-01 1.100000000000000000e+01
2.830181121826171875e+00 2.145889520645142046e+00 -5.625383257865905762e-01 9.000000000000000000e+00
3.493568658828734907e+00 2.646960973739624023e+00 -5.381750464439392090e-01 9.000000000000000000e+00
4.529712677001953125e+00 3.430768728256226030e+00 -4.971363544464110773e-01 9.000000000000000000e+00
6.572499752044677734e+00 4.974349975585938388e+00 -4.319809973239899237e-01 2.000000000000000000e+00
1.076574325561523082e+01 8.142067909240722656e+00 -2.356074899435043057e-01 2.000000000000000000e+00
1.788994193077086958e+00 1.349573016166687012e+00 -6.004601716995239258e-01 1.800000000000000000e+01
2.060313940048218218e+00 1.553121805191040039e+00 -5.956704020500183105e-01 1.100000000000000000e+01
2.373837947845458984e+00 1.788815140724181907e+00 -5.777696371078491211e-01 1.100000000000000000e+01
2.837281465530395952e+00 2.136492490768433061e+00 -5.625383257865905762e-01 9.000000000000000000e+00
3.503913164138793945e+00 2.636554718017578125e+00 -5.384187698364257812e-01 9.000000000000000000e+00
4.596793174743652344e+00 3.457646846771239790e+00 -5.032372474670410156e-01 9.000000000000000000e+00
6.620890140533447266e+00 4.976528167724609375e+00 -4.340744316577910822e-01 1.000000000000000000e+00
1.076070594787598012e+01 8.082304000854492188e+00 -2.349093854427337924e-01 2.000000000000000000e+00
1.801425576210021973e+00 1.349110245704651101e+00 -6.030483841896057129e-01 1.900000000000000000e+01
2.056361436843872070e+00 1.538914799690247026e+00 -5.929709672927856445e-01 1.100000000000000000e+01
2.384783744812012163e+00 1.784046173095702903e+00 -5.789144635200500488e-01 1.100000000000000000e+01
2.838393211364746094e+00 2.121844530105590820e+00 -5.612868666648864746e-01 9.000000000000000000e+00
3.516275882720946822e+00 2.626683712005614790e+00 -5.389062166213989258e-01 9.000000000000000000e+00
4.591273784637451172e+00 3.428466796875000000e+00 -5.013198256492614746e-01 9.000000000000000000e+00
6.625415325164794922e+00 4.943830966949462891e+00 -4.332370460033416748e-01 1.000000000000000000e+00
1.085297679901123047e+01 8.092506408691406250e+00 -2.363055795431137085e-01 2.000000000000000000e+00
3.216160202026367188e+01 2.397251892089844105e+01 1.074823760986327947e+01 9.000000000000000000e+00
1.804573655128479004e+00 1.341661214828490989e+00 -6.025307178497314453e-01 1.800000000000000000e+01
2.052335023880004883e+00 1.524754405021667036e+00 -5.902715921401977539e-01 1.100000000000000000e+01
2.394148826599121094e+00 1.778051972389220969e+00 -5.796777009963989258e-01 1.100000000000000000e+01
2.845782518386840820e+00 2.111923933029174805e+00 -5.612868666648864746e-01 9.000000000000000000e+00
3.527017831802368164e+00 2.615576267242432085e+00 -5.391499996185302734e-01 9.000000000000000000e+00
4.596811294555664062e+00 3.407673358917235884e+00 -5.006225705146789551e-01 9.000000000000000000e+00
6.639422416687011719e+00 4.918295860290527344e+00 -4.330277144908905029e-01 1.000000000000000000e+00
3.149903869628905895e+01 2.332508277893066051e+01 9.048881530761718750e+00 1.200000000000000000e+01
1.088115882873534979e+01 8.054573059082031250e+00 -2.363055795431137085e-01 2.000000000000000000e+00
3.220160293579102273e+01 2.382793235778808949e+01 1.073374366760254084e+01 9.000000000000000000e+00
1.821680545806884988e+00 1.344531655311584029e+00 -6.066718697547912598e-01 1.800000000000000000e+01
2.056076765060424805e+00 1.516424417495727983e+00 -5.898216366767883301e-01 1.200000000000000000e+01
2.397180557250977007e+00 1.767353892326354980e+00 -5.789144635200500488e-01 1.200000000000000000e+01
2.861089229583739790e+00 2.107835769653319868e+00 -5.628511905670166016e-01 1.000000000000000000e+01
3.726841354370117188e+01 2.744653511047362926e+01 5.683011054992675781e+00 4.200000000000000000e+01
3.529731988906859907e+00 2.598541021347045898e+00 -5.381750464439392090e-01 7.000000000000000000e+00
4.643981456756591797e+00 3.417587041854857954e+00 -5.044574141502380371e-01 8.000000000000000000e+00
6.672640323638916016e+00 4.906922340393066406e+00 -4.340744316577910822e-01 2.000000000000000000e+00
3.151432037353515980e+01 2.316650962829589844e+01 9.029985427856445312e+00 1.200000000000000000e+01
1.090920829772949041e+01 8.016541481018066406e+00 -2.363055795431137085e-01 2.000000000000000000e+00
3.229392242431641336e+01 2.372224426269530895e+01 1.073684883117675959e+01 1.900000000000000000e+01
1.810779452323914018e+00 1.326746821403502974e+00 -6.014954447746276855e-01 1.800000000000000000e+01
2.075508594512939009e+00 1.519599080085753950e+00 -5.938707590103149414e-01 1.100000000000000000e+01
2.395413637161254883e+00 1.753177881240844949e+00 -5.770063996315002441e-01 1.100000000000000000e+01
2.866835117340087891e+00 2.096669673919678178e+00 -5.625383257865905762e-01 1.200000000000000000e+01
3.546794652938843218e+00 2.592060565948485884e+00 -5.393937230110168457e-01 9.000000000000000000e+00
4.572225093841552734e+00 3.340239524841309038e+00 -4.953932464122772217e-01 9.000000000000000000e+00
6.676822662353515625e+00 4.874179840087890625e+00 -4.332370460033416748e-01 2.000000000000000000e+00
3.156351089477539062e+01 2.303338813781737926e+01 9.020987510681152344e+00 1.200000000000000000e+01
1.091450691223145064e+01 7.961913585662841797e+00 -2.358169108629226962e-01 2.000000000000000000e+00
3.236616897583007812e+01 2.361046981811523082e+01 1.073477840423583984e+01 9.000000000000000000e+00
1.813837289810181108e+00 1.319281578063965066e+00 -6.009778380393981934e-01 1.900000000000000000e+01
2.080800294876099077e+00 1.512344956398010032e+00 -5.938707590103149414e-01 1.100000000000000000e+01
2.404695510864257812e+00 1.747113585472106934e+00 -5.777696371078491211e-01 1.200000000000000000e+01
2.878931760787963867e+00 2.090131282806396040e+00 -5.634769201278686523e-01 1.300000000000000000e+01
3.552607297897338867e+00 2.577332973480225053e+00 -5.389062166213989258e-01 1.000000000000000000e+01
4.645146846771240234e+00 3.368707180023192915e+00 -5.020170807838439941e-01 9.000000000000000000e+00
6.697030544281005859e+00 4.853187561035156250e+00 -4.334463775157927912e-01 2.000000000000000000e+00
3.172894096374512074e+01 2.298480606079101918e+01 9.045282363891601562e+00 1.200000000000000000e+01
1.094547176361083984e+01 7.926112174987792969e+00 -2.358867228031157892e-01 2.000000000000000000e+00
3.213325119018554688e+01 2.326059532165526988e+01 1.062918090820313033e+01 9.000000000000000000e+00
1.823589563369750977e+00 1.315698146820067915e+00 -6.025307178497314453e-01 1.900000000000000000e+01
2.086591958999633789e+00 1.504344105720520020e+00 -5.938707590103149414e-01 1.100000000000000000e+01
2.417757034301757812e+00 1.742458820343018022e+00 -5.792961120605468750e-01 1.200000000000000000e+01
2.880524158477783203e+00 2.074444055557250977e+00 -5.622254610061645508e-01 1.300000000000000000e+01
3.576978683471680132e+00 2.574108362197875977e+00 -5.410999059677124023e-01 1.000000000000000000e+01
3.152858352661133168e+01 2.268897819519042969e+01 6.152254581451416016e+00 1.400000000000000000e+01
4.703334331512451172e+00 3.383424043655395952e+00 -5.068978071212768555e-01 9.000000000000000000e+00
6.725346565246582031e+00 4.834431648254395419e+00 -4.340744316577910822e-01 1.000000000000000000e+00
3.194356536865234020e+01 2.295377922058105113e+01 9.081274032592773438e+00 1.200000000000000000e+01
1.099531459808349965e+01 7.898025512695313388e+00 -2.363055795431137085e-01 2.000000000000000000e+00
3.195155715942383168e+01 2.295106697082519887e+01 1.054118251800536932e+01 9.000000000000000000e+00
1.826600551605225053e+00 1.308199763298034890e+00 -6.020131111145019531e-01 1.600000000000000000e+01
2.088660955429077148e+00 1.494783163070678933e+00 -5.929709672927856445e-01 1.100000000000000000e+01
2.427018165588378906e+00 1.736293196678162065e+00 -5.800593495368957520e-01 1.300000000000000000e+01
2.890961885452270952e+00 2.066674232482910156e+00 -5.628511905670166016e-01 1.200000000000000000e+01
3.733436965942382812e+01 2.667953491210937855e+01 5.634263515472412109e+00 4.000000000000000000e+01
3.576250553131103960e+00 2.554683446884154829e+00 -5.396374464035034180e-01 1.000000000000000000e+01
3.161153030395508168e+01 2.257326889038085938e+01 6.152254581451416016e+00 1.400000000000000000e+01
4.707008838653563565e+00 3.361196517944335938e+00 -5.060262680053710938e-01 6.000000000000000000e+00
6.742180824279785156e+00 4.810926437377929688e+00 -4.340744316577910822e-01 1.000000000000000000e+00
1.097722816467284979e+01 7.827090263366699219e+00 -2.353282421827316007e-01 2.000000000000000000e+00
1.832275509834289995e+00 1.303574800491333008e+00 -6.025307178497314453e-01 1.800000000000000000e+01
2.093346595764160156e+00 1.488214015960692915e+00 -5.929709672927856445e-01 1.400000000000000000e+01
2.429260253906250000e+00 1.726385354995727983e+00 -5.792961120605468750e-01 1.200000000000000000e+01
2.907103776931763139e+00 2.064444065093994141e+00 -5.647284388542175293e-01 1.300000000000000000e+01
3.569688320159912109e+00 2.533096551895142046e+00 -5.374438166618347168e-01 1.000000000000000000e+01
3.159781837463378906e+01 2.242221641540526988e+01 6.136610984802246094e+00 1.400000000000000000e+01
4.740295886993408203e+00 3.362530946731566939e+00 -5.084666013717651367e-01 8.000000000000000000e+00
6.750743865966796875e+00 4.785101413726806641e+00 -4.336557388305664062e-01 1.000000000000000000e+00
3.229544067382813211e+01 2.288337707519530895e+01 9.137961387634277344e+00 1.200000000000000000e+01
1.106703662872313920e+01 7.838798522949218750e+00 -2.367244362831116000e-01 2.000000000000000000e+00
1.841548681259155051e+00 1.300514340400696023e+00 -6.040836572647094727e-01 1.900000000000000000e+01
2.100121021270751953e+00 1.482021450996398926e+00 -5.934208631515502930e-01 1.200000000000000000e+01
2.428854703903197798e+00 1.713368415832519975e+00 -5.777696371078491211e-01 1.300000000000000000e+01
2.909448623657227007e+00 2.050869703292847124e+00 -5.637897849082946777e-01 1.100000000000000000e+01
3.251904678344727273e+01 2.291417503356933949e+01 4.884523391723632812e+00 2.100000000000000000e+01
3.588246345520019975e+00 2.527479410171508789e+00 -5.389062166213989258e-01 9.000000000000000000e+00
4.758520603179931641e+00 3.350551843643188032e+00 -5.091638565063476562e-01 8.000000000000000000e+00
6.787007331848145419e+00 4.775299549102783203e+00 -4.349117875099182129e-01 1.000000000000000000e+00
3.142193031311035156e+01 2.210009193420410156e+01 8.868920326232910156e+00 1.200000000000000000e+01
1.109105968475341975e+01 7.797819614410400391e+00 -2.366546243429183960e-01 2.000000000000000000e+00
3.210717010498046875e+01 2.256529617309569957e+01 1.051529979705811080e+01 9.000000000000000000e+00
1.846077084541321023e+00 1.294078111648560014e+00 -6.040836572647094727e-01 1.900000000000000000e+01
2.110069751739501953e+00 1.478035688400268999e+00 -5.947706103324890137e-01 1.300000000000000000e+01
2.439645290374755859e+00 1.708257913589477983e+00 -5.789144635200500488e-01 1.200000000000000000e+01
2.923063755035399947e+00 2.045231103897095171e+00 -5.650413036346435547e-01 1.100000000000000000e+01
3.601927518844604048e+00 2.518351078033446822e+00 -5.396374464035034180e-01 1.000000000000000000e+01
3.183452987670898082e+01 2.225767326354980113e+01 6.152254581451416016e+00 1.400000000000000000e+01
4.770187377929688388e+00 3.333921194076538086e+00 -5.091638565063476562e-01 9.000000000000000000e+00
6.800359725952148438e+00 4.749292373657226562e+00 -4.347024559974669855e-01 2.000000000000000000e+00
3.025573539733887074e+01 2.112239837646484020e+01 8.518896102905273438e+00 1.100000000000000000e+01
1.111493206024169922e+01 7.756768226623535156e+00 -2.365848273038864136e-01 2.000000000000000000e+00
3.247648620605468750e+01 2.266433715820312855e+01 1.061158084869384943e+01 9.000000000000000000e+00
1.850583076477051003e+00 1.287626266479491965e+00 -6.040836572647094727e-01 1.900000000000000000e+01
2.108816146850585938e+00 1.466211318969727007e+00 -5.929709672927856445e-01 1.200000000000000000e+01
2.452041864395142046e+00 1.704213380813599077e+00 -5.804409384727478027e-01 1.200000000000000000e+01
2.912338018417357954e+00 2.022620439529418945e+00 -5.615997314453125000e-01 1.300000000000000000e+01
3.170961952209473012e+01 2.201414489746094105e+01 4.739742279052734375e+00 2.000000000000000000e+01
3.620481491088867188e+00 2.512553453445435014e+00 -5.410999059677124023e-01 1.000000000000000000e+01
4.783432960510253906e+00 3.318385362625122070e+00 -5.093381404876708984e-01 9.000000000000000000e+00
6.816896438598632812e+00 4.725525379180908203e+00 -4.347024559974669855e-01 2.000000000000000000e+00
3.032928276062012074e+01 2.101665878295898082e+01 8.518896102905273438e+00 1.100000000000000000e+01
1.114522838592528942e+01 7.720200061798095703e+00 -2.366546243429183960e-01 2.000000000000000000e+00
3.252439498901367188e+01 2.252095794677734020e+01 1.060019302368164062e+01 9.000000000000000000e+00
1.858245611190795898e+00 1.283354282379149947e+00 -6.051189303398132324e-01 1.900000000000000000e+01
2.101090192794799805e+00 1.449986338615417036e+00 -5.893717408180236816e-01 1.400000000000000000e+01
2.449895620346068892e+00 1.690069675445557085e+00 -5.785328745841979980e-01 1.100000000000000000e+01
2.932391643524169922e+00 2.021411180496215820e+00 -5.641027092933654785e-01 1.300000000000000000e+01
3.223414611816406250e+01 2.221194839477539062e+01 4.806527137756347656e+00 2.000000000000000000e+01
3.621055841445922852e+00 2.494269847869873047e+00 -5.398811697959899902e-01 9.000000000000000000e+00
4.816319942474365234e+00 3.316357135772705078e+00 -5.116041898727416992e-01 8.000000000000000000e+00
6.810314655303955078e+00 4.685851573944091797e+00 -4.332370460033416748e-01 2.000000000000000000e+00
3.042012214660644887e+01 2.092280769348144887e+01 8.523845672607421875e+00 1.100000000000000000e+01
1.116551780700683949e+01 7.676717281341552734e+00 -2.365150153636932095e-01 2.000000000000000000e+00
3.241742324829102273e+01 2.228820800781250000e+01 1.054118251800536932e+01 9.000000000000000000e+00
1.862714052200316939e+00 1.276859998703002930e+00 -6.051189303398132324e-01 1.900000000000000000e+01
2.122216224670410156e+00 1.453655958175658958e+00 -5.938707590103149414e-01 1.300000000000000000e+01
2.459019899368286133e+00 1.683726072311400923e+00 -5.792961120605468750e-01 1.100000000000000000e+01
2.937799453735352007e+00 2.010047435760498047e+00 -5.637897849082946777e-01 1.100000000000000000e+01
3.257036972045897727e+01 2.227635765075683949e+01 4.845037460327148438e+00 2.000000000000000000e+01
3.633017778396606001e+00 2.483855724334716797e+00 -5.403686761856079102e-01 9.000000000000000000e+00
4.827866554260253906e+00 3.299524784088135210e+00 -5.116041898727416992e-01 9.000000000000000000e+00
6.843122959136962891e+00 4.673314571380615234e+00 -4.342837631702423096e-01 2.000000000000000000e+00
3.054447364807128906e+01 2.085165405273437855e+01 8.538242340087890625e+00 1.100000000000000000e+01
1.119554996490479049e+01 7.639949798583984375e+00 -2.365848273038864136e-01 2.000000000000000000e+00
3.247016906738281250e+01 2.214964675903319957e+01 1.053186416625976918e+01 9.000000000000000000e+00
1.859394311904907005e+00 1.264592170715332031e+00 -6.025307178497314453e-01 1.800000000000000000e+01
2.130753517150878906e+00 1.448058605194092019e+00 -5.947706103324890137e-01 1.400000000000000000e+01
2.461926698684691939e+00 1.672495484352112038e+00 -5.785328745841979980e-01 1.200000000000000000e+01
2.966393947601317915e+00 2.013689517974853960e+00 -5.678570866584777832e-01 1.200000000000000000e+01
3.304930877685546875e+01 2.242657470703125000e+01 4.904022216796875000e+00 2.100000000000000000e+01
3.643740177154541016e+00 2.471637487411499023e+00 -5.406123995780944824e-01 1.000000000000000000e+01
3.171442222595214844e+01 2.151266479492187855e+01 6.069657325744628906e+00 1.400000000000000000e+01
4.843225955963134766e+00 3.284043788909912109e+00 -5.119528174400329590e-01 8.000000000000000000e+00
6.870126724243164062e+00 4.654923439025878906e+00 -4.349117875099182129e-01 2.000000000000000000e+00
3.058519744873046875e+01 2.071552085876464844e+01 8.528344154357910156e+00 1.100000000000000000e+01
1.124997043609618963e+01 7.616802215576171875e+00 -2.371432930231094083e-01 2.000000000000000000e+00
1.865398526191710982e+00 1.259174823760986106e+00 -6.030483841896057129e-01 1.900000000000000000e+01
3.223919677734375000e+01 2.175379943847655895e+01 6.788637042045593262e-01 3.200000000000000000e+01
2.137410640716553178e+00 1.441701769828795943e+00 -5.952205061912536621e-01 1.300000000000000000e+01
2.467749595642089844e+00 1.663891553878783958e+00 -5.785328745841979980e-01 1.100000000000000000e+01
2.957022666931151900e+00 1.992285013198852983e+00 -5.647284388542175293e-01 1.100000000000000000e+01
3.649052143096923828e+00 2.456686258316040039e+00 -5.401249527931213379e-01 1.000000000000000000e+01
3.183520317077637074e+01 2.143271827697753906e+01 6.078417778015136719e+00 1.400000000000000000e+01
4.854659557342529297e+00 3.267117738723754883e+00 -5.119528174400329590e-01 9.000000000000000000e+00
6.886333465576171875e+00 4.630914211273193359e+00 -4.349117875099182129e-01 2.000000000000000000e+00
3.224226379394531250e+01 2.167407226562500000e+01 8.969248771667480469e+00 1.200000000000000000e+01
1.128312873840332031e+01 7.581947326660156250e+00 -2.372829169034957886e-01 2.000000000000000000e+00
1.874158859252929910e+00 1.256535649299622026e+00 -6.046012639999389648e-01 1.700000000000000000e+01
2.137072324752808061e+00 1.431725859642029031e+00 -5.938707590103149414e-01 1.100000000000000000e+01
2.479489803314208984e+00 1.660500526428223100e+00 -5.800593495368957520e-01 1.200000000000000000e+01
2.945208311080933061e+00 1.970900774002074973e+00 -5.612868666648864746e-01 1.000000000000000000e+01
3.673253536224364790e+00 2.456244707107543945e+00 -5.425623059272766113e-01 1.000000000000000000e+01
3.190610122680664062e+01 2.132703208923339844e+01 6.078417778015136719e+00 1.400000000000000000e+01
4.871525287628173828e+00 3.256279230117797852e+00 -5.126500725746154785e-01 9.000000000000000000e+00
6.900847911834716797e+00 4.609257221221923828e+00 -4.349117875099182129e-01 2.000000000000000000e+00
3.206709289550781250e+01 2.141035842895508168e+01 8.901762962341308594e+00 1.200000000000000000e+01
1.130023860931395951e+01 7.542022705078125000e+00 -2.371432930231094083e-01 2.000000000000000000e+00
1.880141854286194070e+00 1.251056194305419922e+00 -6.051189303398132324e-01 1.600000000000000000e+01
2.132320404052733931e+00 1.417783498764038086e+00 -5.911713838577270508e-01 1.100000000000000000e+01
2.488540887832642046e+00 1.654008746147155984e+00 -5.808225870132446289e-01 1.200000000000000000e+01
2.963588714599608931e+00 1.968258142471313032e+00 -5.634769201278686523e-01 1.000000000000000000e+01
3.675189018249512163e+00 2.439017057418822798e+00 -5.415873527526855469e-01 1.000000000000000000e+01
3.192438507080078125e+01 2.117840003967285156e+01 6.067780017852783203e+00 1.400000000000000000e+01
4.877881526947020596e+00 3.235950231552124023e+00 -5.121271610260009766e-01 9.000000000000000000e+00
6.916894912719726562e+00 4.585140705108642578e+00 -4.349117875099182129e-01 2.000000000000000000e+00
1.131982803344726918e+01 7.498114585876464844e+00 -2.370036840438843051e-01 2.000000000000000000e+00
3.276602935791016336e+01 2.169558715820312855e+01 1.052979373931884943e+01 9.000000000000000000e+00
1.887939095497130904e+00 1.246285319328308105e+00 -6.061542034149169922e-01 1.600000000000000000e+01
2.144009351730347124e+00 1.414250731468200906e+00 -5.929709672927856445e-01 1.100000000000000000e+01
2.492947578430175781e+00 1.643795967102051003e+00 -5.804409384727478027e-01 1.200000000000000000e+01
2.967483758926392046e+00 1.955209136009216087e+00 -5.628511905670166016e-01 1.000000000000000000e+01
3.500988388061522727e+01 2.305847358703612926e+01 5.147273540496826172e+00 2.800000000000000000e+01
3.672497749328612837e+00 2.417889118194580078e+00 -5.398811697959899902e-01 1.000000000000000000e+01
4.893037796020507812e+00 3.220240831375122070e+00 -5.124757885932922363e-01 9.000000000000000000e+00
3.164012527465819957e+01 2.081531143188476918e+01 7.361792564392089844e+00 6.200000000000000000e+01
6.936991691589354581e+00 4.561953067779541016e+00 -4.351211488246917725e-01 2.000000000000000000e+00
3.233998107910156250e+01 2.125955963134765980e+01 8.935055732727050781e+00 1.200000000000000000e+01
1.138399982452392933e+01 7.480734825134277344e+00 -2.377715855836868009e-01 2.000000000000000000e+00
3.305467224121093750e+01 2.172112083435058949e+01 1.059812259674072088e+01 9.000000000000000000e+00
1.890661954879760964e+00 1.238628864288330078e+00 -6.056365370750427246e-01 1.800000000000000000e+01
2.148932933807373047e+00 1.406758069992064986e+00 -5.929709672927856445e-01 1.000000000000000000e+01
2.495384693145751953e+00 1.632933974266052024e+00 -5.796777009963989258e-01 1.300000000000000000e+01
2.970983982086182085e+00 1.942676663398742898e+00 -5.622254610061645508e-01 1.000000000000000000e+01
3.684239149093627930e+00 2.407226562500000000e+00 -5.403686761856079102e-01 1.000000000000000000e+01
4.905916690826416016e+00 3.204230785369873047e+00 -5.126500725746154785e-01 8.000000000000000000e+00
3.179478645324707031e+01 2.075840568542480113e+01 7.380873680114746094e+00 6.200000000000000000e+01
6.946183204650878906e+00 4.533344268798828125e+00 -4.347024559974669855e-01 2.000000000000000000e+00
3.249233627319335938e+01 2.119765281677246094e+01 8.956650733947753906e+00 1.200000000000000000e+01
1.142344284057617010e+01 7.449690341949462891e+00 -2.380508184432983121e-01 2.000000000000000000e+00
1.889900684356689009e+00 1.229192495346068892e+00 -6.040836572647094727e-01 2.100000000000000000e+01
2.163390159606934038e+00 1.405995845794677956e+00 -5.956704020500183105e-01 1.000000000000000000e+01
2.507371187210083008e+00 1.628928184509276900e+00 -5.812041759490966797e-01 1.400000000000000000e+01
2.984037399291992188e+00 1.937116146087646040e+00 -5.634769201278686523e-01 1.000000000000000000e+01
3.698863029479980025e+00 2.399317264556885210e+00 -5.413436293601989746e-01 9.000000000000000000e+00
3.291968154907227273e+01 2.135379409790039062e+01 6.214828491210938388e+00 1.400000000000000000e+01
4.901469707489013672e+00 3.178189039230347124e+00 -5.110812783241271973e-01 9.000000000000000000e+00
6.957825660705566406e+00 4.508112907409667969e+00 -4.344930946826934814e-01 2.000000000000000000e+00
3.285359573364257812e+01 2.127835273742676137e+01 9.036733627319335938e+00 1.200000000000000000e+01
1.142122650146484020e+01 7.394379138946533203e+00 -2.374923527240752896e-01 2.000000000000000000e+00
3.256931304931641336e+01 2.108616256713866832e+01 1.039624309539794922e+01 8.000000000000000000e+00
1.890933632850646973e+00 1.220492839813231978e+00 -6.030483841896057129e-01 1.900000000000000000e+01
2.171560049057006836e+00 1.400548100471497026e+00 -5.965701937675476074e-01 1.100000000000000000e+01
2.516342163085937944e+00 1.622293472290039062e+00 -5.819674134254455566e-01 1.500000000000000000e+01
2.990781068801879883e+00 1.926688075065613015e+00 -5.634769201278686523e-01 8.000000000000000000e+00
3.713892459869385210e+00 2.390689134597777876e+00 -5.423185825347900391e-01 1.000000000000000000e+01
4.922586917877197266e+00 3.167529106140137163e+00 -5.121271610260009766e-01 9.000000000000000000e+00
3.110976028442383168e+01 2.001046943664551137e+01 7.190064430236816406e+00 6.100000000000000000e+01
6.990319252014160156e+00 4.494599819183349609e+00 -4.355398416519165039e-01 2.000000000000000000e+00
3.082932281494140980e+01 1.981487655639648082e+01 8.460859298706054688e+00 1.100000000000000000e+01
1.148734569549561080e+01 7.380408287048339844e+00 -2.383300662040709894e-01 2.000000000000000000e+00
3.265613174438477273e+01 2.097291183471680043e+01 1.039934921264648082e+01 8.000000000000000000e+00
1.900062680244446023e+00 1.217010617256164995e+00 -6.046012639999389648e-01 1.700000000000000000e+01
2.156739473342895952e+00 1.380353450775146040e+00 -5.911713838577270508e-01 1.100000000000000000e+01
2.526950836181641069e+00 1.616674065589905007e+00 -5.831122994422912598e-01 1.400000000000000000e+01
2.999152421951293945e+00 1.917300581932068093e+00 -5.637897849082946777e-01 7.000000000000000000e+00
3.722214698791503906e+00 2.377710580825806108e+00 -5.423185825347900391e-01 1.000000000000000000e+01
3.140673828125000000e+01 2.005456733703612926e+01 5.901959419250488281e+00 1.300000000000000000e+01
4.936972141265869141e+00 3.152471303939818892e+00 -5.124757885932922363e-01 9.000000000000000000e+00
6.985761165618895596e+00 4.457280158996582031e+00 -4.342837631702423096e-01 2.000000000000000000e+00
3.094759178161621094e+01 1.973857879638671875e+01 8.474355697631835938e+00 1.100000000000000000e+01
1.152652740478515980e+01 7.348865509033203125e+00 -2.386092990636826117e-01 2.000000000000000000e+00
1.910820841789246050e+00 1.214515924453734907e+00 -6.066718697547912598e-01 1.900000000000000000e+01
2.168124675750731978e+00 1.376995563507080078e+00 -5.929709672927856445e-01 1.000000000000000000e+01
2.525949001312255859e+00 1.603634476661681907e+00 -5.815858244895935059e-01 1.300000000000000000e+01
2.999154567718505859e+00 1.902587175369262917e+00 -5.625383257865905762e-01 7.000000000000000000e+00
3.596969604492188211e+01 2.280945587158203125e+01 5.229657173156738281e+00 3.000000000000000000e+01
3.723785400390625000e+00 2.360451936721802202e+00 -5.413436293601989746e-01 9.000000000000000000e+00
4.944580078125000000e+00 3.133085966110229048e+00 -5.121271610260009766e-01 9.000000000000000000e+00
7.035026550292968750e+00 4.454236507415770596e+00 -4.363771975040435791e-01 2.000000000000000000e+00
3.103277015686035156e+01 1.964085197448730113e+01 8.478855133056640625e+00 1.100000000000000000e+01
1.156224822998047053e+01 7.315000534057617188e+00 -2.388187348842621127e-01 2.000000000000000000e+00
3.275894927978516336e+01 2.072535705566405895e+01 1.038692569732666016e+01 8.000000000000000000e+00
1.913414716720581055e+00 1.206807851791382058e+00 -6.061542034149169922e-01 1.600000000000000000e+01
2.179512739181518999e+00 1.373575091361999956e+00 -5.947706103324890137e-01 1.100000000000000000e+01
2.524886846542357954e+00 1.590621590614319070e+00 -5.800593495368957520e-01 1.400000000000000000e+01
3.012464523315430132e+00 1.896315932273864968e+00 -5.637897849082946777e-01 9.000000000000000000e+00
3.742084264755249023e+00 2.353780746459960938e+00 -5.428060293197631836e-01 9.000000000000000000e+00
4.968980312347412109e+00 3.124291181564331055e+00 -5.135216116905212402e-01 9.000000000000000000e+00
7.037002563476563388e+00 4.421152114868164062e+00 -4.355398416519165039e-01 2.000000000000000000e+00
3.098562049865723012e+01 1.945985794067383168e+01 8.447361946105957031e+00 1.100000000000000000e+01
1.156400203704833984e+01 7.259710788726806641e+00 -2.383300662040709894e-01 2.000000000000000000e+00
3.239288330078125000e+01 2.032789611816405895e+01 1.024716377258300959e+01 8.000000000000000000e+00
1.912702798843384011e+00 1.197046875953674094e+00 -6.046012639999389648e-01 1.700000000000000000e+01
2.180989503860474077e+00 1.363892316818237083e+00 -5.938707590103149414e-01 1.200000000000000000e+01
2.537082910537720171e+00 1.585961103439331055e+00 -5.815858244895935059e-01 1.400000000000000000e+01
3.022416353225708008e+00 1.887881994247436968e+00 -5.644155740737915039e-01 1.400000000000000000e+01
3.152112579345703125e+01 1.968128967285155895e+01 4.562788009643554688e+00 1.900000000000000000e+01
3.740173578262329102e+00 2.334397792816162109e+00 -5.413436293601989746e-01 1.000000000000000000e+01
4.964642047882080078e+00 3.097435712814331055e+00 -5.119528174400329590e-01 9.000000000000000000e+00
7.072730541229248047e+00 4.409240722656250000e+00 -4.367958903312683105e-01 1.000000000000000000e+00
3.113936042785644887e+01 1.940517425537109020e+01 8.470756530761718750e+00 1.100000000000000000e+01
1.164019203186034979e+01 7.251019954681395596e+00 -2.393772006034851074e-01 2.000000000000000000e+00
3.270306777954102273e+01 2.036378669738769887e+01 1.032273864746093928e+01 8.000000000000000000e+00
1.923225760459899902e+00 1.194775223731995073e+00 -6.066718697547912598e-01 1.900000000000000000e+01
2.188811779022216797e+00 1.358707904815674050e+00 -5.947706103324890137e-01 1.200000000000000000e+01
2.543996334075928178e+00 1.578574180603026900e+00 -5.819674134254455566e-01 1.400000000000000000e+01
3.023623704910277876e+00 1.874726057052612083e+00 -5.634769201278686523e-01 1.200000000000000000e+01
3.168408203125000000e+01 1.963730812072753906e+01 4.576925277709960938e+00 1.900000000000000000e+01
3.768143892288208008e+00 2.334527730941772017e+00 -5.442684888839721680e-01 9.000000000000000000e+00
4.979968070983886719e+00 3.084102153778076172e+00 -5.124757885932922363e-01 8.000000000000000000e+00
7.053346157073974609e+00 4.364742755889892578e+00 -4.347024559974669855e-01 1.000000000000000000e+00
3.117370796203612926e+01 1.928335189819335938e+01 8.462658882141113281e+00 1.100000000000000000e+01
1.168458271026610973e+01 7.224999904632568359e+00 -2.397960573434829989e-01 2.000000000000000000e+00
3.275069808959960938e+01 2.024304008483887074e+01 1.031652736663818004e+01 8.000000000000000000e+00
1.933962702751159890e+00 1.192109465599060059e+00 -6.087424159049987793e-01 1.900000000000000000e+01
2.183585643768310991e+00 1.344927430152893066e+00 -5.920711755752563477e-01 1.000000000000000000e+01
2.554506540298461914e+00 1.572772264480591042e+00 -5.831122994422912598e-01 1.400000000000000000e+01
3.033514261245727983e+00 1.866230368614196999e+00 -5.641027092933654785e-01 1.300000000000000000e+01
3.184374618530273082e+01 1.958274269104003906e+01 4.590086936950683594e+00 1.900000000000000000e+01
3.771196603775023970e+00 2.318241357803345171e+00 -5.435372591018676758e-01 1.000000000000000000e+01
4.982215881347656250e+00 3.061484575271606001e+00 -5.116041898727416992e-01 6.000000000000000000e+00
3.260599517822266336e+01 2.002797698974609020e+01 7.438116073608398438e+00 6.200000000000000000e+01
7.071942806243895596e+00 4.342185497283936435e+00 -4.349117875099182129e-01 2.000000000000000000e+00
3.143349075317383168e+01 1.929266548156737926e+01 8.514847755432128906e+00 1.100000000000000000e+01
1.172677612304688033e+01 7.194626331329345703e+00 -2.401451170444489081e-01 2.000000000000000000e+00
3.268282699584960938e+01 2.004375839233398082e+01 1.027304553985596058e+01 8.000000000000000000e+00
1.943056344985961914e+00 1.188375234603882058e+00 -6.102952957153320312e-01 2.100000000000000000e+01
2.188266992568970171e+00 1.337297081947327104e+00 -5.920711755752563477e-01 1.200000000000000000e+01
2.554954767227172852e+00 1.560775399208069070e+00 -5.819674134254455566e-01 1.400000000000000000e+01
3.046754360198975053e+00 1.859746813774109109e+00 -5.653541684150695801e-01 1.200000000000000000e+01
3.764013290405272993e+00 2.295760393142700195e+00 -5.413436293601989746e-01 9.000000000000000000e+00
4.997975349426270419e+00 3.047186374664307085e+00 -5.121271610260009766e-01 9.000000000000000000e+00
7.100702285766601562e+00 4.325786113739013672e+00 -4.357491731643676758e-01 2.000000000000000000e+00
