-2.892501831054687944e+00 2.561770677566527876e+00 -6.119716167449951172e-01 9.000000000000000000e+00
-3.669426679611206055e+00 3.252147436141968218e+00 -6.020345687866210938e-01 9.000000000000000000e+00
-4.992783546447753906e+00 4.426571369171142578e+00 -5.837691426277160645e-01 5.000000000000000000e+00
-7.683689594268798828e+00 6.817104339599609375e+00 -5.383276343345642090e-01 2.000000000000000000e+00
-1.760815024375915971e+00 1.566625237464905007e+00 -6.315184831619262695e-01 2.000000000000000000e+01
-2.030361413955688032e+00 1.807715058326720969e+00 -6.276134252548217773e-01 1.400000000000000000e+01
-2.376497268676757812e+00 2.116637945175170898e+00 -6.186027526855468750e-01 1.200000000000000000e+01
-2.880015373229980025e+00 2.566901922225952148e+00 -6.110330224037170410e-01 8.000000000000000000e+00
-3.656228542327880859e+00 3.261016607284545898e+00 -6.015470623970031738e-01 9.000000000000000000e+00
-4.950605392456054688e+00 4.417032241821289062e+00 -5.804572701454162598e-01 4.000000000000000000e+00
-7.656276226043701172e+00 6.835888862609863281e+00 -5.379089713096618652e-01 2.000000000000000000e+00
-1.753896951675415039e+00 1.571473002433777078e+00 -6.310008168220520020e-01 2.100000000000000000e+01
-2.037097215652465820e+00 1.826499700546265093e+00 -6.316625475883483887e-01 1.300000000000000000e+01
-2.367632865905762163e+00 2.123609542846680132e+00 -6.182211637496948242e-01 1.200000000000000000e+01
-2.869567632675170898e+00 2.575619935989379883e+00 -6.107201576232910156e-01 9.000000000000000000e+00
-3.650730609893798828e+00 3.279065370559691939e+00 -6.025220155715942383e-01 9.000000000000000000e+00
-4.920336723327636719e+00 4.420969963073729581e+00 -5.787141323089599609e-01 5.000000000000000000e+00
-7.584841728210449219e+00 6.819839954376220703e+00 -5.345594286918640137e-01 2.000000000000000000e+00
-1.746966600418091042e+00 1.576291441917418990e+00 -6.304832100868225098e-01 2.000000000000000000e+01
-2.024923563003540039e+00 1.828375458717345969e+00 -6.298629641532897949e-01 1.400000000000000000e+01
-2.366033315658568892e+00 2.137125015258789062e+00 -6.197476387023925781e-01 1.200000000000000000e+01
-2.851766824722290039e+00 2.577673435211182085e+00 -6.088429093360900879e-01 9.000000000000000000e+00
-3.645151138305664062e+00 3.297115325927733931e+00 -6.034969687461853027e-01 9.000000000000000000e+00
-4.921125888824462891e+00 4.452822685241699219e+00 -5.806315541267395020e-01 5.000000000000000000e+00
-7.572834014892578125e+00 6.856998920440673828e+00 -5.353968143463134766e-01 2.000000000000000000e+00
-1.748602509498595969e+00 1.588875770568848100e+00 -6.330713629722595215e-01 2.200000000000000000e+01
-2.002669334411621094e+00 1.821011304855346902e+00 -6.249140501022338867e-01 1.500000000000000000e+01
-2.361463546752930132e+00 2.148013114929199219e+00 -6.205108761787414551e-01 1.200000000000000000e+01
-2.847134113311768022e+00 2.591601371765137163e+00 -6.097815632820129395e-01 8.000000000000000000e+00
-3.613074302673339844e+00 3.291104555130004883e+00 -6.000846624374389648e-01 9.000000000000000000e+00
-4.895243644714354581e+00 4.460580348968505859e+00 -5.794113874435424805e-01 5.000000000000000000e+00
-7.516384124755859375e+00 6.853785514831542969e+00 -5.330940485000610352e-01 2.000000000000000000e+00
-1.747321248054503950e+00 1.598882198333740012e+00 -6.346243023872375488e-01 2.300000000000000000e+01
-1.999174952507019043e+00 1.830622911453247070e+00 -6.258138418197631836e-01 1.600000000000000000e+01
-2.345264911651610884e+00 2.148286581039429155e+00 -6.182211637496948242e-01 1.100000000000000000e+01
-2.836614370346068892e+00 2.600188970565795898e+00 -6.094686985015869141e-01 9.000000000000000000e+00
-3.601564168930054155e+00 3.303696393966674805e+00 -6.000846624374389648e-01 9.000000000000000000e+00
-4.870835304260253906e+00 4.469558238983154297e+00 -5.783655047416687012e-01 5.000000000000000000e+00
-7.518894672393798828e+00 6.904296398162841797e+00 -5.349781513214111328e-01 2.000000000000000000e+00
-1.736046791076659934e+00 1.599735379219054954e+00 -6.325537562370300293e-01 2.000000000000000000e+01
-1.992772698402405007e+00 1.837590217590332031e+00 -6.258138418197631836e-01 1.500000000000000000e+01
-2.334865570068358931e+00 2.153797626495360884e+00 -6.174579262733459473e-01 1.100000000000000000e+01
-2.836229562759398970e+00 2.618113994598389116e+00 -6.113458871841430664e-01 9.000000000000000000e+00
-3.584177494049071822e+00 3.310860157012939009e+00 -5.991097092628479004e-01 9.000000000000000000e+00
-4.865447044372558594e+00 4.495998382568359375e+00 -5.795856714248657227e-01 5.000000000000000000e+00
-7.456621646881104404e+00 6.895244121551513672e+00 -5.322566628456115723e-01 2.000000000000000000e+00
-1.719401836395263894e+00 1.594972968101501021e+00 -6.284126639366149902e-01 1.800000000000000000e+01
-1.995237469673156960e+00 1.852143168449402078e+00 -6.285132169723510742e-01 1.500000000000000000e+01
-2.324833393096923828e+00 2.158856630325316939e+00 -6.166946887969970703e-01 1.100000000000000000e+01
-2.813061714172362837e+00 2.614058256149291992e+00 -6.082171797752380371e-01 9.000000000000000000e+00
-3.577539682388306108e+00 3.326782941818236861e+00 -5.998408794403076172e-01 8.000000000000000000e+00
-4.827170372009277344e+00 4.490396022796630859e+00 -5.767967104911804199e-01 5.000000000000000000e+00
-7.454181671142578125e+00 6.938985347747802734e+00 -5.337221026420593262e-01 2.000000000000000000e+00
-1.718059062957763894e+00 1.604921340942383035e+00 -6.299655437469482422e-01 1.900000000000000000e+01
-1.984489321708678977e+00 1.855104327201843040e+00 -6.271635293960571289e-01 1.300000000000000000e+01
-2.318717241287231001e+00 2.168299674987792969e+00 -6.170762777328491211e-01 1.000000000000000000e+01
-2.793823242187500000e+00 2.614413499832152876e+00 -6.060271263122558594e-01 8.000000000000000000e+00
-3.567354202270507812e+00 3.340607404708861861e+00 -6.000846624374389648e-01 9.000000000000000000e+00
-4.810012340545654297e+00 4.505856513977050781e+00 -5.766223669052124023e-01 6.000000000000000000e+00
-7.409514904022216797e+00 6.945839881896972656e+00 -5.322566628456115723e-01 2.000000000000000000e+00
-1.713008522987365945e+00 1.610310792922974077e+00 -6.299655437469482422e-01 1.900000000000000000e+01
-1.967296361923217995e+00 1.850647568702697976e+00 -6.235643029212951660e-01 1.400000000000000000e+01
-2.316183090209960938e+00 2.179609537124633789e+00 -6.182211637496948242e-01 1.100000000000000000e+01
-2.792786598205565962e+00 2.629949092864989790e+00 -6.075914502143859863e-01 9.000000000000000000e+00
-3.551063060760498047e+00 3.346352577209473100e+00 -5.991097092628479004e-01 9.000000000000000000e+00
-4.787134647369384766e+00 4.512745380401611328e+00 -5.755765438079833984e-01 5.000000000000000000e+00
-7.326638698577880859e+00 6.911521434783936435e+00 -5.278604626655578613e-01 2.000000000000000000e+00
-1.715794801712035911e+00 1.624249100685120073e+00 -6.330713629722595215e-01 1.900000000000000000e+01
-1.957994937896728960e+00 1.854823112487792969e+00 -6.226645112037658691e-01 1.400000000000000000e+01
-2.305710792541503906e+00 2.184980630874633789e+00 -6.174579262733459473e-01 1.100000000000000000e+01
-2.783589363098144975e+00 2.639681577682495117e+00 -6.075914502143859863e-01 9.000000000000000000e+00
-3.532160758972167969e+00 3.351895332336425781e+00 -5.978909730911254883e-01 9.000000000000000000e+00
-4.775688171386718750e+00 4.533543109893798828e+00 -5.760994553565979004e-01 5.000000000000000000e+00
-7.299571990966796875e+00 6.934302806854248047e+00 -5.276511311531066895e-01 2.000000000000000000e+00
-1.702839732170104980e+00 1.623860716819762962e+00 -6.304832100868225098e-01 1.800000000000000000e+01
-1.959642410278320090e+00 1.870059251785278098e+00 -6.253639459609985352e-01 1.100000000000000000e+01
-2.292006492614746094e+00 2.187994241714477983e+00 -6.159314513206481934e-01 1.100000000000000000e+01
-2.773895740509033203e+00 2.649866342544556108e+00 -6.075914502143859863e-01 9.000000000000000000e+00
-3.514111995697021040e+00 3.359332084655762163e+00 -5.969160199165344238e-01 8.000000000000000000e+00
-4.744640350341796875e+00 4.537246227264404297e+00 -5.743563175201416016e-01 5.000000000000000000e+00
-7.288537502288818359e+00 6.974819183349609375e+00 -5.286978483200073242e-01 2.000000000000000000e+00
-1.697161078453063965e+00 1.629794836044311968e+00 -6.304832100868225098e-01 1.800000000000000000e+01
-1.955912947654723899e+00 1.879588842391967995e+00 -6.262637376785278320e-01 9.000000000000000000e+00
-2.277278423309326172e+00 2.189178466796875000e+00 -6.140233278274536133e-01 1.100000000000000000e+01
-2.750393152236938032e+00 2.645838022232056108e+00 -6.044628024101257324e-01 7.000000000000000000e+00
-3.510945081710814986e+00 3.379838466644287109e+00 -5.983784794807434082e-01 8.000000000000000000e+00
-4.721597671508789062e+00 4.546870231628417969e+00 -5.734847784042358398e-01 4.000000000000000000e+00
-7.244012355804443359e+00 6.980815887451171875e+00 -5.272324085235595703e-01 2.000000000000000000e+00
-1.688969254493712935e+00 1.632728457450866921e+00 -6.294479370117187500e-01 1.600000000000000000e+01
-1.948268651962280051e+00 1.884709596633910911e+00 -6.258138418197631836e-01 7.000000000000000000e+00
-2.274238824844359907e+00 2.200814008712768999e+00 -6.151682138442993164e-01 1.100000000000000000e+01
-2.748699188232421875e+00 2.661814928054810014e+00 -6.060271263122558594e-01 8.000000000000000000e+00
-3.501143455505371094e+00 3.392843961715697798e+00 -5.986222028732299805e-01 9.000000000000000000e+00
-4.703632831573486328e+00 4.559729099273681641e+00 -5.731361508369445801e-01 5.000000000000000000e+00
-7.220823287963867188e+00 7.004799365997313565e+00 -5.272324085235595703e-01 2.000000000000000000e+00
-1.686028122901916948e+00 1.641309261322021040e+00 -6.304832100868225098e-01 1.700000000000000000e+01
-1.930510759353637917e+00 1.880620360374450906e+00 -6.222146153450012207e-01 6.000000000000000000e+00
-2.270760774612427202e+00 2.212849617004394975e+00 -6.163130402565002441e-01 1.200000000000000000e+01
-2.728077173233031782e+00 2.660360574722290039e+00 -6.035241484642028809e-01 8.000000000000000000e+00
-3.480754613876343218e+00 3.396726131439208984e+00 -5.971598029136657715e-01 9.000000000000000000e+00
-4.683410644531250000e+00 4.571944713592529297e+00 -5.726132392883300781e-01 4.000000000000000000e+00
-7.182040691375732422e+00 7.016005516052246094e+00 -5.261856913566589355e-01 2.000000000000000000e+00
-1.688565969467163086e+00 1.655298829078674094e+00 -6.335890293121337891e-01 1.800000000000000000e+01
-1.937845826148987038e+00 1.900994420051574929e+00 -6.267136335372924805e-01 7.000000000000000000e+00
-2.250411272048950195e+00 2.208386898040771040e+00 -6.128785014152526855e-01 1.100000000000000000e+01
-2.725821256637572798e+00 2.676787376403809038e+00 -6.050885319709777832e-01 9.000000000000000000e+00
-3.460381269454956055e+00 3.400507211685181108e+00 -5.956973433494567871e-01 9.000000000000000000e+00
-4.671685218811035156e+00 4.592455387115479404e+00 -5.731361508369445801e-01 5.000000000000000000e+00
-7.146116256713867188e+00 7.029827594757080078e+00 -5.253483057022094727e-01 2.000000000000000000e+00
-1.671779036521912065e+00 1.650325536727905051e+00 -6.294479370117187500e-01 1.700000000000000000e+01
-1.931198239326477051e+00 1.907747149467468040e+00 -6.267136335372924805e-01 9.000000000000000000e+00
-2.246878147125244141e+00 2.220368862152100053e+00 -6.140233278274536133e-01 1.200000000000000000e+01
-2.722079277038574219e+00 2.691841840744018999e+00 -6.063399910926818848e-01 9.000000000000000000e+00
-3.442846298217772993e+00 3.406980276107788086e+00 -5.947223901748657227e-01 9.000000000000000000e+00
-4.638634681701660156e+00 4.591914653778076172e+00 -5.710444450378417969e-01 6.000000000000000000e+00
-7.132885456085205078e+00 7.065974235534667969e+00 -5.261856913566589355e-01 2.000000000000000000e+00
-1.659445643424988015e+00 1.649051666259766069e+00 -6.268597245216369629e-01 1.600000000000000000e+01
-1.920715928077697976e+00 1.910018444061279075e+00 -6.253639459609985352e-01 1.200000000000000000e+01
-2.238111019134521040e+00 2.226422786712646040e+00 -6.136417388916015625e-01 1.200000000000000000e+01
-2.713137865066527876e+00 2.700853824615478960e+00 -6.063399910926818848e-01 9.000000000000000000e+00
-3.431529283523560014e+00 3.418378591537476030e+00 -5.947223901748657227e-01 9.000000000000000000e+00
-4.634672164916992188e+00 4.618522644042968750e+00 -5.724388957023620605e-01 4.000000000000000000e+00
-7.100928783416748047e+00 7.081127166748046875e+00 -5.255576968193054199e-01 2.000000000000000000e+00
-1.657775878906250000e+00 1.658933639526366965e+00 -6.284126639366149902e-01 1.700000000000000000e+01
-1.912660002708435059e+00 1.915332436561584029e+00 -6.249140501022338867e-01 1.500000000000000000e+01
-2.227551698684691939e+00 2.231442928314208984e+00 -6.128785014152526855e-01 1.100000000000000000e+01
-2.692532777786254883e+00 2.699119806289672852e+00 -6.038370132446289062e-01 9.000000000000000000e+00
-3.430787801742554155e+00 3.441582918167113814e+00 -5.966722965240478516e-01 9.000000000000000000e+00
-4.612896919250488281e+00 4.629027366638183594e+00 -5.717417001724243164e-01 3.000000000000000000e+00
-7.025432586669921875e+00 7.054922580718994141e+00 -5.217894911766052246e-01 2.000000000000000000e+00
-1.656057357788085938e+00 1.668823957443237083e+00 -6.299655437469482422e-01 1.900000000000000000e+01
-1.899101614952086958e+00 1.915078520774841087e+00 -6.226645112037658691e-01 1.300000000000000000e+01
-2.216984510421752930e+00 2.236416339874268022e+00 -6.121152639389038086e-01 1.200000000000000000e+01
-2.688655376434326172e+00 2.714115619659423828e+00 -6.050885319709777832e-01 9.000000000000000000e+00
-3.407581090927124023e+00 3.442251682281494141e+00 -5.947223901748657227e-01 9.000000000000000000e+00
-4.579893112182617188e+00 4.628106594085693359e+00 -5.696499347686767578e-01 3.000000000000000000e+00
-6.989528656005859375e+00 7.068041801452636719e+00 -5.209521055221557617e-01 2.000000000000000000e+00
-1.654289841651916948e+00 1.678722620010375977e+00 -6.315184831619262695e-01 1.800000000000000000e+01
-1.892405152320862038e+00 1.921695947647094949e+00 -6.226645112037658691e-01 1.300000000000000000e+01
-2.216050863265991211e+00 2.251137018203734907e+00 -6.140233278274536133e-01 1.200000000000000000e+01
-2.676394462585449219e+00 2.720667839050292969e+00 -6.044628024101257324e-01 9.000000000000000000e+00
-3.391369819641112837e+00 3.449878454208374023e+00 -5.939911603927612305e-01 8.000000000000000000e+00
-4.577675342559813565e+00 4.658276081085205078e+00 -5.713930726051330566e-01 6.000000000000000000e+00
-6.964814186096191406e+00 7.092396736145020419e+00 -5.209521055221557617e-01 2.000000000000000000e+00
-1.645717620849608931e+00 1.681725382804871050e+00 -6.304832100868225098e-01 1.900000000000000000e+01
-1.892498135566710982e+00 1.935256361961364968e+00 -6.249140501022338867e-01 1.300000000000000000e+01
-2.202689886093140093e+00 2.253243207931518999e+00 -6.124968528747558594e-01 1.200000000000000000e+01
-2.666881322860718218e+00 2.729993581771851030e+00 -6.044628024101257324e-01 9.000000000000000000e+00
-3.375146865844727007e+00 3.457433938980102983e+00 -5.932599902153015137e-01 9.000000000000000000e+00
-4.558603763580322266e+00 4.671374797821044922e+00 -5.710444450378417969e-01 6.000000000000000000e+00
-6.951169967651367188e+00 7.128104686737061435e+00 -5.217894911766052246e-01 2.000000000000000000e+00
-1.627720236778259055e+00 1.674990892410278098e+00 -6.258244514465332031e-01 1.600000000000000000e+01
-1.884373664855957031e+00 1.940452575683593972e+00 -6.244641542434692383e-01 1.300000000000000000e+01
-2.193443775177001953e+00 2.259509563446044922e+00 -6.121152639389038086e-01 1.200000000000000000e+01
-2.660086393356322798e+00 2.742121934890747070e+00 -6.050885319709777832e-01 9.000000000000000000e+00
-3.369966030120850053e+00 3.476320981979370117e+00 -5.944786667823791504e-01 8.000000000000000000e+00
-4.525631427764892578e+00 4.670089721679688388e+00 -5.689526796340942383e-01 6.000000000000000000e+00
-6.915130615234375000e+00 7.140847206115722656e+00 -5.209521055221557617e-01 2.000000000000000000e+00
-1.631253957748413086e+00 1.690393328666687012e+00 -6.294479370117187500e-01 1.800000000000000000e+01
-1.876236081123352051e+00 1.945615768432616965e+00 -6.240141987800598145e-01 1.500000000000000000e+01
-2.190993547439575195e+00 2.272806167602539062e+00 -6.136417388916015625e-01 1.100000000000000000e+01
-2.642275571823120117e+00 2.742854595184326172e+00 -6.032112836837768555e-01 9.000000000000000000e+00
-3.357810974121094194e+00 3.488063097000122070e+00 -5.944786667823791504e-01 8.000000000000000000e+00
-4.512065410614013672e+00 4.688729763031005859e+00 -5.693013072013854980e-01 6.000000000000000000e+00
-6.854167461395263672e+00 7.127511978149414062e+00 -5.182306170463562012e-01 2.000000000000000000e+00
-1.629353404045104980e+00 1.700261592864990012e+00 -6.310008168220520020e-01 1.900000000000000000e+01
-1.868085384368896040e+00 1.950745701789855957e+00 -6.235643029212951660e-01 1.400000000000000000e+01
-2.185761690139770952e+00 2.283276557922362837e+00 -6.144049763679504395e-01 1.100000000000000000e+01
-2.635416030883789062e+00 2.754916191101074219e+00 -6.038370132446289062e-01 9.000000000000000000e+00
-3.331897735595703125e+00 3.485413789749145952e+00 -5.920412540435791016e-01 8.000000000000000000e+00
-4.473647117614746094e+00 4.681404113769531250e+00 -5.665123462677001953e-01 6.000000000000000000e+00
-6.843039989471436435e+00 7.165838241577148438e+00 -5.192773342132568359e-01 2.000000000000000000e+00
-1.618378162384032981e+00 1.700058460235595925e+00 -6.289302706718444824e-01 1.900000000000000000e+01
-1.854890346527100053e+00 1.949870109558105025e+00 -6.213148236274719238e-01 1.200000000000000000e+01
-2.170060634613037109e+00 2.281976222991942915e+00 -6.121152639389038086e-01 1.100000000000000000e+01
-2.627626657485961914e+00 2.765072345733643022e+00 -6.041498780250549316e-01 8.000000000000000000e+00
-3.314853668212891069e+00 3.490685701370238814e+00 -5.910663008689880371e-01 8.000000000000000000e+00
-4.470443725585938388e+00 4.709218502044677734e+00 -5.680811405181884766e-01 6.000000000000000000e+00
-6.813741207122802734e+00 7.182695388793945312e+00 -5.188586711883544922e-01 2.000000000000000000e+00
-1.615088224411010964e+00 1.708505034446716087e+00 -6.299655437469482422e-01 1.900000000000000000e+01
-5.841181564331054688e+01 6.181196975708007812e+01 1.484466791152954102e+00 1.300000000000000000e+01
-1.850749254226685014e+00 1.959166288375854048e+00 -6.222146153450012207e-01 1.200000000000000000e+01
-2.156690120697021040e+00 2.283827543258666992e+00 -6.105887889862060547e-01 1.100000000000000000e+01
-2.617958784103393999e+00 2.774227619171143022e+00 -6.041498780250549316e-01 9.000000000000000000e+00
-3.305372476577758789e+00 3.505123853683472124e+00 -5.915538072586059570e-01 8.000000000000000000e+00
-4.436211585998535156e+00 4.705947399139404297e+00 -5.658150911331176758e-01 4.000000000000000000e+00
-6.774932384490966797e+00 7.191897869110107422e+00 -5.178119540214538574e-01 2.000000000000000000e+00
-1.602503538131714089e+00 1.707089900970458984e+00 -6.273773908615112305e-01 1.800000000000000000e+01
-1.850565433502197044e+00 1.972720980644226074e+00 -6.244641542434692383e-01 1.300000000000000000e+01
-2.148705005645751953e+00 2.291342020034790039e+00 -6.105887889862060547e-01 1.200000000000000000e+01
-2.604206800460814986e+00 2.779024839401245117e+00 -6.032112836837768555e-01 9.000000000000000000e+00
-3.293117046356201172e+00 3.516640424728393999e+00 -5.915538072586059570e-01 8.000000000000000000e+00
-4.427927494049072266e+00 4.730131626129150391e+00 -5.668609738349914551e-01 4.000000000000000000e+00
-6.738871574401854581e+00 7.203834533691406250e+00 -5.169745683670043945e-01 2.000000000000000000e+00
-1.600486755371093972e+00 1.716912627220154031e+00 -6.289302706718444824e-01 1.900000000000000000e+01
-1.838354945182800071e+00 1.973464965820312944e+00 -6.226645112037658691e-01 1.200000000000000000e+01
-2.143369436264038086e+00 2.301702022552489790e+00 -6.113520264625549316e-01 1.100000000000000000e+01
-2.589107513427733931e+00 2.782313823699951172e+00 -6.019598245620727539e-01 1.000000000000000000e+01
-3.280821800231934038e+00 3.528114080429077148e+00 -5.915538072586059570e-01 8.000000000000000000e+00
-4.403250217437744141e+00 4.736803531646729404e+00 -5.658150911331176758e-01 4.000000000000000000e+00
-6.724558830261229581e+00 7.239020347595214844e+00 -5.178119540214538574e-01 2.000000000000000000e+00
-1.591559052467345969e+00 1.719931364059448020e+00 -6.278949975967407227e-01 1.900000000000000000e+01
-1.827140331268310991e+00 1.975897312164307085e+00 -6.213148236274719238e-01 1.300000000000000000e+01
-2.136251688003540039e+00 2.310983896255493164e+00 -6.117336153984069824e-01 1.200000000000000000e+01
-2.570850372314453125e+00 2.783078432083129883e+00 -6.000826358795166016e-01 9.000000000000000000e+00
-3.265175580978393999e+00 3.537197828292847124e+00 -5.910663008689880371e-01 9.000000000000000000e+00
-4.384508132934570312e+00 4.751445770263671875e+00 -5.656407475471496582e-01 4.000000000000000000e+00
-6.692565441131591797e+00 7.257745265960693359e+00 -5.173932909965515137e-01 2.000000000000000000e+00
-1.589467048645019975e+00 1.729743838310241921e+00 -6.294479370117187500e-01 1.900000000000000000e+01
-1.820232033729553001e+00 1.982263207435607910e+00 -6.213148236274719238e-01 1.300000000000000000e+01
-2.122861385345458984e+00 2.312641620635985884e+00 -6.102071404457092285e-01 1.200000000000000000e+01
-2.569131612777709961e+00 2.800769567489624023e+00 -6.019598245620727539e-01 9.000000000000000000e+00
-3.247442960739136186e+00 3.542720556259154829e+00 -5.900913476943969727e-01 9.000000000000000000e+00
-4.371933937072753906e+00 4.771128654479979581e+00 -5.661637187004089355e-01 4.000000000000000000e+00
-6.624028205871582031e+00 7.233926296234130859e+00 -5.140437483787536621e-01 2.000000000000000000e+00
-1.399353027343750000e+01 1.529267883300781072e+01 -3.618232905864716131e-01 3.000000000000000000e+00
-1.575907826423645020e+00 1.726444363594054954e+00 -6.263421177864074707e-01 1.800000000000000000e+01
-1.816275119781493919e+00 1.991167902946471946e+00 -6.222146153450012207e-01 1.500000000000000000e+01
-2.112534999847412109e+00 2.316767215728760210e+00 -6.094439029693603516e-01 1.200000000000000000e+01
-2.566482305526732954e+00 2.816574335098267046e+00 -6.035241484642028809e-01 9.000000000000000000e+00
-3.230331182479857954e+00 3.547599077224731001e+00 -5.891163945198059082e-01 8.000000000000000000e+00
-4.353405952453613281e+00 4.782653331756591797e+00 -5.658150911331176758e-01 4.000000000000000000e+00
-6.610754966735839844e+00 7.267672538757324219e+00 -5.148811340332031250e-01 2.000000000000000000e+00
-1.571169257164001021e+00 1.733366131782531960e+00 -6.268597245216369629e-01 1.800000000000000000e+01
-1.813238382339477983e+00 2.001828670501708984e+00 -6.235643029212951660e-01 1.400000000000000000e+01
-2.099164247512816939e+00 2.318305969238280806e+00 -6.079174876213073730e-01 1.200000000000000000e+01
-2.550008058547974077e+00 2.818192243576049805e+00 -6.019598245620727539e-01 9.000000000000000000e+00
-3.224584817886352983e+00 3.566215515136719194e+00 -5.903350710868835449e-01 9.000000000000000000e+00
-4.325996875762938565e+00 4.785995960235595703e+00 -5.644205808639526367e-01 7.000000000000000000e+00
-6.574635505676270419e+00 7.278846740722656250e+00 -5.140437483787536621e-01 2.000000000000000000e+00
-1.563513398170470969e+00 1.737676978111267090e+00 -6.263421177864074707e-01 1.900000000000000000e+01
-1.805889129638672097e+00 2.008460998535155806e+00 -6.235643029212951660e-01 1.400000000000000000e+01
-2.099839925765991211e+00 2.336205005645751953e+00 -6.105887889862060547e-01 1.300000000000000000e+01
-2.523821830749512163e+00 2.809884309768677202e+00 -5.982053875923156738e-01 9.000000000000000000e+00
-3.218122243881226030e+00 3.585396766662598100e+00 -5.915538072586059570e-01 8.000000000000000000e+00
-4.295120239257813388e+00 4.786989688873291016e+00 -5.626775026321411133e-01 7.000000000000000000e+00
-6.542579650878906250e+00 7.296947002410888672e+00 -5.136250853538513184e-01 2.000000000000000000e+00
-1.556151151657104048e+00 1.741683483123779075e+00 -6.258244514465332031e-01 1.700000000000000000e+01
-1.792377829551696999e+00 2.007484436035155806e+00 -6.213148236274719238e-01 1.100000000000000000e+01
-2.091672182083129883e+00 2.343520641326903853e+00 -6.105887889862060547e-01 1.100000000000000000e+01
-2.519257545471190962e+00 2.824573755264281782e+00 -5.994568467140197754e-01 9.000000000000000000e+00
-3.192379236221313032e+00 3.581789016723632812e+00 -5.891163945198059082e-01 8.000000000000000000e+00
-4.279709815979003906e+00 4.803441047668457031e+00 -5.628517866134643555e-01 6.000000000000000000e+00
-6.498475074768066406e+00 7.298856735229492188e+00 -5.121596455574035645e-01 2.000000000000000000e+00
-1.560625791549683061e+00 1.758393168449402078e+00 -6.299655437469482422e-01 1.800000000000000000e+01
-1.785710930824280007e+00 2.013417005538939986e+00 -6.213148236274719238e-01 1.100000000000000000e+01
-2.078679561614989790e+00 2.344567775726317915e+00 -6.090623140335083008e-01 1.100000000000000000e+01
-2.507257223129272017e+00 2.829955339431763139e+00 -5.988311171531677246e-01 9.000000000000000000e+00
-3.169956922531127930e+00 3.580465316772460938e+00 -5.871664881706237793e-01 8.000000000000000000e+00
-4.254514217376708984e+00 4.807162761688232422e+00 -5.616316199302673340e-01 6.000000000000000000e+00
-6.466296672821044922e+00 7.311389923095703125e+00 -5.115316510200500488e-01 2.000000000000000000e+00
-1.549369096755981001e+00 1.758032798767090066e+00 -6.278949975967407227e-01 1.900000000000000000e+01
-1.770944237709044966e+00 2.010863304138184038e+00 -6.186153888702392578e-01 1.100000000000000000e+01
-2.073077440261840820e+00 2.354756593704224077e+00 -6.098255515098571777e-01 1.200000000000000000e+01
-2.510411500930786133e+00 2.853521108627318892e+00 -6.019598245620727539e-01 9.000000000000000000e+00
-3.157439470291138139e+00 3.591508865356444868e+00 -5.871664881706237793e-01 9.000000000000000000e+00
-4.242969036102294922e+00 4.827970981597900391e+00 -5.623288750648498535e-01 7.000000000000000000e+00
-6.456551074981688565e+00 7.351924896240234375e+00 -5.127876996994018555e-01 2.000000000000000000e+00
-1.530805826187134011e+00 1.748625397682189941e+00 -6.227186322212219238e-01 1.800000000000000000e+01
-5.848290634155272727e+01 6.682801818847656250e+01 1.550087809562683105e+00 6.000000000000000000e+00
-1.779663443565369096e+00 2.034325599670410156e+00 -6.240141987800598145e-01 1.300000000000000000e+01
-2.062672615051269975e+00 2.358662605285644975e+00 -6.090623140335083008e-01 1.100000000000000000e+01
-2.498335361480712891e+00 2.858855485916138139e+00 -6.013340950012207031e-01 9.000000000000000000e+00
-3.138983488082886186e+00 3.594483375549315962e+00 -5.859478116035461426e-01 9.000000000000000000e+00
-4.224315166473388672e+00 4.839012622833251953e+00 -5.619802474975585938e-01 6.000000000000000000e+00
-6.437387466430664062e+00 7.379315853118895596e+00 -5.132063627243041992e-01 2.000000000000000000e+00
-1.309819316864014027e+01 1.502532482147216975e+01 -3.479311764240264893e-01 3.000000000000000000e+00
-1.527227520942687988e+00 1.756874322891234907e+00 -6.237539052963256836e-01 1.700000000000000000e+01
-1.768717527389525923e+00 2.036111831665039062e+00 -6.226645112037658691e-01 1.600000000000000000e+01
-2.053139448165893999e+00 2.364365816116333008e+00 -6.086806654930114746e-01 1.100000000000000000e+01
-2.472804784774779829e+00 2.849655151367187944e+00 -5.975796580314636230e-01 9.000000000000000000e+00
-3.132920026779174805e+00 3.612917423248291016e+00 -5.871664881706237793e-01 8.000000000000000000e+00
-4.193042755126953125e+00 4.837168216705322266e+00 -5.600628256797790527e-01 4.000000000000000000e+00
-6.351435661315917969e+00 7.332298278808593750e+00 -5.083914995193481445e-01 2.000000000000000000e+00
-1.291478919982909979e+01 1.491976070404052912e+01 -3.444406986236572266e-01 3.000000000000000000e+00
-1.526134848594665971e+00 1.768044233322143999e+00 -6.258244514465332031e-01 1.700000000000000000e+01
-1.756508111953734907e+00 2.036370754241942915e+00 -6.208649277687072754e-01 1.600000000000000000e+01
-2.048719882965087891e+00 2.375978946685791016e+00 -6.098255515098571777e-01 1.200000000000000000e+01
-2.468000411987305132e+00 2.864255428314208984e+00 -5.988311171531677246e-01 9.000000000000000000e+00
-3.117698907852172852e+00 3.620822668075561968e+00 -5.866790413856506348e-01 8.000000000000000000e+00
-4.172233104705811435e+00 4.847245216369628906e+00 -5.595398545265197754e-01 4.000000000000000000e+00
-6.307569026947020596e+00 7.333225250244140625e+00 -5.069260597229003906e-01 2.000000000000000000e+00
-1.282613372802734020e+01 1.492228984832764027e+01 -3.434633612632750910e-01 3.000000000000000000e+00
-1.521211147308350053e+00 1.774827480316162109e+00 -6.263421177864074707e-01 1.900000000000000000e+01
-1.746853709220886008e+00 2.039529561996459961e+00 -6.199650764465332031e-01 1.500000000000000000e+01
-2.040413618087768999e+00 2.383115768432617188e+00 -6.098255515098571777e-01 1.100000000000000000e+01
-2.463124036788939986e+00 2.878856897354125977e+00 -6.000826358795166016e-01 9.000000000000000000e+00
-3.105040788650513139e+00 3.631683588027954102e+00 -5.866790413856506348e-01 8.000000000000000000e+00
-4.156582355499267578e+00 4.863294124603270596e+00 -5.597141981124877930e-01 4.000000000000000000e+00
-6.315657615661621094e+00 7.394685268402099609e+00 -5.096475481986999512e-01 2.000000000000000000e+00
-1.511250257492064986e+00 1.775713086128235085e+00 -6.247891783714294434e-01 1.900000000000000000e+01
-1.749823808670043945e+00 2.057490825653076172e+00 -6.235643029212951660e-01 1.500000000000000000e+01
-2.024452924728393999e+00 2.381248950958251953e+00 -6.075358390808105469e-01 1.100000000000000000e+01
-2.453059911727904829e+00 2.887437105178833008e+00 -6.000826358795166016e-01 9.000000000000000000e+00
-3.087206125259398970e+00 3.636446714401245117e+00 -5.857040882110595703e-01 8.000000000000000000e+00
-4.138291835784912109e+00 4.876254558563232422e+00 -5.595398545265197754e-01 4.000000000000000000e+00
-6.271721839904785156e+00 7.395360469818115234e+00 -5.081821084022521973e-01 2.000000000000000000e+00
-1.258201694488525035e+01 1.484670829772949041e+01 -3.396936357021331787e-01 3.000000000000000000e+00
-1.503795742988585982e+00 1.779502034187316895e+00 -6.242715120315551758e-01 1.600000000000000000e+01
-1.737601995468140093e+00 2.057630777359008789e+00 -6.217647194862365723e-01 1.500000000000000000e+01
-2.018661260604857954e+00 2.391301631927489790e+00 -6.082990765571594238e-01 1.100000000000000000e+01
-2.439144849777222124e+00 2.891452789306641069e+00 -5.991439819335937500e-01 9.000000000000000000e+00
-3.077052593231201172e+00 3.650236606597899947e+00 -5.861915349960327148e-01 8.000000000000000000e+00
-4.104554653167724609e+00 4.870863437652587891e+00 -5.572738051414489746e-01 4.000000000000000000e+00
-6.209847450256347656e+00 7.374431133270263672e+00 -5.052513480186462402e-01 2.000000000000000000e+00
-1.254041576385498047e+01 1.490277767181395951e+01 -3.399728834629058838e-01 3.000000000000000000e+00
-1.494471073150634988e+00 1.779779195785522017e+00 -6.227186322212219238e-01 1.600000000000000000e+01
-1.738644957542418990e+00 2.072036266326903853e+00 -6.244641542434692383e-01 1.500000000000000000e+01
-2.013662099838256836e+00 2.400639772415161133e+00 -6.090623140335083008e-01 1.100000000000000000e+01
-2.424973249435424805e+00 2.893045663833618164e+00 -5.978925228118896484e-01 9.000000000000000000e+00
-3.069393873214722124e+00 3.664450645446776900e+00 -5.869227647781372070e-01 9.000000000000000000e+00
-4.095627784729003906e+00 4.891372203826904297e+00 -5.581454038619995117e-01 4.000000000000000000e+00
-6.186649322509765625e+00 7.393903255462645596e+00 -5.052513480186462402e-01 2.000000000000000000e+00
-1.247814369201659979e+01 1.492369174957275035e+01 -3.395540118217468262e-01 3.000000000000000000e+00
-1.499383330345154031e+00 1.798339009284972922e+00 -6.273773908615112305e-01 1.600000000000000000e+01
-1.721422314643860085e+00 2.066115140914916992e+00 -6.208649277687072754e-01 1.500000000000000000e+01
-2.010295867919921875e+00 2.413688421249390093e+00 -6.105887889862060547e-01 1.100000000000000000e+01
-2.414860010147095171e+00 2.901492834091186968e+00 -5.978925228118896484e-01 8.000000000000000000e+00
-3.047698497772216797e+00 3.664458990097045898e+00 -5.852165818214416504e-01 8.000000000000000000e+00
-4.070886135101318359e+00 4.896446704864501953e+00 -5.570995211601257324e-01 6.000000000000000000e+00
-6.148038864135742188e+00 7.400091171264648438e+00 -5.042046308517456055e-01 2.000000000000000000e+00
-1.241320037841797053e+01 1.495177173614501953e+01 -3.392049670219420832e-01 3.000000000000000000e+00
-1.491235852241515891e+00 1.802594423294066939e+00 -6.268597245216369629e-01 1.800000000000000000e+01
-1.712234616279602051e+00 2.071207761764525923e+00 -6.204150319099426270e-01 1.200000000000000000e+01
-1.988506793975830078e+00 2.406255960464477983e+00 -6.067726016044616699e-01 1.100000000000000000e+01
-2.406216859817504883e+00 2.913789987564086914e+00 -5.985182523727416992e-01 8.000000000000000000e+00
-3.031078577041625977e+00 3.673072099685668945e+00 -5.847291350364685059e-01 8.000000000000000000e+00
-4.067269325256347656e+00 4.930484771728515625e+00 -5.591912269592285156e-01 4.000000000000000000e+00
-6.132283687591552734e+00 7.439054965972900391e+00 -5.052513480186462402e-01 2.000000000000000000e+00
-1.229212760925292969e+01 1.492215251922607067e+01 -3.374597430229187012e-01 3.000000000000000000e+00
-1.487386941909790039e+00 1.810774445533751997e+00 -6.278949975967407227e-01 1.700000000000000000e+01
-1.709939956665039062e+00 2.083197116851807085e+00 -6.222146153450012207e-01 1.100000000000000000e+01
-1.980095267295836958e+00 2.413182497024536133e+00 -6.067726016044616699e-01 1.100000000000000000e+01
-2.399788618087768999e+00 2.926754236221313032e+00 -5.994568467140197754e-01 9.000000000000000000e+00
-3.015722274780272993e+00 3.680559158325194868e+00 -5.842416286468505859e-01 8.000000000000000000e+00
-4.022259712219238281e+00 4.910742282867431641e+00 -5.553563833236694336e-01 6.000000000000000000e+00
-6.106278896331787109e+00 7.460414886474609375e+00 -5.052513480186462402e-01 2.000000000000000000e+00
-1.223996448516846058e+01 1.496496868133544922e+01 -3.374597430229187012e-01 3.000000000000000000e+00
-1.468847155570984109e+00 1.800984621047974077e+00 -6.227186322212219238e-01 1.700000000000000000e+01
-1.695271015167236106e+00 2.080089569091796875e+00 -6.195151805877685547e-01 1.200000000000000000e+01
-1.972899675369262917e+00 2.421601772308350053e+00 -6.071542501449584961e-01 1.000000000000000000e+01
-2.379580497741699219e+00 2.922857999801636186e+00 -5.969539284706115723e-01 9.000000000000000000e+00
-3.005362033843994141e+00 3.694143295288085938e+00 -5.847291350364685059e-01 8.000000000000000000e+00
-4.006350517272949219e+00 4.926298618316650391e+00 -5.555307269096374512e-01 6.000000000000000000e+00
-6.060046195983886719e+00 7.456885337829589844e+00 -5.035765767097473145e-01 2.000000000000000000e+00
-1.218765258789063033e+01 1.500760269165039062e+01 -3.374597430229187012e-01 3.000000000000000000e+00
-1.469846129417418990e+00 1.815108776092529075e+00 -6.258244514465332031e-01 1.700000000000000000e+01
-1.685548067092895952e+00 2.082964897155762163e+00 -6.186153888702392578e-01 1.200000000000000000e+01
-1.973077654838562012e+00 2.439158201217650923e+00 -6.098255515098571777e-01 1.100000000000000000e+01
-2.374330520629882812e+00 2.937291383743286133e+00 -5.982053875923156738e-01 9.000000000000000000e+00
-2.998685598373413086e+00 3.712332725524901900e+00 -5.859478116035461426e-01 9.000000000000000000e+00
-3.985374927520751953e+00 4.935603141784667969e+00 -5.550077557563781738e-01 7.000000000000000000e+00
-6.003879070281982422e+00 7.440688610076904297e+00 -5.010644197463989258e-01 2.000000000000000000e+00
-1.200967216491699041e+01 1.489438533782958984e+01 -3.339692354202271063e-01 3.000000000000000000e+00
-1.467451214790344016e+00 1.824489116668700950e+00 -6.273773908615112305e-01 1.600000000000000000e+01
-1.674969077110290971e+00 2.083986043930054155e+00 -6.172657012939453125e-01 1.300000000000000000e+01
-1.955141186714171919e+00 2.433444023132324219e+00 -6.067726016044616699e-01 1.100000000000000000e+01
-2.364577054977416992e+00 2.945148706436156782e+00 -5.982053875923156738e-01 9.000000000000000000e+00
-2.981389522552489790e+00 3.716062784194945845e+00 -5.849728584289550781e-01 9.000000000000000000e+00
-3.960260152816772017e+00 4.937911987304688388e+00 -5.537875890731811523e-01 6.000000000000000000e+00
-5.991662025451660156e+00 7.476142406463623047e+00 -5.021111369132995605e-01 2.000000000000000000e+00
-1.196021461486816051e+01 1.493412971496582031e+01 -3.339692354202271063e-01 3.000000000000000000e+00
-1.464690208435059038e+00 1.834129095077515093e+00 -6.289302706718444824e-01 1.800000000000000000e+01
-1.670115351676940918e+00 2.092866420745850053e+00 -6.181654930114746094e-01 1.300000000000000000e+01
-1.946634888648987038e+00 2.440253973007202148e+00 -6.067726016044616699e-01 1.100000000000000000e+01
-2.346894264221190962e+00 2.944116830825806108e+00 -5.963281989097595215e-01 9.000000000000000000e+00
-2.968400001525878906e+00 3.726447105407714844e+00 -5.849728584289550781e-01 9.000000000000000000e+00
-3.940517425537108931e+00 4.948588371276854581e+00 -5.534389615058898926e-01 4.000000000000000000e+00
-5.953093051910400391e+00 7.481383323669433594e+00 -5.010644197463989258e-01 2.000000000000000000e+00
-1.190801239013672053e+01 1.497578716278075994e+01 -3.339692354202271063e-01 3.000000000000000000e+00
-1.448995947837830034e+00 1.826867580413817915e+00 -6.247891783714294434e-01 1.600000000000000000e+01
-1.665586948394774947e+00 2.101447582244873047e+00 -6.190652847290039062e-01 1.300000000000000000e+01
-1.927559256553649902e+00 2.432846546173096147e+00 -6.033380627632141113e-01 1.100000000000000000e+01
-2.349380254745482954e+00 2.967370510101317915e+00 -5.994568467140197754e-01 9.000000000000000000e+00
-2.951099634170531782e+00 3.730043172836304155e+00 -5.839979052543640137e-01 1.100000000000000000e+01
-3.932737112045288086e+00 4.972567558288574219e+00 -5.546591281890869141e-01 4.000000000000000000e+00
-5.903482913970947266e+00 7.469743728637695312e+00 -4.989710152149199884e-01 2.000000000000000000e+00
-1.179631710052490057e+01 1.493672752380370916e+01 -3.322240114212036133e-01 3.000000000000000000e+00
-1.435438990592956987e+00 1.822807908058166948e+00 -6.216833591461181641e-01 1.700000000000000000e+01
-1.657036185264586958e+00 2.105717420578002930e+00 -6.186153888702392578e-01 1.400000000000000000e+01
-1.923910498619080034e+00 2.445732355117797852e+00 -6.048645377159118652e-01 1.100000000000000000e+01
-2.335345506668090820e+00 2.970894336700439009e+00 -5.985182523727416992e-01 8.000000000000000000e+00
-2.938061237335205078e+00 3.740321636199951172e+00 -5.839979052543640137e-01 9.000000000000000000e+00
-3.895668029785155806e+00 4.961192607879638672e+00 -5.518701672554016113e-01 4.000000000000000000e+00
-5.857645988464354581e+00 7.465164661407470703e+00 -4.972962439060211182e-01 2.000000000000000000e+00
-1.176138019561767933e+01 1.499984455108642933e+01 -3.327126801013947088e-01 3.000000000000000000e+00
-1.427877545356750044e+00 1.826285481452941895e+00 -6.211656928062438965e-01 1.600000000000000000e+01
-1.655674576759337935e+00 2.119166851043701172e+00 -6.208649277687072754e-01 1.500000000000000000e+01
-1.921403765678405984e+00 2.460169553756713867e+00 -6.067726016044616699e-01 1.000000000000000000e+01
-2.318884134292602983e+00 2.971241950988769975e+00 -5.969539284706115723e-01 9.000000000000000000e+00
-2.929870367050170898e+00 3.756815910339355025e+00 -5.849728584289550781e-01 9.000000000000000000e+00
-3.868526697158813032e+00 4.962190628051757812e+00 -5.504756569862365723e-01 7.000000000000000000e+00
-5.836461544036865234e+00 7.491868495941162109e+00 -4.977149367332457941e-01 2.000000000000000000e+00
-1.170894908905028942e+01 1.504080772399901988e+01 -3.327126801013947088e-01 3.000000000000000000e+00
-1.427416801452636941e+00 1.838888883590698020e+00 -6.237539052963256836e-01 1.700000000000000000e+01
-1.638712048530579057e+00 2.112614870071411133e+00 -6.172657012939453125e-01 1.500000000000000000e+01
-1.910398483276366965e+00 2.463758707046508789e+00 -6.060093641281127930e-01 9.000000000000000000e+00
-2.308498382568358931e+00 2.979318141937255859e+00 -5.969539284706115723e-01 9.000000000000000000e+00
-2.904585599899291992e+00 3.751324415206909180e+00 -5.825354456901550293e-01 9.000000000000000000e+00
-3.856059789657593218e+00 4.981966018676757812e+00 -5.511729121208190918e-01 7.000000000000000000e+00
-5.805387020111083984e+00 7.505876541137695312e+00 -4.972962439060211182e-01 2.000000000000000000e+00
-1.163925552368164062e+01 1.505943679809569957e+01 -3.322240114212036133e-01 3.000000000000000000e+00
-1.430423140525818093e+00 1.856101632118225098e+00 -6.278949975967407227e-01 1.800000000000000000e+01
-1.630138754844665971e+00 2.116778135299683061e+00 -6.168158054351806641e-01 1.600000000000000000e+01
-1.898193836212157981e+00 2.465745210647583008e+00 -6.048645377159118652e-01 1.000000000000000000e+01
-2.289653539657593218e+00 2.976398229598999023e+00 -5.947638154029846191e-01 8.000000000000000000e+00
-2.886634111404418945e+00 3.755145072937012163e+00 -5.815604925155639648e-01 9.000000000000000000e+00
-3.827719926834106001e+00 4.981177806854248047e+00 -5.496041178703308105e-01 7.000000000000000000e+00
-5.771852493286132812e+00 7.516590595245361328e+00 -4.966682195663452148e-01 2.000000000000000000e+00
-1.158661746978759943e+01 1.509997367858887074e+01 -3.322240114212036133e-01 3.000000000000000000e+00
-1.415718197822571023e+00 1.850343465805053933e+00 -6.242715120315551758e-01 1.600000000000000000e+01
-1.626290678977966087e+00 2.127099990844727007e+00 -6.181654930114746094e-01 1.500000000000000000e+01
-1.884806632995605025e+00 2.466116666793822798e+00 -6.033380627632141113e-01 1.000000000000000000e+01
-2.292438745498656782e+00 3.001641273498535156e+00 -5.982053875923156738e-01 9.000000000000000000e+00
-2.885551929473876953e+00 3.780978918075561968e+00 -5.839979052543640137e-01 9.000000000000000000e+00
-3.801849842071533203e+00 4.983420372009277344e+00 -5.483839511871337891e-01 6.000000000000000000e+00
-5.748001575469970703e+00 7.539869308471679688e+00 -4.968775808811187744e-01 2.000000000000000000e+00
-1.147324848175049006e+01 1.506079196929931996e+01 -3.304787576198577881e-01 3.000000000000000000e+00
-1.404253721237183061e+00 1.849365711212157981e+00 -6.222009658813476562e-01 1.600000000000000000e+01
-1.624373197555541992e+00 2.140808343887329102e+00 -6.204150319099426270e-01 1.600000000000000000e+01
-1.878128051757812944e+00 2.476136684417725053e+00 -6.041013002395629883e-01 1.000000000000000000e+01
-2.276648998260498047e+00 3.003726243972777876e+00 -5.969539284706115723e-01 9.000000000000000000e+00
-2.876468658447266069e+00 3.797859191894530806e+00 -5.849728584289550781e-01 9.000000000000000000e+00
-3.781153917312622070e+00 4.994144439697265625e+00 -5.480353236198425293e-01 7.000000000000000000e+00
-5.713097572326660156e+00 7.551329612731933594e+00 -4.962495267391204834e-01 2.000000000000000000e+00
-1.135767364501952947e+01 1.502298545837401988e+01 -3.287335336208344061e-01 3.000000000000000000e+00
-1.403604149818419966e+00 1.861969351768494096e+00 -6.247891783714294434e-01 1.700000000000000000e+01
-1.607510447502136008e+00 2.134013175964355025e+00 -6.168158054351806641e-01 1.700000000000000000e+01
-1.875378131866455078e+00 2.490519046783446822e+00 -6.060093641281127930e-01 1.100000000000000000e+01
-2.256648540496826172e+00 2.999027490615845171e+00 -5.944509506225585938e-01 9.000000000000000000e+00
-2.860808134078979048e+00 3.804703712463378906e+00 -5.844853520393371582e-01 9.000000000000000000e+00
-3.754121065139770952e+00 4.994571208953857422e+00 -5.466408133506774902e-01 6.000000000000000000e+00
-5.669911384582520419e+00 7.548868179321289062e+00 -4.947841167449951172e-01 2.000000000000000000e+00
-1.397096037864685059e+00 1.866857528686522993e+00 -6.247891783714294434e-01 1.700000000000000000e+01
-1.595383286476135032e+00 2.133368968963623047e+00 -6.150161623954772949e-01 1.600000000000000000e+01
-1.865497708320617898e+00 2.495477914810181108e+00 -6.056277751922607422e-01 1.100000000000000000e+01
-2.248530387878417969e+00 3.010051488876343218e+00 -5.950766801834106445e-01 9.000000000000000000e+00
-2.838010072708129883e+00 3.801940441131591797e+00 -5.825354456901550293e-01 9.000000000000000000e+00
-3.736664056777954102e+00 5.007645130157470703e+00 -5.466408133506774902e-01 8.000000000000000000e+00
-5.643526077270507812e+00 7.568614006042479581e+00 -4.947841167449951172e-01 2.000000000000000000e+00
-1.125251674652099965e+01 1.510190963745117010e+01 -3.287335336208344061e-01 3.000000000000000000e+00
-1.394027352333069070e+00 1.876375079154968040e+00 -6.263421177864074707e-01 1.400000000000000000e+01
-1.586765050888061968e+00 2.137360334396361861e+00 -6.145662665367126465e-01 1.600000000000000000e+01
-1.860285401344299094e+00 2.506704092025756836e+00 -6.067726016044616699e-01 1.100000000000000000e+01
-2.238009691238402876e+00 3.017882108688354048e+00 -5.950766801834106445e-01 9.000000000000000000e+00
-2.810538768768310991e+00 3.792684793472290039e+00 -5.796105861663818359e-01 9.000000000000000000e+00
-3.726277112960814986e+00 5.030263900756835938e+00 -5.476866960525512695e-01 8.000000000000000000e+00
-5.617072582244873047e+00 7.588267326354979581e+00 -4.947841167449951172e-01 2.000000000000000000e+00
-1.118308448791504084e+01 1.511858940124512074e+01 -3.282448649406433105e-01 3.000000000000000000e+00
-1.382389545440674050e+00 1.872973561286926047e+00 -6.237539052963256836e-01 1.100000000000000000e+01
-1.590452790260314941e+00 2.156449556350708008e+00 -6.186153888702392578e-01 1.700000000000000000e+01
-1.840750932693481001e+00 2.496733903884888139e+00 -6.029564142227172852e-01 1.100000000000000000e+01
-2.233204364776610884e+00 3.031259536743164062e+00 -5.963281989097595215e-01 9.000000000000000000e+00
-2.802140474319458008e+00 3.806291580200194868e+00 -5.803418159484863281e-01 1.100000000000000000e+01
-3.686837196350098100e+00 5.009851455688476562e+00 -5.442004799842834473e-01 6.000000000000000000e+00
-5.569540500640869141e+00 7.573696136474609375e+00 -4.926906824111937921e-01 1.000000000000000000e+00
-1.109290409088134943e+01 1.509563636779784979e+01 -3.269882798194885254e-01 3.000000000000000000e+00
-1.372417926788330078e+00 1.873112678527832031e+00 -6.222009658813476562e-01 1.000000000000000000e+01
-1.582915663719177024e+00 2.161988258361815962e+00 -6.186153888702392578e-01 1.700000000000000000e+01
-1.835502982139586958e+00 2.507896900177001953e+00 -6.041013002395629883e-01 1.200000000000000000e+01
-2.217945337295531782e+00 3.032658576965332031e+00 -5.950766801834106445e-01 9.000000000000000000e+00
-2.794693470001221147e+00 3.824063301086425781e+00 -5.815604925155639648e-01 1.100000000000000000e+01
-3.688132047653197798e+00 5.048431396484375000e+00 -5.469894409179687500e-01 8.000000000000000000e+00
-5.566621780395507812e+00 7.625354290008544922e+00 -4.947841167449951172e-01 2.000000000000000000e+00
-1.104014301300049006e+01 1.513426589965819957e+01 -3.269882798194885254e-01 3.000000000000000000e+00
-1.364079833030700906e+00 1.876805782318115012e+00 -6.216833591461181641e-01 7.000000000000000000e+00
-1.567731618881226030e+00 2.158589601516724077e+00 -6.159160137176513672e-01 1.700000000000000000e+01
-1.827013254165648970e+00 2.516514778137207031e+00 -6.044828891754150391e-01 1.200000000000000000e+01
-2.203964471817017046e+00 3.037954568862915039e+00 -5.944509506225585938e-01 9.000000000000000000e+00
-2.771833658218383789e+00 3.823515415191649947e+00 -5.798543095588684082e-01 1.100000000000000000e+01
