2.452586650848389116e+00 -1.615341067314147949e+00 -6.780024766921997070e-01 1.100000000000000000e+01
2.885336637496947798e+00 -1.901084303855895996e+00 -6.716476678848266602e-01 1.200000000000000000e+01
3.547297954559326172e+00 -2.339012145996094194e+00 -6.729810833930969238e-01 1.000000000000000000e+01
4.513309955596923828e+00 -2.978240489959716797e+00 -6.639441847801208496e-01 1.700000000000000000e+01
6.501420974731445312e+00 -4.291783332824707031e+00 -6.815578937530517578e-01 2.000000000000000000e+00
4.461988067626953125e+01 -2.949966812133789062e+01 -9.336688518524169922e-01 1.400000000000000000e+01
2.094626426696776900e+00 -1.389033198356627974e+00 -6.734471321105957031e-01 1.600000000000000000e+01
2.440438270568848100e+00 -1.619582176208496094e+00 -6.762028932571411133e-01 1.200000000000000000e+01
2.883589982986450195e+00 -1.914402008056641069e+00 -6.727924942970275879e-01 1.100000000000000000e+01
3.527594327926636186e+00 -2.343728065490723100e+00 -6.707909703254699707e-01 1.000000000000000000e+01
4.521070003509520596e+00 -3.006067037582397017e+00 -6.666253209114074707e-01 1.900000000000000000e+01
6.476446628570556641e+00 -4.307830810546875000e+00 -6.805120110511779785e-01 4.000000000000000000e+00
2.099402666091918945e+00 -1.402776002883910911e+00 -6.765530109405517578e-01 2.000000000000000000e+01
2.434770107269287109e+00 -1.628090977668761985e+00 -6.762028932571411133e-01 1.100000000000000000e+01
2.886680841445922852e+00 -1.931005477905272993e+00 -6.750822067260742188e-01 1.100000000000000000e+01
3.529240846633911133e+00 -2.362620830535889116e+00 -6.726682186126708984e-01 1.000000000000000000e+01
4.513847351074218750e+00 -3.024039745330810991e+00 -6.671127676963806152e-01 2.900000000000000000e+01
6.444819450378417969e+00 -4.319319248199462891e+00 -6.787689328193664551e-01 3.000000000000000000e+00
2.099300861358643022e+00 -1.413332343101501021e+00 -6.781058907508850098e-01 2.500000000000000000e+01
2.425839900970458984e+00 -1.634402275085448997e+00 -6.753030419349670410e-01 1.100000000000000000e+01
2.870154857635498047e+00 -1.934486508369446023e+00 -6.727924942970275879e-01 1.100000000000000000e+01
3.527522802352904829e+00 -2.379344224929810014e+00 -6.739196777343750000e-01 1.000000000000000000e+01
4.508200168609619141e+00 -3.043109655380249023e+00 -6.678439974784851074e-01 2.600000000000000000e+01
6.442912578582763672e+00 -4.350709438323974609e+00 -6.801634430885314941e-01 3.000000000000000000e+00
2.087959527969359907e+00 -1.416313886642456055e+00 -6.760353446006774902e-01 2.500000000000000000e+01
2.433018684387207031e+00 -1.651616096496582031e+00 -6.789022684097290039e-01 1.100000000000000000e+01
2.866632938385010210e+00 -1.946699261665344016e+00 -6.735557317733764648e-01 1.200000000000000000e+01
3.515928268432617188e+00 -2.389422416687012163e+00 -6.732939481735229492e-01 1.000000000000000000e+01
4.505757331848145419e+00 -3.064409255981444868e+00 -6.690626740455627441e-01 2.100000000000000000e+01
6.388151645660400391e+00 -4.346274852752686435e+00 -6.759799122810363770e-01 4.000000000000000000e+00
2.079813241958618164e+00 -1.421413421630858931e+00 -6.750000715255737305e-01 2.400000000000000000e+01
2.432064056396483931e+00 -1.663399338722229004e+00 -6.802520155906677246e-01 1.000000000000000000e+01
2.856579542160034180e+00 -1.954476594924926980e+00 -6.727924942970275879e-01 1.100000000000000000e+01
3.515715837478638139e+00 -2.407260894775391069e+00 -6.748582720756530762e-01 9.000000000000000000e+00
4.511408805847167969e+00 -3.091339588165283203e+00 -6.715000867843627930e-01 2.600000000000000000e+01
6.359794616699218750e+00 -4.359535217285156250e+00 -6.745854616165161133e-01 5.000000000000000000e+00
2.074589490890502930e+00 -1.429026842117310014e+00 -6.750000715255737305e-01 2.500000000000000000e+01
2.416324377059936968e+00 -1.665665984153748003e+00 -6.775525808334350586e-01 1.100000000000000000e+01
2.859094381332397017e+00 -1.971620678901671919e+00 -6.750822067260742188e-01 1.100000000000000000e+01
3.495488405227661133e+00 -2.412276506423950195e+00 -6.726682186126708984e-01 1.100000000000000000e+01
4.529449462890625000e+00 -3.128159284591674805e+00 -6.758874058723449707e-01 2.900000000000000000e+01
6.284761428833007812e+00 -4.342045307159423828e+00 -6.683102250099182129e-01 6.000000000000000000e+00
2.082285404205321822e+00 -1.445071220397948997e+00 -6.791411638259887695e-01 2.200000000000000000e+01
2.407294273376464844e+00 -1.671867132186890093e+00 -6.766527891159057617e-01 1.200000000000000000e+01
2.860256195068358931e+00 -1.987189650535583052e+00 -6.769903302192687988e-01 1.100000000000000000e+01
3.493534326553345171e+00 -2.428973913192749023e+00 -6.739196777343750000e-01 1.000000000000000000e+01
4.521761417388916016e+00 -3.146218538284302202e+00 -6.763748526573181152e-01 2.200000000000000000e+01
6.259755134582520419e+00 -4.357127666473388672e+00 -6.672643423080444336e-01 6.000000000000000000e+00
2.079065322875977007e+00 -1.453075051307678001e+00 -6.796588301658630371e-01 2.300000000000000000e+01
2.404930591583251953e+00 -1.682074666023253950e+00 -6.775525808334350586e-01 1.100000000000000000e+01
2.843999147415161133e+00 -1.989910483360290971e+00 -6.747006177902221680e-01 1.100000000000000000e+01
3.488696575164794922e+00 -2.442811727523804155e+00 -6.745454072952270508e-01 1.000000000000000000e+01
4.504800319671630859e+00 -3.156639337539672852e+00 -6.753998994827270508e-01 1.900000000000000000e+01
6.259955406188964844e+00 -4.388154506683349609e+00 -6.688331961631774902e-01 7.000000000000000000e+00
2.075560092926024947e+00 -1.461435675621032937e+00 -6.801764369010925293e-01 2.400000000000000000e+01
2.399044513702393022e+00 -1.690459132194519043e+00 -6.775525808334350586e-01 1.200000000000000000e+01
2.827407836914062944e+00 -1.993039131164551003e+00 -6.724109053611755371e-01 1.100000000000000000e+01
3.502746582031250000e+00 -2.470916032791138139e+00 -6.789255738258361816e-01 1.000000000000000000e+01
4.506728172302246094e+00 -3.181503534317017046e+00 -6.773498058319091797e-01 1.500000000000000000e+01
6.223442554473876953e+00 -4.395037651062011719e+00 -6.665671467781066895e-01 7.000000000000000000e+00
2.061247110366820845e+00 -1.461605787277221902e+00 -6.770706176757812500e-01 2.500000000000000000e+01
2.406139612197875977e+00 -1.707427501678467019e+00 -6.811518073081970215e-01 1.100000000000000000e+01
2.835191249847412109e+00 -2.012632131576538086e+00 -6.758454442024230957e-01 1.200000000000000000e+01
3.484871149063109907e+00 -2.475653886795043945e+00 -6.770483851432800293e-01 1.000000000000000000e+01
4.501006603240966797e+00 -3.199881315231322798e+00 -6.780810356140136719e-01 1.900000000000000000e+01
6.161747932434082031e+00 -4.382164478302001953e+00 -6.615120768547058105e-01 8.000000000000000000e+00
2.059276580810546875e+00 -1.471037864685059038e+00 -6.781058907508850098e-01 2.400000000000000000e+01
2.393823623657227007e+00 -1.711282849311829057e+00 -6.793521642684936523e-01 1.100000000000000000e+01
2.832939386367797852e+00 -2.025942564010620117e+00 -6.769903302192687988e-01 1.200000000000000000e+01
3.469782829284667969e+00 -2.483204603195189986e+00 -6.757968664169311523e-01 1.000000000000000000e+01
4.457531929016113281e+00 -3.192456483840941939e+00 -6.732062697410583496e-01 1.400000000000000000e+01
6.136696338653563565e+00 -4.396683692932128906e+00 -6.604661941528320312e-01 1.100000000000000000e+01
2.063537359237670898e+00 -1.484987616539001021e+00 -6.812117099761962891e-01 2.400000000000000000e+01
2.384672880172729048e+00 -1.717350840568542036e+00 -6.784523725509643555e-01 1.200000000000000000e+01
2.816292524337768999e+00 -2.028933525085449219e+00 -6.747006177902221680e-01 1.100000000000000000e+01
3.467503070831298828e+00 -2.499922275543212891e+00 -6.770483851432800293e-01 1.000000000000000000e+01
4.486607074737548828e+00 -3.237033605575561968e+00 -6.792997121810913086e-01 1.400000000000000000e+01
6.121311664581298828e+00 -4.418077945709229404e+00 -6.604661941528320312e-01 1.200000000000000000e+01
2.063033580780028853e+00 -1.495583295822143999e+00 -6.827646493911743164e-01 2.300000000000000000e+01
2.384973049163817915e+00 -1.730241775512695090e+00 -6.802520155906677246e-01 1.200000000000000000e+01
2.812371015548706055e+00 -2.041058063507080078e+00 -6.754638552665710449e-01 1.100000000000000000e+01
3.458755731582642046e+00 -2.512010812759398970e+00 -6.770483851432800293e-01 1.000000000000000000e+01
4.483309268951416016e+00 -3.258510351181029829e+00 -6.805183887481689453e-01 1.500000000000000000e+01
6.080068588256835938e+00 -4.420671939849854404e+00 -6.576772332191467285e-01 9.000000000000000000e+00
2.046879529953002930e+00 -1.494800209999084029e+00 -6.791411638259887695e-01 2.100000000000000000e+01
2.380492210388184038e+00 -1.739706158638000044e+00 -6.807019114494323730e-01 1.200000000000000000e+01
2.803644418716431108e+00 -2.049704074859619141e+00 -6.750822067260742188e-01 1.200000000000000000e+01
3.461125850677489790e+00 -2.532233715057373047e+00 -6.792384386062622070e-01 1.000000000000000000e+01
4.479916095733642578e+00 -3.280003547668457031e+00 -6.817371249198913574e-01 1.400000000000000000e+01
6.026023864746093750e+00 -4.413613796234130859e+00 -6.534937620162963867e-01 1.100000000000000000e+01
2.041649103164672852e+00 -1.501935958862304910e+00 -6.791411638259887695e-01 1.900000000000000000e+01
2.379112958908081055e+00 -1.751471042633057085e+00 -6.820515990257263184e-01 1.100000000000000000e+01
2.804376602172852007e+00 -2.065299034118651900e+00 -6.769903302192687988e-01 1.100000000000000000e+01
3.453855752944945845e+00 -2.545471668243408203e+00 -6.795513033866882324e-01 1.000000000000000000e+01
4.465244293212890625e+00 -3.293264865875244141e+00 -6.812496185302734375e-01 1.400000000000000000e+01
5.997754573822020596e+00 -4.425158500671386719e+00 -6.520992517471313477e-01 1.000000000000000000e+01
2.042866706848144975e+00 -1.513297796249390093e+00 -6.812117099761962891e-01 2.200000000000000000e+01
2.368595361709595171e+00 -1.755869269371032937e+00 -6.807019114494323730e-01 1.200000000000000000e+01
2.792781591415404829e+00 -2.071079015731811968e+00 -6.758454442024230957e-01 1.100000000000000000e+01
3.442223072052001953e+00 -2.554556608200072798e+00 -6.789255738258361816e-01 1.000000000000000000e+01
4.468641757965087891e+00 -3.318706274032593218e+00 -6.834432482719421387e-01 1.500000000000000000e+01
6.085403919219970703e+00 -4.521067619323729581e+00 -6.632552146911621094e-01 1.100000000000000000e+01
2.043765068054199219e+00 -1.525040864944458008e+00 -6.832822561264038086e-01 2.200000000000000000e+01
2.364013195037841797e+00 -1.765292406082153098e+00 -6.811518073081970215e-01 1.100000000000000000e+01
2.793399333953856978e+00 -2.086689710617064986e+00 -6.777535676956176758e-01 1.200000000000000000e+01
3.426956415176392046e+00 -2.561825752258300781e+00 -6.776741147041320801e-01 1.000000000000000000e+01
4.461798667907714844e+00 -3.337851762771606001e+00 -6.841744780540466309e-01 1.400000000000000000e+01
6.050443172454833984e+00 -4.527956962585449219e+00 -6.611634492874145508e-01 6.000000000000000000e+00
2.035073757171630859e+00 -1.530199408531188965e+00 -6.822469830513000488e-01 1.900000000000000000e+01
2.351298570632935014e+00 -1.769258379936218040e+00 -6.793521642684936523e-01 1.200000000000000000e+01
2.779458284378052202e+00 -2.092191219329833984e+00 -6.762270927429199219e-01 1.100000000000000000e+01
3.430166482925415039e+00 -2.583877325057982954e+00 -6.801770329475402832e-01 1.000000000000000000e+01
4.444779396057128906e+00 -3.350597858428955078e+00 -6.834432482719421387e-01 1.200000000000000000e+01
5.947905063629150391e+00 -4.485323905944824219e+00 -6.517506241798400879e-01 7.000000000000000000e+00
2.028179883956909180e+00 -1.536127448081969993e+00 -6.817293763160705566e-01 1.800000000000000000e+01
2.354426860809326172e+00 -1.784517884254456010e+00 -6.820515990257263184e-01 1.100000000000000000e+01
2.772138357162476030e+00 -2.101880550384521040e+00 -6.762270927429199219e-01 1.100000000000000000e+01
3.427420616149901900e+00 -2.600611209869385210e+00 -6.814285516738891602e-01 1.000000000000000000e+01
4.439380168914794922e+00 -3.370894432067871094e+00 -6.844182610511779785e-01 1.200000000000000000e+01
5.941731452941895419e+00 -4.513289451599121094e+00 -6.527965068817138672e-01 7.000000000000000000e+00
2.018197774887084961e+00 -1.539682507514954057e+00 -6.801764369010925293e-01 1.500000000000000000e+01
2.351281166076660156e+00 -1.795090556144713911e+00 -6.829513907432556152e-01 1.100000000000000000e+01
2.771025419235229048e+00 -2.116310834884643999e+00 -6.777535676956176758e-01 1.100000000000000000e+01
3.415183067321776900e+00 -2.610160112380981001e+00 -6.808027625083923340e-01 1.000000000000000000e+01
4.440200805664063388e+00 -3.396018028259276900e+00 -6.863681674003601074e-01 1.200000000000000000e+01
5.922776222229003906e+00 -4.531581401824951172e+00 -6.524478793144226074e-01 7.000000000000000000e+00
2.022001743316649947e+00 -1.553780555725098100e+00 -6.832822561264038086e-01 1.400000000000000000e+01
2.346545696258544922e+00 -1.804475069046020952e+00 -6.834012866020202637e-01 1.300000000000000000e+01
2.769845724105834961e+00 -2.130759000778197798e+00 -6.792800426483154297e-01 1.100000000000000000e+01
3.402920484542847124e+00 -2.619655609130858931e+00 -6.801770329475402832e-01 1.000000000000000000e+01
4.431464672088623047e+00 -3.413919448852539062e+00 -6.868556141853332520e-01 1.200000000000000000e+01
5.887984752655029297e+00 -4.537633419036865234e+00 -6.503561735153198242e-01 7.000000000000000000e+00
2.015582323074340820e+00 -1.558943271636962891e+00 -6.827646493911743164e-01 1.400000000000000000e+01
2.333159923553466797e+00 -1.805874109268188032e+00 -6.811518073081970215e-01 1.100000000000000000e+01
2.764690399169921875e+00 -2.140651941299438032e+00 -6.796616315841674805e-01 1.200000000000000000e+01
3.397796869277954102e+00 -2.632752895355225053e+00 -6.808027625083923340e-01 1.000000000000000000e+01
4.423855304718017578e+00 -3.430257320404053178e+00 -6.873431205749511719e-01 1.200000000000000000e+01
5.911483287811279297e+00 -4.585416316986083984e+00 -6.545396447181701660e-01 7.000000000000000000e+00
2.014700412750244141e+00 -1.569531202316283958e+00 -6.843175292015075684e-01 1.400000000000000000e+01
2.326842069625854048e+00 -1.814007401466370073e+00 -6.811518073081970215e-01 1.100000000000000000e+01
2.755653142929077148e+00 -2.149082183837891069e+00 -6.792800426483154297e-01 1.100000000000000000e+01
3.391700506210327148e+00 -2.647028207778931108e+00 -6.814285516738891602e-01 1.000000000000000000e+01
4.414983272552490234e+00 -3.448122262954711914e+00 -6.878305673599243164e-01 1.200000000000000000e+01
5.897011280059813565e+00 -4.607250213623046875e+00 -6.547139286994934082e-01 6.000000000000000000e+00
2.008658885955810991e+00 -1.577255487442017046e+00 -6.843175292015075684e-01 1.500000000000000000e+01
2.322924137115478960e+00 -1.825336456298827903e+00 -6.820515990257263184e-01 1.100000000000000000e+01
2.744293928146361861e+00 -2.157220602035522017e+00 -6.785168051719665527e-01 1.100000000000000000e+01
3.397037506103516069e+00 -2.672245025634766069e+00 -6.845571994781494141e-01 1.000000000000000000e+01
4.400151252746582031e+00 -3.463821172714232954e+00 -6.875868439674377441e-01 1.200000000000000000e+01
5.730573177337645596e+00 -4.512756347656250000e+00 -6.381543278694152832e-01 1.000000000000000000e+01
1.994049668312072976e+00 -1.577067136764525923e+00 -6.812117099761962891e-01 1.400000000000000000e+01
2.322650671005249023e+00 -1.838271498680114968e+00 -6.838511824607849121e-01 1.200000000000000000e+01
2.736747264862060991e+00 -2.166786909103393999e+00 -6.785168051719665527e-01 1.100000000000000000e+01
3.381495714187622070e+00 -2.679179668426514116e+00 -6.833057403564453125e-01 1.000000000000000000e+01
4.402032852172851562e+00 -3.490259408950806108e+00 -6.897804737091064453e-01 1.200000000000000000e+01
5.686688423156738281e+00 -4.510446548461914062e+00 -6.350167393684387207e-01 1.900000000000000000e+01
1.992108225822448953e+00 -1.585730075836182085e+00 -6.822469830513000488e-01 1.400000000000000000e+01
2.310766935348511186e+00 -1.840702414512634055e+00 -6.820515990257263184e-01 1.100000000000000000e+01
2.736068010330200195e+00 -2.180268049240111861e+00 -6.800432801246643066e-01 1.100000000000000000e+01
3.363795518875122070e+00 -2.682400226593018022e+00 -6.814285516738891602e-01 1.000000000000000000e+01
4.403459072113037109e+00 -3.513977050781250000e+00 -6.917303800582885742e-01 1.200000000000000000e+01
5.832870960235595703e+00 -4.656319618225097656e+00 -6.529708504676818848e-01 4.000000000000000000e+00
1.994097113609313965e+00 -1.598716139793395996e+00 -6.848351955413818359e-01 1.400000000000000000e+01
2.305847644805908203e+00 -1.849976778030395952e+00 -6.825014948844909668e-01 1.300000000000000000e+01
2.740689754486083984e+00 -2.199636220932006836e+00 -6.830962300300598145e-01 1.000000000000000000e+01
3.357491970062255859e+00 -2.696599721908568892e+00 -6.820542812347412109e-01 1.000000000000000000e+01
4.381882190704345703e+00 -3.521864891052246094e+00 -6.902679800987243652e-01 1.200000000000000000e+01
5.797948837280273438e+00 -4.661670207977294922e+00 -6.508790850639343262e-01 7.000000000000000000e+00
1.990287899971008079e+00 -1.606533408164978027e+00 -6.853528022766113281e-01 1.400000000000000000e+01
2.302732229232788086e+00 -1.860062122344970925e+00 -6.834012866020202637e-01 1.200000000000000000e+01
2.730326414108275923e+00 -2.206244707107543945e+00 -6.823329925537109375e-01 1.200000000000000000e+01
3.351603269577025923e+00 -2.710202693939208984e+00 -6.826800107955932617e-01 1.100000000000000000e+01
4.370179176330566406e+00 -3.536376476287841797e+00 -6.902679800987243652e-01 1.200000000000000000e+01
5.830464839935302734e+00 -4.719732284545898438e+00 -6.562827229499816895e-01 7.000000000000000000e+00
1.980170845985413042e+00 -1.609815120697021040e+00 -6.837999224662780762e-01 1.300000000000000000e+01
2.302272081375122070e+00 -1.873008131980895996e+00 -6.852009296417236328e-01 1.300000000000000000e+01
2.708904027938843218e+00 -2.204608678817749023e+00 -6.788983941078186035e-01 1.100000000000000000e+01
3.351312637329102007e+00 -2.729370117187500000e+00 -6.845571994781494141e-01 1.100000000000000000e+01
4.360886096954345703e+00 -3.554117918014525923e+00 -6.907554268836975098e-01 1.200000000000000000e+01
5.798511981964111328e+00 -4.727466106414794922e+00 -6.545396447181701660e-01 6.000000000000000000e+00
1.972762823104857954e+00 -1.615837931632996050e+00 -6.832822561264038086e-01 1.400000000000000000e+01
2.295391559600830078e+00 -1.881433844566344993e+00 -6.852009296417236328e-01 1.300000000000000000e+01
2.702323913574219194e+00 -2.215767383575439009e+00 -6.792800426483154297e-01 1.100000000000000000e+01
3.347394704818726030e+00 -2.746647119522095171e+00 -6.858087182044982910e-01 1.100000000000000000e+01
4.357035160064697266e+00 -3.577635765075684038e+00 -6.922178864479064941e-01 1.200000000000000000e+01
5.816556453704833984e+00 -4.777773380279541016e+00 -6.585487723350524902e-01 7.000000000000000000e+00
1.968600749969481978e+00 -1.623943686485290971e+00 -6.837999224662780762e-01 1.400000000000000000e+01
2.288810253143310991e+00 -1.889434814453125000e+00 -6.852009296417236328e-01 1.300000000000000000e+01
2.697600603103638139e+00 -2.227686882019042969e+00 -6.800432801246643066e-01 1.100000000000000000e+01
3.322559595108031782e+00 -2.745731353759766069e+00 -6.826800107955932617e-01 1.000000000000000000e+01
4.359817981719970703e+00 -3.605473756790161133e+00 -6.946552395820617676e-01 1.200000000000000000e+01
5.836687564849854404e+00 -4.828527927398681641e+00 -6.627322435379028320e-01 7.000000000000000000e+00
1.970349788665771040e+00 -1.636978030204772949e+00 -6.863881349563598633e-01 1.400000000000000000e+01
2.273209810256958008e+00 -1.889937639236449973e+00 -6.825014948844909668e-01 1.200000000000000000e+01
2.703392744064331055e+00 -2.248388051986693892e+00 -6.834778189659118652e-01 1.000000000000000000e+01
3.319028377532958984e+00 -2.762367248535155806e+00 -6.839314699172973633e-01 1.100000000000000000e+01
4.338054180145263672e+00 -3.613047838211060014e+00 -6.931928396224975586e-01 1.200000000000000000e+01
5.781529426574707031e+00 -4.816988468170166016e+00 -6.583744883537292480e-01 7.000000000000000000e+00
1.969068527221679910e+00 -1.647565007209778054e+00 -6.879410147666931152e-01 1.400000000000000000e+01
2.272575378417969194e+00 -1.902865409851073997e+00 -6.843010783195495605e-01 1.200000000000000000e+01
2.692517995834351030e+00 -2.255289793014525923e+00 -6.827145814895629883e-01 1.100000000000000000e+01
3.309365749359130859e+00 -2.773936033248900923e+00 -6.839314699172973633e-01 1.000000000000000000e+01
4.331499099731445312e+00 -3.633271455764770952e+00 -6.941677927970886230e-01 1.200000000000000000e+01
5.724997043609619141e+00 -4.803842544555664062e+00 -6.538423895835876465e-01 7.000000000000000000e+00
1.957684159278870073e+00 -1.649107217788696067e+00 -6.858704686164855957e-01 1.500000000000000000e+01
2.270722866058350053e+00 -1.914159059524535911e+00 -6.856508255004882812e-01 1.200000000000000000e+01
2.680521726608275923e+00 -2.260409116744995117e+00 -6.815697550773620605e-01 9.000000000000000000e+00
3.313735723495482954e+00 -2.796360731124877930e+00 -6.867473125457763672e-01 1.100000000000000000e+01
2.850210571289062855e+01 -2.406057739257812855e+01 4.579849720001220703e+00 1.900000000000000000e+01
4.322460651397705078e+00 -3.650176763534545898e+00 -6.946552395820617676e-01 1.200000000000000000e+01
5.715123176574707031e+00 -4.827944278717041016e+00 -6.545396447181701660e-01 9.000000000000000000e+00
1.948969483375549094e+00 -1.653431177139282005e+00 -6.848351955413818359e-01 1.300000000000000000e+01
2.266998529434204102e+00 -1.924596071243285911e+00 -6.865506172180175781e-01 1.400000000000000000e+01
2.680097341537476030e+00 -2.276106357574462891e+00 -6.834778189659118652e-01 1.000000000000000000e+01
3.302449226379394975e+00 -2.806631565093994141e+00 -6.864344477653503418e-01 1.000000000000000000e+01
4.315741062164306641e+00 -3.670386791229248047e+00 -6.956301927566528320e-01 1.200000000000000000e+01
5.546484947204589844e+00 -4.718760013580322266e+00 -6.371085047721862793e-01 6.000000000000000000e+00
1.944654822349547896e+00 -1.661479234695435014e+00 -6.853528022766113281e-01 1.500000000000000000e+01
2.257304191589355025e+00 -1.929964900016784890e+00 -6.856508255004882812e-01 1.200000000000000000e+01
2.673627853393555132e+00 -2.286723852157593218e+00 -6.838594675064086914e-01 1.100000000000000000e+01
3.286629199981689009e+00 -2.813004255294799805e+00 -6.851829290390014648e-01 1.000000000000000000e+01
4.327025890350341797e+00 -3.706090450286864790e+00 -6.995300054550170898e-01 1.200000000000000000e+01
5.486103057861328125e+00 -4.700498580932617188e+00 -6.320534348487854004e-01 6.000000000000000000e+00
1.937379002571105957e+00 -1.666997194290160911e+00 -6.848351955413818359e-01 1.500000000000000000e+01
2.252030372619628906e+00 -1.939104199409485085e+00 -6.861007213592529297e-01 1.300000000000000000e+01
2.676042079925537109e+00 -2.305011510848999023e+00 -6.865307688713073730e-01 1.000000000000000000e+01
3.282774925231934038e+00 -2.829618453979492188e+00 -6.864344477653503418e-01 1.000000000000000000e+01
4.302037239074707031e+00 -3.710799455642700195e+00 -6.975800991058349609e-01 1.200000000000000000e+01
5.441001415252686435e+00 -4.694889545440673828e+00 -6.287415027618408203e-01 6.000000000000000000e+00
1.941768050193787065e+00 -1.682605504989624023e+00 -6.884586811065673828e-01 1.600000000000000000e+01
2.234941959381103960e+00 -1.938016533851623979e+00 -6.829513907432556152e-01 1.300000000000000000e+01
2.669462680816649947e+00 -2.315625190734862837e+00 -6.869123578071594238e-01 1.100000000000000000e+01
3.272877693176269975e+00 -2.841060161590576172e+00 -6.864344477653503418e-01 1.000000000000000000e+01
4.289058208465576172e+00 -3.725793600082397017e+00 -6.975800991058349609e-01 1.200000000000000000e+01
5.582489490509033203e+00 -4.851073741912841797e+00 -6.470442414283752441e-01 7.000000000000000000e+00
1.937338352203368919e+00 -1.690643548965454102e+00 -6.889762878417968750e-01 1.600000000000000000e+01
2.247245073318481001e+00 -1.962469816207885964e+00 -6.888001561164855957e-01 1.300000000000000000e+01
2.645099639892578125e+00 -2.310721397399901900e+00 -6.827145814895629883e-01 1.100000000000000000e+01
3.274838447570800781e+00 -2.862868309020996094e+00 -6.889373660087585449e-01 1.000000000000000000e+01
4.290967464447020596e+00 -3.753813028335570845e+00 -7.000175118446350098e-01 1.200000000000000000e+01
5.620997428894042969e+00 -4.919078826904296875e+00 -6.534937620162963867e-01 9.000000000000000000e+00
1.923013329505919966e+00 -1.689408540725708008e+00 -6.858704686164855957e-01 1.500000000000000000e+01
2.239261388778686968e+00 -1.968624472618103027e+00 -6.883502006530761719e-01 1.400000000000000000e+01
2.640370845794678178e+00 -2.322073221206665039e+00 -6.834778189659118652e-01 1.000000000000000000e+01
3.259395122528076172e+00 -2.868492126464844194e+00 -6.876859068870544434e-01 1.000000000000000000e+01
4.290413379669188565e+00 -3.778517484664916992e+00 -7.019674181938171387e-01 1.300000000000000000e+01
5.604654312133789062e+00 -4.937691688537597656e+00 -6.534937620162963867e-01 1.000000000000000000e+01
1.915657639503479004e+00 -1.694830775260925071e+00 -6.853528022766113281e-01 1.400000000000000000e+01
2.229457855224608931e+00 -1.973845481872559038e+00 -6.874504089355468750e-01 1.300000000000000000e+01
2.642537117004394975e+00 -2.340387344360352007e+00 -6.861491203308105469e-01 1.100000000000000000e+01
3.255275726318358931e+00 -2.885092973709106001e+00 -6.889373660087585449e-01 1.000000000000000000e+01
4.262346267700195312e+00 -3.780299186706542969e+00 -6.995300054550170898e-01 1.200000000000000000e+01
5.562048435211181641e+00 -4.934746742248535156e+00 -6.505304574966430664e-01 7.000000000000000000e+00
1.915499448776244895e+00 -1.706647753715514915e+00 -6.874234080314636230e-01 1.400000000000000000e+01
2.212372303009033203e+00 -1.972537636756896973e+00 -6.843010783195495605e-01 1.200000000000000000e+01
2.634351730346680132e+00 -2.349597215652465820e+00 -6.861491203308105469e-01 1.100000000000000000e+01
3.245185136795043945e+00 -2.896438360214232954e+00 -6.889373660087585449e-01 1.000000000000000000e+01
4.253566265106201172e+00 -3.799121379852294922e+00 -7.002612352371215820e-01 1.200000000000000000e+01
5.540331840515136719e+00 -4.950149536132813388e+00 -6.500075459480285645e-01 1.200000000000000000e+01
1.919595837593079057e+00 -1.722354769706726074e+00 -6.910468339920043945e-01 1.500000000000000000e+01
2.208373546600341797e+00 -1.982852101325988992e+00 -6.852009296417236328e-01 1.200000000000000000e+01
2.630515813827515093e+00 -2.362714052200316939e+00 -6.872940063476562500e-01 1.200000000000000000e+01
3.235054731369018999e+00 -2.907748460769652876e+00 -6.889373660087585449e-01 1.000000000000000000e+01
4.228471755981445312e+00 -3.803325891494750977e+00 -6.983113288879394531e-01 1.000000000000000000e+01
5.520056724548339844e+00 -4.966793060302734375e+00 -6.496589183807373047e-01 9.000000000000000000e+00
1.906705617904663086e+00 -1.722236394882201926e+00 -6.884586811065673828e-01 1.500000000000000000e+01
2.210460186004639116e+00 -1.998004794120789018e+00 -6.879003047943115234e-01 1.300000000000000000e+01
2.615385055541992188e+00 -2.364840507507324219e+00 -6.853858828544616699e-01 1.100000000000000000e+01
3.234183073043822798e+00 -2.926412582397460938e+00 -6.908146142959594727e-01 1.000000000000000000e+01
4.239380359649658203e+00 -3.838645458221435991e+00 -7.022111415863037109e-01 1.100000000000000000e+01
5.488789081573486328e+00 -4.971695423126220703e+00 -6.479157805442810059e-01 1.900000000000000000e+01
3.749676895141602273e+01 -3.401192092895507812e+01 -8.836502432823181152e-01 1.300000000000000000e+01
1.899253249168395996e+00 -1.727581620216370073e+00 -6.879410147666931152e-01 1.500000000000000000e+01
2.212119102478026900e+00 -2.013579368591309038e+00 -6.905997395515441895e-01 1.500000000000000000e+01
2.614372491836547852e+00 -2.380564689636230025e+00 -6.872940063476562500e-01 1.000000000000000000e+01
3.218107938766479048e+00 -2.932362318038939986e+00 -6.895630955696105957e-01 1.000000000000000000e+01
4.228888511657714844e+00 -3.856095314025878906e+00 -7.026986479759216309e-01 1.100000000000000000e+01
5.471401214599609375e+00 -4.990824699401854581e+00 -6.479157805442810059e-01 1.600000000000000000e+01
1.890362262725830078e+00 -1.731590986251831055e+00 -6.869057416915893555e-01 1.500000000000000000e+01
2.203640222549438032e+00 -2.019971847534180132e+00 -6.901498436927795410e-01 1.400000000000000000e+01
2.610387802124022993e+00 -2.393656492233275923e+00 -6.884388327598571777e-01 1.100000000000000000e+01
3.206396818161011186e+00 -2.942242145538330078e+00 -6.892502307891845703e-01 1.000000000000000000e+01
4.230024337768554688e+00 -3.884259939193726030e+00 -7.051360011100769043e-01 1.100000000000000000e+01
5.442208290100097656e+00 -4.999110221862792969e+00 -6.465212702751159668e-01 1.300000000000000000e+01
1.895666122436522993e+00 -1.748657822608947976e+00 -6.910468339920043945e-01 1.700000000000000000e+01
2.182256460189818892e+00 -2.014433622360229048e+00 -6.856508255004882812e-01 1.200000000000000000e+01
2.604901075363159180e+00 -2.405417680740356001e+00 -6.892020702362060547e-01 9.000000000000000000e+00
3.200459480285644975e+00 -2.957438468933105025e+00 -6.901888847351074219e-01 1.000000000000000000e+01
4.213524818420410156e+00 -3.896306276321411133e+00 -7.046485543251037598e-01 1.100000000000000000e+01
5.483228206634520596e+00 -5.072194576263427734e+00 -6.534937620162963867e-01 9.000000000000000000e+00
1.884194374084473100e+00 -1.749676227569580078e+00 -6.889762878417968750e-01 1.600000000000000000e+01
2.182702064514160156e+00 -2.028291940689086914e+00 -6.879003047943115234e-01 1.300000000000000000e+01
2.591158390045166016e+00 -2.408695936203002930e+00 -6.876755952835083008e-01 9.000000000000000000e+00
3.196419954299927202e+00 -2.973417043685913086e+00 -6.914403438568115234e-01 1.000000000000000000e+01
4.197675228118895596e+00 -3.907552242279053178e+00 -7.041610479354858398e-01 1.100000000000000000e+01
5.510120868682861328e+00 -5.131083488464354581e+00 -6.587231159210205078e-01 7.000000000000000000e+00
1.880897521972656028e+00 -1.758881688117980957e+00 -6.900115609169006348e-01 1.500000000000000000e+01
2.172763109207152876e+00 -2.033235549926757812e+00 -6.870005130767822266e-01 1.300000000000000000e+01
2.579868316650391069e+00 -2.415042638778686968e+00 -6.869123578071594238e-01 9.000000000000000000e+00
2.582677650451660156e+01 -2.418518638610839844e+01 3.095597743988037109e+00 4.200000000000000000e+01
3.191787958145142046e+00 -2.989958524703979048e+00 -6.926918029785156250e-01 1.000000000000000000e+01
2.733304786682128906e+01 -2.561363029479980113e+01 4.599349021911621094e+00 1.900000000000000000e+01
4.184009552001953125e+00 -3.922181129455565962e+00 -7.041610479354858398e-01 1.100000000000000000e+01
5.448575973510742188e+00 -5.109399795532226562e+00 -6.534937620162963867e-01 1.200000000000000000e+01
1.867714285850524902e+00 -1.758814454078674094e+00 -6.874234080314636230e-01 1.500000000000000000e+01
2.175580024719237837e+00 -2.050163030624390093e+00 -6.901498436927795410e-01 1.400000000000000000e+01
2.578565359115601030e+00 -2.430766820907593218e+00 -6.888204813003540039e-01 1.000000000000000000e+01
3.174146890640258789e+00 -2.994304180145264116e+00 -6.911274790763854980e-01 1.000000000000000000e+01
4.181841373443604404e+00 -3.947663545608520952e+00 -7.061109542846679688e-01 1.100000000000000000e+01
5.436501979827880859e+00 -5.133859634399414062e+00 -6.541910171508789062e-01 8.000000000000000000e+00
1.868572473526000977e+00 -1.771969795227051003e+00 -6.900115609169006348e-01 1.600000000000000000e+01
2.171237707138061968e+00 -2.060427665710449219e+00 -6.910496354103088379e-01 1.300000000000000000e+01
2.575760126113892046e+00 -2.445159673690795898e+00 -6.903469562530517578e-01 1.000000000000000000e+01
3.163675546646118164e+00 -3.005365848541260210e+00 -6.911274790763854980e-01 9.000000000000000000e+00
4.170913219451904297e+00 -3.964972257614136186e+00 -7.065984606742858887e-01 1.100000000000000000e+01
5.428655147552490234e+00 -5.162416458129882812e+00 -6.554111838340759277e-01 7.000000000000000000e+00
1.869049787521362083e+00 -1.785478830337523970e+00 -6.925997734069824219e-01 1.900000000000000000e+01
2.155219316482543945e+00 -2.060292005538939986e+00 -6.883502006530761719e-01 1.700000000000000000e+01
2.569618463516234907e+00 -2.457297563552856001e+00 -6.911101937294006348e-01 1.100000000000000000e+01
3.151211977005004883e+00 -3.015575408935546875e+00 -6.908146142959594727e-01 1.000000000000000000e+01
2.702439308166503906e+01 -2.587022972106933949e+01 4.593499183654785156e+00 1.900000000000000000e+01
4.160654067993164062e+00 -3.984351634979248047e+00 -7.073296904563903809e-01 9.000000000000000000e+00
5.441349983215332031e+00 -5.212600231170654297e+00 -6.592460274696350098e-01 6.000000000000000000e+00
1.864198207855225053e+00 -1.793331384658813032e+00 -6.931173801422119141e-01 1.600000000000000000e+01
2.152226209640502930e+00 -2.071857213973999023e+00 -6.896999478340148926e-01 1.900000000000000000e+01
2.558197021484375000e+00 -2.463528633117675781e+00 -6.903469562530517578e-01 1.200000000000000000e+01
3.152045726776123047e+00 -3.037522554397583008e+00 -6.933175325393676758e-01 1.000000000000000000e+01
4.145291805267333984e+00 -3.997472763061522993e+00 -7.070859074592590332e-01 1.100000000000000000e+01
2.696084213256835938e+01 -2.600851440429687855e+01 5.933246612548828125e+00 1.300000000000000000e+01
5.410215854644775391e+00 -5.219112873077392578e+00 -6.576772332191467285e-01 8.000000000000000000e+00
1.849914312362670898e+00 -1.791439890861511008e+00 -6.900115609169006348e-01 1.600000000000000000e+01
2.784222412109375000e+01 -2.697157096862792969e+01 6.766297817230224609e-01 3.200000000000000000e+01
2.146743297576903853e+00 -2.080338954925537109e+00 -6.901498436927795410e-01 1.700000000000000000e+01
2.548604011535644975e+00 -2.470631837844849077e+00 -6.899653077125549316e-01 1.100000000000000000e+01
3.146209001541138139e+00 -3.052084684371947798e+00 -6.942561268806457520e-01 1.000000000000000000e+01
4.136285781860351562e+00 -4.015345096588134766e+00 -7.078171372413635254e-01 1.100000000000000000e+01
5.364292144775390625e+00 -5.209264755249023438e+00 -6.541910171508789062e-01 9.000000000000000000e+00
1.840883612632751021e+00 -1.795188903808593972e+00 -6.889762878417968750e-01 1.600000000000000000e+01
2.146441936492919922e+00 -2.094624996185303178e+00 -6.923993229866027832e-01 1.900000000000000000e+01
2.538559436798096147e+00 -2.478141546249390093e+00 -6.895837187767028809e-01 1.100000000000000000e+01
3.132709980010985884e+00 -3.060287714004517046e+00 -6.936303973197937012e-01 9.000000000000000000e+00
4.130761623382568359e+00 -4.038084983825683594e+00 -7.092795968055725098e-01 9.000000000000000000e+00
2.678318405151366832e+01 -2.619142723083496094e+01 5.933246612548828125e+00 1.300000000000000000e+01
5.280549526214599609e+00 -5.163879394531250000e+00 -6.461727023124694824e-01 1.100000000000000000e+01
2.786019134521484020e+01 -2.728271484375000000e+01 -6.806438565254211426e-01 9.000000000000000000e+00
1.843191981315613015e+00 -1.809403657913208008e+00 -6.920821070671081543e-01 1.700000000000000000e+01
2.139484167098999023e+00 -2.101731300354003906e+00 -6.923993229866027832e-01 1.900000000000000000e+01
2.537329196929932085e+00 -2.493426561355590820e+00 -6.914917826652526855e-01 1.200000000000000000e+01
3.118319272994995117e+00 -3.066504001617432085e+00 -6.926918029785156250e-01 1.000000000000000000e+01
4.121592998504638672e+00 -4.055938243865966797e+00 -7.100107669830322266e-01 1.100000000000000000e+01
5.287534236907958984e+00 -5.205123424530029297e+00 -6.491359472274780273e-01 7.000000000000000000e+00
2.761006736755371094e+01 -2.721772193908691051e+01 -6.767345070838928223e-01 8.000000000000000000e+00
1.845108032226562944e+00 -1.823975324630737083e+00 -6.951879262924194336e-01 1.800000000000000000e+01
2.125207662582397017e+00 -2.102334260940552202e+00 -6.901498436927795410e-01 1.900000000000000000e+01
2.739216041564941051e+01 -2.710680198669433949e+01 2.019644498825072798e+00 2.200000000000000000e+01
2.530005455017089844e+00 -2.503649234771728960e+00 -6.918734312057495117e-01 1.100000000000000000e+01
3.107596158981322798e+00 -3.077370405197143999e+00 -6.926918029785156250e-01 1.000000000000000000e+01
2.685720634460448863e+01 -2.660526847839355113e+01 4.641759395599365234e+00 1.900000000000000000e+01
4.110229969024658203e+00 -4.073094844818115234e+00 -7.104982733726501465e-01 1.100000000000000000e+01
5.283482551574707031e+00 -5.237575054168701172e+00 -6.508790850639343262e-01 6.000000000000000000e+00
1.833253383636475053e+00 -1.824953198432921919e+00 -6.931173801422119141e-01 1.800000000000000000e+01
2.119236946105957031e+00 -2.111115217208861861e+00 -6.905997395515441895e-01 2.200000000000000000e+01
2.515688180923461914e+00 -2.506922006607056108e+00 -6.903469562530517578e-01 1.200000000000000000e+01
3.108025074005126953e+00 -3.099358081817626953e+00 -6.951947808265686035e-01 1.000000000000000000e+01
2.696092605590819957e+01 -2.689512825012207031e+01 4.675882816314697266e+00 2.000000000000000000e+01
4.087556362152099609e+00 -4.079004287719726562e+00 -7.090358138084411621e-01 1.100000000000000000e+01
5.088910102844238281e+00 -5.080035686492919922e+00 -6.290901303291320801e-01 1.300000000000000000e+01
1.824143290519713911e+00 -1.828605890274048074e+00 -6.920821070671081543e-01 1.600000000000000000e+01
2.118733882904053178e+00 -2.125400543212891069e+00 -6.928492188453674316e-01 1.900000000000000000e+01
2.509693622589110884e+00 -2.518469572067261186e+00 -6.911101937294006348e-01 1.100000000000000000e+01
3.111126184463500977e+00 -3.124185323715209961e+00 -6.983234286308288574e-01 1.100000000000000000e+01
2.663720130920410156e+01 -2.675835227966308949e+01 4.635910034179688388e+00 1.900000000000000000e+01
4.087295532226563388e+00 -4.107318401336669922e+00 -7.114732265472412109e-01 1.100000000000000000e+01
5.104869842529296875e+00 -5.131669044494628906e+00 -6.332736015319824219e-01 1.100000000000000000e+01
1.815029978752136008e+00 -1.832217335700988992e+00 -6.910468339920043945e-01 1.700000000000000000e+01
2.116785764694213867e+00 -2.138323068618773970e+00 -6.946488618850708008e-01 2.000000000000000000e+01
2.506411075592041016e+00 -2.532796621322631836e+00 -6.926366686820983887e-01 1.100000000000000000e+01
3.094645738601685014e+00 -3.129407882690430132e+00 -6.970719695091247559e-01 1.100000000000000000e+01
2.640407943725585938e+01 -2.670999717712401988e+01 4.611536026000976562e+00 1.900000000000000000e+01
4.072933197021484375e+00 -4.121561050415039062e+00 -7.114732265472412109e-01 1.100000000000000000e+01
5.098127365112304688e+00 -5.160796165466308594e+00 -6.346681118011474609e-01 1.100000000000000000e+01
1.805913686752318892e+00 -1.835787415504456010e+00 -6.900115609169006348e-01 1.500000000000000000e+01
2.105210304260253906e+00 -2.141529798507689986e+00 -6.932991743087768555e-01 2.100000000000000000e+01
2.500306844711304155e+00 -2.544330596923828125e+00 -6.933999061584472656e-01 1.100000000000000000e+01
3.083703279495238814e+00 -3.140191078186035156e+00 -6.970719695091247559e-01 1.100000000000000000e+01
4.061302185058593750e+00 -4.138586521148681641e+00 -7.119607329368591309e-01 1.100000000000000000e+01
5.056362628936767578e+00 -5.154381752014160156e+00 -6.317048072814941406e-01 1.500000000000000000e+01
1.808621168136596902e+00 -1.852069139480591042e+00 -6.936350464820861816e-01 1.600000000000000000e+01
2.744705200195312855e+01 -2.811621856689453125e+01 6.858446598052978516e-01 3.300000000000000000e+01
2.093263864517211914e+00 -2.145047187805175781e+00 -6.919494271278381348e-01 2.000000000000000000e+01
2.501931905746459961e+00 -2.564720392227172852e+00 -6.964528560638427734e-01 1.100000000000000000e+01
3.066657781600952148e+00 -3.145814418792725053e+00 -6.958205103874206543e-01 1.100000000000000000e+01
4.040565490722656250e+00 -4.147756576538085938e+00 -7.109857201576232910e-01 1.100000000000000000e+01
2.599745941162109020e+01 -2.669645881652832031e+01 5.901959419250488281e+00 1.300000000000000000e+01
5.030486583709716797e+00 -5.165742397308349609e+00 -6.308332681655883789e-01 1.200000000000000000e+01
1.802145242691040039e+00 -1.858371138572693093e+00 -6.936350464820861816e-01 1.600000000000000000e+01
2.080338954925537109e+00 -2.146743297576903853e+00 -6.901498436927795410e-01 2.000000000000000000e+01
2.479304075241088867e+00 -2.559336900711060014e+00 -6.926366686820983887e-01 1.200000000000000000e+01
3.061153888702393022e+00 -3.162177085876464844e+00 -6.970719695091247559e-01 1.100000000000000000e+01
4.032963752746582031e+00 -4.168969154357910156e+00 -7.122044563293457031e-01 1.300000000000000000e+01
2.590411376953125000e+01 -2.678704452514648082e+01 5.901959419250488281e+00 1.300000000000000000e+01
5.114916324615479404e+00 -5.289256572723388672e+00 -6.437323093414306641e-01 9.000000000000000000e+00
1.802347421646117942e+00 -1.871608138084412065e+00 -6.962232589721679688e-01 1.700000000000000000e+01
2.083642959594727007e+00 -2.165225267410277876e+00 -6.937490701675415039e-01 2.000000000000000000e+01
2.477160692214965820e+00 -2.575050115585327148e+00 -6.945447325706481934e-01 1.200000000000000000e+01
3.069262981414794922e+00 -3.192780256271361861e+00 -7.014521360397338867e-01 1.100000000000000000e+01
2.680236434936523082e+01 -2.789072227478026988e+01 4.749492168426513672e+00 2.000000000000000000e+01
4.018386840820313388e+00 -4.183021545410156250e+00 -7.122044563293457031e-01 1.300000000000000000e+01
2.567829322814941051e+01 -2.673034286499023082e+01 5.870672702789306641e+00 1.300000000000000000e+01
5.110222816467285156e+00 -5.321449279785156250e+00 -6.454754471778869629e-01 1.300000000000000000e+01
1.787792325019835982e+00 -1.869510889053344949e+00 -6.931173801422119141e-01 1.900000000000000000e+01
2.085496664047241211e+00 -2.182347536087036133e+00 -6.968983411788940430e-01 2.100000000000000000e+01
2.468156814575194868e+00 -2.583681344985961914e+00 -6.945447325706481934e-01 1.200000000000000000e+01
3.049915313720703125e+00 -3.194901466369628906e+00 -6.995749473571777344e-01 1.100000000000000000e+01
4.011981964111328125e+00 -4.205640792846679688e+00 -7.136668562889099121e-01 1.300000000000000000e+01
5.061366081237792969e+00 -5.307533740997313565e+00 -6.416406035423278809e-01 1.000000000000000000e+01
1.783916234970092995e+00 -1.878541707992553933e+00 -6.941526532173156738e-01 1.900000000000000000e+01
2.076524734497069868e+00 -2.188200473785399947e+00 -6.964484453201293945e-01 2.000000000000000000e+01
2.463176727294921875e+00 -2.596554040908813032e+00 -6.956896185874938965e-01 1.100000000000000000e+01
3.041462421417235884e+00 -3.208395481109619141e+00 -7.002006769180297852e-01 1.100000000000000000e+01
2.701390075683594105e+01 -2.850654220581055043e+01 4.822126388549804688e+00 2.000000000000000000e+01
4.000007629394531250e+00 -4.222502231597900391e+00 -7.141543626785278320e-01 1.300000000000000000e+01
5.037328720092773438e+00 -5.319382190704345703e+00 -6.409433484077453613e-01 1.000000000000000000e+01
1.781324148178101030e+00 -1.888973832130431907e+00 -6.957055926322937012e-01 2.100000000000000000e+01
2.064864397048950195e+00 -2.191180706024169922e+00 -6.950987577438354492e-01 2.400000000000000000e+01
2.459482669830321822e+00 -2.610852479934691939e+00 -6.972160935401916504e-01 1.100000000000000000e+01
3.032952547073363814e+00 -3.221869230270386186e+00 -7.008264064788818359e-01 1.100000000000000000e+01
3.996124982833861861e+00 -4.248005867004395419e+00 -7.161042690277099609e-01 1.500000000000000000e+01
5.028284549713134766e+00 -5.347093105316162109e+00 -6.421635150909423828e-01 7.000000000000000000e+00
1.784295320510864036e+00 -1.904739618301392046e+00 -6.993290781974792480e-01 1.900000000000000000e+01
2.052259683609008789e+00 -2.192325353622436968e+00 -6.932991743087768555e-01 1.900000000000000000e+01
2.450811386108397993e+00 -2.618993997573852983e+00 -6.972160935401916504e-01 1.100000000000000000e+01
3.027648687362670898e+00 -3.237680435180664062e+00 -7.020778656005859375e-01 1.100000000000000000e+01
2.641255760192871094e+01 -2.825471305847167969e+01 4.749004364013671875e+00 2.000000000000000000e+01
3.965751886367797852e+00 -4.243829727172851562e+00 -7.131794095039367676e-01 1.300000000000000000e+01
5.049967288970947266e+00 -5.405961036682128906e+00 -6.472185254096984863e-01 9.000000000000000000e+00
1.769740939140320046e+00 -1.902469515800476074e+00 -6.962232589721679688e-01 1.700000000000000000e+01
2.052555322647095171e+00 -2.208039522171020952e+00 -6.959985494613647461e-01 2.100000000000000000e+01
2.433635711669921875e+00 -2.618904113769530806e+00 -6.949263811111450195e-01 1.200000000000000000e+01
3.017672777175902876e+00 -3.249676704406737837e+00 -7.023907303810119629e-01 1.000000000000000000e+01
3.963066577911376953e+00 -4.270742893218994141e+00 -7.153730392456054688e-01 1.500000000000000000e+01
4.987706661224365234e+00 -5.376813411712645596e+00 -6.416406035423278809e-01 7.000000000000000000e+00
1.751291751861572044e+00 -1.895863890647887962e+00 -6.915645003318786621e-01 1.600000000000000000e+01
2.047478914260863814e+00 -2.218054771423339844e+00 -6.968983411788940430e-01 1.600000000000000000e+01
2.428473472595214844e+00 -2.631711483001708984e+00 -6.960712075233459473e-01 1.300000000000000000e+01
3.003632545471190962e+00 -3.257286071777344194e+00 -7.017650008201599121e-01 1.000000000000000000e+01
3.957551002502440962e+00 -4.294769287109375000e+00 -7.170792222023010254e-01 1.300000000000000000e+01
4.963508129119873047e+00 -5.388329505920410156e+00 -6.409433484077453613e-01 1.100000000000000000e+01
1.753804445266724077e+00 -1.911930918693542036e+00 -6.951879262924194336e-01 1.700000000000000000e+01
2.035773515701293945e+00 -2.220878601074219194e+00 -6.955486536026000977e-01 1.400000000000000000e+01
2.421925067901610884e+00 -2.643067359924315962e+00 -6.968344449996948242e-01 1.200000000000000000e+01
2.984240055084228960e+00 -3.259009838104248047e+00 -6.998878121376037598e-01 1.100000000000000000e+01
3.947895765304564986e+00 -4.314415454864501953e+00 -7.180541753768920898e-01 1.300000000000000000e+01
4.968874931335449219e+00 -5.432084560394287109e+00 -6.440809369087219238e-01 1.000000000000000000e+01
1.752323508262634055e+00 -1.923753857612610085e+00 -6.972585320472717285e-01 1.800000000000000000e+01
2.022761821746826172e+00 -2.222206830978393999e+00 -6.937490701675415039e-01 1.400000000000000000e+01
2.420612096786499023e+00 -2.660217761993408203e+00 -6.991241574287414551e-01 1.200000000000000000e+01
2.976832628250122070e+00 -3.273791313171387163e+00 -7.008264064788818359e-01 1.100000000000000000e+01
3.924801826477050781e+00 -4.319355010986328125e+00 -7.165917158126831055e-01 1.300000000000000000e+01
4.921751022338867188e+00 -5.418425083160400391e+00 -6.404203772544860840e-01 9.000000000000000000e+00
1.748189449310302956e+00 -1.932724356651305930e+00 -6.982938051223754883e-01 1.700000000000000000e+01
2.020219326019287109e+00 -2.235036849975585938e+00 -6.955486536026000977e-01 1.300000000000000000e+01
2.408679008483887163e+00 -2.665737867355347124e+00 -6.983609199523925781e-01 1.200000000000000000e+01
2.978625059127808061e+00 -3.298823833465576172e+00 -7.039551138877868652e-01 1.100000000000000000e+01
3.911030292510985884e+00 -4.334502696990966797e+00 -7.168354988098144531e-01 1.500000000000000000e+01
4.888128280639648438e+00 -5.419298171997070312e+00 -6.385029554367065430e-01 9.000000000000000000e+00
1.738512635231018066e+00 -1.936243891716002974e+00 -6.972585320472717285e-01 1.600000000000000000e+01
2.012013912200928178e+00 -2.242426395416260210e+00 -6.955486536026000977e-01 1.400000000000000000e+01
2.393648862838745117e+00 -2.668702125549315962e+00 -6.968344449996948242e-01 1.200000000000000000e+01
2.977061986923218218e+00 -3.321486949920653853e+00 -7.064580321311950684e-01 1.100000000000000000e+01
