1.878372907638550027e+00 -1.775668025016784890e+00 -6.925997734069824219e-01 1.400000000000000000e+01
2.163146018981934038e+00 -2.046300888061522993e+00 -6.874504089355468750e-01 1.400000000000000000e+01
2.566763877868651900e+00 -2.428965806961060014e+00 -6.869123578071594238e-01 1.000000000000000000e+01
3.169826745986938032e+00 -3.001750946044921875e+00 -6.914403438568115234e-01 1.000000000000000000e+01
4.168490886688232422e+00 -3.950222969055175781e+00 -7.051360011100769043e-01 1.100000000000000000e+01
2.769311904907226918e+01 -2.624306869506835938e+01 6.042750358581542969e+00 1.300000000000000000e+01
5.436757564544677734e+00 -5.153882503509520596e+00 -6.554111838340759277e-01 8.000000000000000000e+00
1.865167021751404031e+00 -1.775553941726685014e+00 -6.900115609169006348e-01 1.800000000000000000e+01
2.165866851806641069e+00 -2.063248157501221147e+00 -6.905997395515441895e-01 1.800000000000000000e+01
2.562533378601074219e+00 -2.441973686218262163e+00 -6.880572438240051270e-01 1.100000000000000000e+01
3.163618087768555132e+00 -3.016887187957764116e+00 -6.923789381980895996e-01 1.000000000000000000e+01
2.703215980529785156e+01 -2.578739738464355113e+01 4.587162017822265625e+00 1.900000000000000000e+01
4.164729595184326172e+00 -3.974343061447143999e+00 -7.068421840667724609e-01 9.000000000000000000e+00
5.420175075531005859e+00 -5.174204826354979581e+00 -6.555854678153991699e-01 7.000000000000000000e+00
1.856479287147521973e+00 -1.779056072235106978e+00 -6.889762878417968750e-01 1.800000000000000000e+01
2.157606363296508789e+00 -2.069070100784302202e+00 -6.901498436927795410e-01 1.700000000000000000e+01
2.554421424865723100e+00 -2.450458049774169922e+00 -6.880572438240051270e-01 1.100000000000000000e+01
3.162146568298339844e+00 -3.035569429397583008e+00 -6.942561268806457520e-01 1.000000000000000000e+01
4.152958869934082031e+00 -3.989507198333739790e+00 -7.070859074592590332e-01 1.100000000000000000e+01
5.433155059814453125e+00 -5.221141338348388672e+00 -6.592460274696350098e-01 7.000000000000000000e+00
1.850257873535156028e+00 -1.785525560379028098e+00 -6.889762878417968750e-01 1.500000000000000000e+01
2.155978202819824219e+00 -2.082003831863402876e+00 -6.919494271278381348e-01 2.000000000000000000e+01
2.552912235260010210e+00 -2.466179847717285156e+00 -6.899653077125549316e-01 1.200000000000000000e+01
3.147270441055297852e+00 -3.042469978332519975e+00 -6.933175325393676758e-01 1.000000000000000000e+01
4.147568225860595703e+00 -4.012260437011718750e+00 -7.085483670234680176e-01 1.100000000000000000e+01
5.369080543518066406e+00 -5.195737838745117188e+00 -6.536680459976196289e-01 7.000000000000000000e+00
1.856482863426208052e+00 -1.804090261459351030e+00 -6.936350464820861816e-01 1.600000000000000000e+01
2.143109083175659180e+00 -2.084082603454589844e+00 -6.901498436927795410e-01 1.900000000000000000e+01
2.551324367523192915e+00 -2.481920957565308061e+00 -6.918734312057495117e-01 1.100000000000000000e+01
3.136631011962891069e+00 -3.053437471389770952e+00 -6.933175325393676758e-01 1.000000000000000000e+01
2.776070404052734020e+01 -2.703383827209473012e+01 4.757779121398925781e+00 2.000000000000000000e+01
4.130693435668945312e+00 -4.023943424224854404e+00 -7.080608606338500977e-01 1.100000000000000000e+01
5.309531211853027344e+00 -5.174122810363770419e+00 -6.486130356788635254e-01 1.100000000000000000e+01
1.850174069404602051e+00 -1.810559630393981934e+00 -6.936350464820861816e-01 1.500000000000000000e+01
2.131644248962401900e+00 -2.087460279464722124e+00 -6.888001561164855957e-01 2.100000000000000000e+01
2.538437843322753906e+00 -2.486690044403076172e+00 -6.907285451889038086e-01 1.000000000000000000e+01
3.128774642944335938e+00 -3.067133426666260210e+00 -6.939432621002197266e-01 1.000000000000000000e+01
2.676475143432616832e+01 -2.624660873413085938e+01 4.602761268615722656e+00 1.900000000000000000e+01
4.109536647796630859e+00 -4.031386852264404297e+00 -7.068421840667724609e-01 9.000000000000000000e+00
5.299970149993895596e+00 -5.200997829437255859e+00 -6.496589183807373047e-01 7.000000000000000000e+00
2.770413398742676137e+01 -2.722477531433105113e+01 -6.779910922050476074e-01 8.000000000000000000e+00
1.840031147003174050e+00 -1.812617897987365945e+00 -6.920821070671081543e-01 1.700000000000000000e+01
2.718324661254883168e+01 -2.678761291503905895e+01 6.661583781242370605e-01 3.100000000000000000e+01
2.133037090301514116e+00 -2.102726221084595171e+00 -6.914995312690734863e-01 1.900000000000000000e+01
2.525984048843383789e+00 -2.490958690643310991e+00 -6.895837187767028809e-01 1.200000000000000000e+01
3.121398687362670898e+00 -3.080266952514647993e+00 -6.945690512657165527e-01 1.000000000000000000e+01
2.697423553466796875e+01 -2.662808227539062855e+01 4.653946399688720703e+00 1.900000000000000000e+01
4.108857631683349609e+00 -4.057546138763427734e+00 -7.090358138084411621e-01 1.100000000000000000e+01
2.791986465454101918e+01 -2.757119941711426137e+01 6.214828491210938388e+00 1.400000000000000000e+01
5.298285007476806641e+00 -5.233946800231933594e+00 -6.515763401985168457e-01 7.000000000000000000e+00
2.699923133850098012e+01 -2.669931983947753906e+01 8.766342163085937500e+00 1.100000000000000000e+01
2.755399131774901988e+01 -2.725743103027344105e+01 -6.765250563621520996e-01 8.000000000000000000e+00
1.828206777572632058e+00 -1.813587546348571999e+00 -6.900115609169006348e-01 1.600000000000000000e+01
2.132599353790283203e+00 -2.117023468017578125e+00 -6.937490701675415039e-01 2.000000000000000000e+01
2.524238824844359907e+00 -2.506677627563477007e+00 -6.914917826652526855e-01 1.200000000000000000e+01
3.116232156753540039e+00 -3.096713542938231978e+00 -6.958205103874206543e-01 1.100000000000000000e+01
2.695151329040526988e+01 -2.679205322265625000e+01 4.666133403778076172e+00 2.000000000000000000e+01
4.094669342041015625e+00 -4.071864128112792969e+00 -7.090358138084411621e-01 1.100000000000000000e+01
5.126019001007080078e+00 -5.099248886108398438e+00 -6.325764060020446777e-01 7.000000000000000000e+00
1.821865081787108931e+00 -1.819958209991455078e+00 -6.900115609169006348e-01 1.500000000000000000e+01
2.122440099716186968e+00 -2.121699333190917969e+00 -6.928492188453674316e-01 2.000000000000000000e+01
2.518249988555908203e+00 -2.518249988555908203e+00 -6.922550201416015625e-01 1.200000000000000000e+01
3.102611064910889116e+00 -3.104777812957764116e+00 -6.951947808265686035e-01 1.000000000000000000e+01
2.654356956481933949e+01 -2.657138061523437855e+01 4.611536026000976562e+00 1.900000000000000000e+01
4.091652393341063565e+00 -4.097369194030761719e+00 -7.109857201576232910e-01 1.100000000000000000e+01
5.091296672821044922e+00 -5.100190639495849609e+00 -6.304846405982971191e-01 1.200000000000000000e+01
1.825034856796265093e+00 -1.835897088050842063e+00 -6.936350464820861816e-01 1.600000000000000000e+01
2.112274169921875000e+00 -2.126330137252808061e+00 -6.919494271278381348e-01 1.900000000000000000e+01
2.521894693374633789e+00 -2.539562702178955078e+00 -6.956896185874938965e-01 1.100000000000000000e+01
3.094537258148192915e+00 -3.118393421173096147e+00 -6.958205103874206543e-01 1.100000000000000000e+01
2.654013061523437855e+01 -2.675406837463378906e+01 4.627135276794433594e+00 1.900000000000000000e+01
4.077324867248535156e+00 -4.111627101898193359e+00 -7.109857201576232910e-01 1.100000000000000000e+01
2.623867607116698863e+01 -2.645941734313964844e+01 5.901959419250488281e+00 1.300000000000000000e+01
5.123959064483642578e+00 -5.168869972229003906e+00 -6.367598772048950195e-01 9.000000000000000000e+00
1.821651577949523926e+00 -1.844688177108765093e+00 -6.946703195571899414e-01 1.600000000000000000e+01
2.101104974746704102e+00 -2.129161596298218218e+00 -6.905997395515441895e-01 2.200000000000000000e+01
2.499671936035155806e+00 -2.533935070037841797e+00 -6.918734312057495117e-01 1.100000000000000000e+01
3.089726448059082031e+00 -3.134265184402465820e+00 -6.970719695091247559e-01 1.100000000000000000e+01
2.636209106445312855e+01 -2.675144004821776988e+01 4.611536026000976562e+00 1.900000000000000000e+01
4.063667774200438565e+00 -4.125125408172607422e+00 -7.109857201576232910e-01 1.100000000000000000e+01
5.084422588348388672e+00 -5.163119792938232422e+00 -6.339708566665649414e-01 1.300000000000000000e+01
1.815201401710510032e+00 -1.851035714149475098e+00 -6.946703195571899414e-01 1.700000000000000000e+01
2.104571580886840820e+00 -2.147617816925048828e+00 -6.941989660263061523e-01 2.200000000000000000e+01
2.490811586380004883e+00 -2.542645215988159180e+00 -6.918734312057495117e-01 1.100000000000000000e+01
3.077385187149047852e+00 -3.143619537353516069e+00 -6.967591047286987305e-01 1.000000000000000000e+01
4.050631999969482422e+00 -4.140704154968261719e+00 -7.112295031547546387e-01 1.300000000000000000e+01
5.044080734252929688e+00 -5.158044338226318359e+00 -6.311818957328796387e-01 1.400000000000000000e+01
1.803014636039734109e+00 -1.852139234542846902e+00 -6.925997734069824219e-01 1.700000000000000000e+01
2.102121591567993164e+00 -2.160904169082642046e+00 -6.959985494613647461e-01 2.100000000000000000e+01
2.484213113784790039e+00 -2.554572343826293945e+00 -6.926366686820983887e-01 1.100000000000000000e+01
3.065842390060424805e+00 -3.154877662658690962e+00 -6.967591047286987305e-01 1.000000000000000000e+01
4.049257755279541016e+00 -4.169763565063476562e+00 -7.136668562889099121e-01 1.300000000000000000e+01
2.592797470092773082e+01 -2.670891571044921875e+01 5.895701885223388672e+00 1.300000000000000000e+01
5.039019584655761719e+00 -5.190793037414550781e+00 -6.329250335693359375e-01 1.000000000000000000e+01
1.800566554069519043e+00 -1.862588524818419966e+00 -6.941526532173156738e-01 1.900000000000000000e+01
2.089149951934814009e+00 -2.162622690200806108e+00 -6.941989660263061523e-01 2.100000000000000000e+01
2.727792167663573863e+01 -2.824711418151855113e+01 2.057954549789429155e+00 2.200000000000000000e+01
2.483463525772095171e+00 -2.571701765060424805e+00 -6.949263811111450195e-01 1.200000000000000000e+01
3.047952651977539062e+00 -3.158452987670897993e+00 -6.951947808265686035e-01 1.000000000000000000e+01
2.688066864013671875e+01 -2.786493110656737926e+01 4.753879547119140625e+00 2.000000000000000000e+01
4.040189743041992188e+00 -4.189588069915770596e+00 -7.146418094635009766e-01 1.300000000000000000e+01
5.131491661071777344e+00 -5.323103904724121094e+00 -6.468698978424072266e-01 1.300000000000000000e+01
1.799405336380005105e+00 -1.874436855316162109e+00 -6.962232589721679688e-01 1.900000000000000000e+01
2.078890085220336914e+00 -2.167089223861693892e+00 -6.932991743087768555e-01 2.100000000000000000e+01
2.477189302444458008e+00 -2.583189010620117188e+00 -6.956896185874938965e-01 1.100000000000000000e+01
3.038275718688964844e+00 -3.170499324798583984e+00 -6.955076456069946289e-01 1.000000000000000000e+01
4.014556884765625000e+00 -4.192195892333984375e+00 -7.126919031143188477e-01 1.300000000000000000e+01
5.082568645477294922e+00 -5.309320449829101562e+00 -6.430350542068481445e-01 1.300000000000000000e+01
1.794184327125549094e+00 -1.882104873657227007e+00 -6.967408657073974609e-01 1.800000000000000000e+01
2.072657108306885210e+00 -2.175743818283081055e+00 -6.937490701675415039e-01 1.900000000000000000e+01
2.462741613388061968e+00 -2.586133480072021040e+00 -6.941631436347961426e-01 1.300000000000000000e+01
3.043531179428101030e+00 -3.198257446289062944e+00 -6.992620825767517090e-01 1.000000000000000000e+01
4.005370616912841797e+00 -4.211937904357910156e+00 -7.136668562889099121e-01 1.300000000000000000e+01
5.061259269714354581e+00 -5.324141502380371094e+00 -6.426864266395568848e-01 9.000000000000000000e+00
1.786604881286621094e+00 -1.886641502380371094e+00 -6.962232589721679688e-01 1.900000000000000000e+01
2.068109512329102007e+00 -2.185435771942139116e+00 -6.946488618850708008e-01 1.900000000000000000e+01
2.454152107238769975e+00 -2.594285964965819868e+00 -6.941631436347961426e-01 1.100000000000000000e+01
3.036979675292969194e+00 -3.212639093399047852e+00 -7.002006769180297852e-01 1.100000000000000000e+01
3.991381406784058061e+00 -4.225196838378906250e+00 -7.136668562889099121e-01 1.300000000000000000e+01
5.054519653320313388e+00 -5.352484703063964844e+00 -6.440809369087219238e-01 9.000000000000000000e+00
1.772067785263061968e+00 -1.884422421455383079e+00 -6.931173801422119141e-01 1.900000000000000000e+01
2.067140817642211914e+00 -2.199742078781127930e+00 -6.968983411788940430e-01 2.100000000000000000e+01
2.445081233978271040e+00 -2.602836608886719194e+00 -6.941631436347961426e-01 1.200000000000000000e+01
3.028450965881348100e+00 -3.226100921630858931e+00 -7.008264064788818359e-01 1.100000000000000000e+01
2.651565551757812855e+01 -2.825606346130371094e+01 4.757779121398925781e+00 2.000000000000000000e+01
3.979324817657471147e+00 -4.241999149322509766e+00 -7.141543626785278320e-01 1.300000000000000000e+01
5.026265144348145419e+00 -5.359922409057617188e+00 -6.428607702255249023e-01 9.000000000000000000e+00
1.766797661781311035e+00 -1.892008543014525923e+00 -6.936350464820861816e-01 1.800000000000000000e+01
2.059449672698975053e+00 -2.206944465637207031e+00 -6.968983411788940430e-01 2.100000000000000000e+01
2.444015979766846147e+00 -2.619969367980957031e+00 -6.964528560638427734e-01 1.100000000000000000e+01
3.018518209457397017e+00 -3.238097429275513139e+00 -7.011392712593078613e-01 1.000000000000000000e+01
3.979377031326293945e+00 -4.271841526031494141e+00 -7.168354988098144531e-01 1.500000000000000000e+01
5.017029285430908203e+00 -5.387640953063964844e+00 -6.440809369087219238e-01 7.000000000000000000e+00
1.766750335693358931e+00 -1.905247092247009055e+00 -6.962232589721679688e-01 1.600000000000000000e+01
2.041136980056763139e+00 -2.202684640884398970e+00 -6.932991743087768555e-01 1.900000000000000000e+01
2.434855699539185014e+00 -2.628484487533568892e+00 -6.964528560638427734e-01 1.200000000000000000e+01
3.004513025283813032e+00 -3.245715141296387163e+00 -7.005135416984558105e-01 1.000000000000000000e+01
3.963093280792235884e+00 -4.284248828887938565e+00 -7.165917158126831055e-01 1.300000000000000000e+01
4.990076065063476562e+00 -5.396344184875488281e+00 -6.430350542068481445e-01 1.000000000000000000e+01
1.764014959335326926e+00 -1.915665864944458008e+00 -6.977761387825012207e-01 1.800000000000000000e+01
2.038713932037353960e+00 -2.215532064437866211e+00 -6.950987577438354492e-01 1.600000000000000000e+01
2.433640480041503906e+00 -2.645637273788452148e+00 -6.987425684928894043e-01 1.300000000000000000e+01
3.009207010269165039e+00 -3.273634672164916992e+00 -7.042679786682128906e-01 1.000000000000000000e+01
2.594968032836914062e+01 -2.823984336853026988e+01 4.709031581878662109e+00 2.000000000000000000e+01
3.934685230255126953e+00 -4.283437252044677734e+00 -7.141543626785278320e-01 1.300000000000000000e+01
4.984684944152832031e+00 -5.428405284881591797e+00 -6.447781920433044434e-01 1.100000000000000000e+01
1.752102613449096902e+00 -1.916109085083008035e+00 -6.957055926322937012e-01 1.800000000000000000e+01
2.032282590866088867e+00 -2.224073648452758789e+00 -6.955486536026000977e-01 1.400000000000000000e+01
2.420418500900268999e+00 -2.649767637252808061e+00 -6.975976824760437012e-01 1.300000000000000000e+01
2.995098114013671875e+00 -3.281200885772705078e+00 -7.036422491073608398e-01 1.000000000000000000e+01
3.935762643814086914e+00 -4.314744949340820312e+00 -7.170792222023010254e-01 1.500000000000000000e+01
4.956308364868164062e+00 -5.435466289520263672e+00 -6.435580253601074219e-01 7.000000000000000000e+00
1.742806196212768999e+00 -1.919353008270263894e+00 -6.946703195571899414e-01 1.800000000000000000e+01
2.032363653182982954e+00 -2.239813327789307085e+00 -6.982480883598327637e-01 1.400000000000000000e+01
2.404559135437012163e+00 -2.650929450988769975e+00 -6.956896185874938965e-01 1.300000000000000000e+01
2.984952926635742188e+00 -3.293099403381348100e+00 -7.039551138877868652e-01 1.100000000000000000e+01
3.930006027221680132e+00 -4.338756084442138672e+00 -7.187854051589965820e-01 1.500000000000000000e+01
4.891837120056152344e+00 -5.402519226074218750e+00 -6.376314163208007812e-01 7.000000000000000000e+00
1.741270422935486062e+00 -1.931163787841797097e+00 -6.967408657073974609e-01 1.500000000000000000e+01
2.019315004348754883e+00 -2.241102933883666992e+00 -6.964484453201293945e-01 1.300000000000000000e+01
2.403174638748168945e+00 -2.668059349060059038e+00 -6.979793310165405273e-01 1.200000000000000000e+01
2.962867498397827148e+00 -3.291752815246582031e+00 -7.014521360397338867e-01 1.100000000000000000e+01
3.918819665908813032e+00 -4.356875419616699219e+00 -7.195165753364562988e-01 1.300000000000000000e+01
4.818331241607666016e+00 -5.358818054199218750e+00 -6.304846405982971191e-01 7.000000000000000000e+00
1.735807418823241965e+00 -1.938669443130492942e+00 -6.972585320472717285e-01 1.500000000000000000e+01
2.010180473327637163e+00 -2.246685743331909180e+00 -6.959985494613647461e-01 1.500000000000000000e+01
2.406934976577758789e+00 -2.691065073013306108e+00 -7.017954587936401367e-01 1.300000000000000000e+01
2.961890220642089844e+00 -3.313857793807982954e+00 -7.039551138877868652e-01 1.100000000000000000e+01
3.895653247833251953e+00 -4.361645221710205078e+00 -7.180541753768920898e-01 1.300000000000000000e+01
4.854001522064208984e+00 -5.436538696289063388e+00 -6.376314163208007812e-01 9.000000000000000000e+00
1.736731290817260964e+00 -1.953379154205322044e+00 -7.003643512725830078e-01 1.500000000000000000e+01
1.994559884071350098e+00 -2.244947910308837891e+00 -6.932991743087768555e-01 1.200000000000000000e+01
2.384489774703979048e+00 -2.684771537780762163e+00 -6.979793310165405273e-01 1.200000000000000000e+01
2.952927112579346147e+00 -3.327131271362305132e+00 -7.045808434486389160e-01 1.100000000000000000e+01
3.871184349060059038e+00 -4.364820957183837891e+00 -7.163479924201965332e-01 1.500000000000000000e+01
4.823098659515380859e+00 -5.440032005310058594e+00 -6.360626220703125000e-01 7.000000000000000000e+00
1.719673633575439009e+00 -1.947843909263611062e+00 -6.962232589721679688e-01 1.500000000000000000e+01
1.991868257522583008e+00 -2.257741928100585938e+00 -6.950987577438354492e-01 1.300000000000000000e+01
2.376402139663695845e+00 -2.694550991058350053e+00 -6.983609199523925781e-01 1.200000000000000000e+01
2.949131727218627930e+00 -3.346310615539550781e+00 -7.064580321311950684e-01 1.100000000000000000e+01
3.850676774978638139e+00 -4.372348308563232422e+00 -7.153730392456054688e-01 1.500000000000000000e+01
4.777749061584472656e+00 -5.426925659179688388e+00 -6.325764060020446777e-01 7.000000000000000000e+00
2.226070594787598012e+01 -2.532099914550780895e+01 -5.884951353073120117e-01 6.000000000000000000e+00
1.706496357917786089e+00 -1.946571469306946023e+00 -6.936350464820861816e-01 1.300000000000000000e+01
1.998100519180298074e+00 -2.280804872512816939e+00 -7.000476717948913574e-01 1.400000000000000000e+01
2.366981983184814009e+00 -2.702829837799071822e+00 -6.983609199523925781e-01 1.100000000000000000e+01
2.934831142425537109e+00 -3.353611469268798828e+00 -7.058323025703430176e-01 1.100000000000000000e+01
3.834084033966064009e+00 -4.384268760681152344e+00 -7.151293158531188965e-01 1.800000000000000000e+01
4.724682331085205078e+00 -5.404569625854492188e+00 -6.280443072319030762e-01 6.000000000000000000e+00
2.200122451782226918e+01 -2.520271301269530895e+01 -5.839574933052062988e-01 6.000000000000000000e+00
1.703496456146240012e+00 -1.956887722015381081e+00 -6.951879262924194336e-01 1.400000000000000000e+01
1.979894876480102983e+00 -2.276003360748291016e+00 -6.964484453201293945e-01 1.100000000000000000e+01
2.358821153640747070e+00 -2.712557077407836914e+00 -6.987425684928894043e-01 1.100000000000000000e+01
2.923107147216796875e+00 -3.363835573196411133e+00 -7.058323025703430176e-01 1.100000000000000000e+01
3.817455291748046875e+00 -4.396126747131347656e+00 -7.148855924606323242e-01 2.000000000000000000e+01
4.695339679718017578e+00 -5.408992290496826172e+00 -6.266497969627380371e-01 1.000000000000000000e+01
2.184238624572753906e+01 -2.519776344299316051e+01 -5.820726752281188965e-01 6.000000000000000000e+00
1.704235315322875977e+00 -1.971591234207153098e+00 -6.982938051223754883e-01 1.400000000000000000e+01
1.964294910430907981e+00 -2.274052381515502930e+00 -6.937490701675415039e-01 1.100000000000000000e+01
2.362169027328491211e+00 -2.735633850097655806e+00 -7.025586962699890137e-01 1.200000000000000000e+01
2.908766269683837891e+00 -3.371027469635010210e+00 -7.052065730094909668e-01 1.100000000000000000e+01
3.783938169479370117e+00 -4.388378143310546875e+00 -7.114732265472412109e-01 3.300000000000000000e+01
4.559356689453125000e+00 -5.289526462554931641e+00 -6.109617352485656738e-01 8.000000000000000000e+00
2.184300422668457031e+01 -2.537691307067871094e+01 -5.844461917877197266e-01 6.000000000000000000e+00
1.699859261512755904e+00 -1.980459928512573020e+00 -6.993290781974792480e-01 1.600000000000000000e+01
1.961419820785522017e+00 -2.286811828613280806e+00 -6.955486536026000977e-01 1.200000000000000000e+01
2.343660354614257812e+00 -2.733429670333861861e+00 -6.998873949050903320e-01 1.200000000000000000e+01
2.909834146499633789e+00 -3.396161079406737837e+00 -7.083352804183959961e-01 1.100000000000000000e+01
3.766014814376831055e+00 -4.398543834686279297e+00 -7.109857201576232910e-01 3.700000000000000000e+01
4.618597507476806641e+00 -5.396229743957520419e+00 -6.214204430580139160e-01 8.000000000000000000e+00
2.165554809570312855e+01 -2.533747482299805043e+01 -5.817934274673461914e-01 6.000000000000000000e+00
1.681657910346985085e+00 -1.973148703575134055e+00 -6.946703195571899414e-01 1.500000000000000000e+01
1.964797258377074973e+00 -2.306996822357178178e+00 -6.995977759361267090e-01 1.200000000000000000e+01
2.339195251464844194e+00 -2.747573375701903853e+00 -7.014138698577880859e-01 1.200000000000000000e+01
2.899241685867310014e+00 -3.407802104949951172e+00 -7.086481451988220215e-01 1.000000000000000000e+01
3.727494001388549805e+00 -4.384439468383789062e+00 -7.065984606742858887e-01 4.100000000000000000e+01
4.619086742401123047e+00 -5.435091495513916016e+00 -6.240351200103759766e-01 9.000000000000000000e+00
1.678850054740905984e+00 -1.983137845993041992e+00 -6.962232589721679688e-01 1.600000000000000000e+01
1.959653377532958984e+00 -2.316475391387939009e+00 -7.004975676536560059e-01 1.300000000000000000e+01
2.326267957687377930e+00 -2.750818252563477007e+00 -7.002689838409423828e-01 1.100000000000000000e+01
2.887924909591674805e+00 -3.417397737503052202e+00 -7.086481451988220215e-01 1.000000000000000000e+01
3.709091901779174805e+00 -4.392226219177246094e+00 -7.058672308921813965e-01 2.800000000000000000e+01
4.581759452819824219e+00 -5.427542209625244141e+00 -6.214204430580139160e-01 8.000000000000000000e+00
1.673160433769226074e+00 -1.990464806556702104e+00 -6.967408657073974609e-01 1.600000000000000000e+01
1.945288419723510964e+00 -2.315840721130371094e+00 -6.982480883598327637e-01 1.400000000000000000e+01
2.319176673889160156e+00 -2.761928558349608931e+00 -7.010322213172912598e-01 1.200000000000000000e+01
2.870899438858031782e+00 -3.421404838562012163e+00 -7.073966264724731445e-01 1.000000000000000000e+01
3.707767486572266069e+00 -4.421879291534423828e+00 -7.085483670234680176e-01 2.400000000000000000e+01
4.606302261352539062e+00 -5.495418071746826172e+00 -6.273470520973205566e-01 6.000000000000000000e+00
1.667440176010132058e+00 -1.997776269912719949e+00 -6.972585320472717285e-01 1.500000000000000000e+01
1.935944557189940962e+00 -2.321120500564575195e+00 -6.977981925010681152e-01 1.300000000000000000e+01
2.310778856277465820e+00 -2.771515130996704102e+00 -7.014138698577880859e-01 1.200000000000000000e+01
2.865261316299438032e+00 -3.438993453979492188e+00 -7.089610099792480469e-01 1.100000000000000000e+01
3.684688806533813032e+00 -4.425641536712645596e+00 -7.070859074592590332e-01 2.400000000000000000e+01
4.576895236968994141e+00 -5.499212741851806641e+00 -6.259525418281555176e-01 6.000000000000000000e+00
1.665387272834778054e+00 -2.009534358978271040e+00 -6.993290781974792480e-01 1.400000000000000000e+01
1.929073452949523926e+00 -2.329365015029906782e+00 -6.982480883598327637e-01 1.100000000000000000e+01
2.306098222732543945e+00 -2.785613536834716797e+00 -7.029403448104858398e-01 1.100000000000000000e+01
2.854498624801636186e+00 -3.450496196746826172e+00 -7.092738747596740723e-01 1.000000000000000000e+01
3.655305147171020952e+00 -4.421646595001220703e+00 -7.044048309326171875e-01 2.200000000000000000e+01
4.618592739105224609e+00 -5.588875293731688565e+00 -6.343194842338562012e-01 7.000000000000000000e+00
1.732006454467773082e+01 -2.097360038757323863e+01 -1.425526738166809082e+00 1.300000000000000000e+01
1.659590005874634011e+00 -2.016827106475830078e+00 -6.998466849327087402e-01 1.500000000000000000e+01
1.920930743217468040e+00 -2.336084365844727007e+00 -6.982480883598327637e-01 1.200000000000000000e+01
2.287633895874022993e+00 -2.783029794692993164e+00 -7.002689838409423828e-01 1.100000000000000000e+01
2.849959850311278853e+00 -3.469597816467285156e+00 -7.111510634422302246e-01 1.000000000000000000e+01
3.623475313186645952e+00 -4.414432048797607422e+00 -7.012361884117126465e-01 2.400000000000000000e+01
4.599055767059326172e+00 -5.604962825775145596e+00 -6.343194842338562012e-01 9.000000000000000000e+00
1.724674797058105113e+01 -2.103392982482910156e+01 -1.425526738166809082e+00 1.300000000000000000e+01
1.647650718688965066e+00 -2.016623735427856001e+00 -6.977761387825012207e-01 1.400000000000000000e+01
1.917694449424744096e+00 -2.348813533782958984e+00 -7.000476717948913574e-01 1.200000000000000000e+01
2.275422573089600053e+00 -2.787956237792969194e+00 -6.995058059692382812e-01 1.100000000000000000e+01
2.829091787338256836e+00 -3.468809366226195845e+00 -7.089610099792480469e-01 1.100000000000000000e+01
3.618076801300048828e+00 -4.439363479614257812e+00 -7.031860947608947754e-01 1.600000000000000000e+01
4.488854885101318359e+00 -5.509767532348632812e+00 -6.217690706253051758e-01 1.200000000000000000e+01
1.708242988586426137e+01 -2.098248672485351918e+01 -1.417990446090698020e+00 1.200000000000000000e+01
1.640248417854309082e+00 -2.022649288177489790e+00 -6.977761387825012207e-01 1.500000000000000000e+01
1.911526560783386008e+00 -2.358854532241820845e+00 -7.009474635124206543e-01 1.300000000000000000e+01
2.277546644210814986e+00 -2.811532497406005859e+00 -7.033219337463378906e-01 1.100000000000000000e+01
2.818844795227050781e+00 -3.482225894927978960e+00 -7.095867395401000977e-01 1.100000000000000000e+01
3.611769199371337891e+00 -4.464941501617431641e+00 -7.051360011100769043e-01 1.600000000000000000e+01
4.345859050750732422e+00 -5.374356269836425781e+00 -6.046865582466125488e-01 1.500000000000000000e+01
1.698783683776855113e+01 -2.102320671081542969e+01 -1.416525006294250044e+00 1.200000000000000000e+01
1.642870426177978960e+00 -2.040400266647338867e+00 -7.019172310829162598e-01 1.500000000000000000e+01
1.897172808647155984e+00 -2.357921123504639116e+00 -6.986979842185974121e-01 1.200000000000000000e+01
2.267718791961669922e+00 -2.819465398788452148e+00 -7.033219337463378906e-01 1.200000000000000000e+01
2.806672334671020952e+00 -3.492044210433959961e+00 -7.095867395401000977e-01 1.100000000000000000e+01
3.586217164993286133e+00 -4.465139865875244141e+00 -7.031860947608947754e-01 1.500000000000000000e+01
4.435592651367188388e+00 -5.524658203125000000e+00 -6.198516488075256348e-01 8.000000000000000000e+00
1.687185287475585938e+01 -2.102941131591796875e+01 -1.412966132164001021e+00 1.200000000000000000e+01
1.640563368797302024e+00 -2.052158117294311968e+00 -7.039877772331237793e-01 1.400000000000000000e+01
1.887714266777039018e+00 -2.363006591796875000e+00 -6.982480883598327637e-01 1.300000000000000000e+01
2.255413055419921875e+00 -2.824295997619628906e+00 -7.025586962699890137e-01 1.100000000000000000e+01
2.796930074691772017e+00 -3.504908084869385210e+00 -7.102124691009521484e-01 1.100000000000000000e+01
3.564420700073242188e+00 -4.469871044158936435e+00 -7.019674181938171387e-01 1.800000000000000000e+01
4.410071372985839844e+00 -5.532317638397216797e+00 -6.189801096916198730e-01 8.000000000000000000e+00
1.678838920593262074e+01 -2.107567787170410156e+01 -1.412128806114196999e+00 1.200000000000000000e+01
1.626183867454529031e+00 -2.048793554306029829e+00 -7.008819580078125000e-01 1.500000000000000000e+01
1.881876349449157937e+00 -2.372635126113892046e+00 -6.991478800773620605e-01 1.200000000000000000e+01
2.249199867248535156e+00 -2.836766719818114790e+00 -7.037035822868347168e-01 1.200000000000000000e+01
2.789585351943970171e+00 -3.520843029022216797e+00 -7.114639282226562500e-01 1.100000000000000000e+01
3.542635202407836914e+00 -4.474503993988037109e+00 -7.007487416267395020e-01 3.500000000000000000e+01
4.457502841949462891e+00 -5.632041454315186435e+00 -6.283929347991943359e-01 6.000000000000000000e+00
1.665524864196776988e+01 -2.105895805358887074e+01 -1.407104492187500000e+00 1.200000000000000000e+01
1.614596843719481978e+00 -2.048106431961060014e+00 -6.988114118576049805e-01 1.400000000000000000e+01
1.883645415306091087e+00 -2.391108989715576172e+00 -7.027471065521240234e-01 1.300000000000000000e+01
2.242209672927856001e+00 -2.847294569015502930e+00 -7.044668197631835938e-01 1.200000000000000000e+01
2.775451421737670898e+00 -3.526969671249390093e+00 -7.108381986618041992e-01 1.100000000000000000e+01
3.529004812240601030e+00 -4.487787723541259766e+00 -7.009924650192260742e-01 3.000000000000000000e+01
4.456039905548095703e+00 -5.668721675872802734e+00 -6.308332681655883789e-01 7.000000000000000000e+00
1.656311607360839844e+01 -2.108580207824707031e+01 -1.405220389366149902e+00 1.200000000000000000e+01
1.611009836196898970e+00 -2.058293819427489790e+00 -7.003643512725830078e-01 1.700000000000000000e+01
1.870485067367553933e+00 -2.391529560089110884e+00 -7.009474635124206543e-01 1.300000000000000000e+01
2.229838609695435014e+00 -2.852010726928710938e+00 -7.037035822868347168e-01 1.200000000000000000e+01
2.765555381774901900e+00 -3.539749383926392046e+00 -7.114639282226562500e-01 1.100000000000000000e+01
3.509653091430664062e+00 -4.495384693145751953e+00 -7.002612352371215820e-01 2.900000000000000000e+01
4.470547676086425781e+00 -5.728219985961914062e+00 -6.357139945030212402e-01 1.000000000000000000e+01
1.642062950134276988e+01 -2.105529403686523082e+01 -1.399358749389647993e+00 2.500000000000000000e+01
1.610927581787108931e+00 -2.073057174682617188e+00 -7.034701704978942871e-01 1.700000000000000000e+01
1.860930562019347922e+00 -2.396505117416381836e+00 -7.004975676536560059e-01 1.300000000000000000e+01
2.225888729095458984e+00 -2.867531299591064009e+00 -7.056116461753845215e-01 1.100000000000000000e+01
2.758025407791138139e+00 -3.555624961853026900e+00 -7.127154469490051270e-01 1.100000000000000000e+01
3.481778621673583984e+00 -4.491919040679931641e+00 -6.978238821029663086e-01 3.500000000000000000e+01
4.499338626861572266e+00 -5.806787490844726562e+00 -6.426864266395568848e-01 7.000000000000000000e+00
1.628589439392089844e+01 -2.103352355957030895e+01 -1.394125223159790039e+00 1.200000000000000000e+01
1.606041550636291948e+00 -2.081726789474486861e+00 -7.045054435729980469e-01 1.700000000000000000e+01
1.853743672370911089e+00 -2.404529809951781782e+00 -7.009474635124206543e-01 1.100000000000000000e+01
2.215865612030028853e+00 -2.875283479690552202e+00 -7.056116461753845215e-01 1.200000000000000000e+01
2.741981267929077148e+00 -3.560535430908203125e+00 -7.117767930030822754e-01 1.000000000000000000e+01
3.456392526626586914e+00 -4.491459846496582031e+00 -6.958739757537841797e-01 3.100000000000000000e+01
4.471752643585205078e+00 -5.812983036041259766e+00 -6.416406035423278809e-01 9.000000000000000000e+00
1.615151214599609020e+01 -2.101107025146484020e+01 -1.388891577720642090e+00 1.200000000000000000e+01
1.599575281143188032e+00 -2.089133262634276900e+00 -7.050230503082275391e-01 1.600000000000000000e+01
1.853207230567931907e+00 -2.422141790390015093e+00 -7.040967941284179688e-01 1.200000000000000000e+01
2.200541496276855025e+00 -2.877148151397705078e+00 -7.040851712226867676e-01 1.200000000000000000e+01
2.734910488128662109e+00 -3.578408718109130859e+00 -7.133411765098571777e-01 1.100000000000000000e+01
3.504970312118529829e+00 -4.589289188385009766e+00 -7.090358138084411621e-01 2.000000000000000000e+01
4.462507247924804688e+00 -5.845170021057128906e+00 -6.433836817741394043e-01 1.000000000000000000e+01
1.613496589660644887e+01 -2.114952278137207031e+01 -1.394125223159790039e+00 1.200000000000000000e+01
1.581751465797424094e+00 -2.080862283706665039e+00 -7.003643512725830078e-01 1.500000000000000000e+01
1.842383623123168945e+00 -2.425492286682128906e+00 -7.031970024108886719e-01 1.200000000000000000e+01
2.196421384811400923e+00 -2.892629861831665039e+00 -7.059932947158813477e-01 1.300000000000000000e+01
2.725985050201416016e+00 -3.592654466629027876e+00 -7.142797708511352539e-01 1.000000000000000000e+01
3.499723672866820845e+00 -4.615732192993164062e+00 -7.112295031547546387e-01 2.200000000000000000e+01
4.451704502105712891e+00 -5.873414039611816406e+00 -6.447781920433044434e-01 7.000000000000000000e+00
1.606104087829589844e+01 -2.120571708679198863e+01 -1.394125223159790039e+00 1.200000000000000000e+01
1.571350455284119096e+00 -2.081470727920531782e+00 -6.988114118576049805e-01 1.500000000000000000e+01
1.833156704902648926e+00 -2.430032730102539062e+00 -7.027471065521240234e-01 1.100000000000000000e+01
2.191545248031616211e+00 -2.906167507171630859e+00 -7.075197696685791016e-01 1.300000000000000000e+01
2.706923484802246094e+00 -3.592208862304687944e+00 -7.124025821685791016e-01 1.000000000000000000e+01
3.480815887451171875e+00 -4.622554779052734375e+00 -7.104982733726501465e-01 1.600000000000000000e+01
4.428608417510986328e+00 -5.883368492126464844e+00 -6.442552208900451660e-01 7.000000000000000000e+00
1.573343753814697044e+00 -2.099310159683227983e+00 -7.029525041580200195e-01 1.600000000000000000e+01
1.825831294059752974e+00 -2.437976598739624023e+00 -7.031970024108886719e-01 1.300000000000000000e+01
2.183740615844727007e+00 -2.916943073272705078e+00 -7.082830071449279785e-01 1.300000000000000000e+01
2.701467514038085938e+00 -3.611126184463500977e+00 -7.142797708511352539e-01 1.000000000000000000e+01
3.433756351470946822e+00 -4.593338489532470703e+00 -7.041610479354858398e-01 1.600000000000000000e+01
4.429512500762938565e+00 -5.927519321441650391e+00 -6.473928689956665039e-01 7.000000000000000000e+00
1.569465756416321023e+00 -2.109439134597777876e+00 -7.045054435729980469e-01 1.700000000000000000e+01
1.811496496200561968e+00 -2.436515808105469194e+00 -7.009474635124206543e-01 1.200000000000000000e+01
2.168860912322998047e+00 -2.918245077133179155e+00 -7.067565321922302246e-01 1.400000000000000000e+01
2.691201448440552202e+00 -3.623705863952637163e+00 -7.149055004119873047e-01 1.000000000000000000e+01
3.326610088348389116e+00 -4.482552528381347656e+00 -6.853932142257690430e-01 1.900000000000000000e+01
4.407607555389404297e+00 -5.941345214843750000e+00 -6.472185254096984863e-01 7.000000000000000000e+00
1.556354045867919922e+00 -2.107135057449340820e+00 -7.019172310829162598e-01 1.600000000000000000e+01
1.812238335609436035e+00 -2.455367565155028853e+00 -7.045466899871826172e-01 1.300000000000000000e+01
2.155164241790771040e+00 -2.921058416366577148e+00 -7.056116461753845215e-01 1.500000000000000000e+01
2.680880546569824219e+00 -3.636257886886597124e+00 -7.155312299728393555e-01 1.000000000000000000e+01
3.288571596145629883e+00 -4.463771343231201172e+00 -6.807621717453002930e-01 1.900000000000000000e+01
4.379752635955811435e+00 -5.947068691253662109e+00 -6.461727023124694824e-01 1.200000000000000000e+01
1.722795677185058949e+01 -2.341017532348633168e+01 -1.523290395736693892e+00 1.400000000000000000e+01
1.546704649925231934e+00 -2.109439134597777876e+00 -7.008819580078125000e-01 1.500000000000000000e+01
1.805959939956665039e+00 -2.464822530746459961e+00 -7.054464817047119141e-01 1.100000000000000000e+01
2.150755167007445845e+00 -2.936482906341553178e+00 -7.075197696685791016e-01 1.700000000000000000e+01
2.665838003158568892e+00 -3.642405509948730025e+00 -7.149055004119873047e-01 1.100000000000000000e+01
3.271798372268677202e+00 -4.473621368408203125e+00 -6.805183887481689453e-01 2.100000000000000000e+01
4.340152740478515625e+00 -5.936586380004882812e+00 -6.433836817741394043e-01 1.100000000000000000e+01
1.538195133209228960e+00 -2.113263368606566939e+00 -7.003643512725830078e-01 1.400000000000000000e+01
1.791613817214966042e+00 -2.463231563568114790e+00 -7.031970024108886719e-01 1.200000000000000000e+01
2.145109891891479048e+00 -2.950324296951293945e+00 -7.090462446212768555e-01 1.600000000000000000e+01
2.660073757171630859e+00 -3.661277532577515093e+00 -7.167826890945434570e-01 1.000000000000000000e+01
3.307477474212646040e+00 -4.555695533752441406e+00 -6.912429332733154297e-01 1.700000000000000000e+01
4.307701110839843750e+00 -5.935575008392333984e+00 -6.416406035423278809e-01 1.200000000000000000e+01
1.536466121673583984e+00 -2.126449108123778853e+00 -7.029525041580200195e-01 1.500000000000000000e+01
1.785286188125609907e+00 -2.472630500793457031e+00 -7.040967941284179688e-01 1.300000000000000000e+01
2.139394283294678178e+00 -2.964161872863769975e+00 -7.105727195739746094e-01 1.700000000000000000e+01
2.640344381332397017e+00 -3.660927772521973100e+00 -7.149055004119873047e-01 1.000000000000000000e+01
3.216113805770874023e+00 -4.462533950805664062e+00 -6.753998994827270508e-01 2.200000000000000000e+01
4.284626483917236328e+00 -5.947342395782470703e+00 -6.412919759750366211e-01 9.000000000000000000e+00
1.531286001205443892e+00 -2.134938955307006836e+00 -7.039877772331237793e-01 1.200000000000000000e+01
1.773238420486449973e+00 -2.474095344543457031e+00 -7.027471065521240234e-01 1.100000000000000000e+01
2.121030330657958984e+00 -2.960440158843994141e+00 -7.079013586044311523e-01 1.500000000000000000e+01
2.634448766708374023e+00 -3.679759025573730025e+00 -7.167826890945434570e-01 1.000000000000000000e+01
3.185502052307128906e+00 -4.452744960784912109e+00 -6.722313165664672852e-01 2.100000000000000000e+01
4.309040069580078125e+00 -6.025466442108154297e+00 -6.480901241302490234e-01 7.000000000000000000e+00
1.685761642456055043e+01 -2.358993339538573863e+01 -1.519522190093993919e+00 1.400000000000000000e+01
1.523450732231139915e+00 -2.140537023544311968e+00 -7.039877772331237793e-01 1.400000000000000000e+01
1.773193955421447976e+00 -2.493282556533813032e+00 -7.063463330268859863e-01 1.100000000000000000e+01
2.114715814590454102e+00 -2.974594593048096147e+00 -7.094278335571289062e-01 1.500000000000000000e+01
2.625519990921020952e+00 -3.695831537246704102e+00 -7.180342078208923340e-01 1.000000000000000000e+01
3.226614475250244141e+00 -4.545325756072998047e+00 -6.844182610511779785e-01 1.700000000000000000e+01
4.281161785125732422e+00 -6.033095359802246094e+00 -6.472185254096984863e-01 1.000000000000000000e+01
1.515969634056091087e+00 -2.145841836929320845e+00 -7.039877772331237793e-01 1.500000000000000000e+01
1.771223187446594016e+00 -2.509009122848511186e+00 -7.090457081794738770e-01 1.100000000000000000e+01
2.102055788040161133e+00 -2.978749990463256836e+00 -7.086645960807800293e-01 1.500000000000000000e+01
2.619433641433715820e+00 -3.714660167694091797e+00 -7.199113965034484863e-01 1.000000000000000000e+01
3.262182474136352983e+00 -4.629582881927490234e+00 -6.953864693641662598e-01 1.500000000000000000e+01
4.257781505584716797e+00 -6.044744968414306641e+00 -6.468698978424072266e-01 1.000000000000000000e+01
1.508469939231873003e+00 -2.151120424270629883e+00 -7.039877772331237793e-01 1.500000000000000000e+01
1.760217666625977007e+00 -2.511984586715697798e+00 -7.081459164619445801e-01 1.100000000000000000e+01
2.091645240783690962e+00 -2.986069440841674805e+00 -7.086645960807800293e-01 1.400000000000000000e+01
2.597388982772827148e+00 -3.710834264755249023e+00 -7.174084782600402832e-01 1.000000000000000000e+01
3.181150674819945845e+00 -4.548220634460449219e+00 -6.814933419227600098e-01 1.500000000000000000e+01
4.226380825042724609e+00 -6.044874668121337891e+00 -6.453011035919189453e-01 9.000000000000000000e+00
1.660551452636719105e+01 -2.376806831359862926e+01 -1.519522190093993919e+00 1.400000000000000000e+01
1.504262924194335938e+00 -2.161129713058472124e+00 -7.055407166481018066e-01 1.600000000000000000e+01
1.744762063026428001e+00 -2.508514881134033203e+00 -7.054464817047119141e-01 1.000000000000000000e+01
2.089054346084595171e+00 -3.004636049270629883e+00 -7.113359570503234863e-01 1.400000000000000000e+01
2.586674213409423828e+00 -3.723122835159302202e+00 -7.180342078208923340e-01 1.000000000000000000e+01
3.228650808334351030e+00 -4.650613784790039062e+00 -6.951427459716796875e-01 1.500000000000000000e+01
4.231380939483642578e+00 -6.097238063812255859e+00 -6.493102908134460449e-01 1.000000000000000000e+01
1.635172653198241832e+01 -2.357970237731933949e+01 -1.503821372985840066e+00 1.400000000000000000e+01
1.499284863471985085e+00 -2.169284582138061968e+00 -7.065759897232055664e-01 1.600000000000000000e+01
1.736433982849121094e+00 -2.514286756515502930e+00 -7.054464817047119141e-01 1.000000000000000000e+01
2.076848268508911133e+00 -3.008315801620482954e+00 -7.105727195739746094e-01 1.400000000000000000e+01
2.579922199249268022e+00 -3.739809989929199219e+00 -7.195985317230224609e-01 1.100000000000000000e+01
3.271796941757202148e+00 -4.746283054351806641e+00 -7.078171372413635254e-01 1.800000000000000000e+01
4.176092624664306641e+00 -6.060377597808837891e+00 -6.439066529273986816e-01 7.000000000000000000e+00
1.627344322204589844e+01 -2.363379669189453125e+01 -1.503821372985840066e+00 1.400000000000000000e+01
1.485146522521973100e+00 -2.164946556091309038e+00 -7.034701704978942871e-01 1.400000000000000000e+01
1.734257817268372026e+00 -2.529976844787598100e+00 -7.081459164619445801e-01 1.100000000000000000e+01
2.067444324493408203e+00 -3.017166614532471147e+00 -7.109543085098266602e-01 1.400000000000000000e+01
2.572432279586791992e+00 -3.756942510604857954e+00 -7.211628556251525879e-01 1.000000000000000000e+01
3.203645944595336914e+00 -4.682312488555908203e+00 -6.966051459312438965e-01 1.900000000000000000e+01
4.188655853271484375e+00 -6.124254226684570312e+00 -6.491359472274780273e-01 6.000000000000000000e+00
1.620662307739258168e+01 -2.371354293823241832e+01 -1.505286812782288042e+00 1.400000000000000000e+01
1.478667616844177024e+00 -2.171714305877685991e+00 -7.039877772331237793e-01 1.600000000000000000e+01
1.731993198394774947e+00 -2.545682430267333984e+00 -7.108453512191772461e-01 1.100000000000000000e+01
2.049171447753905806e+00 -3.013001203536986861e+00 -7.082830071449279785e-01 1.300000000000000000e+01
2.557081699371337891e+00 -3.762631416320800781e+00 -7.205371260643005371e-01 1.100000000000000000e+01
3.159401893615723100e+00 -4.652410984039306641e+00 -6.905117034912109375e-01 2.200000000000000000e+01
4.119134426116943359e+00 -6.067954540252686435e+00 -6.416406035423278809e-01 7.000000000000000000e+00
1.609011459350585938e+01 -2.372038459777832031e+01 -1.502146601676940918e+00 1.400000000000000000e+01
1.471077919006348100e+00 -2.176862716674805132e+00 -7.039877772331237793e-01 1.400000000000000000e+01
1.718734264373779075e+00 -2.545252561569213867e+00 -7.090457081794738770e-01 1.000000000000000000e+01
2.047428846359252930e+00 -3.033153533935546875e+00 -7.113359570503234863e-01 1.300000000000000000e+01
2.539513587951660156e+00 -3.764983654022216797e+00 -7.192856669425964355e-01 1.100000000000000000e+01
3.135376453399658203e+00 -4.651888370513916016e+00 -6.888055205345153809e-01 1.500000000000000000e+01
4.100154876708984375e+00 -6.085600852966308594e+00 -6.419891715049743652e-01 7.000000000000000000e+00
1.600498580932616832e+01 -2.377309036254883168e+01 -1.501937270164489968e+00 1.400000000000000000e+01
1.469544291496277078e+00 -2.191867351531981978e+00 -7.070936560630798340e-01 1.400000000000000000e+01
1.707224607467650923e+00 -2.548296928405762163e+00 -7.081459164619445801e-01 1.100000000000000000e+01
2.049407243728638139e+00 -3.060212373733520952e+00 -7.159153223037719727e-01 1.100000000000000000e+01
2.527894496917725053e+00 -3.777549743652344194e+00 -7.199113965034484863e-01 1.100000000000000000e+01
3.126029253005981001e+00 -4.674900054931640625e+00 -6.905117034912109375e-01 1.900000000000000000e+01
4.112145900726318359e+00 -6.151936531066895419e+00 -6.473928689956665039e-01 6.000000000000000000e+00
1.589999580383300959e+01 -2.380501937866210938e+01 -1.500262498855591042e+00 1.400000000000000000e+01
1.467235207557678001e+00 -2.205025196075439009e+00 -7.096818089485168457e-01 1.700000000000000000e+01
1.698318958282470925e+00 -2.554240703582764116e+00 -7.081459164619445801e-01 1.100000000000000000e+01
2.028931856155395952e+00 -3.052632093429564986e+00 -7.124807834625244141e-01 1.000000000000000000e+01
2.524528741836547852e+00 -3.801160335540771040e+00 -7.227272391319274902e-01 1.100000000000000000e+01
3.061394453048706055e+00 -4.613007545471191406e+00 -6.797872185707092285e-01 1.500000000000000000e+01
4.089545249938964844e+00 -6.164592742919921875e+00 -6.472185254096984863e-01 7.000000000000000000e+00
1.579914760589599965e+01 -2.383374023437500000e+01 -1.498587727546691895e+00 1.400000000000000000e+01
1.453525900840759055e+00 -2.200207471847534180e+00 -7.065759897232055664e-01 1.500000000000000000e+01
1.694133877754210982e+00 -2.566363811492919922e+00 -7.099454998970031738e-01 1.100000000000000000e+01
2.005822181701660156e+00 -3.039679765701293945e+00 -7.079013586044311523e-01 1.000000000000000000e+01
2.515172004699707031e+00 -3.814458608627318892e+00 -7.236658334732055664e-01 1.000000000000000000e+01
3.087583065032958984e+00 -4.686123847961425781e+00 -6.890492439270019531e-01 5.700000000000000000e+01
4.085518836975097656e+00 -6.203079223632813388e+00 -6.498332023620605469e-01 6.000000000000000000e+00
1.566512489318848012e+01 -2.380258178710937855e+01 -1.493354201316833052e+00 1.400000000000000000e+01
1.440540790557861106e+00 -2.197189807891846147e+00 -7.039877772331237793e-01 1.500000000000000000e+01
1.686233162879944070e+00 -2.573892116546630859e+00 -7.103954553604125977e-01 1.300000000000000000e+01
2.005955219268798828e+00 -3.063086986541748047e+00 -7.117175459861755371e-01 1.000000000000000000e+01
2.499678373336791992e+00 -3.819909095764160156e+00 -7.230401039123535156e-01 1.000000000000000000e+01
3.073379278182982954e+00 -4.700195789337158203e+00 -6.895367503166198730e-01 4.300000000000000000e+01
4.285128593444824219e+00 -6.555851936340332031e+00 -6.852184534072875977e-01 5.000000000000000000e+00
1.554699420928955078e+01 -2.380360794067383168e+01 -1.490004658699036089e+00 1.400000000000000000e+01
1.437076687812804954e+00 -2.208682060241699219e+00 -7.060583829879760742e-01 1.400000000000000000e+01
1.684673905372620073e+00 -2.591198921203612837e+00 -7.135447263717651367e-01 1.300000000000000000e+01
2.000600099563599077e+00 -3.078301191329956055e+00 -7.136256694793701172e-01 1.000000000000000000e+01
2.482025861740111861e+00 -3.821984529495238814e+00 -7.217886447906494141e-01 1.000000000000000000e+01
2.649532127380371094e+01 -4.081481170654296875e+01 5.974766254425048828e+00 4.900000000000000000e+01
3.081807136535644975e+00 -4.749195575714111328e+00 -6.951427459716796875e-01 2.200000000000000000e+01
4.295830249786376953e+00 -6.622587203979492188e+00 -6.906220912933349609e-01 6.000000000000000000e+00
1.546598148345947088e+01 -2.386108398437500000e+01 -1.490213990211487038e+00 1.400000000000000000e+01
2.770472335815430043e+01 -4.279222106933593750e+01 1.365943431854248047e+01 1.600000000000000000e+01
1.431454062461853027e+00 -2.216930627822875977e+00 -7.070936560630798340e-01 1.500000000000000000e+01
1.665053606033324973e+00 -2.580688714981079102e+00 -7.090457081794738770e-01 1.200000000000000000e+01
1.988778591156006081e+00 -3.083615779876708984e+00 -7.132440209388732910e-01 9.000000000000000000e+00
