3.194283008575439009e+00 2.969349861145019975e+00 -5.354939103126525879e-01 1.000000000000000000e+01
4.150848388671875000e+00 3.857206344604492188e+00 -4.957418739795684814e-01 9.000000000000000000e+00
5.996174335479736328e+00 5.568089962005615234e+00 -4.288408160209655762e-01 2.000000000000000000e+00
9.850260734558105469e+00 9.140620231628417969e+00 -2.345603406429291049e-01 2.000000000000000000e+00
1.639110088348388894e+00 1.516770243644713911e+00 -5.983896255493164062e-01 1.900000000000000000e+01
1.887189388275146040e+00 1.745110869407654031e+00 -5.934208631515502930e-01 1.300000000000000000e+01
2.176909446716309038e+00 2.012314319610596147e+00 -5.762431621551513672e-01 1.400000000000000000e+01
2.595895290374755859e+00 2.397941112518310991e+00 -5.597225427627563477e-01 1.000000000000000000e+01
3.209004402160644975e+00 2.962221145629882812e+00 -5.362251400947570801e-01 1.000000000000000000e+01
4.167215824127197266e+00 3.845396041870117188e+00 -4.960905015468596857e-01 9.000000000000000000e+00
6.030256748199462891e+00 5.560664653778076172e+00 -4.298875331878662109e-01 2.000000000000000000e+00
9.873284339904785156e+00 9.098050117492675781e+00 -2.343509197235106867e-01 2.000000000000000000e+00
3.951207351684570312e+01 3.639690017700195312e+01 1.439447975158691051e+01 1.800000000000000000e+01
1.638704776763916016e+00 1.505810856819153054e+00 -5.963190793991088867e-01 1.900000000000000000e+01
1.894704818725585938e+00 1.739830732345581055e+00 -5.938707590103149414e-01 1.200000000000000000e+01
2.185366868972777876e+00 2.006030797958374023e+00 -5.766248106956481934e-01 1.300000000000000000e+01
2.591148614883422852e+00 2.376847505569458008e+00 -5.569067001342773438e-01 1.000000000000000000e+01
3.222251415252685991e+00 2.953684329986571822e+00 -5.367125868797302246e-01 1.000000000000000000e+01
4.182082176208496094e+00 3.832172393798828125e+00 -4.962647855281829834e-01 8.000000000000000000e+00
6.037846565246582031e+00 5.528790950775145596e+00 -4.290501773357390802e-01 1.000000000000000000e+00
9.913833618164062500e+00 9.071630477905273438e+00 -2.345603406429291049e-01 2.000000000000000000e+00
1.655367374420166016e+00 1.510498762130737083e+00 -6.004601716995239258e-01 1.900000000000000000e+01
1.892126560211182085e+00 1.725328207015990989e+00 -5.911713838577270508e-01 1.200000000000000000e+01
2.193806648254394975e+00 1.999712944030761941e+00 -5.770063996315002441e-01 1.300000000000000000e+01
2.605271100997924805e+00 2.373109102249145952e+00 -5.581581592559814453e-01 1.000000000000000000e+01
3.232542276382445845e+00 2.942418575286864790e+00 -5.367125868797302246e-01 1.000000000000000000e+01
4.196907043457031250e+00 3.818891763687133789e+00 -4.964390993118286133e-01 9.000000000000000000e+00
6.045287132263183594e+00 5.496932029724121094e+00 -4.282127916812896729e-01 2.000000000000000000e+00
9.945439338684082031e+00 9.036969184875488281e+00 -2.345603406429291049e-01 2.000000000000000000e+00
1.664661288261414018e+00 1.508893370628356934e+00 -6.020131111145019531e-01 2.000000000000000000e+01
1.896393299102782981e+00 1.717735886573791948e+00 -5.907214879989624023e-01 1.400000000000000000e+01
2.194604635238647017e+00 1.987156033515929954e+00 -5.754799246788024902e-01 1.300000000000000000e+01
2.613126277923583984e+00 2.364456653594971147e+00 -5.581581592559814453e-01 9.000000000000000000e+00
3.240809440612792969e+00 2.930351495742797852e+00 -5.364688634872436523e-01 9.000000000000000000e+00
4.206592082977294922e+00 3.802281379699707031e+00 -4.960905015468596857e-01 9.000000000000000000e+00
6.069410800933837891e+00 5.482209682464599609e+00 -4.286314845085144043e-01 1.000000000000000000e+00
9.990196228027343750e+00 9.017338752746582031e+00 -2.349093854427337924e-01 2.000000000000000000e+00
1.667046427726746050e+00 1.500488519668579102e+00 -6.009778380393981934e-01 2.000000000000000000e+01
1.905275464057921919e+00 1.713712215423583984e+00 -5.916212797164916992e-01 1.400000000000000000e+01
2.200067996978760210e+00 1.978170633316040039e+00 -5.750983357429504395e-01 1.300000000000000000e+01
2.624302625656127930e+00 2.357961177825928178e+00 -5.587838888168334961e-01 9.000000000000000000e+00
3.251018524169921875e+00 2.919021129608153853e+00 -5.364688634872436523e-01 1.000000000000000000e+01
4.225769519805908203e+00 3.792897701263428178e+00 -4.967877268791198730e-01 9.000000000000000000e+00
6.100405216217041016e+00 5.471658706665039062e+00 -4.294688701629639227e-01 2.000000000000000000e+00
9.985874176025390625e+00 8.950378417968750000e+00 -2.340716719627380094e-01 2.000000000000000000e+00
1.663631677627563032e+00 1.486935973167418990e+00 -5.978720188140869141e-01 2.000000000000000000e+01
1.914152741432189941e+00 1.709647417068481001e+00 -5.925210714340209961e-01 1.200000000000000000e+01
2.202566146850585938e+00 1.966556310653686968e+00 -5.739534497261047363e-01 1.300000000000000000e+01
2.633991241455078125e+00 2.350101470947266069e+00 -5.590967535972595215e-01 1.000000000000000000e+01
3.256742954254149947e+00 2.903692007064818892e+00 -5.357376337051391602e-01 1.000000000000000000e+01
4.240470886230468750e+00 3.779449701309204102e+00 -4.969620406627655029e-01 8.000000000000000000e+00
6.116484642028808594e+00 5.447674274444580078e+00 -4.292595088481903076e-01 2.000000000000000000e+00
1.002303028106688920e+01 8.920784950256347656e+00 -2.342112958431243896e-01 2.000000000000000000e+00
1.677481055259705034e+00 1.488813877105712891e+00 -6.009778380393981934e-01 1.900000000000000000e+01
1.920108795166016069e+00 1.702955365180969016e+00 -5.925210714340209961e-01 1.200000000000000000e+01
2.221169471740723100e+00 1.969275355339050071e+00 -5.770063996315002441e-01 1.400000000000000000e+01
2.639221668243408203e+00 2.338272809982299805e+00 -5.584710240364074707e-01 1.000000000000000000e+01
3.280235290527344194e+00 2.904149055480957031e+00 -5.379312634468078613e-01 1.000000000000000000e+01
4.246178150177001953e+00 3.758022308349608931e+00 -4.960905015468596857e-01 9.000000000000000000e+00
6.141447544097900391e+00 5.431583404541015625e+00 -4.296782016754149836e-01 2.000000000000000000e+00
1.006909275054931996e+01 8.898985862731933594e+00 -2.345603406429291049e-01 2.000000000000000000e+00
1.685566425323486106e+00 1.485503911972045898e+00 -6.020131111145019531e-01 1.800000000000000000e+01
1.918729305267333984e+00 1.689802765846251997e+00 -5.902715921401977539e-01 1.200000000000000000e+01
2.225082874298096147e+00 1.958915472030640093e+00 -5.762431621551513672e-01 1.300000000000000000e+01
2.651816844940185991e+00 2.332960367202758789e+00 -5.594096183776855469e-01 9.000000000000000000e+00
3.282898426055908203e+00 2.886127710342406782e+00 -5.367125868797302246e-01 1.000000000000000000e+01
4.271242618560791016e+00 3.753699302673339844e+00 -4.974849820137023926e-01 9.000000000000000000e+00
6.163371562957763672e+00 5.412748336791992188e+00 -4.298875331878662109e-01 2.000000000000000000e+00
1.012113666534424006e+01 8.882250785827636719e+00 -2.350490093231200894e-01 2.000000000000000000e+00
3.580627822875977273e+01 3.142337989807128906e+01 1.276495552062987926e+01 1.400000000000000000e+01
1.695102930068969949e+00 1.483427882194519043e+00 -6.035659909248352051e-01 1.600000000000000000e+01
1.927549958229064941e+00 1.685660481452941895e+00 -5.911713838577270508e-01 1.200000000000000000e+01
2.225995063781737837e+00 1.945967912673949973e+00 -5.747166872024536133e-01 1.400000000000000000e+01
2.656969070434569868e+00 2.321090221405028853e+00 -5.587838888168334961e-01 1.000000000000000000e+01
3.291457414627075195e+00 2.873345136642456055e+00 -5.364688634872436523e-01 9.000000000000000000e+00
4.275312423706054688e+00 3.730906963348389116e+00 -4.964390993118286133e-01 9.000000000000000000e+00
6.167174816131591797e+00 5.378074645996093750e+00 -4.288408160209655762e-01 2.000000000000000000e+00
3.617868041992188211e+01 3.153844070434569957e+01 1.108063888549805043e+01 1.400000000000000000e+01
1.015207958221436080e+01 8.846866607666015625e+00 -2.350490093231200894e-01 2.000000000000000000e+00
1.691264867782592995e+00 1.470194101333617942e+00 -6.004601716995239258e-01 1.600000000000000000e+01
1.936071634292602983e+00 1.681815266609191895e+00 -5.920711755752563477e-01 1.300000000000000000e+01
2.233918190002440962e+00 1.939862847328186035e+00 -5.750983357429504395e-01 1.300000000000000000e+01
2.675095081329346147e+00 2.321329355239868164e+00 -5.609740018844604492e-01 1.000000000000000000e+01
3.300967693328856978e+00 2.862414598464965820e+00 -5.364688634872436523e-01 9.000000000000000000e+00
4.290672302246093750e+00 3.719319105148314986e+00 -4.967877268791198730e-01 9.000000000000000000e+00
6.194033145904541016e+00 5.365439891815186435e+00 -4.294688701629639227e-01 2.000000000000000000e+00
1.018136119842528942e+01 8.813153266906738281e+00 -2.350490093231200894e-01 2.000000000000000000e+00
1.691999316215514915e+00 1.460494637489319070e+00 -5.989072918891906738e-01 1.700000000000000000e+01
1.949308633804321067e+00 1.681411027908324973e+00 -5.943207144737243652e-01 1.200000000000000000e+01
2.240675926208496094e+00 1.932053089141845925e+00 -5.750983357429504395e-01 1.200000000000000000e+01
2.675699472427368164e+00 2.305530071258544922e+00 -5.594096183776855469e-01 1.000000000000000000e+01
3.310939311981201172e+00 2.850874662399291992e+00 -5.364688634872436523e-01 9.000000000000000000e+00
4.297588825225830078e+00 3.699120283126831055e+00 -4.960905015468596857e-01 9.000000000000000000e+00
6.233922958374023438e+00 5.362019538879395419e+00 -4.309342503547667902e-01 2.000000000000000000e+00
1.016656780242919922e+01 8.738455772399902344e+00 -2.340018600225448886e-01 2.000000000000000000e+00
1.697087049484252930e+00 1.454579472541809082e+00 -5.989072918891906738e-01 1.700000000000000000e+01
1.949245691299438032e+00 1.669525742530822976e+00 -5.925210714340209961e-01 1.100000000000000000e+01
2.250389099121094194e+00 1.926773667335510032e+00 -5.758615732192993164e-01 1.000000000000000000e+01
2.676226139068603960e+00 2.289755105972290039e+00 -5.578452944755554199e-01 1.000000000000000000e+01
3.698122406005858664e+01 3.162962532043457031e+01 5.975010395050048828e+00 4.900000000000000000e+01
3.332941055297852007e+00 2.849619865417480025e+00 -5.384187698364257812e-01 9.000000000000000000e+00
4.325620651245117188e+00 3.697041034698485884e+00 -4.978336095809937079e-01 9.000000000000000000e+00
6.252602100372313565e+00 5.340226650238037109e+00 -4.309342503547667902e-01 2.000000000000000000e+00
1.019700908660889027e+01 8.702914237976074219e+00 -2.340018600225448886e-01 2.000000000000000000e+00
3.599808120727539062e+01 3.072354125976562855e+01 1.268109798431395951e+01 1.400000000000000000e+01
1.706567645072937012e+00 1.452402949333190918e+00 -6.004601716995239258e-01 1.600000000000000000e+01
1.950608134269713911e+00 1.658923864364624023e+00 -5.911713838577270508e-01 1.300000000000000000e+01
2.261588335037231001e+00 1.922721505165100098e+00 -5.770063996315002441e-01 9.000000000000000000e+00
2.693235158920288086e+00 2.288073062896728960e+00 -5.597225427627563477e-01 1.100000000000000000e+01
3.342867612838745117e+00 2.837968349456787109e+00 -5.384187698364257812e-01 9.000000000000000000e+00
4.338499069213867188e+00 3.681919336318970171e+00 -4.978336095809937079e-01 9.000000000000000000e+00
6.262065410614013672e+00 5.310617446899414062e+00 -4.303062260150908869e-01 2.000000000000000000e+00
3.653575897216796875e+01 3.097361564636230113e+01 1.105814361572265980e+01 1.400000000000000000e+01
1.022427463531493963e+01 8.664681434631347656e+00 -2.339320629835129062e-01 2.000000000000000000e+00
3.642293930053710938e+01 3.085612487792969105e+01 1.279083728790283025e+01 1.400000000000000000e+01
1.721955895423888938e+00 1.455165505409240945e+00 -6.040836572647094727e-01 1.900000000000000000e+01
1.963831305503844993e+00 1.658391475677490012e+00 -5.934208631515502930e-01 1.300000000000000000e+01
2.263785600662231001e+00 1.911016106605530007e+00 -5.758615732192993164e-01 8.000000000000000000e+00
2.702715635299683061e+00 2.279931783676147017e+00 -5.600354075431823730e-01 1.100000000000000000e+01
3.339093685150146040e+00 2.814767360687255859e+00 -5.362251400947570801e-01 1.000000000000000000e+01
4.351325035095214844e+00 3.666752815246582031e+00 -4.978336095809937079e-01 9.000000000000000000e+00
6.289731025695800781e+00 5.296445369720458984e+00 -4.309342503547667902e-01 2.000000000000000000e+00
1.024527740478515980e+01 8.621213912963867188e+00 -2.337226271629332941e-01 2.000000000000000000e+00
1.722585201263427956e+00 1.445420622825623003e+00 -6.025307178497314453e-01 1.900000000000000000e+01
1.966621756553649902e+00 1.649022102355957031e+00 -5.925210714340209961e-01 1.100000000000000000e+01
2.253891706466674805e+00 1.889229536056518999e+00 -5.716637372970581055e-01 6.000000000000000000e+00
2.718229293823242188e+00 2.276825904846190962e+00 -5.615997314453125000e-01 1.000000000000000000e+01
3.350420951843262163e+00 2.804368734359741211e+00 -5.364688634872436523e-01 1.000000000000000000e+01
4.370210170745849609e+00 3.656655550003052202e+00 -4.985308349132537842e-01 9.000000000000000000e+00
6.323503017425537109e+00 5.287269115447998047e+00 -4.319809973239899237e-01 2.000000000000000000e+00
1.029986095428466975e+01 8.605913162231445312e+00 -2.342811077833175937e-01 2.000000000000000000e+00
3.604209518432617188e+01 3.011450004577637074e+01 1.258481693267822088e+01 1.400000000000000000e+01
1.716731190681457964e+00 1.431342005729675071e+00 -5.989072918891906738e-01 1.900000000000000000e+01
1.974786877632140891e+00 1.645330429077147993e+00 -5.934208631515502930e-01 1.100000000000000000e+01
2.262832880020142046e+00 1.884652376174926980e+00 -5.724269747734069824e-01 8.000000000000000000e+00
2.719295501708983931e+00 2.263220310211182085e+00 -5.603482723236083984e-01 1.100000000000000000e+01
3.363793373107910156e+00 2.797637462615966797e+00 -5.372000932693481445e-01 1.000000000000000000e+01
4.392400741577148438e+00 3.651824474334716797e+00 -4.997510313987731934e-01 9.000000000000000000e+00
6.355444908142089844e+00 5.280140399932861328e+00 -4.330277144908905029e-01 2.000000000000000000e+00
3.595093536376953125e+01 2.985764312744140980e+01 1.078910255432129084e+01 1.300000000000000000e+01
1.033915519714354936e+01 8.583731651306152344e+00 -2.345603406429291049e-01 2.000000000000000000e+00
1.726181268692017046e+00 1.429036617279052956e+00 -6.004601716995239258e-01 1.900000000000000000e+01
1.979016661643981934e+00 1.637184977531433105e+00 -5.929709672927856445e-01 1.200000000000000000e+01
2.289065837860106978e+00 1.893007159233093040e+00 -5.773880481719970703e-01 1.000000000000000000e+01
2.721088171005249023e+00 2.248681068420410156e+00 -5.590967535972595215e-01 1.000000000000000000e+01
3.381191492080688032e+00 2.792198419570922852e+00 -5.384187698364257812e-01 9.000000000000000000e+00
4.392829418182373047e+00 3.626322746276855025e+00 -4.983565509319304865e-01 9.000000000000000000e+00
6.352267742156982422e+00 5.240130424499511719e+00 -4.315623044967650812e-01 1.000000000000000000e+00
1.035671043395995916e+01 8.537413597106933594e+00 -2.342811077833175937e-01 2.000000000000000000e+00
3.635656738281250000e+01 2.995938491821289062e+01 1.262312221527099965e+01 1.400000000000000000e+01
1.732651472091675027e+00 1.424229145050049050e+00 -6.009778380393981934e-01 1.700000000000000000e+01
1.974178433418273926e+00 1.621608495712280051e+00 -5.898216366767883301e-01 1.400000000000000000e+01
2.301728963851929155e+00 1.889988780021667036e+00 -5.789144635200500488e-01 1.400000000000000000e+01
2.738083362579346147e+00 2.246687173843383789e+00 -5.609740018844604492e-01 1.100000000000000000e+01
3.384777307510375977e+00 2.775344371795653853e+00 -5.374438166618347168e-01 9.000000000000000000e+00
4.402379035949707031e+00 3.608440637588500977e+00 -4.980079233646392822e-01 9.000000000000000000e+00
6.361249446868895596e+00 5.210331439971923828e+00 -4.309342503547667902e-01 2.000000000000000000e+00
1.041430282592773082e+01 8.524007797241210938e+00 -2.349093854427337924e-01 2.000000000000000000e+00
1.742102384567260964e+00 1.421836853027343972e+00 -6.025307178497314453e-01 1.800000000000000000e+01
1.982847213745116965e+00 1.617170691490172896e+00 -5.907214879989624023e-01 1.200000000000000000e+01
2.294617652893065962e+00 1.870777606964111106e+00 -5.754799246788024902e-01 1.400000000000000000e+01
2.739783287048339844e+00 2.232125043869018999e+00 -5.597225427627563477e-01 1.000000000000000000e+01
3.465689468383789062e+01 2.822520828247069957e+01 5.488020420074462891e+00 3.700000000000000000e+01
3.391365766525268999e+00 2.761005640029906782e+00 -5.369563102722167969e-01 9.000000000000000000e+00
4.421129226684570312e+00 3.598082065582274947e+00 -4.987051486968994141e-01 1.100000000000000000e+01
6.376299381256104404e+00 5.185574531555175781e+00 -4.307249188423156738e-01 1.000000000000000000e+00
1.042847537994384943e+01 8.474991798400878906e+00 -2.345603406429291049e-01 2.000000000000000000e+00
3.642472076416016336e+01 2.960156822204589844e+01 1.257653522491455078e+01 1.400000000000000000e+01
1.745800852775573953e+00 1.414226174354553001e+00 -6.020131111145019531e-01 1.900000000000000000e+01
1.991790413856505904e+00 1.612344622611999956e+00 -5.916212797164916992e-01 1.100000000000000000e+01
2.302985191345214844e+00 1.863589882850646973e+00 -5.758615732192993164e-01 1.300000000000000000e+01
2.752554178237915039e+00 2.225794315338135210e+00 -5.606611371040344238e-01 9.000000000000000000e+00
3.395286321640015093e+00 2.743566751480102983e+00 -5.359813570976257324e-01 9.000000000000000000e+00
4.443586349487304688e+00 3.589365482330321822e+00 -4.997510313987731934e-01 1.100000000000000000e+01
6.413912296295166016e+00 5.177223205566406250e+00 -4.319809973239899237e-01 2.000000000000000000e+00
3.682440948486328125e+01 2.971355438232421875e+01 1.092407321929931996e+01 1.300000000000000000e+01
1.045946788787841975e+01 8.436712265014648438e+00 -2.345603406429291049e-01 2.000000000000000000e+00
1.740189313888550027e+00 1.399648189544677956e+00 -5.983896255493164062e-01 2.000000000000000000e+01
2.012595891952515093e+00 1.617590308189392090e+00 -5.961202979087829590e-01 1.300000000000000000e+01
2.312537193298339844e+00 1.857998847961426003e+00 -5.766248106956481934e-01 1.400000000000000000e+01
2.764927864074707031e+00 2.219882726669311968e+00 -5.615997314453125000e-01 1.000000000000000000e+01
3.415681123733520952e+00 2.740393877029418945e+00 -5.376875400543212891e-01 1.000000000000000000e+01
4.456088542938232422e+00 3.573832511901855025e+00 -4.997510313987731934e-01 9.000000000000000000e+00
6.431944847106933594e+00 5.154802799224854404e+00 -4.319809973239899237e-01 2.000000000000000000e+00
1.050758361816406072e+01 8.415151596069335938e+00 -2.349791973829269132e-01 2.000000000000000000e+00
1.752612233161926047e+00 1.399592876434325950e+00 -6.009778380393981934e-01 2.200000000000000000e+01
2.006044387817382812e+00 1.600831151008605957e+00 -5.925210714340209961e-01 1.200000000000000000e+01
2.322078227996826172e+00 1.852363944053649902e+00 -5.773880481719970703e-01 1.400000000000000000e+01
2.760302543640137163e+00 2.200367212295531782e+00 -5.590967535972595215e-01 1.000000000000000000e+01
3.422120571136475053e+00 2.725980520248413086e+00 -5.372000932693481445e-01 1.000000000000000000e+01
4.460743427276611328e+00 3.552050590515137163e+00 -4.988794624805449884e-01 9.000000000000000000e+00
6.449899196624755859e+00 5.132319927215576172e+00 -4.319809973239899237e-01 2.000000000000000000e+00
1.051811122894286932e+01 8.363487243652343750e+00 -2.345603406429291049e-01 2.000000000000000000e+00
3.759584045410156250e+01 2.988366127014160156e+01 1.286848258972167969e+01 1.400000000000000000e+01
1.759000778198241965e+00 1.394666790962219016e+00 -6.014954447746276855e-01 2.000000000000000000e+01
2.011620283126831055e+00 1.593819022178649902e+00 -5.925210714340209961e-01 1.100000000000000000e+01
2.336225032806396040e+00 1.850341677665710005e+00 -5.792961120605468750e-01 1.400000000000000000e+01
2.778809070587158203e+00 2.199300050735474077e+00 -5.612868666648864746e-01 9.000000000000000000e+00
3.434729337692261186e+00 2.716481447219849077e+00 -5.376875400543212891e-01 1.000000000000000000e+01
4.454360008239746094e+00 3.521630048751831055e+00 -4.967877268791198730e-01 1.100000000000000000e+01
6.452103137969970703e+00 5.097393035888671875e+00 -4.309342503547667902e-01 2.000000000000000000e+00
1.056293678283691051e+01 8.339111328125000000e+00 -2.349093854427337924e-01 2.000000000000000000e+00
1.768412232398987038e+00 1.392103075981139915e+00 -6.030483841896057129e-01 1.900000000000000000e+01
2.011044979095458984e+00 1.581967949867248979e+00 -5.907214879989624023e-01 1.100000000000000000e+01
2.334953308105469194e+00 1.836107730865478960e+00 -5.773880481719970703e-01 1.400000000000000000e+01
2.786469221115111861e+00 2.189586877822875977e+00 -5.612868666648864746e-01 1.000000000000000000e+01
3.441068172454833984e+00 2.702023506164550781e+00 -5.372000932693481445e-01 1.000000000000000000e+01
4.471327304840087891e+00 3.509750604629517046e+00 -4.973106682300568182e-01 1.100000000000000000e+01
6.485572338104248047e+00 5.087166309356688565e+00 -4.319809973239899237e-01 2.000000000000000000e+00
1.061716270446776988e+01 8.321927070617675781e+00 -2.354678660631180087e-01 2.000000000000000000e+00
1.768694400787353960e+00 1.382352709770203081e+00 -6.014954447746276855e-01 1.800000000000000000e+01
2.025769710540771040e+00 1.582135438919066939e+00 -5.934208631515502930e-01 1.100000000000000000e+01
2.342895984649658203e+00 1.829154253005981001e+00 -5.777696371078491211e-01 1.300000000000000000e+01
2.803440093994141069e+00 2.187137365341186968e+00 -5.631640553474426270e-01 9.000000000000000000e+00
3.450479030609130859e+00 2.689995288848876953e+00 -5.372000932693481445e-01 1.000000000000000000e+01
4.480408191680908203e+00 3.491672039031981978e+00 -4.969620406627655029e-01 1.100000000000000000e+01
6.512744903564453125e+00 5.071859359741210938e+00 -4.326090216636658270e-01 2.000000000000000000e+00
1.064614677429199041e+01 8.284815788269042969e+00 -2.354678660631180087e-01 2.000000000000000000e+00
1.767403960227966087e+00 1.371433138847351074e+00 -5.994248986244201660e-01 1.600000000000000000e+01
2.035900115966796875e+00 1.578637003898621050e+00 -5.947706103324890137e-01 1.200000000000000000e+01
2.344611406326293945e+00 1.817356586456299050e+00 -5.766248106956481934e-01 1.300000000000000000e+01
2.807934284210205078e+00 2.174918889999390093e+00 -5.625383257865905762e-01 9.000000000000000000e+00
3.464557170867919922e+00 2.681579589843750000e+00 -5.379312634468078613e-01 9.000000000000000000e+00
4.479962825775145596e+00 3.466257333755493164e+00 -4.955675601959229071e-01 1.100000000000000000e+01
6.546210289001464844e+00 5.061311244964599609e+00 -4.336557388305664062e-01 1.000000000000000000e+00
1.067500209808349965e+01 8.247603416442871094e+00 -2.354678660631180087e-01 2.000000000000000000e+00
1.778301954269408958e+00 1.369971394538878950e+00 -6.014954447746276855e-01 1.900000000000000000e+01
2.041398286819458008e+00 1.571520686149596946e+00 -5.947706103324890137e-01 1.200000000000000000e+01
2.357164382934569868e+00 1.813950538635253906e+00 -5.781512856483459473e-01 1.300000000000000000e+01
2.809245347976685014e+00 2.160287380218505859e+00 -5.612868666648864746e-01 9.000000000000000000e+00
3.483340740203856978e+00 2.676727056503295898e+00 -5.393937230110168457e-01 9.000000000000000000e+00
4.496775150299072266e+00 3.454239368438721147e+00 -4.960905015468596857e-01 9.000000000000000000e+00
6.576511859893798828e+00 5.048159122467041016e+00 -4.344930946826934814e-01 2.000000000000000000e+00
1.071007251739501953e+01 8.215158462524414062e+00 -2.356074899435043057e-01 2.000000000000000000e+00
1.788733363151550071e+00 1.369074583053589089e+00 -6.035659909248352051e-01 1.800000000000000000e+01
2.033941984176636186e+00 1.555628657341002974e+00 -5.911713838577270508e-01 1.200000000000000000e+01
2.367530345916748047e+00 1.810113668441772017e+00 -5.792961120605468750e-01 1.300000000000000000e+01
2.817587852478026900e+00 2.152650594711304155e+00 -5.615997314453125000e-01 1.000000000000000000e+01
3.485421419143677202e+00 2.660952329635620117e+00 -5.384187698364257812e-01 9.000000000000000000e+00
4.548784732818604404e+00 3.471522808074951172e+00 -5.006225705146789551e-01 9.000000000000000000e+00
6.563752174377441406e+00 5.005672931671142578e+00 -4.326090216636658270e-01 2.000000000000000000e+00
1.072946643829346058e+01 8.176623344421386719e+00 -2.354678660631180087e-01 2.000000000000000000e+00
3.591183471679688211e+01 2.736739349365234020e+01 1.209823703765868963e+01 1.200000000000000000e+01
1.799654006958008035e+00 1.367497563362122026e+00 -6.056365370750427246e-01 1.900000000000000000e+01
2.042463779449462891e+00 1.550876379013061968e+00 -5.920711755752563477e-01 1.200000000000000000e+01
2.366015434265137163e+00 1.795903563499450906e+00 -5.773880481719970703e-01 1.200000000000000000e+01
2.823510885238647017e+00 2.141608476638793945e+00 -5.612868666648864746e-01 9.000000000000000000e+00
3.483614444732666016e+00 2.640376091003417969e+00 -5.367125868797302246e-01 7.000000000000000000e+00
4.532289981842041016e+00 3.433965682983397993e+00 -4.974849820137023926e-01 9.000000000000000000e+00
6.581185340881347656e+00 4.982730388641357422e+00 -4.326090216636658270e-01 2.000000000000000000e+00
1.075156402587890980e+01 8.134294509887695312e+00 -2.353282421827316007e-01 2.000000000000000000e+00
1.800026774406433105e+00 1.357402801513672097e+00 -6.040836572647094727e-01 1.600000000000000000e+01
2.052803277969359907e+00 1.546898245811461958e+00 -5.934208631515502930e-01 1.100000000000000000e+01
2.371013879776000977e+00 1.786038398742676003e+00 -5.770063996315002441e-01 1.100000000000000000e+01
2.843967199325561968e+00 2.140749216079711914e+00 -5.637897849082946777e-01 9.000000000000000000e+00
3.504373311996459961e+00 2.635943174362183061e+00 -5.384187698364257812e-01 9.000000000000000000e+00
4.594211578369140625e+00 3.454449653625487837e+00 -5.028886198997497559e-01 9.000000000000000000e+00
6.618565082550048828e+00 4.972972869873046875e+00 -4.338650703430175781e-01 1.000000000000000000e+00
1.080049514770507990e+01 8.109241485595703125e+00 -2.357470989227294922e-01 2.000000000000000000e+00
1.793928623199462891e+00 1.343006968498229980e+00 -6.004601716995239258e-01 1.700000000000000000e+01
2.062871694564818892e+00 1.543225288391113059e+00 -5.947706103324890137e-01 1.200000000000000000e+01
2.378806114196776900e+00 1.778926849365233931e+00 -5.773880481719970703e-01 1.100000000000000000e+01
2.848257780075072798e+00 2.128443956375122070e+00 -5.631640553474426270e-01 9.000000000000000000e+00
3.526277780532836914e+00 2.633196353912353960e+00 -5.403686761856079102e-01 9.000000000000000000e+00
4.599855422973632812e+00 3.433624505996704102e+00 -5.021913647651672363e-01 9.000000000000000000e+00
6.645489215850830078e+00 4.957004547119140625e+00 -4.344930946826934814e-01 1.000000000000000000e+00
1.082232284545898082e+01 8.066710472106933594e+00 -2.356074899435043057e-01 2.000000000000000000e+00
3.213790130615233664e+01 2.394612884521484020e+01 1.073892021179199041e+01 9.000000000000000000e+00
1.801472902297974077e+00 1.339355945587157981e+00 -6.014954447746276855e-01 1.900000000000000000e+01
2.069542169570922852e+00 1.537538170814513938e+00 -5.952205061912536621e-01 1.200000000000000000e+01
2.384692192077637163e+00 1.771028637886046919e+00 -5.773880481719970703e-01 1.000000000000000000e+01
2.848955154418944868e+00 2.114278316497803178e+00 -5.619125962257385254e-01 1.000000000000000000e+01
3.531801223754882812e+00 2.619123458862305132e+00 -5.398811697959899902e-01 9.000000000000000000e+00
4.593610286712645596e+00 3.405300378799438032e+00 -5.002739429473876953e-01 9.000000000000000000e+00
6.652261257171630859e+00 4.927806854248046875e+00 -4.338650703430175781e-01 1.000000000000000000e+00
3.148024368286133168e+01 2.331116485595703125e+01 9.043481826782226562e+00 1.200000000000000000e+01
1.085544204711914062e+01 8.035536766052246094e+00 -2.357470989227294922e-01 2.000000000000000000e+00
3.216328430175781250e+01 2.380826568603515980e+01 1.072235584259033025e+01 9.000000000000000000e+00
1.809245824813842995e+00 1.335353851318358931e+00 -6.025307178497314453e-01 1.800000000000000000e+01
2.062350034713745117e+00 1.521051168441772017e+00 -5.916212797164916992e-01 1.200000000000000000e+01
2.398760795593262163e+00 1.768518924713134988e+00 -5.792961120605468750e-01 1.200000000000000000e+01
2.854727745056151900e+00 2.103148937225341797e+00 -5.615997314453125000e-01 1.000000000000000000e+01
3.534527778625487837e+00 2.602071762084960938e+00 -5.389062166213989258e-01 9.000000000000000000e+00
4.642376899719238281e+00 3.416406154632567915e+00 -5.042831301689147949e-01 8.000000000000000000e+00
6.650113582611083984e+00 4.890357017517089844e+00 -4.326090216636658270e-01 2.000000000000000000e+00
3.152688026428223012e+01 2.317574310302734020e+01 9.033584594726562500e+00 1.200000000000000000e+01
1.088987064361572088e+01 8.002331733703613281e+00 -2.358867228031157892e-01 2.000000000000000000e+00
3.228769302368164062e+01 2.371767044067383168e+01 1.073477840423583984e+01 9.000000000000000000e+00
1.826129198074341042e+00 1.338483333587646040e+00 -6.066718697547912598e-01 1.700000000000000000e+01
2.070526838302611861e+00 1.516506791114806907e+00 -5.925210714340209961e-01 1.100000000000000000e+01
2.398275852203369141e+00 1.755915522575377974e+00 -5.777696371078491211e-01 1.100000000000000000e+01
2.863280534744263139e+00 2.094837188720703125e+00 -5.619125962257385254e-01 1.100000000000000000e+01
3.539932012557982954e+00 2.587993383407593218e+00 -5.384187698364257812e-01 9.000000000000000000e+00
4.584510803222656250e+00 3.350442171096802202e+00 -4.967877268791198730e-01 9.000000000000000000e+00
6.656616687774658203e+00 4.861210346221923828e+00 -4.319809973239899237e-01 2.000000000000000000e+00
3.154375076293944957e+01 2.302740669250487926e+01 9.016488075256347656e+00 1.200000000000000000e+01
1.095511531829833984e+01 7.994466781616210938e+00 -2.367244362831116000e-01 2.000000000000000000e+00
3.235580444335938211e+01 2.361156272888183949e+01 1.073270797729492010e+01 9.000000000000000000e+00
1.821417570114135964e+00 1.325281143188477007e+00 -6.035659909248352051e-01 1.900000000000000000e+01
2.085264921188354048e+00 1.516146063804626021e+00 -5.952205061912536621e-01 1.100000000000000000e+01
2.401214361190795898e+00 1.745224714279175027e+00 -5.770063996315002441e-01 1.100000000000000000e+01
2.881763696670531782e+00 2.092955350875854048e+00 -5.641027092933654785e-01 1.400000000000000000e+01
3.545731067657471147e+00 2.573288917541503906e+00 -5.379312634468078613e-01 1.000000000000000000e+01
4.642946243286132812e+00 3.368347883224486861e+00 -5.018427371978759766e-01 9.000000000000000000e+00
6.686480998992919922e+00 4.847322940826416016e+00 -4.328183531761168878e-01 2.000000000000000000e+00
3.172492790222167969e+01 2.299034309387207031e+01 9.045282363891601562e+00 1.200000000000000000e+01
1.093761062622069957e+01 7.923329830169677734e+00 -2.357470989227294922e-01 2.000000000000000000e+00
3.213764572143554688e+01 2.328087615966796875e+01 1.063332176208495916e+01 9.000000000000000000e+00
1.813961148262023926e+00 1.309232831001281960e+00 -5.994248986244201660e-01 2.100000000000000000e+01
2.094232320785522017e+00 1.510407924652100053e+00 -5.961202979087829590e-01 1.100000000000000000e+01
2.419045448303223100e+00 1.744028925895690918e+00 -5.796777009963989258e-01 1.200000000000000000e+01
2.884970426559447798e+00 2.078410863876343218e+00 -5.631640553474426270e-01 1.400000000000000000e+01
3.558807849884033203e+00 2.561975002288817915e+00 -5.384187698364257812e-01 9.000000000000000000e+00
3.152858352661133168e+01 2.268897819519042969e+01 6.152254581451416016e+00 1.400000000000000000e+01
4.689805984497070312e+00 3.374934673309326172e+00 -5.055032968521118164e-01 9.000000000000000000e+00
6.734231948852539062e+00 4.842601776123046875e+00 -4.347024559974669855e-01 2.000000000000000000e+00
1.097444915771484020e+01 7.885941982269287109e+00 -2.358867228031157892e-01 2.000000000000000000e+00
3.189107322692871094e+01 2.291605949401855113e+01 1.052254676818848012e+01 9.000000000000000000e+00
1.826372146606445090e+00 1.308518528938293013e+00 -6.020131111145019531e-01 1.700000000000000000e+01
2.088400125503540039e+00 1.495147585868835005e+00 -5.929709672927856445e-01 1.100000000000000000e+01
2.420328855514525923e+00 1.732146501541137917e+00 -5.785328745841979980e-01 1.200000000000000000e+01
2.887387514114379883e+00 2.064880609512329102e+00 -5.622254610061645508e-01 1.200000000000000000e+01
3.732971572875977273e+01 2.668605041503905895e+01 5.634263515472412109e+00 4.000000000000000000e+01
3.575804471969604048e+00 2.555307626724243164e+00 -5.396374464035034180e-01 1.000000000000000000e+01
3.160759162902832031e+01 2.257878494262694957e+01 6.152254581451416016e+00 1.400000000000000000e+01
4.708043098449707031e+00 3.363176107406616211e+00 -5.062005519866943359e-01 8.000000000000000000e+00
6.734838485717773438e+00 4.807461738586425781e+00 -4.336557388305664062e-01 1.000000000000000000e+00
1.102144527435302912e+01 7.861520290374755859e+00 -2.363055795431137085e-01 2.000000000000000000e+00
1.833849549293518066e+00 1.304694771766663042e+00 -6.030483841896057129e-01 1.800000000000000000e+01
2.093346595764160156e+00 1.488214015960692915e+00 -5.929709672927856445e-01 1.400000000000000000e+01
2.430860519409180132e+00 1.727522730827331987e+00 -5.796777009963989258e-01 1.200000000000000000e+01
2.890997886657714844e+00 2.053006887435913086e+00 -5.615997314453125000e-01 1.200000000000000000e+01
3.585877418518065962e+00 2.544584512710570845e+00 -5.398811697959899902e-01 1.000000000000000000e+01
3.152117347717285156e+01 2.235955810546875000e+01 6.120967864990234375e+00 1.400000000000000000e+01
4.728920459747313565e+00 3.354461669921875000e+00 -5.072464346885681152e-01 8.000000000000000000e+00
6.763779163360595703e+00 4.794341564178466797e+00 -4.344930946826934814e-01 2.000000000000000000e+00
1.104745483398438033e+01 7.824928760528563565e+00 -2.363055795431137085e-01 2.000000000000000000e+00
1.846282720565795898e+00 1.303857564926147017e+00 -6.056365370750427246e-01 1.900000000000000000e+01
2.100121021270751953e+00 1.482021450996398926e+00 -5.934208631515502930e-01 1.200000000000000000e+01
2.440084457397460938e+00 1.721290230751038042e+00 -5.804409384727478027e-01 1.200000000000000000e+01
2.901375770568848100e+00 2.045179128646851030e+00 -5.622254610061645508e-01 1.100000000000000000e+01
3.248659515380858664e+01 2.289130592346191051e+01 4.879648685455322266e+00 2.100000000000000000e+01
3.586623430252075195e+00 2.526336431503295898e+00 -5.386624932289123535e-01 1.000000000000000000e+01
4.756891727447509766e+00 3.349404811859130859e+00 -5.089895129203796387e-01 6.000000000000000000e+00
6.780473232269287109e+00 4.770702362060546875e+00 -4.344930946826934814e-01 1.000000000000000000e+00
3.141555404663085938e+01 2.209560775756835938e+01 8.867120742797851562e+00 1.200000000000000000e+01
1.108778762817382990e+01 7.795519351959229404e+00 -2.365848273038864136e-01 2.000000000000000000e+00
3.218224716186522727e+01 2.262645530700683949e+01 1.054118251800536932e+01 9.000000000000000000e+00
1.846077084541321023e+00 1.294078111648560014e+00 -6.040836572647094727e-01 1.900000000000000000e+01
2.100492954254149947e+00 1.471327543258666992e+00 -5.920711755752563477e-01 1.300000000000000000e+01
2.431604146957397017e+00 1.702627539634705034e+00 -5.770063996315002441e-01 1.100000000000000000e+01
2.924682378768920898e+00 2.046363592147827148e+00 -5.653541684150695801e-01 1.200000000000000000e+01
3.595420122146606001e+00 2.513801336288452148e+00 -5.386624932289123535e-01 1.000000000000000000e+01
3.183452987670898082e+01 2.225767326354980113e+01 6.152254581451416016e+00 1.400000000000000000e+01
4.778352737426757812e+00 3.339627981185913086e+00 -5.100353956222534180e-01 6.000000000000000000e+00
6.783985137939453125e+00 4.737856388092041016e+00 -4.336557388305664062e-01 2.000000000000000000e+00
3.027810668945312855e+01 2.113801574707030895e+01 8.525195121765136719e+00 1.100000000000000000e+01
1.112805080413818004e+01 7.765923500061035156e+00 -2.368640601634978970e-01 2.000000000000000000e+00
3.255569839477539062e+01 2.271961784362792969e+01 1.063746261596680043e+01 9.000000000000000000e+00
1.845825791358947976e+00 1.284316182136536089e+00 -6.025307178497314453e-01 1.900000000000000000e+01
2.113616228103638139e+00 1.469548702239990012e+00 -5.943207144737243652e-01 1.300000000000000000e+01
2.443981170654296875e+00 1.698611140251159890e+00 -5.785328745841979980e-01 1.200000000000000000e+01
2.925317764282227007e+00 2.031634807586669922e+00 -5.641027092933654785e-01 1.300000000000000000e+01
3.172592544555664062e+01 2.202546501159667969e+01 4.742179870605468750e+00 2.000000000000000000e+01
3.605803728103638139e+00 2.502367496490478960e+00 -5.389062166213989258e-01 9.000000000000000000e+00
4.781795501708984375e+00 3.317249774932860884e+00 -5.091638565063476562e-01 9.000000000000000000e+00
6.813613414764404297e+00 4.723249912261962891e+00 -4.344930946826934814e-01 2.000000000000000000e+00
3.028763771057128906e+01 2.098779869079589844e+01 8.507199287414550781e+00 1.100000000000000000e+01
1.114851570129395064e+01 7.722477436065673828e+00 -2.367244362831116000e-01 2.000000000000000000e+00
3.258157348632813211e+01 2.256055068969726918e+01 1.061882781982422053e+01 9.000000000000000000e+00
1.848708033561706987e+00 1.276767373085021973e+00 -6.020131111145019531e-01 1.800000000000000000e+01
2.120337009429932085e+00 1.463268756866455078e+00 -5.947706103324890137e-01 1.400000000000000000e+01
2.449895620346068892e+00 1.690069675445557085e+00 -5.785328745841979980e-01 1.100000000000000000e+01
2.924259662628173828e+00 2.015805482864379883e+00 -5.625383257865905762e-01 1.100000000000000000e+01
3.621055841445922852e+00 2.494269847869873047e+00 -5.398811697959899902e-01 1.000000000000000000e+01
4.808115005493164062e+00 3.310707330703734907e+00 -5.107326507568359375e-01 8.000000000000000000e+00
3.030780601501464844e+01 2.086114692687987926e+01 7.151902675628662109e+00 6.100000000000000000e+01
6.839931964874267578e+00 4.706229686737061435e+00 -4.351211488246917725e-01 2.000000000000000000e+00
3.037998199462890980e+01 2.089520072937012074e+01 8.512598037719726562e+00 1.100000000000000000e+01
1.117869949340819957e+01 7.685780525207520419e+00 -2.367942482233046930e-01 2.000000000000000000e+00
3.245562744140625000e+01 2.231447601318359020e+01 1.055360507965088068e+01 9.000000000000000000e+00
1.859527230262755904e+00 1.274675488471985085e+00 -6.040836572647094727e-01 1.700000000000000000e+01
2.119000911712646040e+00 1.451453447341918945e+00 -5.929709672927856445e-01 1.400000000000000000e+01
2.463879585266112837e+00 1.687053561210632102e+00 -5.804409384727478027e-01 1.200000000000000000e+01
2.934539079666138139e+00 2.007816553115845171e+00 -5.631640553474426270e-01 1.100000000000000000e+01
3.255726242065429688e+01 2.226739311218262074e+01 4.843087673187255859e+00 2.000000000000000000e+01
3.639572620391846147e+00 2.488337039947510210e+00 -5.413436293601989746e-01 9.000000000000000000e+00
3.288513183593750000e+01 2.247479057312012074e+01 6.308689117431640625e+00 1.400000000000000000e+01
4.831156730651854581e+00 3.301773071289062944e+00 -5.119528174400329590e-01 9.000000000000000000e+00
6.839824676513671875e+00 4.671061515808104581e+00 -4.340744316577910822e-01 2.000000000000000000e+00
3.055574035644530895e+01 2.085934448242187855e+01 8.541391372680664062e+00 1.100000000000000000e+01
1.120546054840088068e+01 7.646712779998779297e+00 -2.367942482233046930e-01 2.000000000000000000e+00
3.248225784301757812e+01 2.216620254516601918e+01 1.053704071044922053e+01 9.000000000000000000e+00
1.865340948104857954e+00 1.269589066505431907e+00 -6.046012639999389648e-01 1.900000000000000000e+01
2.123802423477172852e+00 1.444418549537658913e+00 -5.929709672927856445e-01 1.400000000000000000e+01
2.469460487365723100e+00 1.678873777389525923e+00 -5.804409384727478027e-01 1.200000000000000000e+01
2.944448947906494141e+00 2.000294208526610884e+00 -5.637897849082946777e-01 1.100000000000000000e+01
3.304148101806641336e+01 2.243811035156250000e+01 4.904022216796875000e+00 2.100000000000000000e+01
3.639592170715332031e+00 2.470679521560668945e+00 -5.401249527931213379e-01 1.000000000000000000e+01
4.847024917602539062e+00 3.289090394973754883e+00 -5.124757885932922363e-01 8.000000000000000000e+00
6.851970672607421875e+00 4.646112442016601562e+00 -4.338650703430175781e-01 2.000000000000000000e+00
3.057635116577148082e+01 2.072510337829589844e+01 8.527894020080566406e+00 1.100000000000000000e+01
1.123406696319580078e+01 7.611755371093750000e+00 -2.368640601634978970e-01 2.000000000000000000e+00
1.864958882331847922e+00 1.259825825691222922e+00 -6.030483841896057129e-01 1.800000000000000000e+01
2.135292053222655806e+00 1.441357493400573953e+00 -5.947706103324890137e-01 1.300000000000000000e+01
2.472050905227661133e+00 1.668047308921813965e+00 -5.796777009963989258e-01 1.100000000000000000e+01
2.954689025878905806e+00 1.992212772369384988e+00 -5.644155740737915039e-01 1.100000000000000000e+01
3.656425952911376953e+00 2.463505744934082031e+00 -5.413436293601989746e-01 1.000000000000000000e+01
3.189044570922851918e+01 2.147799873352051137e+01 6.089680671691895419e+00 1.400000000000000000e+01
4.843603610992431641e+00 3.262134313583374023e+00 -5.109069347381591797e-01 8.000000000000000000e+00
3.231243896484375000e+01 2.175401306152344105e+01 7.571682453155517578e+00 6.300000000000000000e+01
6.881402492523193359e+00 4.631087303161621094e+00 -4.347024559974669855e-01 2.000000000000000000e+00
3.219427490234375000e+01 2.165813064575194957e+01 8.958001136779785156e+00 1.200000000000000000e+01
1.129375648498534979e+01 7.594812870025634766e+00 -2.375621497631072998e-01 2.000000000000000000e+00
1.864531278610229048e+00 1.250080823898314986e+00 -6.014954447746276855e-01 1.600000000000000000e+01
2.137072324752808061e+00 1.431725859642029031e+00 -5.938707590103149414e-01 1.200000000000000000e+01
2.471333503723144975e+00 1.655038237571716087e+00 -5.781512856483459473e-01 1.100000000000000000e+01
2.966550350189208984e+00 1.985182642936706987e+00 -5.653541684150695801e-01 1.000000000000000000e+01
3.663352727890015093e+00 2.449624061584473100e+00 -5.410999059677124023e-01 1.000000000000000000e+01
3.185639953613280895e+01 2.130185508728026988e+01 6.069657325744628906e+00 1.400000000000000000e+01
4.856617450714111328e+00 3.246314287185668945e+00 -5.110812783241271973e-01 9.000000000000000000e+00
6.900847911834716797e+00 4.609257221221923828e+00 -4.349117875099182129e-01 2.000000000000000000e+00
3.206547164916992188e+01 2.140927696228026988e+01 8.901312828063964844e+00 1.200000000000000000e+01
1.131021881103515980e+01 7.548683643341063565e+00 -2.373527288436889926e-01 2.000000000000000000e+00
1.873708605766295943e+00 1.246775388717650923e+00 -6.030483841896057129e-01 1.800000000000000000e+01
2.142057180404663086e+00 1.424257397651671919e+00 -5.938707590103149414e-01 1.100000000000000000e+01
2.490175962448120117e+00 1.655095577239990012e+00 -5.812041759490966797e-01 1.200000000000000000e+01
2.952069997787476030e+00 1.960608005523682085e+00 -5.612868666648864746e-01 1.000000000000000000e+01
3.676843166351317915e+00 2.440114736557006836e+00 -5.418310761451721191e-01 1.000000000000000000e+01
3.193385505676269887e+01 2.119270896911621094e+01 6.070282936096191406e+00 1.400000000000000000e+01
4.877881526947020596e+00 3.235950231552124023e+00 -5.121271610260009766e-01 9.000000000000000000e+00
6.920224666595458984e+00 4.587347507476806641e+00 -4.351211488246917725e-01 2.000000000000000000e+00
1.135650539398193004e+01 7.522408962249755859e+00 -2.377715855836868009e-01 2.000000000000000000e+00
3.282079696655272727e+01 2.173184967041015980e+01 1.054739379882813033e+01 9.000000000000000000e+00
1.886109471321105957e+00 1.245550155639647993e+00 -6.056365370750427246e-01 1.600000000000000000e+01
2.143762588500977007e+00 1.414624929428101030e+00 -5.929709672927856445e-01 1.100000000000000000e+01
2.499215841293334961e+00 1.648555159568787065e+00 -5.819674134254455566e-01 1.300000000000000000e+01
2.968791723251343218e+00 1.956814169883728027e+00 -5.631640553474426270e-01 9.000000000000000000e+00
3.504895782470703125e+01 2.309298133850098012e+01 5.153610706329345703e+00 2.800000000000000000e+01
3.680364847183227983e+00 2.423989534378052202e+00 -5.410999059677124023e-01 1.000000000000000000e+01
4.889147281646729404e+00 3.218903541564940962e+00 -5.121271610260009766e-01 9.000000000000000000e+00
3.163649177551269887e+01 2.082083320617676137e+01 7.361792564392089844e+00 6.200000000000000000e+01
6.932857990264892578e+00 4.560968399047851562e+00 -4.349117875099182129e-01 2.000000000000000000e+00
3.233138275146483664e+01 2.126199150085448863e+01 8.933706283569335938e+00 1.200000000000000000e+01
1.139606189727783025e+01 7.491508960723876953e+00 -2.380508184432983121e-01 2.000000000000000000e+00
3.307348251342772727e+01 2.174174690246582031e+01 1.060536956787109020e+01 9.000000000000000000e+00
1.888830065727234109e+00 1.237899899482727051e+00 -6.051189303398132324e-01 1.900000000000000000e+01
2.151947975158690962e+00 1.409268379211426003e+00 -5.938707590103149414e-01 1.100000000000000000e+01
2.508240222930908203e+00 1.641971826553344949e+00 -5.827306509017944336e-01 1.300000000000000000e+01
2.983869791030883789e+00 1.951846003532409890e+00 -5.647284388542175293e-01 1.000000000000000000e+01
3.688803672790526900e+00 2.411128044128417969e+00 -5.410999059677124023e-01 1.000000000000000000e+01
3.292761611938477273e+01 2.152261352539062855e+01 6.230472087860107422e+00 1.400000000000000000e+01
4.898685455322265625e+00 3.200727939605712891e+00 -5.119528174400329590e-01 8.000000000000000000e+00
6.962115764617919922e+00 4.545475006103515625e+00 -4.357491731643676758e-01 1.000000000000000000e+00
3.249026489257813211e+01 2.120438766479491832e+01 8.957100868225097656e+00 1.200000000000000000e+01
1.139534568786620916e+01 7.434201717376708984e+00 -2.374923527240752896e-01 2.000000000000000000e+00
3.448955154418945312e+01 2.249203300476073863e+01 1.103293800354004084e+01 1.000000000000000000e+01
1.899617433547974077e+00 1.235512256622314009e+00 -6.071894764900207520e-01 1.900000000000000000e+01
2.156854152679442915e+00 1.401748061180114968e+00 -5.938707590103149414e-01 1.100000000000000000e+01
2.500785827636719194e+00 1.624650001525878906e+00 -5.796777009963989258e-01 1.400000000000000000e+01
2.990664958953856978e+00 1.941418409347533958e+00 -5.647284388542175293e-01 1.000000000000000000e+01
3.692201375961304155e+00 2.394996166229248047e+00 -5.403686761856079102e-01 9.000000000000000000e+00
3.291968154907227273e+01 2.135379409790039062e+01 6.214828491210938388e+00 1.400000000000000000e+01
4.924873828887938565e+00 3.193364381790161133e+00 -5.135216116905212402e-01 8.000000000000000000e+00
6.974587440490722656e+00 4.518973350524902344e+00 -4.355398416519165039e-01 2.000000000000000000e+00
1.143465518951416016e+01 7.403073310852050781e+00 -2.377715855836868009e-01 2.000000000000000000e+00
3.259525680541992188e+01 2.110296249389648082e+01 1.040452575683593928e+01 8.000000000000000000e+00
1.887687444686890093e+00 1.218397498130797896e+00 -6.020131111145019531e-01 1.900000000000000000e+01
2.171560049057006836e+00 1.400548100471497026e+00 -5.965701937675476074e-01 1.000000000000000000e+01
2.513041973114014116e+00 1.620165944099426047e+00 -5.812041759490966797e-01 1.500000000000000000e+01
3.000744581222534180e+00 1.933106780052185059e+00 -5.653541684150695801e-01 9.000000000000000000e+00
3.712223291397095171e+00 2.389614582061768022e+00 -5.420748591423034668e-01 1.000000000000000000e+01
3.310404205322266336e+01 2.130140304565430043e+01 6.234851837158203125e+00 1.400000000000000000e+01
4.932639598846436435e+00 3.173997879028319868e+00 -5.131729841232299805e-01 9.000000000000000000e+00
6.983599185943604404e+00 4.490279197692871094e+00 -4.351211488246917725e-01 2.000000000000000000e+00
