-6.324232578277587891e+00 3.366902828216553178e+00 -6.268240809440612793e-01 3.000000000000000000e+00
-1.027099704742431996e+01 5.472688674926757812e+00 -6.099232435226440430e-01 3.000000000000000000e+00
-2.127475976943970171e+00 1.138353466987610085e+00 -6.465299725532531738e-01 1.700000000000000000e+01
-2.465205669403076172e+00 1.320170283317565918e+00 -6.456094980239868164e-01 1.400000000000000000e+01
-2.896934986114501953e+00 1.552021145820617898e+00 -6.388285160064697266e-01 1.400000000000000000e+01
-3.523594379425048828e+00 1.889334678649901900e+00 -6.332467198371887207e-01 9.000000000000000000e+00
-4.551265239715576172e+00 2.442412853240966797e+00 -6.342080831527709961e-01 1.000000000000000000e+01
-6.291376590728759766e+00 3.377649068832397017e+00 -6.247323751449584961e-01 2.000000000000000000e+00
-1.025183200836181996e+01 5.508507728576660156e+00 -6.099232435226440430e-01 3.000000000000000000e+00
-2.131789445877075195e+00 1.150731563568115012e+00 -6.491181850433349609e-01 1.900000000000000000e+01
-2.436347007751464844e+00 1.316228985786437988e+00 -6.393108963966369629e-01 1.400000000000000000e+01
-2.891227006912231001e+00 1.562628626823425071e+00 -6.388285160064697266e-01 1.300000000000000000e+01
-3.530545711517333984e+00 1.909755349159240945e+00 -6.357496380805969238e-01 9.000000000000000000e+00
-4.542282581329345703e+00 2.459077596664429155e+00 -6.342080831527709961e-01 1.000000000000000000e+01
-6.299977779388427734e+00 3.412071704864501953e+00 -6.268240809440612793e-01 2.000000000000000000e+00
-1.023157310485840021e+01 5.546045780181884766e+00 -6.099232435226440430e-01 3.000000000000000000e+00
-2.127759695053101030e+00 1.158165931701659934e+00 -6.491181850433349609e-01 1.900000000000000000e+01
-2.445427894592285156e+00 1.332183480262755904e+00 -6.429101228713989258e-01 1.300000000000000000e+01
-2.880583286285399947e+00 1.569892883300781028e+00 -6.376836895942687988e-01 1.400000000000000000e+01
-3.520389556884766069e+00 1.920175790786742942e+00 -6.351239085197448730e-01 9.000000000000000000e+00
-4.516247749328613281e+00 2.465406656265258789e+00 -6.317706704139709473e-01 1.000000000000000000e+01
-6.281034946441650391e+00 3.430222034454346147e+00 -6.261268854141235352e-01 2.000000000000000000e+00
-1.021215152740479049e+01 5.581726551055908203e+00 -6.099232435226440430e-01 3.000000000000000000e+00
-2.125601053237915039e+00 1.166144728660583052e+00 -6.496357917785644531e-01 1.900000000000000000e+01
-2.440996885299683061e+00 1.340285420417786089e+00 -6.429101228713989258e-01 1.300000000000000000e+01
-2.861595630645751953e+00 1.571874976158142090e+00 -6.346307396888732910e-01 1.500000000000000000e+01
-3.517464637756348100e+00 1.933742642402648926e+00 -6.357496380805969238e-01 9.000000000000000000e+00
-4.511525630950927734e+00 2.482283353805541992e+00 -6.322581768035888672e-01 1.000000000000000000e+01
-6.255661487579345703e+00 3.443345785140991211e+00 -6.247323751449584961e-01 2.000000000000000000e+00
-1.019358539581299006e+01 5.615560531616210938e+00 -6.099232435226440430e-01 3.000000000000000000e+00
-2.107993841171265093e+00 1.166076421737670898e+00 -6.454946994781494141e-01 1.900000000000000000e+01
-2.439713239669799805e+00 1.350685715675354004e+00 -6.438099145889282227e-01 1.400000000000000000e+01
-2.857808589935303178e+00 1.582805395126342995e+00 -6.350123286247253418e-01 1.600000000000000000e+01
-3.503782510757445845e+00 1.942178368568419966e+00 -6.344981789588928223e-01 9.000000000000000000e+00
-4.494153976440429688e+00 2.493201494216918945e+00 -6.310394406318664551e-01 1.000000000000000000e+01
-6.233151435852050781e+00 3.459360122680664062e+00 -6.236864924430847168e-01 2.000000000000000000e+00
-1.008662128448485973e+01 5.602618217468261719e+00 -6.046896576881408691e-01 3.000000000000000000e+00
-2.103910684585570845e+00 1.173427581787108931e+00 -6.454946994781494141e-01 1.900000000000000000e+01
-2.434983730316162109e+00 1.359193682670593040e+00 -6.438099145889282227e-01 1.400000000000000000e+01
-2.862550973892211914e+00 1.598514556884766069e+00 -6.373020410537719727e-01 1.600000000000000000e+01
-3.483186721801757812e+00 1.946687340736388938e+00 -6.319952607154846191e-01 9.000000000000000000e+00
-4.490621089935302734e+00 2.511780977249145952e+00 -6.317706704139709473e-01 1.000000000000000000e+01
-6.214083671569824219e+00 3.477205038070679155e+00 -6.229892373085021973e-01 3.000000000000000000e+00
-1.002518081665039062e+01 5.614371299743652344e+00 -6.021775007247924805e-01 3.000000000000000000e+00
-2.106537342071533203e+00 1.184552073478698953e+00 -6.475652456283569336e-01 2.000000000000000000e+01
-2.418336391448975053e+00 1.360994815826416016e+00 -6.406605839729309082e-01 1.300000000000000000e+01
-2.862085819244385210e+00 1.611386418342590110e+00 -6.384469270706176758e-01 1.300000000000000000e+01
-3.479812383651732954e+00 1.960773468017577903e+00 -6.326209902763366699e-01 9.000000000000000000e+00
-4.478367805480957031e+00 2.525490522384643999e+00 -6.312832236289978027e-01 1.000000000000000000e+01
-6.181084632873535156e+00 3.487127304077147993e+00 -6.208975315093994141e-01 2.000000000000000000e+00
-1.000552177429199041e+01 5.649331569671630859e+00 -6.021775007247924805e-01 3.000000000000000000e+00
-2.109112024307250977e+00 1.195708990097045898e+00 -6.496357917785644531e-01 2.000000000000000000e+01
-2.411875963211060014e+00 1.368466377258301003e+00 -6.402106881141662598e-01 1.200000000000000000e+01
-2.854736089706420898e+00 1.620398044586182085e+00 -6.380652785301208496e-01 1.200000000000000000e+01
-3.469511508941649947e+00 1.970956921577454057e+00 -6.319952607154846191e-01 9.000000000000000000e+00
-4.457445144653320312e+00 2.534239768981934038e+00 -6.295770406723022461e-01 9.000000000000000000e+00
-6.179265499114990234e+00 3.514592170715332031e+00 -6.219433546066284180e-01 2.000000000000000000e+00
-9.940611839294433594e+00 5.658533573150634766e+00 -5.994560718536376953e-01 3.000000000000000000e+00
-2.094861984252930132e+00 1.197312235832213911e+00 -6.465299725532531738e-01 1.900000000000000000e+01
-2.412159204483031782e+00 1.379779815673827903e+00 -6.415604352951049805e-01 1.300000000000000000e+01
-2.835430622100830078e+00 1.622552394866942915e+00 -6.350123286247253418e-01 1.300000000000000000e+01
-3.474609613418579102e+00 1.989927768707274947e+00 -6.341853141784667969e-01 1.000000000000000000e+01
-4.453738689422607422e+00 2.552745103836060014e+00 -6.303082704544067383e-01 1.000000000000000000e+01
-6.135848522186279297e+00 3.518301248550415039e+00 -6.188057661056518555e-01 2.000000000000000000e+00
-9.920799255371093750e+00 5.693198204040527344e+00 -5.994560718536376953e-01 3.000000000000000000e+00
-2.080626487731934038e+00 1.198830604553223100e+00 -6.434241533279418945e-01 1.800000000000000000e+01
-2.414080858230590820e+00 1.392085433006287065e+00 -6.433600187301635742e-01 1.300000000000000000e+01
-2.821246862411499023e+00 1.627534747123718040e+00 -6.331042647361755371e-01 1.200000000000000000e+01
-3.460799455642700195e+00 1.998093485832213911e+00 -6.329338550567626953e-01 1.100000000000000000e+01
-4.437925815582275391e+00 2.564303398132324219e+00 -6.293333172798156738e-01 1.000000000000000000e+01
-6.102830410003662109e+00 3.527732849121094194e+00 -6.167140603065490723e-01 2.000000000000000000e+00
-9.900866508483886719e+00 5.727793693542479581e+00 -5.994560718536376953e-01 3.000000000000000000e+00
-2.076429128646851030e+00 1.206086039543152078e+00 -6.434241533279418945e-01 1.800000000000000000e+01
-2.404152631759643999e+00 1.397565484046936035e+00 -6.420103311538696289e-01 1.400000000000000000e+01
-2.820639848709106001e+00 1.640333771705626997e+00 -6.342490911483764648e-01 1.100000000000000000e+01
-3.443560123443603960e+00 2.004199743270874023e+00 -6.310566067695617676e-01 1.100000000000000000e+01
-4.427232265472412109e+00 2.578779935836791992e+00 -6.290895342826843262e-01 9.000000000000000000e+00
-6.097364902496337891e+00 3.553026676177978960e+00 -6.174112558364868164e-01 2.000000000000000000e+00
-9.818700790405273438e+00 5.726097106933593750e+00 -5.956878662109375000e-01 3.000000000000000000e+00
-2.075540542602539062e+00 1.215278983116149902e+00 -6.444594264030456543e-01 1.700000000000000000e+01
-2.385808944702147993e+00 1.398066997528075950e+00 -6.384111046791076660e-01 1.200000000000000000e+01
-2.823365211486815962e+00 1.655134081840514915e+00 -6.361572146415710449e-01 1.200000000000000000e+01
-3.438246965408325195e+00 2.017207622528076172e+00 -6.313694715499877930e-01 1.100000000000000000e+01
-3.602719879150391336e+01 2.114548492431640980e+01 5.129236698150634766e+00 2.700000000000000000e+01
-4.409644603729248047e+00 2.589192628860474077e+00 -6.278708577156066895e-01 1.000000000000000000e+01
-6.078053951263427734e+00 3.570252180099486861e+00 -6.167140603065490723e-01 2.000000000000000000e+00
-9.753887176513671875e+00 5.734019279479979581e+00 -5.929663777351379395e-01 3.000000000000000000e+00
-2.082931756973267046e+00 1.229390144348144975e+00 -6.480829119682312012e-01 1.900000000000000000e+01
-2.384269952774047852e+00 1.408368825912476030e+00 -6.393108963966369629e-01 1.400000000000000000e+01
-2.812500000000000000e+00 1.661983013153075950e+00 -6.350123286247253418e-01 1.200000000000000000e+01
-3.422683238983153853e+00 2.024169206619263139e+00 -6.298051476478576660e-01 1.100000000000000000e+01
-3.599417114257813211e+01 2.129537391662598012e+01 5.135086536407470703e+00 2.700000000000000000e+01
-4.383496761322020596e+00 2.594458341598511186e+00 -6.254334449768066406e-01 1.000000000000000000e+01
-6.072412014007568359e+00 3.595507383346558061e+00 -6.174112558364868164e-01 2.000000000000000000e+00
-9.689138412475585938e+00 5.741559028625488281e+00 -5.902448892593383789e-01 3.000000000000000000e+00
-2.077398538589477983e+00 1.234940648078918013e+00 -6.475652456283569336e-01 1.900000000000000000e+01
-2.386532545089722124e+00 1.419837713241576926e+00 -6.411104798316955566e-01 1.300000000000000000e+01
-2.802203655242919922e+00 1.667798161506653054e+00 -6.338675022125244141e-01 1.200000000000000000e+01
-3.419701576232910156e+00 2.036933660507202148e+00 -6.304308772087097168e-01 1.000000000000000000e+01
-4.368504047393798828e+00 2.604151010513306108e+00 -6.244584918022155762e-01 1.000000000000000000e+01
-6.040552139282226562e+00 3.602320671081542969e+00 -6.153195500373840332e-01 2.000000000000000000e+00
-9.671052932739257812e+00 5.771969795227050781e+00 -5.902448892593383789e-01 3.000000000000000000e+00
-2.063132286071776900e+00 1.236226916313170943e+00 -6.444594264030456543e-01 1.900000000000000000e+01
-2.381561994552611861e+00 1.428159594535828081e+00 -6.411104798316955566e-01 1.200000000000000000e+01
-3.538272857666016336e+01 2.122648239135741832e+01 2.162416934967041016e+00 2.600000000000000000e+01
-2.789630651473999023e+00 1.673529624938965066e+00 -6.323410272598266602e-01 1.200000000000000000e+01
-3.405796051025391069e+00 2.044790983200072798e+00 -6.291794180870056152e-01 1.000000000000000000e+01
-3.389855194091796875e+01 2.036025428771973012e+01 4.855274677276611328e+00 2.000000000000000000e+01
-4.362790107727050781e+00 2.621428728103638139e+00 -6.249459981918334961e-01 1.000000000000000000e+01
-6.027940750122070312e+00 3.623384237289429155e+00 -6.153195500373840332e-01 2.000000000000000000e+00
-9.654268264770507812e+00 5.807752132415770596e+00 -5.904542803764343262e-01 3.000000000000000000e+00
-2.057150840759276900e+00 1.242422342300415039e+00 -6.439417600631713867e-01 1.900000000000000000e+01
-2.371558904647827148e+00 1.433439970016479048e+00 -6.397607922554016113e-01 1.400000000000000000e+01
-2.788811922073363814e+00 1.686304688453674094e+00 -6.334858536720275879e-01 1.100000000000000000e+01
-3.385117530822753906e+00 2.048485279083251953e+00 -6.266764402389526367e-01 1.000000000000000000e+01
-3.342990875244141336e+01 2.023789787292480113e+01 4.798239707946777344e+00 2.000000000000000000e+01
-4.357008934020996094e+00 2.638698339462279829e+00 -6.254334449768066406e-01 1.000000000000000000e+01
-6.028888225555419922e+00 3.652662754058837891e+00 -6.167140603065490723e-01 2.000000000000000000e+00
-9.575870513916015625e+00 5.806208133697509766e+00 -5.868954062461853027e-01 3.000000000000000000e+00
-2.054451704025268999e+00 1.250599980354309082e+00 -6.444594264030456543e-01 1.900000000000000000e+01
-2.358219623565673828e+00 1.436640262603759988e+00 -6.375113129615783691e-01 1.200000000000000000e+01
-2.786261558532714844e+00 1.698072552680969016e+00 -6.342490911483764648e-01 1.100000000000000000e+01
-3.386378526687622070e+00 2.065432071685791016e+00 -6.282408237457275391e-01 1.100000000000000000e+01
-3.337261581420897727e+01 2.036273956298828125e+01 4.800189495086669922e+00 2.000000000000000000e+01
-4.340994358062744141e+00 2.649754047393798828e+00 -6.244584918022155762e-01 1.000000000000000000e+01
-5.988894462585449219e+00 3.657071828842163086e+00 -6.139250397682189941e-01 2.000000000000000000e+00
-9.535094261169433594e+00 5.827101230621337891e+00 -5.856393575668334961e-01 3.000000000000000000e+00
-2.053367137908935991e+00 1.259784340858459029e+00 -6.454946994781494141e-01 1.900000000000000000e+01
-2.354851245880126953e+00 1.445882916450500044e+00 -6.379612088203430176e-01 1.300000000000000000e+01
-2.783663034439086914e+00 1.709843158721924050e+00 -6.350123286247253418e-01 1.200000000000000000e+01
-3.377465248107910156e+00 2.076205730438231978e+00 -6.279279589653015137e-01 1.000000000000000000e+01
-4.318192481994628906e+00 2.656569719314575195e+00 -6.225085854530334473e-01 1.000000000000000000e+01
-5.998150825500488281e+00 3.691530227661132812e+00 -6.161910891532897949e-01 3.000000000000000000e+00
-9.511294364929199219e+00 5.858254432678222656e+00 -5.854300260543823242e-01 3.000000000000000000e+00
-2.044027805328369141e+00 1.263896226882935014e+00 -6.439417600631713867e-01 2.100000000000000000e+01
-2.346475601196289062e+00 1.452043175697327104e+00 -6.370613574981689453e-01 1.300000000000000000e+01
-2.764323234558105025e+00 1.711282491683959961e+00 -6.319593787193298340e-01 1.300000000000000000e+01
-3.373555898666381836e+00 2.090063333511352983e+00 -6.285536885261535645e-01 1.000000000000000000e+01
-3.405642318725585938e+01 2.110764884948730113e+01 4.919621467590332031e+00 2.200000000000000000e+01
-4.308892726898193359e+00 2.671626806259154829e+00 -6.225085854530334473e-01 1.000000000000000000e+01
-5.969990253448486328e+00 3.702993392944335938e+00 -6.146222949028015137e-01 3.000000000000000000e+00
-9.463637351989746094e+00 5.874565601348876953e+00 -5.837552547454833984e-01 3.000000000000000000e+00
-2.034242153167725053e+00 1.268668532371520996e+00 -6.423888802528381348e-01 2.000000000000000000e+01
-2.345842361450194868e+00 1.464137673377990945e+00 -6.384111046791076660e-01 1.200000000000000000e+01
-3.381674957275391336e+01 2.111464118957519887e+01 2.089355945587158203e+00 2.300000000000000000e+01
-2.759397506713867188e+00 1.722923874855041948e+00 -6.323410272598266602e-01 1.200000000000000000e+01
-3.353779315948485884e+00 2.095673799514770952e+00 -6.263635754585266113e-01 1.100000000000000000e+01
-4.298602581024169922e+00 2.688152074813843218e+00 -6.225085854530334473e-01 1.000000000000000000e+01
-3.448513793945313211e+01 2.156544876098633168e+01 6.441971302032470703e+00 1.400000000000000000e+01
-5.948971271514892578e+00 3.721662521362305132e+00 -6.139250397682189941e-01 3.000000000000000000e+00
-9.471481323242187500e+00 5.929937839508056641e+00 -5.856393575668334961e-01 3.000000000000000000e+00
-2.031436920166016069e+00 1.276789665222167969e+00 -6.429064869880676270e-01 2.100000000000000000e+01
-2.345665931701660156e+00 1.475430011749268022e+00 -6.397607922554016113e-01 1.400000000000000000e+01
-3.363465118408203125e+01 2.116447830200194957e+01 2.082657098770142046e+00 2.300000000000000000e+01
-2.764998197555541992e+00 1.739864587783813032e+00 -6.350123286247253418e-01 1.300000000000000000e+01
-3.346443653106689009e+00 2.107367992401123047e+00 -6.263635754585266113e-01 1.200000000000000000e+01
-4.285834312438964844e+00 2.701023817062377930e+00 -6.220211386680603027e-01 1.000000000000000000e+01
-3.440965270996093750e+01 2.168569183349609020e+01 6.441971302032470703e+00 1.400000000000000000e+01
-5.922461032867431641e+00 3.733904838562012163e+00 -6.125305891036987305e-01 2.000000000000000000e+00
-9.369646072387695312e+00 5.911806583404541016e+00 -5.806151032447814941e-01 3.000000000000000000e+00
-2.022294998168944868e+00 1.280418753623961958e+00 -6.413536071777343750e-01 1.900000000000000000e+01
-2.327591419219971147e+00 1.474856019020081010e+00 -6.361615657806396484e-01 1.300000000000000000e+01
-2.760871410369873047e+00 1.750075221061706987e+00 -6.353939771652221680e-01 1.200000000000000000e+01
-3.334432840347290039e+00 2.115279197692871094e+00 -6.254249811172485352e-01 1.000000000000000000e+01
-4.273502349853515625e+00 2.713093280792235884e+00 -6.215336322784423828e-01 1.000000000000000000e+01
-3.462055587768554688e+01 2.198782730102539062e+01 6.495784759521484375e+00 1.400000000000000000e+01
-5.930228710174561435e+00 3.766341924667357954e+00 -6.146222949028015137e-01 2.000000000000000000e+00
-9.316278457641601562e+00 5.921417713165283203e+00 -5.785216689109802246e-01 3.000000000000000000e+00
-2.027584791183472124e+00 1.293704867362976074e+00 -6.444594264030456543e-01 1.900000000000000000e+01
-2.328998804092406782e+00 1.487167000770569070e+00 -6.379612088203430176e-01 1.300000000000000000e+01
-2.743164300918579102e+00 1.752303600311279075e+00 -6.327226161956787109e-01 1.200000000000000000e+01
-3.323699951171875000e+00 2.124777555465697798e+00 -6.247992515563964844e-01 1.000000000000000000e+01
-4.243939876556395596e+00 2.715156555175780806e+00 -6.186087727546691895e-01 1.000000000000000000e+01
-3.437721252441406250e+01 2.200205612182616832e+01 6.464498043060302734e+00 1.400000000000000000e+01
-5.893551826477050781e+00 3.771982908248900923e+00 -6.121819615364074707e-01 3.000000000000000000e+00
-9.295552253723144531e+00 5.953901290893554688e+00 -5.785216689109802246e-01 3.000000000000000000e+00
-3.266020202636718750e+01 2.092725181579589844e+01 8.955301284790039062e+00 1.200000000000000000e+01
-2.019806623458861861e+00 1.298684954643249956e+00 -6.434241533279418945e-01 1.800000000000000000e+01
-2.325432300567626953e+00 1.496342182159424050e+00 -6.384111046791076660e-01 1.200000000000000000e+01
-2.733729124069213867e+00 1.759743094444274902e+00 -6.319593787193298340e-01 1.200000000000000000e+01
-3.322905540466309038e+00 2.140645742416381836e+00 -6.260507106781005859e-01 1.100000000000000000e+01
-4.237772941589354581e+00 2.732105255126953125e+00 -6.190962791442871094e-01 1.000000000000000000e+01
-3.421719741821289062e+01 2.206838798522948863e+01 6.448854446411132812e+00 1.400000000000000000e+01
-5.877000808715820312e+00 3.790372610092163086e+00 -6.118333339691162109e-01 3.000000000000000000e+00
-9.274712562561035156e+00 5.986312389373779297e+00 -5.785216689109802246e-01 3.000000000000000000e+00
-3.267208480834960938e+01 2.109609794616698863e+01 8.978696823120117188e+00 1.200000000000000000e+01
-2.003911972045897993e+00 1.298374176025391069e+00 -6.398006677627563477e-01 1.900000000000000000e+01
-2.313654661178588867e+00 1.500209450721740945e+00 -6.366114616394042969e-01 1.200000000000000000e+01
-2.725922822952270952e+00 1.768206477165221946e+00 -6.315777897834777832e-01 1.300000000000000000e+01
-3.313755989074707031e+00 2.151156187057495117e+00 -6.257378458976745605e-01 1.000000000000000000e+01
-4.224881172180175781e+00 2.744718313217163086e+00 -6.186087727546691895e-01 1.000000000000000000e+01
-3.405714035034179688e+01 2.213387107849121094e+01 6.433210849761962891e+00 1.400000000000000000e+01
-5.868745803833007812e+00 3.814121246337891069e+00 -6.123562455177307129e-01 3.000000000000000000e+00
-3.298675537109375000e+01 2.144641304016112926e+01 7.648005962371826172e+00 6.300000000000000000e+01
-9.253759384155273438e+00 6.018651008605957031e+00 -5.785216689109802246e-01 3.000000000000000000e+00
-3.269298553466796875e+01 2.127165794372558949e+01 9.004790306091308594e+00 1.200000000000000000e+01
-1.999367713928223100e+00 1.305361270904541016e+00 -6.398006677627563477e-01 1.600000000000000000e+01
-2.308403730392456055e+00 1.508276462554932085e+00 -6.366114616394042969e-01 1.200000000000000000e+01
-2.724663972854613814e+00 1.780933380126952903e+00 -6.327226161956787109e-01 1.200000000000000000e+01
-3.286389589309691939e+00 2.149734020233153853e+00 -6.219834089279174805e-01 9.000000000000000000e+00
-3.474593734741210938e+01 2.273710250854491832e+01 5.098526000976563388e+00 2.600000000000000000e+01
-4.220257282257080078e+00 2.762711048126221147e+00 -6.193400025367736816e-01 1.000000000000000000e+01
-5.843728542327880859e+00 3.826942920684814009e+00 -6.111360788345336914e-01 2.000000000000000000e+00
-3.291169357299804688e+01 2.156142807006835938e+01 7.648005962371826172e+00 6.300000000000000000e+01
-9.232694625854492188e+00 6.050915718078613281e+00 -5.785216689109802246e-01 3.000000000000000000e+00
-3.260875701904296875e+01 2.137923622131348012e+01 9.002091407775878906e+00 1.200000000000000000e+01
-1.996412873268126997e+00 1.313394188880919966e+00 -6.403183341026306152e-01 1.700000000000000000e+01
-2.301497220993041992e+00 1.515253543853759988e+00 -6.361615657806396484e-01 1.400000000000000000e+01
-2.718430757522583008e+00 1.790433406829833984e+00 -6.327226161956787109e-01 1.300000000000000000e+01
-3.278865575790404829e+00 2.161192417144774947e+00 -6.219834089279174805e-01 9.000000000000000000e+00
-4.195674419403076172e+00 2.767588138580321822e+00 -6.171463727951049805e-01 1.000000000000000000e+01
-5.823682785034179688e+00 3.842928647994995117e+00 -6.104388236999511719e-01 2.000000000000000000e+00
-9.211516380310058594e+00 6.083106994628906250e+00 -5.785216689109802246e-01 3.000000000000000000e+00
-3.235507202148438211e+01 2.137477493286133168e+01 8.952602386474609375e+00 1.200000000000000000e+01
-2.003087520599364790e+00 1.327826619148253950e+00 -6.439417600631713867e-01 1.900000000000000000e+01
-2.289698362350463867e+00 1.518968820571898970e+00 -6.343619823455810547e-01 1.300000000000000000e+01
-2.708892822265625000e+00 1.797740340232848899e+00 -6.319593787193298340e-01 1.200000000000000000e+01
-3.274592638015747070e+00 2.174810409545897993e+00 -6.226091980934143066e-01 9.000000000000000000e+00
-4.185987949371337891e+00 2.782217025756835938e+00 -6.171463727951049805e-01 1.000000000000000000e+01
-5.816869258880615234e+00 3.867646217346190962e+00 -6.111360788345336914e-01 2.000000000000000000e+00
-9.190226554870605469e+00 6.115224361419677734e+00 -5.785216689109802246e-01 3.000000000000000000e+00
-1.993620872497559038e+00 1.331591606140136941e+00 -6.423888802528381348e-01 2.000000000000000000e+01
-2.290862798690795898e+00 1.531283974647521973e+00 -6.361615657806396484e-01 1.400000000000000000e+01
-2.694441080093383789e+00 1.801728725433350053e+00 -6.300513148307800293e-01 1.200000000000000000e+01
-3.270264625549315962e+00 2.188424825668334961e+00 -6.232349276542663574e-01 9.000000000000000000e+00
-4.176250934600830078e+00 2.796811819076538086e+00 -6.171463727951049805e-01 1.000000000000000000e+01
-5.780159950256347656e+00 3.872402191162108931e+00 -6.086956858634948730e-01 3.000000000000000000e+00
-9.168824195861816406e+00 6.147266864776611328e+00 -5.785216689109802246e-01 3.000000000000000000e+00
-3.350627517700195312e+01 2.247286605834960938e+01 9.314323425292968750e+00 1.200000000000000000e+01
-1.979344367980957031e+00 1.332070946693419966e+00 -6.392830610275268555e-01 1.900000000000000000e+01
-2.291968822479248047e+00 1.543625593185425027e+00 -6.379612088203430176e-01 1.600000000000000000e+01
-2.699532747268677202e+00 1.818801999092102051e+00 -6.327226161956787109e-01 1.300000000000000000e+01
-3.249502897262572798e+00 2.190992355346680132e+00 -6.207319498062133789e-01 1.000000000000000000e+01
-4.166462421417236328e+00 2.811372518539429155e+00 -6.171463727951049805e-01 1.000000000000000000e+01
-3.322423934936522727e+01 2.241847038269042969e+01 6.348110675811767578e+00 1.400000000000000000e+01
-5.761652946472167969e+00 3.889210939407349077e+00 -6.081727743148803711e-01 3.000000000000000000e+00
-9.087729454040527344e+00 6.138986110687255859e+00 -5.747534632682800293e-01 3.000000000000000000e+00
-1.977880358695984109e+00 1.341140389442444070e+00 -6.403183341026306152e-01 1.900000000000000000e+01
-2.281729221343994141e+00 1.548334002494812012e+00 -6.366114616394042969e-01 1.500000000000000000e+01
-2.694791793823242188e+00 1.829316735267638938e+00 -6.331042647361755371e-01 1.300000000000000000e+01
-3.238567113876343218e+00 2.200101613998413086e+00 -6.201062202453613281e-01 1.000000000000000000e+01
-3.323723220825195312e+01 2.258799934387207031e+01 4.934246063232421875e+00 2.200000000000000000e+01
-4.148415565490722656e+00 2.820318698883057085e+00 -6.159276366233825684e-01 9.000000000000000000e+00
-3.309938049316406250e+01 2.251120948791503906e+01 6.339975833892822266e+00 1.400000000000000000e+01
-5.729919910430908203e+00 3.896974086761475053e+00 -6.062553524971008301e-01 2.000000000000000000e+00
-9.125684738159179688e+00 6.211126804351806641e+00 -5.785216689109802246e-01 3.000000000000000000e+00
-1.985947966575623003e+00 1.356754422187804954e+00 -6.444594264030456543e-01 1.900000000000000000e+01
-2.266658306121826172e+00 1.549690127372741921e+00 -6.339120864868164062e-01 1.300000000000000000e+01
-2.686769485473632812e+00 1.837603807449341042e+00 -6.327226161956787109e-01 1.200000000000000000e+01
-3.234127759933472124e+00 2.213624477386475053e+00 -6.207319498062133789e-01 1.000000000000000000e+01
-3.307956314086914062e+01 2.265004920959473012e+01 4.922546386718750000e+00 2.200000000000000000e+01
-4.133632183074951172e+00 2.831416845321654829e+00 -6.151964664459228516e-01 1.000000000000000000e+01
-3.297239685058593750e+01 2.258512496948241832e+01 6.329964160919188565e+00 1.400000000000000000e+01
-5.726143360137938565e+00 3.923708915710449219e+00 -6.073012351989746094e-01 2.000000000000000000e+00
-8.972174644470214844e+00 6.152580738067626953e+00 -5.701479315757751465e-01 3.000000000000000000e+00
-3.238206100463867188e+01 2.221399116516112926e+01 9.065977096557617188e+00 1.200000000000000000e+01
-1.978017330169677956e+00 1.361487746238708052e+00 -6.434241533279418945e-01 2.000000000000000000e+01
-2.259630203247069868e+00 1.556487321853637917e+00 -6.334621906280517578e-01 1.300000000000000000e+01
-2.678722143173218218e+00 1.845857262611388938e+00 -6.323410272598266602e-01 1.200000000000000000e+01
-3.216623783111571822e+00 2.218171596527100053e+00 -6.188547611236572266e-01 9.000000000000000000e+00
-3.300683212280272727e+01 2.276988983154296875e+01 4.923521518707275391e+00 2.200000000000000000e+01
-4.117188453674316406e+00 2.841318607330321822e+00 -6.142215132713317871e-01 1.000000000000000000e+01
-5.705853939056395596e+00 3.939145088195800781e+00 -6.066039800643920898e-01 2.000000000000000000e+00
-3.334111022949218750e+01 2.302626609802246094e+01 7.876213550567626953e+00 6.300000000000000000e+01
-8.917778968811035156e+00 6.161156654357910156e+00 -5.680544972419738770e-01 2.000000000000000000e+00
-3.235882949829102273e+01 2.236456298828125000e+01 9.081274032592773438e+00 1.200000000000000000e+01
-1.963727831840514915e+00 1.361778855323791948e+00 -6.403183341026306152e-01 1.900000000000000000e+01
-2.260587215423583984e+00 1.568809628486633079e+00 -6.352617740631103516e-01 1.400000000000000000e+01
-3.389817810058593750e+01 2.352476692199707031e+01 2.162416934967041016e+00 2.600000000000000000e+01
-2.654522657394409180e+00 1.842880725860595925e+00 -6.281431913375854492e-01 1.200000000000000000e+01
-3.225084066390991211e+00 2.240657091140747070e+00 -6.219834089279174805e-01 9.000000000000000000e+00
-3.295975112915039062e+01 2.290762519836426137e+01 4.928396224975585938e+00 2.200000000000000000e+01
-4.102355480194091797e+00 2.852273464202880859e+00 -6.134902834892272949e-01 9.000000000000000000e+00
-3.351132965087891336e+01 2.329965591430664062e+01 6.464498043060302734e+00 1.400000000000000000e+01
-5.675712108612061435e+00 3.947661638259888139e+00 -6.048608422279357910e-01 2.000000000000000000e+00
-3.326052856445313211e+01 2.314250755310058949e+01 7.876213550567626953e+00 6.300000000000000000e+01
-8.896218299865722656e+00 6.192247867584229404e+00 -5.680544972419738770e-01 2.000000000000000000e+00
-3.215262603759766336e+01 2.238829421997069957e+01 9.045282363891601562e+00 1.200000000000000000e+01
-1.951044082641602007e+00 1.363093137741089089e+00 -6.377301216125488281e-01 1.900000000000000000e+01
-2.258291482925415039e+00 1.578924298286437988e+00 -6.361615657806396484e-01 1.400000000000000000e+01
-2.649682521820067915e+00 1.853260755538939986e+00 -6.285248398780822754e-01 1.300000000000000000e+01
-3.210769891738892046e+00 2.247370243072510210e+00 -6.207319498062133789e-01 9.000000000000000000e+00
-4.111885070800781250e+00 2.880242586135863814e+00 -6.164151430130004883e-01 9.000000000000000000e+00
-5.658634662628173828e+00 3.965162992477416992e+00 -6.045122146606445312e-01 2.000000000000000000e+00
-8.917065620422363281e+00 6.253078460693359375e+00 -5.707759261131286621e-01 3.000000000000000000e+00
-3.212213897705078125e+01 2.253396606445312855e+01 9.058778762817382812e+00 1.200000000000000000e+01
-1.946513175964355025e+00 1.369555592536926047e+00 -6.377301216125488281e-01 1.900000000000000000e+01
-2.249856472015380859e+00 1.584160566329956055e+00 -6.352617740631103516e-01 1.300000000000000000e+01
-2.654757499694824219e+00 1.869951248168945090e+00 -6.311961412429809570e-01 1.100000000000000000e+01
-3.190383195877075195e+00 2.248900175094604048e+00 -6.182290315628051758e-01 9.000000000000000000e+00
-4.105555534362792969e+00 2.896150827407836914e+00 -6.169025897979736328e-01 9.000000000000000000e+00
-3.294841766357421875e+01 2.324255180358887074e+01 6.386280536651611328e+00 1.400000000000000000e+01
-5.645454406738281250e+00 3.983905792236328125e+00 -6.045122146606445312e-01 2.000000000000000000e+00
-8.853862762451171875e+00 6.252658843994140625e+00 -5.680544972419738770e-01 2.000000000000000000e+00
-3.303722381591796875e+01 2.333975601196289062e+01 9.338618278503417969e+00 1.200000000000000000e+01
-1.949601054191588911e+00 1.381927609443664995e+00 -6.403183341026306152e-01 1.900000000000000000e+01
-2.231597185134888139e+00 1.582984447479248047e+00 -6.316625475883483887e-01 1.400000000000000000e+01
-2.640208482742310014e+00 1.873525857925415039e+00 -6.292880773544311523e-01 9.000000000000000000e+00
-3.182513475418090820e+00 2.260023117065430132e+00 -6.182290315628051758e-01 9.000000000000000000e+00
-4.079239845275878906e+00 2.898964881896973100e+00 -6.144652366638183594e-01 9.000000000000000000e+00
-3.284046936035156250e+01 2.334713363647460938e+01 6.381900310516357422e+00 1.400000000000000000e+01
-5.625018119812011719e+00 3.998970031738280806e+00 -6.038149595260620117e-01 2.000000000000000000e+00
-8.831983566284179688e+00 6.283526420593261719e+00 -5.680544972419738770e-01 2.000000000000000000e+00
-3.299682998657227273e+01 2.348431587219237926e+01 9.350315093994140625e+00 1.200000000000000000e+01
-1.946337580680846946e+00 1.389847278594970925e+00 -6.408359408378601074e-01 1.900000000000000000e+01
-2.230814695358275923e+00 1.594163656234740989e+00 -6.330122947692871094e-01 1.300000000000000000e+01
-2.632055521011352983e+00 1.881588697433471902e+00 -6.289064288139343262e-01 8.000000000000000000e+00
-3.174605131149291992e+00 2.271118402481079102e+00 -6.182290315628051758e-01 9.000000000000000000e+00
-3.306371688842772727e+01 2.366256904602051137e+01 4.992255687713623047e+00 2.400000000000000000e+01
-4.069095611572265625e+00 2.913186550140380859e+00 -6.144652366638183594e-01 9.000000000000000000e+00
-3.286566162109375000e+01 2.352950286865234020e+01 6.401924133300781250e+00 1.400000000000000000e+01
-5.611024856567382812e+00 4.018580913543701172e+00 -6.038149595260620117e-01 2.000000000000000000e+00
-8.809995651245117188e+00 6.314317226409912109e+00 -5.680544972419738770e-01 2.000000000000000000e+00
-3.275628280639647727e+01 2.348580169677734020e+01 9.305325508117675781e+00 1.200000000000000000e+01
-1.930496573448180930e+00 1.388735771179198997e+00 -6.372125148773193359e-01 1.700000000000000000e+01
-2.233144044876099077e+00 1.607633709907531960e+00 -6.352617740631103516e-01 1.300000000000000000e+01
-2.633437156677246094e+00 1.896501421928405984e+00 -6.308145523071289062e-01 8.000000000000000000e+00
-3.185889005661011186e+00 2.296045303344727007e+00 -6.219834089279174805e-01 9.000000000000000000e+00
-3.319991302490233664e+01 2.393572425842285156e+01 5.025404453277587891e+00 2.500000000000000000e+01
-4.055682182312011719e+00 2.925050258636475053e+00 -6.139777302742004395e-01 9.000000000000000000e+00
-5.593731880187988281e+00 4.035810947418212891e+00 -6.034663915634155273e-01 2.000000000000000000e+00
-8.745799064636230469e+00 6.314633369445800781e+00 -5.653330087661743164e-01 2.000000000000000000e+00
-3.265198516845703125e+01 2.358402442932128906e+01 9.299026489257812500e+00 1.200000000000000000e+01
-1.919622778892517090e+00 1.390596628189086914e+00 -6.351419091224670410e-01 1.800000000000000000e+01
-2.224645137786864790e+00 1.612742662429810014e+00 -6.343619823455810547e-01 1.300000000000000000e+01
-2.631901502609252930e+00 1.908681511878967063e+00 -6.319593787193298340e-01 8.000000000000000000e+00
-3.167066335678101030e+00 2.298475742340087891e+00 -6.197933554649353027e-01 8.000000000000000000e+00
-4.050778388977050781e+00 2.941982746124268022e+00 -6.147089600563049316e-01 1.000000000000000000e+01
-3.302440261840820312e+01 2.398482894897460938e+01 6.464498043060302734e+00 1.400000000000000000e+01
-5.557751655578613281e+00 4.037942886352539062e+00 -6.010259985923767090e-01 3.000000000000000000e+00
-8.666656494140625000e+00 6.301318168640136719e+00 -5.615648031234741211e-01 2.000000000000000000e+00
-1.920999050140381081e+00 1.401844024658202903e+00 -6.372125148773193359e-01 1.800000000000000000e+01
-2.217428207397460938e+00 1.619349002838134988e+00 -6.339120864868164062e-01 1.300000000000000000e+01
-2.625223159790039062e+00 1.917856931686400923e+00 -6.319593787193298340e-01 9.000000000000000000e+00
-3.154239892959595171e+00 2.306019306182860884e+00 -6.188547611236572266e-01 9.000000000000000000e+00
-3.297533035278320312e+01 2.411662292480469105e+01 5.016142368316650391e+00 2.400000000000000000e+01
-4.032474040985107422e+00 2.950244188308715820e+00 -6.134902834892272949e-01 9.000000000000000000e+00
-5.553269386291503906e+00 4.064378738403320312e+00 -6.020718812942504883e-01 2.000000000000000000e+00
-8.631717681884765625e+00 6.322090625762938565e+00 -5.607274174690246582e-01 2.000000000000000000e+00
-1.919207096099853960e+00 1.410829424858093040e+00 -6.382477879524230957e-01 1.800000000000000000e+01
-2.200773954391479048e+00 1.618995904922484907e+00 -6.307627558708190918e-01 1.400000000000000000e+01
-2.620093822479248047e+00 1.928172707557678001e+00 -6.323410272598266602e-01 1.000000000000000000e+01
-3.138218164443970171e+00 2.311158657073975053e+00 -6.172903776168823242e-01 8.000000000000000000e+00
-3.295167922973632812e+01 2.427632331848144887e+01 5.025404453277587891e+00 2.500000000000000000e+01
-4.015758991241455078e+00 2.959591150283813032e+00 -6.125153303146362305e-01 9.000000000000000000e+00
-5.513389587402343750e+00 4.064821243286132812e+00 -5.992828607559204102e-01 2.000000000000000000e+00
-8.580667495727539062e+00 6.330838680267333984e+00 -5.588433146476745605e-01 2.000000000000000000e+00
-1.925138473510741965e+00 1.425567746162414995e+00 -6.418712139129638672e-01 1.900000000000000000e+01
-2.201372146606444868e+00 1.631309270858765093e+00 -6.325623393058776855e-01 1.300000000000000000e+01
-2.607038497924805132e+00 1.932630062103271040e+00 -6.308145523071289062e-01 1.000000000000000000e+01
-3.136477708816527876e+00 2.326806783676147017e+00 -6.185418963432312012e-01 8.000000000000000000e+00
-4.002215862274169922e+00 2.971224308013916016e+00 -6.120278239250183105e-01 9.000000000000000000e+00
-5.508764266967773438e+00 4.091169357299804688e+00 -6.003287434577941895e-01 2.000000000000000000e+00
-8.558516502380371094e+00 6.360752105712890625e+00 -5.588433146476745605e-01 2.000000000000000000e+00
-1.912656903266906960e+00 1.426169872283935991e+00 -6.392830610275268555e-01 1.800000000000000000e+01
-2.197512149810791016e+00 1.639765739440917969e+00 -6.330122947692871094e-01 1.200000000000000000e+01
-2.589602470397949219e+00 1.933043956756592019e+00 -6.281431913375854492e-01 1.200000000000000000e+01
-3.135074615478516069e+00 2.341923713684082031e+00 -6.197933554649353027e-01 8.000000000000000000e+00
-3.992341041564940962e+00 2.984479665756226030e+00 -6.120278239250183105e-01 9.000000000000000000e+00
-5.485593795776367188e+00 4.102255344390869141e+00 -5.992828607559204102e-01 3.000000000000000000e+00
-8.518188476562500000e+00 6.374737739562988281e+00 -5.575872659683227539e-01 2.000000000000000000e+00
-1.895309686660767046e+00 1.423556089401244895e+00 -6.351419091224670410e-01 1.700000000000000000e+01
-2.191775083541870117e+00 1.647426486015320046e+00 -6.330122947692871094e-01 1.300000000000000000e+01
-2.589115858078002930e+00 1.946791052818297896e+00 -6.296696662902832031e-01 1.300000000000000000e+01
-3.117410182952880859e+00 2.345726728439331055e+00 -6.179161071777343750e-01 8.000000000000000000e+00
-3.225587463378906250e+01 2.428007698059082031e+01 4.957157611846923828e+00 2.300000000000000000e+01
-3.981899023056029829e+00 2.998397350311278853e+00 -6.120278239250183105e-01 9.000000000000000000e+00
-5.452143669128417969e+00 4.106993198394775391e+00 -5.971911549568176270e-01 4.000000000000000000e+00
-8.521402359008789062e+00 6.423669338226318359e+00 -5.592620372772216797e-01 2.000000000000000000e+00
-3.205669403076171875e+01 2.417399978637694957e+01 9.269332885742187500e+00 1.200000000000000000e+01
-1.894950866699218972e+00 1.433660030364990012e+00 -6.366948485374450684e-01 1.900000000000000000e+01
-2.187564611434936968e+00 1.656243443489074929e+00 -6.334621906280517578e-01 1.300000000000000000e+01
-2.582304477691649947e+00 1.955816984176635964e+00 -6.296696662902832031e-01 1.100000000000000000e+01
-3.102905988693236861e+00 2.351821422576903853e+00 -6.166646480560302734e-01 8.000000000000000000e+00
-3.220572662353516336e+01 2.441890716552734020e+01 4.962519645690917969e+00 2.300000000000000000e+01
-3.980897903442382812e+00 3.019476413726807085e+00 -6.134902834892272949e-01 9.000000000000000000e+00
-5.458408355712890625e+00 4.141655921936035156e+00 -5.994572043418884277e-01 3.000000000000000000e+00
-8.325545310974121094e+00 6.321722984313964844e+00 -5.478528141975402832e-01 1.000000000000000000e+01
-1.900690555572509988e+00 1.448462486267090066e+00 -6.403183341026306152e-01 1.900000000000000000e+01
-2.174022197723389116e+00 1.657960772514343040e+00 -6.312126517295837402e-01 1.300000000000000000e+01
-2.581705093383789062e+00 1.969582200050354004e+00 -6.311961412429809570e-01 1.300000000000000000e+01
-3.104098320007324219e+00 2.369830369949340820e+00 -6.185418963432312012e-01 9.000000000000000000e+00
-3.211082458496093750e+01 2.452394866943359020e+01 4.961057186126708984e+00 2.300000000000000000e+01
-3.967178821563721147e+00 3.030943632125854048e+00 -6.130027770996093750e-01 9.000000000000000000e+00
-5.431253910064697266e+00 4.151005268096923828e+00 -5.980626940727233887e-01 3.000000000000000000e+00
-8.259006500244140625e+00 6.316771984100341797e+00 -5.449219942092895508e-01 1.000000000000000000e+01
-1.889493227005005105e+00 1.450383186340332031e+00 -6.382477879524230957e-01 1.900000000000000000e+01
-2.169767141342163086e+00 1.666726589202881081e+00 -6.316625475883483887e-01 1.300000000000000000e+01
-2.567030668258666992e+00 1.972600817680359109e+00 -6.292880773544311523e-01 1.300000000000000000e+01
-3.086411714553833008e+00 2.373426198959351030e+00 -6.166646480560302734e-01 8.000000000000000000e+00
-3.943989276885985884e+00 3.035088062286376953e+00 -6.110528707504272461e-01 9.000000000000000000e+00
-5.391470909118652344e+00 4.150492668151854581e+00 -5.952737331390380859e-01 4.000000000000000000e+00
-8.333420753479003906e+00 6.419915199279785156e+00 -5.513069629669189453e-01 2.000000000000000000e+00
-1.878305673599242942e+00 1.452243328094481978e+00 -6.361772418022155762e-01 1.900000000000000000e+01
-2.167018413543701172e+00 1.676675319671631081e+00 -6.325623393058776855e-01 1.300000000000000000e+01
-2.555471897125244141e+00 1.977944374084473100e+00 -6.281431913375854492e-01 1.100000000000000000e+01
-3.084354877471923828e+00 2.389023780822753906e+00 -6.179161071777343750e-01 8.000000000000000000e+00
-3.933370828628540039e+00 3.048836708068848100e+00 -6.110528707504272461e-01 9.000000000000000000e+00
-5.394269943237304688e+00 4.182716846466063565e+00 -5.971911549568176270e-01 4.000000000000000000e+00
-8.326739311218261719e+00 6.461209297180175781e+00 -5.523536801338195801e-01 2.000000000000000000e+00
-3.606944274902343750e+01 2.799849891662598012e+01 1.054165649414063033e+01 1.300000000000000000e+01
-1.865603923797606978e+00 1.452856063842772993e+00 -6.335890293121337891e-01 1.900000000000000000e+01
-2.162689685821533203e+00 1.685427308082581010e+00 -6.330122947692871094e-01 1.300000000000000000e+01
-2.551648616790771040e+00 1.989266753196716087e+00 -6.289064288139343262e-01 1.300000000000000000e+01
-3.071324348449707031e+00 2.396130561828612837e+00 -6.169775128364562988e-01 9.000000000000000000e+00
-3.916445493698120117e+00 3.057661771774291992e+00 -6.100779175758361816e-01 9.000000000000000000e+00
-5.351372241973876953e+00 4.179446220397949219e+00 -5.940535664558410645e-01 2.000000000000000000e+00
-8.272662162780761719e+00 6.465637683868408203e+00 -5.502602458000183105e-01 2.000000000000000000e+00
-1.863561272621155007e+00 1.461743950843811035e+00 -6.346243023872375488e-01 1.900000000000000000e+01
-2.150661468505858931e+00 1.688153266906738059e+00 -6.312126517295837402e-01 1.300000000000000000e+01
-2.541600942611693892e+00 1.995736598968506081e+00 -6.281431913375854492e-01 1.400000000000000000e+01
-3.053622245788574219e+00 2.399513721466064009e+00 -6.151003241539001465e-01 9.000000000000000000e+00
-3.911990165710449219e+00 3.076222181320189986e+00 -6.110528707504272461e-01 9.000000000000000000e+00
-3.518138504028320312e+01 2.767507934570312855e+01 7.089610099792479581e+00 1.500000000000000000e+01
-5.358674049377441406e+00 4.215346336364746094e+00 -5.964938998222351074e-01 4.000000000000000000e+00
-8.246903419494628906e+00 6.492004394531250000e+00 -5.500509142875671387e-01 2.000000000000000000e+00
-3.542910385131835938e+01 2.789998817443848012e+01 1.041118431091308949e+01 1.300000000000000000e+01
-1.854155421257019043e+00 1.464323759078979048e+00 -6.330713629722595215e-01 1.600000000000000000e+01
-2.134349346160889116e+00 1.686817526817321999e+00 -6.280633211135864258e-01 1.200000000000000000e+01
-2.544209480285644975e+00 2.011459350585937944e+00 -6.304329037666320801e-01 1.300000000000000000e+01
-3.048746824264525923e+00 2.412078142166138139e+00 -6.157260537147521973e-01 9.000000000000000000e+00
-3.898654937744141069e+00 3.086713552474976030e+00 -6.105654239654541016e-01 1.000000000000000000e+01
-5.335294723510742188e+00 4.225670814514160156e+00 -5.954480171203613281e-01 4.000000000000000000e+00
-8.181503295898437500e+00 6.484580039978027344e+00 -5.471200942993164062e-01 2.000000000000000000e+00
-1.861127853393554910e+00 1.480407953262329102e+00 -6.372125148773193359e-01 1.800000000000000000e+01
-2.140645503997803178e+00 1.703966736793518066e+00 -6.316625475883483887e-01 1.300000000000000000e+01
-2.518742799758911133e+00 2.005652666091918945e+00 -6.258534789085388184e-01 1.300000000000000000e+01
-3.037218809127808061e+00 2.420243263244628906e+00 -6.151003241539001465e-01 9.000000000000000000e+00
-3.881648302078247070e+00 3.095352888107299805e+00 -6.095904707908630371e-01 9.000000000000000000e+00
-3.504778671264647727e+01 2.795825386047362926e+01 7.100873470306395596e+00 1.500000000000000000e+01
-5.320511817932128906e+00 4.244268894195556641e+00 -5.954480171203613281e-01 4.000000000000000000e+00
-8.183793067932128906e+00 6.533035755157470703e+00 -5.487948656082153320e-01 2.000000000000000000e+00
-3.532974243164063211e+01 2.821346092224121094e+01 1.043817901611327947e+01 1.300000000000000000e+01
-1.849918127059936968e+00 1.482063889503479004e+00 -6.351419091224670410e-01 1.700000000000000000e+01
-2.130123376846313032e+00 1.707771778106689009e+00 -6.303128600120544434e-01 1.300000000000000000e+01
-2.514789342880249023e+00 2.016889095306396040e+00 -6.266167163848876953e-01 1.300000000000000000e+01
-3.036454916000366211e+00 2.437012672424315962e+00 -6.166646480560302734e-01 1.000000000000000000e+01
-3.867724418640137163e+00 3.106397390365601030e+00 -6.091029644012451172e-01 8.000000000000000000e+00
-5.287025928497313565e+00 4.247840404510498047e+00 -5.933563113212585449e-01 4.000000000000000000e+00
-8.173390388488769531e+00 6.571574687957763672e+00 -5.496321916580200195e-01 2.000000000000000000e+00
-1.841726660728455034e+00 1.486086010932921919e+00 -6.341066360473632812e-01 1.700000000000000000e+01
-2.128697633743286133e+00 1.718869686126708984e+00 -6.316625475883483887e-01 1.200000000000000000e+01
-2.493988752365111861e+00 2.014552116394042969e+00 -6.231821775436401367e-01 1.300000000000000000e+01
-3.020248413085937944e+00 2.441387891769409180e+00 -6.151003241539001465e-01 9.000000000000000000e+00
-3.850684165954589844e+00 3.114885568618773970e+00 -6.081280112266540527e-01 8.000000000000000000e+00
-5.259775638580322266e+00 4.256243228912354404e+00 -5.919618010520935059e-01 4.000000000000000000e+00
-8.131775856018066406e+00 6.584982395172119141e+00 -5.483761429786682129e-01 2.000000000000000000e+00
-1.832549929618835005e+00 1.488211154937743919e+00 -6.325537562370300293e-01 1.900000000000000000e+01
-2.123287200927733931e+00 1.725548624992371050e+00 -6.316625475883483887e-01 1.400000000000000000e+01
-2.507451057434082031e+00 2.038476943969727007e+00 -6.281431913375854492e-01 1.300000000000000000e+01
-3.006434202194213867e+00 2.445877790451049805e+00 -6.138488650321960449e-01 9.000000000000000000e+00
-3.847037076950072798e+00 3.131980657577515093e+00 -6.091029644012451172e-01 8.000000000000000000e+00
-5.227839946746826172e+00 4.257647991180419922e+00 -5.898700952529907227e-01 4.000000000000000000e+00
-8.067698478698730469e+00 6.575166225433349609e+00 -5.454453229904174805e-01 2.000000000000000000e+00
-1.830334782600403054e+00 1.497045040130615012e+00 -6.335890293121337891e-01 1.900000000000000000e+01
-2.108202934265137163e+00 1.725543975830077903e+00 -6.289631724357604980e-01 1.300000000000000000e+01
-2.491206169128417969e+00 2.039754867553710938e+00 -6.258534789085388184e-01 1.300000000000000000e+01
-2.997878313064575195e+00 2.456357240676879883e+00 -6.138488650321960449e-01 9.000000000000000000e+00
-3.825335741043090820e+00 3.136579513549805132e+00 -6.073967814445495605e-01 9.000000000000000000e+00
-5.228350639343261719e+00 4.288506507873535156e+00 -5.916131734848022461e-01 4.000000000000000000e+00
-7.992208957672119141e+00 6.560203552246093750e+00 -5.418865084648132324e-01 2.000000000000000000e+00
-1.829308152198791948e+00 1.507429122924804910e+00 -6.351419091224670410e-01 1.700000000000000000e+01
-2.101864337921143022e+00 1.733259439468384011e+00 -6.289631724357604980e-01 1.200000000000000000e+01
-2.480684280395507812e+00 2.046373128890991211e+00 -6.250902414321899414e-01 1.300000000000000000e+01
-2.991901874542235884e+00 2.469843626022338867e+00 -6.144745945930480957e-01 9.000000000000000000e+00
-3.446397018432617188e+01 2.846045303344726918e+01 5.488020420074462891e+00 3.700000000000000000e+01
-3.810753107070922852e+00 3.148050546646118164e+00 -6.069093346595764160e-01 9.000000000000000000e+00
-5.211061477661132812e+00 4.306371212005615234e+00 -5.914388895034790039e-01 4.000000000000000000e+00
-7.968111038208007812e+00 6.589452266693115234e+00 -5.418865084648132324e-01 2.000000000000000000e+00
-1.821061968803405984e+00 1.511337876319885032e+00 -6.341066360473632812e-01 1.700000000000000000e+01
-2.098799467086791992e+00 1.743075847625731978e+00 -6.298629641532897949e-01 1.200000000000000000e+01
