8.098945617675781250e+00 -2.504492568969726918e+01 -1.379471182823180930e+00 1.200000000000000000e+01
8.247240185737609863e-01 -2.565637350082397017e+00 -7.221051454544067383e-01 1.400000000000000000e+01
9.656632542610168457e-01 -3.007688999176024947e+00 -7.292913198471069336e-01 9.000000000000000000e+00
1.161273598670959029e+00 -3.619113683700561968e+00 -7.388124465942382812e-01 1.100000000000000000e+01
1.452334284782409890e+00 -4.531642436981201172e+00 -7.537012696266174316e-01 8.000000000000000000e+00
2.036443471908568892e+00 -6.361847400665283203e+00 -8.201806545257568359e-01 7.000000000000000000e+00
2.852655887603760210e+00 -8.917054176330566406e+00 -8.190896511077880859e-01 6.000000000000000000e+00
8.066184043884277344e+00 -2.524426841735839844e+01 -1.388891577720642090e+00 1.200000000000000000e+01
8.178306221961975098e-01 -2.571897506713867188e+00 -7.231404185295104980e-01 1.300000000000000000e+01
8.532940864562988281e+00 -2.685045242309569957e+01 4.917739033699036200e-01 1.800000000000000000e+01
9.597489237785339355e-01 -3.021851778030395952e+00 -7.319907546043395996e-01 1.000000000000000000e+01
1.151085972785949929e+00 -3.626486539840697798e+00 -7.395756840705871582e-01 1.200000000000000000e+01
1.441075444221497026e+00 -4.545598030090332031e+00 -7.552655935287475586e-01 9.000000000000000000e+00
2.033225774765015093e+00 -6.421203136444091797e+00 -8.270053863525390625e-01 3.000000000000000000e+00
2.835448026657104048e+00 -8.960164070129394531e+00 -8.222272992134094238e-01 7.000000000000000000e+00
7.980818271636962891e+00 -2.525044059753417969e+01 -1.387844920158386008e+00 1.200000000000000000e+01
1.766707611083984020e+01 -5.596467971801757812e+01 -1.024386405944823997e+00 1.500000000000000000e+01
8.076900243759155273e-01 -2.571050643920897993e+00 -7.221051454544067383e-01 1.300000000000000000e+01
8.430777549743652344e+00 -2.685336303710937855e+01 4.912852346897125244e-01 1.800000000000000000e+01
9.497782588005065918e-01 -3.027042865753173828e+00 -7.324406504631042480e-01 9.000000000000000000e+00
1.136070489883423074e+00 -3.622989177703856978e+00 -7.380492091178894043e-01 1.100000000000000000e+01
1.424609184265136941e+00 -4.548715114593505859e+00 -7.549527287483215332e-01 8.000000000000000000e+00
2.009613990783690962e+00 -6.424472332000732422e+00 -8.265178799629211426e-01 5.000000000000000000e+00
2.777402400970458984e+00 -8.884432792663574219e+00 -8.143832683563232422e-01 6.000000000000000000e+00
7.366877555847167969e+00 -2.360877609252930043e+01 5.709707736968994141e+00 5.000000000000000000e+00
7.994056940078735352e-01 -2.577683925628662109e+00 -7.231404185295104980e-01 1.100000000000000000e+01
9.375240206718444824e-01 -3.026780605316162109e+00 -7.315407991409301758e-01 9.000000000000000000e+00
7.278590202331542969e+00 -2.349880599975585938e+01 1.289243936538696067e+00 1.200000000000000000e+01
1.122203350067138894e+00 -3.625253438949584961e+00 -7.376675605773925781e-01 1.000000000000000000e+01
7.309777736663818359e+00 -2.362867546081542969e+01 2.163902759552001953e+00 2.200000000000000000e+01
1.404426813125609907e+00 -4.542582988739013672e+00 -7.530755400657653809e-01 8.000000000000000000e+00
7.270099639892578125e+00 -2.352950286865234020e+01 3.023822069168090820e+00 1.000000000000000000e+01
1.987810611724853960e+00 -6.437484741210938388e+00 -8.272491097450256348e-01 3.000000000000000000e+00
2.533318996429442915e+00 -8.209185600280761719e+00 -7.516311407089233398e-01 1.000000000000000000e+00
7.241654872894287109e+00 -2.349558639526366832e+01 -1.288511276245116965e+00 3.300000000000000000e+01
7.238158226013183594e+00 -2.351339721679687855e+01 -4.294339120388031006e-01 1.100000000000000000e+01
7.915346026420593262e-01 -2.584152936935424805e+00 -7.241756916046142578e-01 1.100000000000000000e+01
9.246725440025329590e-01 -3.022580862045288086e+00 -7.297412157058715820e-01 9.000000000000000000e+00
1.112986087799072044e+00 -3.640413284301757812e+00 -7.399572730064392090e-01 1.100000000000000000e+01
8.390460968017578125e+00 -2.746110153198241832e+01 2.512177228927611861e+00 2.600000000000000000e+01
1.390869259834289995e+00 -4.555014610290527344e+00 -7.543269991874694824e-01 8.000000000000000000e+00
1.971118092536926047e+00 -6.463372230529785156e+00 -8.296864628791809082e-01 3.000000000000000000e+00
2.645215272903441939e+00 -8.679191589355468750e+00 -7.938144803047180176e-01 2.000000000000000000e+00
7.840802073478698730e-01 -2.590461492538452148e+00 -7.252109646797180176e-01 1.100000000000000000e+01
8.150270462036132812e+00 -2.694400405883789062e+01 4.913550615310668945e-01 1.800000000000000000e+01
9.157720208168029785e-01 -3.029361248016356978e+00 -7.306410074234008789e-01 9.000000000000000000e+00
1.100907921791077104e+00 -3.644084215164185014e+00 -7.399572730064392090e-01 1.000000000000000000e+01
1.378609776496886985e+00 -4.569057464599609375e+00 -7.558913230895996094e-01 9.000000000000000000e+00
1.942228078842163086e+00 -6.445164203643798828e+00 -8.265178799629211426e-01 3.000000000000000000e+00
2.791077136993408203e+00 -9.267872810363769531e+00 -8.468052148818969727e-01 1.000000000000000000e+00
7.615983486175537109e+00 -2.532115745544433949e+01 -1.385751485824584961e+00 1.200000000000000000e+01
7.750330567359924316e-01 -2.593182802200316939e+00 -7.252109646797180176e-01 1.100000000000000000e+01
8.074481964111328125e+00 -2.703360366821289062e+01 4.924719929695128839e-01 1.800000000000000000e+01
9.063068032264709473e-01 -3.036273956298828125e+00 -7.315407991409301758e-01 9.000000000000000000e+00
8.122589111328125000e+00 -2.722932243347167969e+01 1.489167332649230957e+00 1.400000000000000000e+01
1.085936069488524947e+00 -3.640379428863524947e+00 -7.384307980537414551e-01 1.100000000000000000e+01
8.069014549255371094e+00 -2.706697082519530895e+01 2.471039533615111861e+00 2.500000000000000000e+01
1.366036415100098100e+00 -4.585200786590576172e+00 -7.577685713768005371e-01 9.000000000000000000e+00
1.928210258483886941e+00 -6.480444431304931641e+00 -8.301739692687988281e-01 3.000000000000000000e+00
2.751894950866699219e+00 -9.254641532897949219e+00 -8.447134494781494141e-01 1.000000000000000000e+00
7.495708942413330078e+00 -2.524036788940430043e+01 -1.379889845848083052e+00 1.200000000000000000e+01
7.622448801994323730e-01 -2.584888219833374023e+00 -7.221051454544067383e-01 1.200000000000000000e+01
8.962732553482055664e-01 -3.043314218521118164e+00 -7.324406504631042480e-01 9.000000000000000000e+00
1.073140501976012962e+00 -3.646218538284302202e+00 -7.388124465942382812e-01 1.100000000000000000e+01
1.345322132110595925e+00 -4.576910495758056641e+00 -7.555784583091735840e-01 8.000000000000000000e+00
1.902767896652221902e+00 -6.481753826141357422e+00 -8.294427394866943359e-01 1.000000000000000000e+00
7.378438949584960938e+00 -2.518333816528319957e+01 -1.375284314155579057e+00 1.200000000000000000e+01
7.553770542144775391e-01 -2.594952583312987837e+00 -7.241756916046142578e-01 1.200000000000000000e+01
8.867326378822326660e-01 -3.050166606903076172e+00 -7.333404421806335449e-01 9.000000000000000000e+00
7.931991577148438388e+00 -2.730209350585937855e+01 1.490004658699036089e+00 1.400000000000000000e+01
1.062049508094788042e+00 -3.655598163604735884e+00 -7.399572730064392090e-01 1.100000000000000000e+01
1.327686190605164018e+00 -4.575887203216552734e+00 -7.546398639678955078e-01 9.000000000000000000e+00
1.882340669631958008e+00 -6.495983123779296875e+00 -8.304176926612854004e-01 3.000000000000000000e+00
2.594713211059569868e+00 -8.960239410400390625e+00 -8.161263465881347656e-01 1.000000000000000000e+00
7.307134151458740234e+00 -2.526649856567383168e+01 -1.378424406051635964e+00 1.200000000000000000e+01
7.473812699317932129e-01 -2.601287126541138139e+00 -7.252109646797180176e-01 1.100000000000000000e+01
8.750052452087402344e-01 -3.049497127532958984e+00 -7.324406504631042480e-01 9.000000000000000000e+00
1.049282550811768022e+00 -3.659283161163330078e+00 -7.399572730064392090e-01 1.000000000000000000e+01
1.313336730003356934e+00 -4.586191177368164062e+00 -7.555784583091735840e-01 8.000000000000000000e+00
1.862928986549376997e+00 -6.513965606689453125e+00 -8.318801522254943848e-01 3.000000000000000000e+00
2.620360851287841797e+00 -9.168474197387695312e+00 -8.342547416687011719e-01 1.000000000000000000e+00
7.169557571411132812e+00 -2.511900138854980113e+01 -1.369003891944885032e+00 1.200000000000000000e+01
7.388235330581665039e-01 -2.605738639831542969e+00 -7.257286310195922852e-01 1.200000000000000000e+01
7.967355251312255859e+00 -2.811856842041015980e+01 5.101338624954223633e-01 1.900000000000000000e+01
8.632933497428894043e-01 -3.048782825469971147e+00 -7.315407991409301758e-01 1.000000000000000000e+01
7.734669208526611328e+00 -2.733374214172362926e+01 1.488748669624329057e+00 1.400000000000000000e+01
1.037037491798401101e+00 -3.664812564849853960e+00 -7.403389215469360352e-01 9.000000000000000000e+00
7.597741603851318359e+00 -2.686774635314941051e+01 2.442801237106322798e+00 2.500000000000000000e+01
1.298394322395324929e+00 -4.594549179077148438e+00 -7.562041878700256348e-01 8.000000000000000000e+00
1.838023066520690918e+00 -6.512786865234375000e+00 -8.309051990509033203e-01 3.000000000000000000e+00
2.704075336456298828e+00 -9.587927818298339844e+00 -8.715574145317077637e-01 1.000000000000000000e+00
7.112154006958007812e+00 -2.525153350830078125e+01 -1.374865531921386941e+00 1.200000000000000000e+01
7.317409515380859375e-01 -2.613755226135253906e+00 -7.272815108299255371e-01 1.200000000000000000e+01
8.521290421485900879e-01 -3.047875404357910156e+00 -7.306410074234008789e-01 9.000000000000000000e+00
7.666557312011718750e+00 -2.744003105163573863e+01 1.493144869804382102e+00 1.400000000000000000e+01
1.021709084510803001e+00 -3.656886339187622070e+00 -7.380492091178894043e-01 9.000000000000000000e+00
1.286336421966552956e+00 -4.610245704650878906e+00 -7.580814361572265625e-01 8.000000000000000000e+00
1.823342561721801980e+00 -6.543705463409423828e+00 -8.340737819671630859e-01 3.000000000000000000e+00
2.646611928939818892e+00 -9.504713058471679688e+00 -8.631904721260070801e-01 1.000000000000000000e+00
7.033729076385498047e+00 -2.529422187805176137e+01 -1.375912308692931907e+00 1.200000000000000000e+01
7.210698723793029785e-01 -2.610707283020019975e+00 -7.257286310195922852e-01 1.200000000000000000e+01
8.456299901008605957e-01 -3.065860033035277876e+00 -7.342402338981628418e-01 9.000000000000000000e+00
1.007372856140136941e+00 -3.654752492904663086e+00 -7.369043231010437012e-01 9.000000000000000000e+00
1.271284341812134011e+00 -4.618516921997070312e+00 -7.587071657180786133e-01 8.000000000000000000e+00
1.809434175491333008e+00 -6.582569599151611328e+00 -8.382173180580139160e-01 1.000000000000000000e+00
7.701100349426270419e+00 -2.803510093688964844e+01 4.604804992675781250e+00 1.200000000000000000e+01
2.626084327697753906e+00 -9.560002326965332031e+00 -8.673739433288574219e-01 8.000000000000000000e+00
6.926371574401854581e+00 -2.524927902221680043e+01 -1.372144103050231934e+00 1.200000000000000000e+01
7.124084830284118652e-01 -2.613084077835083008e+00 -7.257286310195922852e-01 1.200000000000000000e+01
8.369943499565124512e-01 -3.074288129806518999e+00 -7.355899214744567871e-01 1.100000000000000000e+01
1.001432538032531960e+00 -3.680805683135985884e+00 -7.414837479591369629e-01 1.000000000000000000e+01
1.253890156745911089e+00 -4.615082263946533203e+00 -7.574557065963745117e-01 8.000000000000000000e+00
1.786036252975464089e+00 -6.582786083221436435e+00 -8.374861478805541992e-01 3.000000000000000000e+00
7.608849525451660156e+00 -2.804390525817871094e+01 4.602302074432373047e+00 1.200000000000000000e+01
2.587068557739257812e+00 -9.541736602783203125e+00 -8.649336099624633789e-01 3.000000000000000000e+00
6.839471817016601562e+00 -2.526054191589355113e+01 -1.371516108512877974e+00 1.200000000000000000e+01
7.042860388755798340e-01 -2.619286060333251953e+00 -7.267639040946960449e-01 1.300000000000000000e+01
8.237312436103820801e-01 -3.067780733108520952e+00 -7.333404421806335449e-01 9.000000000000000000e+00
9.890868663787841797e-01 -3.686175107955933061e+00 -7.418653964996337891e-01 9.000000000000000000e+00
1.239817857742310014e+00 -4.627063274383544922e+00 -7.587071657180786133e-01 8.000000000000000000e+00
7.580502510070800781e+00 -2.831058311462401988e+01 3.598557949066162109e+00 1.400000000000000000e+01
1.760481595993041992e+00 -6.579392433166503906e+00 -8.362674117088317871e-01 1.000000000000000000e+00
7.540526390075683594e+00 -2.818097305297851918e+01 4.620448589324951172e+00 1.200000000000000000e+01
2.366409301757812944e+00 -8.850092887878417969e+00 -8.014842271804809570e-01 1.000000000000000000e+00
6.772894859313964844e+00 -2.536530876159667969e+01 -1.375912308692931907e+00 1.200000000000000000e+01
6.966240406036376953e-01 -2.627330541610718218e+00 -7.283167839050292969e-01 1.200000000000000000e+01
8.120200634002685547e-01 -3.066869735717772993e+00 -7.324406504631042480e-01 9.000000000000000000e+00
9.732006788253784180e-01 -3.678217649459838867e+00 -7.395756840705871582e-01 9.000000000000000000e+00
1.223658919334412065e+00 -4.631362915039063388e+00 -7.587071657180786133e-01 8.000000000000000000e+00
7.477580070495604581e+00 -2.832151794433594105e+01 3.596608161926269975e+00 1.400000000000000000e+01
1.734466075897217019e+00 -6.573981285095214844e+00 -8.348050117492675781e-01 3.000000000000000000e+00
2.374105691909790039e+00 -9.004717826843261719e+00 -8.147318959236145020e-01 1.000000000000000000e+00
6.657869815826416016e+00 -2.528836059570312855e+01 -1.370469331741333008e+00 1.200000000000000000e+01
6.854943633079528809e-01 -2.622269868850708008e+00 -7.262462377548217773e-01 1.200000000000000000e+01
8.032785654067993164e-01 -3.077227830886840820e+00 -7.342402338981628418e-01 1.000000000000000000e+01
9.618420004844665527e-01 -3.687291383743286133e+00 -7.407205104827880859e-01 1.000000000000000000e+01
7.267976760864257812e+00 -2.788224220275878906e+01 2.520892620086669922e+00 2.600000000000000000e+01
1.207484960556030051e+00 -4.635606288909912109e+00 -7.587071657180786133e-01 8.000000000000000000e+00
7.385674476623535156e+00 -2.837434196472167969e+01 3.600020408630371094e+00 1.400000000000000000e+01
1.718503952026366965e+00 -6.606891632080078125e+00 -8.382173180580139160e-01 1.000000000000000000e+00
7.300909519195556641e+00 -2.808890914916991832e+01 4.596670150756835938e+00 1.200000000000000000e+01
2.319603204727172852e+00 -8.924247741699218750e+00 -8.067135810852050781e-01 3.000000000000000000e+00
6.576581001281738281e+00 -2.533851242065430043e+01 -1.371934771537780984e+00 1.200000000000000000e+01
6.749151945114135742e-01 -2.621023178100585938e+00 -7.252109646797180176e-01 1.200000000000000000e+01
7.939357757568359375e-01 -3.087700605392456055e+00 -7.360398769378662109e-01 9.000000000000000000e+00
9.473438262939453125e-01 -3.686988830566405806e+00 -7.399572730064392090e-01 9.000000000000000000e+00
7.190508842468261719e+00 -2.800518226623535156e+01 2.529608249664307085e+00 2.600000000000000000e+01
1.194413900375365989e+00 -4.655307769775390625e+00 -7.612100839614868164e-01 8.000000000000000000e+00
7.266837596893311435e+00 -2.834353446960448863e+01 3.592708349227904829e+00 1.400000000000000000e+01
1.697232961654663086e+00 -6.624683856964111328e+00 -8.396797776222229004e-01 1.000000000000000000e+00
7.266498565673828125e+00 -2.838339233398437855e+01 4.640471935272216797e+00 1.200000000000000000e+01
2.276501655578612837e+00 -8.892156600952148438e+00 -8.030530214309692383e-01 5.000000000000000000e+00
6.502463817596436435e+00 -2.543597793579101918e+01 -1.375912308692931907e+00 1.200000000000000000e+01
6.657620072364807129e-01 -2.623363018035889116e+00 -7.252109646797180176e-01 1.200000000000000000e+01
7.821954488754272461e-01 -3.086675167083739790e+00 -7.351400256156921387e-01 9.000000000000000000e+00
9.368777275085449219e-01 -3.699789285659790039e+00 -7.418653964996337891e-01 1.000000000000000000e+01
1.178156495094299094e+00 -4.659448623657226562e+00 -7.612100839614868164e-01 8.000000000000000000e+00
7.152294635772705078e+00 -2.830714035034180043e+01 3.584908723831177202e+00 1.400000000000000000e+01
1.680415511131287065e+00 -6.655589103698729581e+00 -8.428483605384826660e-01 3.000000000000000000e+00
7.112288475036621094e+00 -2.819023323059082031e+01 4.604804992675781250e+00 1.200000000000000000e+01
2.257633447647095171e+00 -8.948345184326171875e+00 -8.074107766151428223e-01 6.000000000000000000e+00
6.400950431823729581e+00 -2.540816497802734020e+01 -1.373190760612488015e+00 1.200000000000000000e+01
6.603500247001647949e-01 -2.640664100646973100e+00 -7.293520569801330566e-01 1.100000000000000000e+01
7.704719305038452148e-01 -3.085605382919311968e+00 -7.342402338981628418e-01 9.000000000000000000e+00
9.277595877647399902e-01 -3.718275785446166992e+00 -7.449183464050292969e-01 9.000000000000000000e+00
1.164750099182128906e+00 -4.675033569335938388e+00 -7.630873322486877441e-01 8.000000000000000000e+00
7.061113834381104404e+00 -2.836275482177734020e+01 3.588808536529541016e+00 1.400000000000000000e+01
1.652859807014465110e+00 -6.644076824188232422e+00 -8.406547307968139648e-01 3.000000000000000000e+00
7.057871818542479581e+00 -2.837085342407226918e+01 4.630460262298583984e+00 1.200000000000000000e+01
2.250897407531737837e+00 -9.054781913757324219e+00 -8.163006901741027832e-01 4.000000000000000000e+00
6.329541683197020596e+00 -2.550013732910155895e+01 -1.376958966255187988e+00 1.200000000000000000e+01
6.502041220664978027e-01 -2.639201641082764116e+00 -7.283167839050292969e-01 1.100000000000000000e+01
7.596964836120605469e-01 -3.088275909423828125e+00 -7.342402338981628418e-01 1.000000000000000000e+01
9.086825251579284668e-01 -3.696707010269165039e+00 -7.399572730064392090e-01 9.000000000000000000e+00
6.974791526794433594e+00 -2.839626502990723012e+01 2.558195352554320845e+00 2.600000000000000000e+01
1.149365901947021040e+00 -4.682907581329345703e+00 -7.637130618095397949e-01 8.000000000000000000e+00
1.629657626152039018e+00 -6.649806022644042969e+00 -8.406547307968139648e-01 1.000000000000000000e+00
2.231124162673950195e+00 -9.110963821411132812e+00 -8.206584453582763672e-01 4.000000000000000000e+00
6.223413467407226562e+00 -2.545223236083984020e+01 -1.373190760612488015e+00 1.200000000000000000e+01
6.405368447303771973e-01 -2.637588739395142046e+00 -7.272815108299255371e-01 1.100000000000000000e+01
7.503696680068969727e-01 -3.094565868377685991e+00 -7.351400256156921387e-01 1.000000000000000000e+01
8.982680439949035645e-01 -3.707332134246826172e+00 -7.414837479591369629e-01 1.000000000000000000e+01
1.137081861495971902e+00 -4.700133323669433594e+00 -7.659031152725219727e-01 9.000000000000000000e+00
1.608063220977782981e+00 -6.657103061676025391e+00 -8.408984541893005371e-01 3.000000000000000000e+00
6.891152858734130859e+00 -2.855001068115234020e+01 4.651735305786132812e+00 1.200000000000000000e+01
2.295329809188843218e+00 -9.509539604187011719e+00 -8.558694124221801758e-01 1.000000000000000000e+00
6.153015136718750000e+00 -2.553097915649414062e+01 -1.376330971717834029e+00 1.200000000000000000e+01
6.295286417007446289e-01 -2.632292985916138139e+00 -7.252109646797180176e-01 1.400000000000000000e+01
7.409208416938781738e-01 -3.102852821350098100e+00 -7.364897727966308594e-01 1.000000000000000000e+01
8.880554437637329102e-01 -3.721903085708618164e+00 -7.437734603881835938e-01 1.000000000000000000e+01
1.120210647583008035e+00 -4.702152252197265625e+00 -7.655902504920959473e-01 9.000000000000000000e+00
1.589868783950806108e+00 -6.683918952941895419e+00 -8.435795903205871582e-01 1.000000000000000000e+00
2.269032239913939986e+00 -9.546569824218750000e+00 -8.584840893745422363e-01 5.000000000000000000e+00
6.059246063232421875e+00 -2.553286933898926137e+01 -1.375284314155579057e+00 1.200000000000000000e+01
6.221075057983398438e-01 -2.641996145248413086e+00 -7.272815108299255371e-01 1.200000000000000000e+01
7.278554439544677734e-01 -3.095935106277465820e+00 -7.342402338981628418e-01 9.000000000000000000e+00
8.741601705551147461e-01 -3.721157789230347124e+00 -7.430102229118347168e-01 1.000000000000000000e+01
1.099279522895812988e+00 -4.686801910400390625e+00 -7.624616026878356934e-01 8.000000000000000000e+00
1.567433118820189986e+00 -6.693293571472167969e+00 -8.440670967102050781e-01 1.000000000000000000e+00
2.267017126083374023e+00 -9.688291549682617188e+00 -8.705115318298339844e-01 5.000000000000000000e+00
5.947363853454589844e+00 -2.545661926269530895e+01 -1.370050668716431108e+00 1.200000000000000000e+01
6.128814220428466797e-01 -2.644151687622069868e+00 -7.272815108299255371e-01 1.300000000000000000e+01
7.179228663444519043e-01 -3.102253913879394975e+00 -7.351400256156921387e-01 9.000000000000000000e+00
8.629348278045654297e-01 -3.731837749481201172e+00 -7.445366978645324707e-01 1.000000000000000000e+01
1.088245153427124023e+00 -4.713707447052001953e+00 -7.662159800529479980e-01 9.000000000000000000e+00
1.544951319694519043e+00 -6.702592849731445312e+00 -8.445545434951782227e-01 1.000000000000000000e+00
2.254201889038085938e+00 -9.787399291992187500e+00 -8.787041902542114258e-01 7.000000000000000000e+00
5.849515914916992188e+00 -2.543829536437987926e+01 -1.367957234382628950e+00 1.200000000000000000e+01
6.066554188728332520e-01 -2.659459114074707031e+00 -7.309049963951110840e-01 1.300000000000000000e+01
7.070896029472351074e-01 -3.104741096496582031e+00 -7.351400256156921387e-01 9.000000000000000000e+00
8.503386378288269043e-01 -3.736741542816162109e+00 -7.449183464050292969e-01 9.000000000000000000e+00
1.072222232818603960e+00 -4.719403743743895596e+00 -7.665289044380187988e-01 7.000000000000000000e+00
1.518032550811768022e+00 -6.692457675933837891e+00 -8.426046371459960938e-01 1.000000000000000000e+00
2.232795238494873047e+00 -9.851557731628417969e+00 -8.837592601776123047e-01 7.000000000000000000e+00
5.765091896057128906e+00 -2.547803878784180043e+01 -1.369003891944885032e+00 1.200000000000000000e+01
5.969454050064086914e-01 -2.659675598144530806e+00 -7.303873300552368164e-01 1.400000000000000000e+01
6.983782649040222168e-01 -3.116698265075684038e+00 -7.373895645141601562e-01 1.100000000000000000e+01
8.347161412239074707e-01 -3.728192090988159180e+00 -7.426286339759826660e-01 9.000000000000000000e+00
1.057896494865417036e+00 -4.732757091522216797e+00 -7.680932283401489258e-01 9.000000000000000000e+00
1.501579999923706055e+00 -6.728714942932128906e+00 -8.465044498443603516e-01 1.000000000000000000e+00
2.227011442184447798e+00 -9.987637519836425781e+00 -8.952637910842895508e-01 4.000000000000000000e+00
5.650082588195800781e+00 -2.538103675842285156e+01 -1.362723588943481001e+00 1.200000000000000000e+01
5.839093923568725586e-01 -2.644765377044678178e+00 -7.257286310195922852e-01 1.500000000000000000e+01
6.891725063323974609e-01 -3.126729488372803178e+00 -7.391891479492187500e-01 1.100000000000000000e+01
8.225417733192443848e-01 -3.734917640686035156e+00 -7.433918714523315430e-01 9.000000000000000000e+00
1.040521264076232910e+00 -4.732562065124511719e+00 -7.674674987792968750e-01 9.000000000000000000e+00
1.482339262962341087e+00 -6.753304481506347656e+00 -8.489418625831604004e-01 1.000000000000000000e+00
2.228840827941894975e+00 -1.016271781921387074e+01 -9.102545976638793945e-01 2.000000000000000000e+00
5.534111976623535156e+00 -2.527573776245116832e+01 -1.356024622917175071e+00 1.200000000000000000e+01
9.929895401000976562e+00 -4.542832183837891336e+01 -8.116765022277832031e-01 1.200000000000000000e+01
5.759035944938659668e-01 -2.652451038360596147e+00 -7.272815108299255371e-01 1.300000000000000000e+01
6.782540082931518555e-01 -3.129116058349608931e+00 -7.391891479492187500e-01 1.100000000000000000e+01
8.124083280563354492e-01 -3.751197576522827148e+00 -7.460631728172302246e-01 1.000000000000000000e+01
1.022325396537780984e+00 -4.728442192077636719e+00 -7.662159800529479980e-01 9.000000000000000000e+00
1.455406188964843972e+00 -6.742914676666259766e+00 -8.469919562339782715e-01 1.000000000000000000e+00
5.443327426910400391e+00 -2.528318595886230113e+01 -1.355396628379821999e+00 1.200000000000000000e+01
9.771261215209960938e+00 -4.546270751953125000e+01 -8.116765022277832031e-01 1.200000000000000000e+01
5.686578154563903809e-01 -2.663891553878784180e+00 -7.298697233200073242e-01 1.300000000000000000e+01
6.640779376029968262e-01 -3.116216897964477983e+00 -7.355899214744567871e-01 1.100000000000000000e+01
8.009446859359741211e-01 -3.761691331863402876e+00 -7.475896477699279785e-01 1.100000000000000000e+01
1.005813837051392046e+00 -4.731982231140136719e+00 -7.662159800529479980e-01 9.000000000000000000e+00
1.434332370758057085e+00 -6.759604930877686435e+00 -8.484543561935424805e-01 1.000000000000000000e+00
2.171887397766112837e+00 -1.024429893493651988e+01 -9.161811470985412598e-01 2.000000000000000000e+00
5.350903987884520596e+00 -2.528249359130859020e+01 -1.354349851608275923e+00 1.200000000000000000e+01
3.582130074501038153e-01 -1.695442438125609907e+00 4.643213748931884766e-01 3.000000000000000000e+00
5.605457425117492676e-01 -2.671532392501831055e+00 -7.314226031303405762e-01 1.300000000000000000e+01
6.547942757606506348e-01 -3.126145362854003906e+00 -7.373895645141601562e-01 1.100000000000000000e+01
7.886133193969726562e-01 -3.768307447433472124e+00 -7.483528852462768555e-01 1.000000000000000000e+01
9.925217032432556152e-01 -4.750933170318604404e+00 -7.687189579010009766e-01 9.000000000000000000e+00
1.413970351219177024e+00 -6.780117034912109375e+00 -8.504042625427246094e-01 1.000000000000000000e+00
2.146681547164916992e+00 -1.030253124237061080e+01 -9.207132458686828613e-01 2.000000000000000000e+00
5.269126892089843750e+00 -2.533230400085448863e+01 -1.356024622917175071e+00 1.200000000000000000e+01
3.516041040420532227e-01 -1.694852352142333984e+00 4.638037383556365967e-01 2.200000000000000000e+01
5.496565103530883789e-01 -2.665904521942139116e+00 -7.293520569801330566e-01 1.100000000000000000e+01
6.462351083755493164e-01 -3.139864444732666016e+00 -7.400889396667480469e-01 1.100000000000000000e+01
7.726866006851196289e-01 -3.757576227188109907e+00 -7.456815242767333984e-01 1.000000000000000000e+01
9.767261743545532227e-01 -4.758238792419433594e+00 -7.693446874618530273e-01 9.000000000000000000e+00
1.382325172424315962e+00 -6.746117591857910156e+00 -8.455294966697692871e-01 1.000000000000000000e+00
5.206261634826660156e+00 -2.547577857971191051e+01 -1.362723588943481001e+00 1.200000000000000000e+01
3.436649739742279053e-01 -1.684651851654052956e+00 4.606978893280028742e-01 3.300000000000000000e+01
5.380464196205139160e-01 -2.656446695327758789e+00 -7.262462377548217773e-01 1.100000000000000000e+01
6.352709531784057617e-01 -3.142101049423218218e+00 -7.400889396667480469e-01 1.200000000000000000e+01
7.595655322074890137e-01 -3.760250329971313032e+00 -7.456815242767333984e-01 1.000000000000000000e+01
9.616726636886596680e-01 -4.769364833831787109e+00 -7.705961465835571289e-01 9.000000000000000000e+00
1.368168950080872026e+00 -6.797606945037841797e+00 -8.513792157173156738e-01 1.000000000000000000e+00
5.102366447448729581e+00 -2.541938400268555043e+01 -1.358746051788330078e+00 1.200000000000000000e+01
9.096263885498046875e+00 -4.539863204956054688e+01 -8.081860542297363281e-01 1.200000000000000000e+01
3.325585126876831055e-01 -1.661274671554564986e+00 4.539686143398284912e-01 3.900000000000000000e+01
5.299010872840881348e-01 -2.663992643356322798e+00 -7.277991771697998047e-01 1.200000000000000000e+01
6.250581741333007812e-01 -3.148122310638428178e+00 -7.409887909889221191e-01 1.000000000000000000e+01
7.487272024154663086e-01 -3.774433374404906782e+00 -7.479712367057800293e-01 9.000000000000000000e+00
9.434838891029357910e-01 -4.764941692352294922e+00 -7.693446874618530273e-01 9.000000000000000000e+00
1.348281502723694070e+00 -6.821815967559813565e+00 -8.538166284561157227e-01 1.000000000000000000e+00
5.055317878723145419e+00 -2.564867210388183949e+01 -1.370050668716431108e+00 1.200000000000000000e+01
8.911488533020019531e+00 -4.529668426513671875e+01 -8.058125376701354980e-01 1.200000000000000000e+01
3.259289562702178955e-01 -1.656681776046752930e+00 4.524157047271729071e-01 4.100000000000000000e+01
5.224501490592956543e-01 -2.675306320190430132e+00 -7.303873300552368164e-01 1.200000000000000000e+01
6.133196949958801270e-01 -3.146459579467772993e+00 -7.400889396667480469e-01 1.000000000000000000e+01
7.370485067367553711e-01 -3.784732103347777876e+00 -7.494977116584777832e-01 9.000000000000000000e+00
9.264684915542602539e-01 -4.766267299652099609e+00 -7.690318226814270020e-01 9.000000000000000000e+00
1.316142559051513894e+00 -6.783607959747313565e+00 -8.484543561935424805e-01 1.000000000000000000e+00
3.205866515636444092e-01 -1.661658883094788042e+00 4.534509778022766113e-01 4.500000000000000000e+01
5.134720802307128906e-01 -2.679011106491088867e+00 -7.309049963951110840e-01 1.300000000000000000e+01
6.016004085540771484e-01 -3.144753217697143999e+00 -7.391891479492187500e-01 1.100000000000000000e+01
7.216215133666992188e-01 -3.775711774826049805e+00 -7.472079992294311523e-01 1.000000000000000000e+01
9.131568074226379395e-01 -4.786935329437255859e+00 -7.718476653099060059e-01 9.000000000000000000e+00
1.291712760925292969e+00 -6.784260749816895419e+00 -8.479669094085693359e-01 1.000000000000000000e+00
4.826214313507080078e+00 -2.542040443420410156e+01 -1.356024622917175071e+00 1.200000000000000000e+01
3.125569224357604980e-01 -1.649426341056823953e+00 4.498274922370911200e-01 4.900000000000000000e+01
5.034033656120300293e-01 -2.676990032196044922e+00 -7.298697233200073242e-01 1.400000000000000000e+01
5.938547849655151367e-01 -3.164071559906005859e+00 -7.432382702827453613e-01 1.300000000000000000e+01
7.095229029655456543e-01 -3.783996343612670898e+00 -7.483528852462768555e-01 1.000000000000000000e+01
8.982585668563842773e-01 -4.799802303314208984e+00 -7.734119892120361328e-01 7.000000000000000000e+00
1.271668195724487083e+00 -6.808241844177246094e+00 -8.504042625427246094e-01 1.000000000000000000e+00
4.698688507080078125e+00 -2.522896575927734020e+01 -1.344929456710814986e+00 1.100000000000000000e+01
3.047457933425902765e-01 -1.641063928604125977e+00 4.472393095493317206e-01 5.100000000000000000e+01
4.949908852577208918e-01 -2.678558349609375000e+00 -7.298697233200073242e-01 1.400000000000000000e+01
5.835582017898559570e-01 -3.164005279541016069e+00 -7.427883744239807129e-01 1.000000000000000000e+01
6.972758769989013672e-01 -3.784276008605957031e+00 -7.479712367057800293e-01 1.000000000000000000e+01
8.810315132141113281e-01 -4.790943622589111328e+00 -7.715348005294799805e-01 9.000000000000000000e+00
1.252423286437988059e+00 -6.823918342590332031e+00 -8.518667221069335938e-01 1.000000000000000000e+00
4.644572734832763672e+00 -2.538112640380859020e+01 -1.352256417274475098e+00 1.200000000000000000e+01
2.957103848457335871e-01 -1.619156002998352051e+00 4.410276412963867188e-01 5.600000000000000000e+01
4.846046864986420233e-01 -2.674566984176636186e+00 -7.283167839050292969e-01 1.400000000000000000e+01
5.721634626388549805e-01 -3.164105415344237837e+00 -7.423384785652160645e-01 9.000000000000000000e+00
6.861561536788940430e-01 -3.798278808593750000e+00 -7.502609491348266602e-01 9.000000000000000000e+00
8.636016249656677246e-01 -4.790102005004882812e+00 -7.709090709686279297e-01 7.000000000000000000e+00
1.231407999992371050e+00 -6.843878269195556641e+00 -8.538166284561157227e-01 1.000000000000000000e+00
4.550305366516113281e+00 -2.536573028564453125e+01 -1.350581645965575950e+00 1.200000000000000000e+01
2.907375693321228027e-01 -1.623981595039367898e+00 4.420629143714904785e-01 7.200000000000000000e+01
4.761484861373900812e-01 -2.683933973312377930e+00 -7.303873300552368164e-01 1.200000000000000000e+01
5.568255186080932617e-01 -3.145073175430297852e+00 -7.373895645141601562e-01 1.100000000000000000e+01
6.739397644996643066e-01 -3.810434579849243164e+00 -7.521690726280212402e-01 1.000000000000000000e+01
8.477560281753540039e-01 -4.802961349487304688e+00 -7.724733948707580566e-01 9.000000000000000000e+00
1.198050856590270996e+00 -6.801425457000732422e+00 -8.479669094085693359e-01 1.000000000000000000e+00
4.462831497192382812e+00 -2.541371154785155895e+01 -1.352256417274475098e+00 1.200000000000000000e+01
2.824491262435913086e-01 -1.611716270446776900e+00 4.384394586086273193e-01 8.200000000000000000e+01
4.671077132225037176e-01 -2.687482833862305132e+00 -7.309049963951110840e-01 6.000000000000000000e+00
5.485080480575561523e-01 -3.162358283996582031e+00 -7.409887909889221191e-01 1.000000000000000000e+01
6.576181650161743164e-01 -3.795353889465332031e+00 -7.487344741821289062e-01 9.000000000000000000e+00
8.306488394737243652e-01 -4.803945064544677734e+00 -7.721605300903320312e-01 7.000000000000000000e+00
1.182403206825255904e+00 -6.852514743804931641e+00 -8.538166284561157227e-01 1.000000000000000000e+00
4.357165336608886719e+00 -2.533071899414062855e+01 -1.347022891044616921e+00 1.100000000000000000e+01
2.798049151897429865e-01 -1.631781339645385964e+00 4.436158537864685059e-01 1.000000000000000000e+02
4.762013256549835205e-01 -2.797651290893555132e+00 -7.604103684425354004e-01 1.000000000000000000e+00
5.374659895896911621e-01 -3.164253711700439009e+00 -7.409887909889221191e-01 1.000000000000000000e+01
6.427237987518310547e-01 -3.787948369979857954e+00 -7.468264102935791016e-01 1.000000000000000000e+01
8.151940107345581055e-01 -4.814605712890625000e+00 -7.734119892120361328e-01 7.000000000000000000e+00
1.157153367996216042e+00 -6.848770618438720703e+00 -8.528416752815246582e-01 1.000000000000000000e+00
4.285303115844726562e+00 -2.544425010681151988e+01 -1.352256417274475098e+00 1.200000000000000000e+01
2.731114923954010010e-01 -1.625079631805419922e+00 4.415452778339385986e-01 9.700000000000000000e+01
5.257781744003295898e-01 -3.162266016006470171e+00 -7.400889396667480469e-01 1.000000000000000000e+01
6.307840943336486816e-01 -3.797915697097777876e+00 -7.483528852462768555e-01 1.000000000000000000e+01
7.990288734436035156e-01 -4.821319580078125000e+00 -7.740377187728881836e-01 7.000000000000000000e+00
1.132591843605041948e+00 -6.848851203918457031e+00 -8.523541688919067383e-01 1.000000000000000000e+00
2.674372494220734198e-01 -1.626023054122925027e+00 4.415452778339385986e-01 8.400000000000000000e+01
5.148094892501831055e-01 -3.168018817901610884e+00 -7.409887909889221191e-01 1.100000000000000000e+01
6.200054883956909180e-01 -3.819581031799315962e+00 -7.521690726280212402e-01 1.000000000000000000e+01
2.818977236747742254e-01 -1.738566517829895020e+00 1.540913581848145086e-01 2.000000000000000000e+00
7.807208299636840820e-01 -4.820315837860107422e+00 -7.734119892120361328e-01 7.000000000000000000e+00
1.108115434646606001e+00 -6.856875896453857422e+00 -8.528416752815246582e-01 1.000000000000000000e+00
2.559581100940703791e-01 -1.592659592628479004e+00 4.322278201580048163e-01 5.200000000000000000e+01
5.025244951248168945e-01 -3.162098169326781782e+00 -7.391891479492187500e-01 8.000000000000000000e+00
2.858865261077880859e-01 -1.800947546958922896e+00 9.556545317173004150e-02 1.000000000000000000e+00
6.063610911369323730e-01 -3.819782972335814986e+00 -7.517874240875244141e-01 9.000000000000000000e+00
2.758272886276245117e-01 -1.739539980888366921e+00 1.540913581848145086e-01 2.500000000000000000e+01
7.638900279998779297e-01 -4.823011875152587891e+00 -7.734119892120361328e-01 4.000000000000000000e+00
2.711101174354553223e-01 -1.713657617568969949e+00 2.130276113748550137e-01 1.000000000000000000e+00
1.082314610481261985e+00 -6.848937511444091797e+00 -8.513792157173156738e-01 1.000000000000000000e+00
2.765798568725585938e-01 -1.752193808555603027e+00 2.809562981128693182e-01 1.000000000000000000e+00
2.795161008834838867e-01 -1.776836037635803001e+00 4.152596592903137207e-01 1.000000000000000000e+00
2.516167163848876953e-01 -1.603129506111145020e+00 4.348160028457642157e-01 6.600000000000000000e+01
2.688856422901154120e-01 -1.726926088333130105e+00 3.050680644810200084e-02 2.000000000000000000e+00
2.740886807441710871e-01 -1.762366175651550071e+00 9.347201883792877197e-02 2.100000000000000000e+01
5.936908721923828125e-01 -3.821772813796997070e+00 -7.517874240875244141e-01 1.000000000000000000e+00
2.676132917404174805e-01 -1.724694371223449929e+00 1.526968628168106079e-01 4.200000000000000000e+01
2.660333216190338135e-01 -1.718470692634582964e+00 2.135150879621506015e-01 1.000000000000000000e+01
1.059596657752990945e+00 -6.852488994598388672e+00 -8.513792157173156738e-01 1.000000000000000000e+00
2.671495676040648859e-01 -1.729674577713012917e+00 2.772018611431121826e-01 1.100000000000000000e+01
2.649107873439788818e-01 -1.717166066169738992e+00 3.377319276332855225e-01 1.000000000000000000e+00
2.647289037704467773e-01 -1.719971299171447976e+00 4.017625749111176092e-01 8.000000000000000000e+00
2.686082422733306885e-01 -1.747203946113585982e+00 -3.085585497319697987e-02 9.000000000000000000e+00
2.501016855239868164e-01 -1.626825094223022017e+00 4.410276412963867188e-01 7.200000000000000000e+01
2.619536519050598145e-01 -1.721923351287842019e+00 3.040209226310253143e-02 2.300000000000000000e+01
2.707943320274353027e-01 -1.782128453254699929e+00 -4.161594510078430176e-01 7.000000000000000000e+00
2.622344493865966797e-01 -1.725794911384582964e+00 9.148325026035308838e-02 3.100000000000000000e+01
2.559175789356232245e-01 -1.688190221786499023e+00 1.493849456310271939e-01 4.700000000000000000e+01
2.594394385814666748e-01 -1.715463280677794966e+00 2.130276113748550137e-01 2.700000000000000000e+01
2.578684687614440918e-01 -1.709110617637634055e+00 2.737603187561035156e-01 3.300000000000000000e+01
2.580374479293823242e-01 -1.712256312370300071e+00 3.365870714187622070e-01 1.400000000000000000e+01
2.666620314121245783e-01 -1.771584630012511985e+00 -9.389070421457290649e-02 7.000000000000000000e+00
2.572748661041259766e-01 -1.711249470710753950e+00 3.995130658149719238e-01 2.100000000000000000e+01
2.607260048389434814e-01 -1.736265778541564941e+00 -3.064642660319805145e-02 4.600000000000000000e+01
2.432739436626434049e-01 -1.620046377182007058e+00 4.389570951461791992e-01 6.600000000000000000e+01
2.530059814453125000e-01 -1.701025247573852983e+00 3.001813963055611004e-02 4.200000000000000000e+01
2.648831009864807129e-01 -1.783016562461853027e+00 -4.161594510078430176e-01 4.000000000000000000e+01
2.532772719860076904e-01 -1.706943392753601074e+00 9.043653309345245361e-02 4.800000000000000000e+01
2.613556683063507080e-01 -1.761387228965759055e+00 -3.461275100708007812e-01 7.000000000000000000e+00
2.476891428232192993e-01 -1.671291828155518022e+00 1.478161364793776911e-01 4.800000000000000000e+01
2.617722749710083008e-01 -1.768446564674376997e+00 -2.831463813781737726e-01 3.000000000000000000e+00
2.514266669750214178e-01 -1.700604200363158958e+00 2.110777050256729126e-01 3.800000000000000000e+01
2.522093057632445734e-01 -1.707958102226257102e+00 2.734474539756774902e-01 4.900000000000000000e+01
2.483523041009902954e-01 -1.685910463333130105e+00 3.312444090843201239e-01 3.100000000000000000e+01
2.625301480293273926e-01 -1.784314990043639915e+00 -9.451873600482940674e-02 3.900000000000000000e+01
2.479154169559479037e-01 -1.687028884887695090e+00 3.936643302440642755e-01 3.200000000000000000e+01
2.549669146537780762e-01 -1.737120747566222922e+00 -3.064642660319805145e-02 4.600000000000000000e+01
2.345351427793503085e-01 -1.599860072135925071e+00 4.332630932331085205e-01 6.100000000000000000e+01
2.441938966512680054e-01 -1.682108521461487038e+00 2.966909110546112061e-02 4.700000000000000000e+01
2.567001879215239923e-01 -1.770430326461791992e+00 -4.130101501941680908e-01 5.400000000000000000e+01
2.458958923816680908e-01 -1.695914387702941895e+00 8.980850130319595337e-02 5.400000000000000000e+01
2.563311755657196045e-01 -1.770060777664185014e+00 -3.476539850234984796e-01 3.500000000000000000e+01
2.418537437915802002e-01 -1.672146320343018022e+00 1.478161364793776911e-01 5.500000000000000000e+01
2.522085011005402166e-01 -1.745888590812683105e+00 -2.793919444084166925e-01 4.300000000000000000e+01
2.437880784273148138e-01 -1.689683079719543013e+00 2.096152752637862882e-01 4.800000000000000000e+01
2.431335896253586093e-01 -1.689318776130676047e+00 2.703187465667725164e-01 5.000000000000000000e+01
2.402311563491821012e-01 -1.671220898628235085e+00 3.281914591789246161e-01 4.500000000000000000e+01
2.551648020744323730e-01 -1.777312636375427024e+00 -9.410005062818527222e-02 4.800000000000000000e+01
2.389824837446213046e-01 -1.666664838790893999e+00 3.887154161930084229e-01 3.000000000000000000e+01
2.469172626733779907e-01 -1.724143743515015093e+00 -3.040209226310253143e-02 4.900000000000000000e+01
2.284020930528641025e-01 -1.596844315528870073e+00 4.322278201580048163e-01 6.200000000000000000e+01
1.034539341926574985e-01 -7.287287116050720215e-01 -1.972201168537139893e-01 7.000000000000000000e+00
2.374915778636932095e-01 -1.674989461898803933e+00 2.952947095036507000e-02 4.700000000000000000e+01
2.472757846117019931e-01 -1.746188521385193093e+00 -4.071614146232604980e-01 5.800000000000000000e+01
2.380303889513016025e-01 -1.680900216102600098e+00 8.897112309932708740e-02 5.400000000000000000e+01
2.510098814964293878e-01 -1.774788856506348100e+00 -3.484172224998474121e-01 4.800000000000000000e+01
2.360287159681319913e-01 -1.670966267585753950e+00 1.476418226957320889e-01 5.600000000000000000e+01
2.453137785196304044e-01 -1.738891363143920898e+00 -2.781404852867125910e-01 6.400000000000000000e+01
2.356909364461899081e-01 -1.672791123390197976e+00 2.074216157197951993e-01 5.900000000000000000e+01
2.558684349060059149e-01 -1.818295836448668990e+00 -2.254582792520523071e-01 1.000000000000000000e+00
2.381005138158797940e-01 -1.692030310630797896e+00 2.706316113471984863e-01 5.300000000000000000e+01
2.338691949844360074e-01 -1.666175723075866921e+00 3.270466327667235773e-01 6.100000000000000000e+01
2.448332309722900113e-01 -1.746502280235290971e+00 -9.242530167102813721e-02 4.900000000000000000e+01
2.291310727596282959e-01 -1.636569499969481978e+00 3.815169930458068848e-01 3.600000000000000000e+01
2.409215122461318970e-01 -1.722972631454467995e+00 -3.036718629300593983e-02 4.500000000000000000e+01
2.220367491245270053e-01 -1.589939713478087935e+00 4.301572442054749090e-01 6.100000000000000000e+01
1.014392822980881015e-01 -7.329126000404357910e-01 -1.982553899288176935e-01 2.700000000000000000e+01
2.319171428680419922e-01 -1.677789092063904031e+00 2.956437692046165119e-02 5.000000000000000000e+01
2.393134683370589932e-01 -1.733528017997741921e+00 -4.040120840072631836e-01 5.600000000000000000e+01
2.291570603847503940e-01 -1.659957408905029075e+00 8.781973272562026978e-02 5.700000000000000000e+01
2.410592138767241877e-01 -1.748426198959351030e+00 -3.430745601654052734e-01 4.700000000000000000e+01
2.288356274366379062e-01 -1.661911129951477051e+00 1.467702686786651889e-01 5.900000000000000000e+01
2.389733046293258945e-01 -1.737780094146728960e+00 -2.778276205062866211e-01 8.000000000000000000e+01
2.298503667116164884e-01 -1.673603653907776101e+00 2.074216157197951993e-01 6.700000000000000000e+01
2.441248297691344937e-01 -1.779844403266906960e+00 -2.205835133790970126e-01 1.300000000000000000e+01
2.289716005325317105e-01 -1.669366478919982910e+00 2.668772041797637939e-01 5.200000000000000000e+01
2.347057014703750888e-01 -1.713393330574036089e+00 -1.513023674488067905e-01 3.000000000000000000e+00
2.259228974580765048e-01 -1.651420831680298074e+00 3.239936828613281250e-01 6.500000000000000000e+01
2.371131032705307007e-01 -1.735473036766052024e+00 -9.179726988077163696e-02 3.600000000000000000e+01
2.194650322198868075e-01 -1.608396649360656960e+00 3.747684657573699951e-01 4.900000000000000000e+01
2.316656708717345914e-01 -1.700026512145996094e+00 -2.994832955300807953e-02 4.500000000000000000e+01
2.164854705333709994e-01 -1.590705156326293945e+00 4.301572442054749090e-01 8.200000000000000000e+01
2.260055989027023038e-01 -1.682631015777587891e+00 2.963418699800968170e-02 5.200000000000000000e+01
2.347281128168106079e-01 -1.749885678291321023e+00 -4.076113104820250910e-01 6.700000000000000000e+01
2.227816134691238126e-01 -1.660825133323668990e+00 8.781973272562026978e-02 6.100000000000000000e+01
2.314765900373458862e-01 -1.727934360504149947e+00 -3.388767838478087824e-01 4.800000000000000000e+01
2.211316972970963080e-01 -1.652903556823730025e+00 1.458987146615982056e-01 6.400000000000000000e+01
2.322989553213120062e-01 -1.738684892654418945e+00 -2.778276205062866211e-01 8.800000000000000000e+01
2.221098095178604126e-01 -1.664635539054871050e+00 2.062029242515563965e-01 7.000000000000000000e+01
2.315205782651900968e-01 -1.737479209899901900e+00 -2.152212560176849088e-01 2.500000000000000000e+01
2.215163707733154019e-01 -1.662401080131530984e+00 2.656257152557373047e-01 5.500000000000000000e+01
2.257596701383590976e-01 -1.696507096290587935e+00 -1.497335731983185092e-01 3.200000000000000000e+01
2.195802479982376099e-01 -1.652276158332824929e+00 3.239936828613281250e-01 6.500000000000000000e+01
2.262433469295501987e-01 -1.704692363739013894e+00 -9.012251347303390503e-02 4.000000000000000000e+01
2.127755433320998868e-01 -1.605363726615905984e+00 3.738686442375183105e-01 5.100000000000000000e+01
2.232995629310607910e-01 -1.687026619911194070e+00 -2.970399521291255951e-02 5.400000000000000000e+01
2.101467996835708896e-01 -1.587657570838928001e+00 4.291219711303710938e-01 9.000000000000000000e+01
2.172786444425582886e-01 -1.661598801612854004e+00 2.925023250281811107e-02 5.500000000000000000e+01
2.293754518032073975e-01 -1.756491303443908913e+00 -4.089610278606414795e-01 6.500000000000000000e+01
2.167242765426636020e-01 -1.659612178802490012e+00 8.771505951881408691e-02 6.800000000000000000e+01
2.251896709203720093e-01 -1.726785063743591087e+00 -3.384951651096343994e-01 6.500000000000000000e+01
2.138168364763259888e-01 -1.641811251640320046e+00 1.448528468608855924e-01 7.100000000000000000e+01
2.259736359119415006e-01 -1.737526297569274902e+00 -2.775147557258605957e-01 9.500000000000000000e+01
2.162977904081344882e-01 -1.665400743484497070e+00 2.062029242515563965e-01 7.000000000000000000e+01
2.200923562049866000e-01 -1.696936130523682085e+00 -2.101027518510817926e-01 5.000000000000000000e+01
2.149499207735061923e-01 -1.657287359237670898e+00 2.646871209144591730e-01 6.300000000000000000e+01
2.190686166286469061e-01 -1.691357135772705078e+00 -1.492106318473815918e-01 6.500000000000000000e+01
2.135595530271529874e-01 -1.651085615158081055e+00 3.236120641231536865e-01 7.200000000000000000e+01
2.169653624296188077e-01 -1.679721236228943093e+00 -8.876178413629531860e-02 4.900000000000000000e+01
2.064225673675537109e-01 -1.600298523902893066e+00 3.725189566612244207e-01 5.600000000000000000e+01
2.174093872308731079e-01 -1.687795877456665039e+00 -2.970399521291255951e-02 5.400000000000000000e+01
2.040798515081405917e-01 -1.586501121520996094e+00 4.286043345928192139e-01 9.500000000000000000e+01
2.104678153991698941e-01 -1.654412269592284934e+00 2.911061421036719929e-02 6.000000000000000000e+01
2.222603857517241877e-01 -1.749548435211182085e+00 -4.071614146232604980e-01 7.100000000000000000e+01
2.108913958072662076e-01 -1.662376761436461958e+00 8.781973272562026978e-02 7.000000000000000000e+01
2.196548581123352051e-01 -1.731455922126770020e+00 -3.392584025859832764e-01 7.200000000000000000e+01
2.070829421281815130e-01 -1.634641170501708984e+00 1.441555917263031006e-01 7.800000000000000000e+01
2.186675518751144132e-01 -1.728505730628967063e+00 -2.759504020214080811e-01 8.600000000000000000e+01
2.092391550540924072e-01 -1.656298398971558061e+00 2.049842327833175937e-01 7.400000000000000000e+01
2.149129658937453946e-01 -1.703602552413939986e+00 -2.108339667320250910e-01 6.000000000000000000e+01
2.096580713987349909e-01 -1.661947250366210938e+00 2.653128504753112793e-01 7.200000000000000000e+01
2.126653045415878018e-01 -1.688158035278320090e+00 -1.488620042800903043e-01 8.700000000000000000e+01
