9.273136138916015625e+00 7.721679210662841797e-01 -4.876664280891417902e-01 1.000000000000000000e+00
3.910311889648438211e+01 3.249218702316284180e+00 9.058778762817382812e+00 1.200000000000000000e+01
1.693927955627441051e+01 1.404568672180176003e+00 -2.966909110546112061e-01 2.000000000000000000e+00
3.869741821289063211e+01 3.208706855773925781e+00 1.040452575683593928e+01 8.000000000000000000e+00
2.092981100082397017e+00 1.706034094095230103e-01 -5.626726150512695312e-01 1.900000000000000000e+01
5.954426193237304688e+01 4.843120098114013672e+00 1.042781233787537065e+00 6.300000000000000000e+01
2.140473365783690962e+00 1.737224906682967862e-01 -4.957921206951140802e-01 1.000000000000000000e+00
3.132913351058959961e+00 2.537193000316619873e-01 -6.109703779220581055e-01 1.200000000000000000e+01
3.780453205108643022e+00 3.048321306705474854e-01 -6.007083654403686523e-01 1.100000000000000000e+01
4.869644165039063388e+00 3.909468650817871094e-01 -5.998408794403076172e-01 1.100000000000000000e+01
6.230167865753173828e+00 4.990786314010620117e-01 -5.468151569366455078e-01 8.000000000000000000e+00
9.295684814453125000e+00 7.413817644119262695e-01 -4.887131452560424805e-01 1.000000000000000000e+00
3.884225845336914062e+01 3.091060638427733931e+00 8.995792388916015625e+00 1.200000000000000000e+01
1.700388145446776988e+01 1.350179553031920943e+00 -2.977380454540253241e-01 2.000000000000000000e+00
3.859336853027343750e+01 3.057697296142578125e+00 1.037346744537354049e+01 8.000000000000000000e+00
2.056913852691649947e+00 1.611602008342742920e-01 -5.528374910354614258e-01 1.500000000000000000e+01
2.113808870315552202e+00 1.648755967617034912e-01 -4.894934892654418945e-01 1.000000000000000000e+00
3.145438909530640093e+00 2.447896897792815885e-01 -6.132600903511047363e-01 1.700000000000000000e+01
3.777453422546387163e+00 2.926488518714904785e-01 -6.000826358795166016e-01 1.100000000000000000e+01
3.982126998901367188e+01 3.078062772750854048e+00 4.904022216796875000e+00 2.100000000000000000e+01
4.896578311920166016e+00 3.776308596134185791e-01 -6.030095219612121582e-01 9.000000000000000000e+00
6.241637229919433594e+00 4.802678227424622137e-01 -5.476866960525512695e-01 9.000000000000000000e+00
9.301950454711914062e+00 7.124800086021423340e-01 -4.889225065708159845e-01 1.000000000000000000e+00
4.383770751953125000e+01 3.350039482116699219e+00 1.015024185180664062e+01 1.300000000000000000e+01
1.702399063110351918e+01 1.297969937324523926e+00 -2.980172932147979736e-01 2.000000000000000000e+00
3.863694381713867188e+01 2.945818901062012163e+00 1.038278484344482067e+01 8.000000000000000000e+00
2.038199186325072798e+00 1.525374948978424072e-01 -5.476611256599426270e-01 2.400000000000000000e+01
5.957507324218750000e+01 4.448103904724121094e+00 1.042781233787537065e+00 6.300000000000000000e+01
2.129918336868286133e+00 1.586540788412094116e-01 -4.930927157402039129e-01 1.000000000000000000e+00
3.148231983184814009e+00 2.339540570974349976e-01 -6.136417388916015625e-01 2.000000000000000000e+01
3.782391786575316939e+00 2.797527015209197998e-01 -6.007083654403686523e-01 1.100000000000000000e+01
4.907765388488770419e+00 3.612649440765380859e-01 -6.042281985282897949e-01 1.100000000000000000e+01
3.728557968139647727e+01 2.738081693649291992e+00 5.921357154846191406e+00 1.300000000000000000e+01
6.261159420013427734e+00 4.597907960414885919e-01 -5.492554903030395508e-01 7.000000000000000000e+00
9.328284263610839844e+00 6.817527413368225098e-01 -4.901785552501677912e-01 1.000000000000000000e+00
1.708824920654296875e+01 1.242889046669005904e+00 -2.990644276142119806e-01 2.000000000000000000e+00
2.083039045333861861e+00 1.485832631587981900e-01 -5.595667958259582520e-01 9.000000000000000000e+00
5.959023666381835938e+01 4.240120887756347656e+00 1.042781233787537065e+00 6.300000000000000000e+01
2.130459308624268022e+00 1.512183099985122958e-01 -4.930927157402039129e-01 1.000000000000000000e+00
3.160779714584351030e+00 2.237952053546906073e-01 -6.159314513206481934e-01 1.900000000000000000e+01
3.779404401779174805e+00 2.662703394889832098e-01 -6.000826358795166016e-01 1.100000000000000000e+01
3.958832168579102273e+01 2.782172203063964844e+00 4.872823715209960938e+00 2.100000000000000000e+01
4.891174316406250000e+00 3.428820967674254816e-01 -6.020345687866210938e-01 9.000000000000000000e+00
6.254776000976563388e+00 4.373765289783477783e-01 -5.485582351684570312e-01 7.000000000000000000e+00
9.318653106689453125e+00 6.483550667762756348e-01 -4.895505309104918878e-01 1.000000000000000000e+00
3.911651229858397727e+01 2.714712142944335938e+00 9.052480697631835938e+00 1.200000000000000000e+01
1.709248352050780895e+01 1.183232307434082031e+00 -2.990644276142119806e-01 2.000000000000000000e+00
4.120823287963867188e+01 2.852652311325072798e+00 1.106813716888427912e+01 1.000000000000000000e+01
2.112456560134888139e+00 1.432720422744750977e-01 -5.673313736915588379e-01 5.000000000000000000e+01
5.953285217285156250e+01 4.027227401733398438e+00 1.041524767875670943e+00 6.300000000000000000e+01
2.115419626235961914e+00 1.427312046289443970e-01 -4.894934892654418945e-01 1.000000000000000000e+00
3.151747465133666992e+00 2.121015489101409912e-01 -6.140233278274536133e-01 1.800000000000000000e+01
3.786223649978638139e+00 2.534719705581665039e-01 -6.010212302207946777e-01 1.700000000000000000e+01
4.884418487548828125e+00 3.252789974212645929e-01 -6.010596156120300293e-01 9.000000000000000000e+00
6.268192768096923828e+00 4.163329005241394043e-01 -5.496041178703308105e-01 6.000000000000000000e+00
9.360717773437500000e+00 6.184563040733337402e-01 -4.916439652442932129e-01 1.000000000000000000e+00
3.913741683959960938e+01 2.578922271728516069e+00 9.055179595947265625e+00 1.200000000000000000e+01
1.717632675170898082e+01 1.128806591033935991e+00 -3.004606366157531738e-01 2.000000000000000000e+00
3.909792327880858664e+01 2.562613248825072798e+00 1.049873542785645064e+01 9.000000000000000000e+00
2.107183694839477983e+00 1.351575702428818027e-01 -5.657784342765808105e-01 6.500000000000000000e+01
2.131486892700194868e+00 1.359693259000777921e-01 -4.930927157402039129e-01 1.000000000000000000e+00
3.146625757217406782e+00 2.001744657754898071e-01 -6.128785014152526855e-01 1.900000000000000000e+01
3.796984434127808061e+00 2.402166873216629028e-01 -6.025855541229248047e-01 1.900000000000000000e+01
3.951608657836914062e+01 2.493065595626831055e+00 4.861611843109130859e+00 2.100000000000000000e+01
4.889540195465087891e+00 3.076238036155701239e-01 -6.015470623970031738e-01 9.000000000000000000e+00
3.857001113891602273e+01 2.426619291305541992e+00 6.120967864990234375e+00 1.400000000000000000e+01
6.283595561981201172e+00 3.942293226718903143e-01 -5.508242845535278320e-01 6.000000000000000000e+00
9.382855415344238281e+00 5.853871107101440430e-01 -4.926906824111937921e-01 1.000000000000000000e+00
1.718034744262694957e+01 1.065844655036926047e+00 -3.004606366157531738e-01 2.000000000000000000e+00
4.148210525512695312e+01 2.573491573333739790e+00 1.113646602630615057e+01 1.000000000000000000e+01
2.099929332733153853e+00 1.273335814476012906e-01 -5.637078881263732910e-01 6.100000000000000000e+01
5.953219985961914062e+01 3.599430322647095171e+00 1.041036009788512962e+00 6.300000000000000000e+01
2.124167680740356001e+00 1.280591338872910101e-01 -4.912931025028228760e-01 1.000000000000000000e+00
3.159063816070557085e+00 1.898962855339050015e-01 -6.151682138442993164e-01 2.000000000000000000e+01
3.799771547317504883e+00 2.270791083574295044e-01 -6.028984189033508301e-01 1.700000000000000000e+01
4.894547462463378906e+00 2.907896935939788818e-01 -6.020345687866210938e-01 9.000000000000000000e+00
6.269022464752197266e+00 3.713505566120148260e-01 -5.494297742843627930e-01 7.000000000000000000e+00
9.424717903137207031e+00 5.549793839454650879e-01 -4.947841167449951172e-01 2.000000000000000000e+00
3.941944122314453125e+01 2.314330339431763139e+00 9.116366386413574219e+00 1.200000000000000000e+01
1.730373954772948863e+01 1.012878775596619096e+00 -3.025549054145812988e-01 2.000000000000000000e+00
2.109983682632445845e+00 1.209219321608542980e-01 -5.662960410118103027e-01 5.200000000000000000e+01
2.116798162460327148e+00 1.205711588263511935e-01 -4.894934892654418945e-01 1.000000000000000000e+00
5.952429199218750000e+01 3.380034208297729048e+00 3.124561309814453125e+00 6.300000000000000000e+01
3.161636114120482954e+00 1.795307099819183072e-01 -6.155498027801513672e-01 2.000000000000000000e+01
3.788670301437377930e+00 2.138095647096633911e-01 -6.010212302207946777e-01 1.600000000000000000e+01
4.917286872863770419e+00 2.757799327373505194e-01 -6.047157049179077148e-01 1.100000000000000000e+01
6.276187419891357422e+00 3.508933484554290771e-01 -5.499527454376220703e-01 9.000000000000000000e+00
1.735891723632812855e+01 9.583579301834106445e-01 -3.034624457359313965e-01 2.000000000000000000e+00
4.140221405029296875e+01 2.285749912261962891e+00 1.111058425903319957e+01 1.000000000000000000e+01
2.102676630020142046e+00 1.131407842040061951e-01 -5.642254948616027832e-01 4.000000000000000000e+01
2.066611289978026900e+00 1.104767173528670987e-01 -4.777960479259490967e-01 1.000000000000000000e+00
5.953572845458983664e+01 3.172235012054442915e+00 3.124561309814453125e+00 6.300000000000000000e+01
3.168124914169311968e+00 1.688068211078644076e-01 -6.166946887969970703e-01 2.200000000000000000e+01
3.801229238510131836e+00 2.012098282575607022e-01 -6.028984189033508301e-01 1.700000000000000000e+01
4.233475494384766336e+01 2.233489036560059038e+00 5.205283164978027344e+00 2.900000000000000000e+01
4.918219566345214844e+00 2.586137056350708008e-01 -6.047157049179077148e-01 1.100000000000000000e+01
6.283342838287354404e+00 3.292960524559020996e-01 -5.504756569862365723e-01 9.000000000000000000e+00
9.480134963989257812e+00 4.935146272182465155e-01 -4.975056052207946777e-01 2.000000000000000000e+00
1.737413978576660156e+01 8.983777165412902832e-01 -3.036718666553496759e-01 2.000000000000000000e+00
2.110794782638549805e+00 1.058202385902405063e-01 -5.662960410118103027e-01 3.100000000000000000e+01
1.996934413909912109e+00 9.941328316926956177e-02 -4.615995585918427069e-01 1.000000000000000000e+00
3.160879135131835938e+00 1.568048447370528897e-01 -6.151682138442993164e-01 1.900000000000000000e+01
3.809833049774169922e+00 1.876650154590606967e-01 -6.041498780250549316e-01 1.700000000000000000e+01
4.911203384399414062e+00 2.401979118585587103e-01 -6.037407517433166504e-01 1.100000000000000000e+01
4.234492111206054688e+01 2.071012020111083984e+00 6.714793205261229581e+00 1.400000000000000000e+01
6.306397914886474609e+00 3.073310256004332941e-01 -5.523930788040161133e-01 9.000000000000000000e+00
9.430012702941894531e+00 4.562553167343140204e-01 -4.947841167449951172e-01 2.000000000000000000e+00
1.739329338073730113e+01 8.354598283767700195e-01 -3.039511144161223810e-01 2.000000000000000000e+00
2.109221696853638139e+00 9.836155176162719727e-02 -5.657784342765808105e-01 1.300000000000000000e+01
2.003109216690063032e+00 9.271237254142761230e-02 -4.629492759704589844e-01 2.000000000000000000e+00
5.955690383911132812e+01 2.746128797531127930e+00 3.124561309814453125e+00 6.300000000000000000e+01
3.157484769821166992e+00 1.455895006656647006e-01 -6.144049763679504395e-01 1.600000000000000000e+01
3.810465097427368164e+00 1.743650734424591064e-01 -6.041498780250549316e-01 1.800000000000000000e+01
4.904079437255859375e+00 2.226929515600203913e-01 -6.027657985687255859e-01 1.200000000000000000e+01
4.235189056396483664e+01 1.923188090324402078e+00 6.714793205261229581e+00 1.400000000000000000e+01
6.297480583190917969e+00 2.848655283451079767e-01 -5.515215396881103516e-01 9.000000000000000000e+00
9.431548118591308594e+00 4.233356714248657227e-01 -4.947841167449951172e-01 2.000000000000000000e+00
1.744804573059082031e+01 7.770540118217468262e-01 -3.048586249351500910e-01 2.000000000000000000e+00
2.090251445770264116e+00 9.016583859920501709e-02 -5.606020689010620117e-01 1.000000000000000000e+00
2.048200607299805132e+00 8.763564378023147583e-02 -4.732970297336577814e-01 1.000000000000000000e+00
5.956612777709960938e+01 2.538219690322875977e+00 3.124561309814453125e+00 6.300000000000000000e+01
3.161896705627440962e+00 1.347340941429137906e-01 -6.151682138442993164e-01 1.300000000000000000e+01
3.816971302032471147e+00 1.613132357597351074e-01 -6.050885319709777832e-01 1.600000000000000000e+01
4.920693874359130859e+00 2.062381803989410123e-01 -6.047157049179077148e-01 1.100000000000000000e+01
6.306398868560791016e+00 2.632138431072235107e-01 -5.522187948226928711e-01 9.000000000000000000e+00
9.532745361328125000e+00 3.945404291152954102e-01 -5.000177025794982910e-01 2.000000000000000000e+00
1.751858329772948863e+01 7.189320325851440430e-01 -3.060454130172728937e-01 2.000000000000000000e+00
2.153645038604735884e+00 8.461693674325942993e-02 -4.975917339324951172e-01 1.000000000000000000e+00
5.957462310791016336e+01 2.330279588699340820e+00 3.124561309814453125e+00 6.300000000000000000e+01
3.164309501647949219e+00 1.237729340791701993e-01 -6.155498027801513672e-01 1.300000000000000000e+01
3.809615612030028853e+00 1.476824581623077115e-01 -6.038370132446289062e-01 1.600000000000000000e+01
4.921383857727050781e+00 1.890604943037033081e-01 -6.047157049179077148e-01 1.100000000000000000e+01
6.321216106414794922e+00 2.417317479848861972e-01 -5.534389615058898926e-01 9.000000000000000000e+00
9.434273719787597656e+00 3.574812412261962891e-01 -4.947841167449951172e-01 2.000000000000000000e+00
1.752098655700683949e+01 6.577764153480529785e-01 -3.060454130172728937e-01 2.000000000000000000e+00
2.113997220993041992e+00 7.640840113162994385e-02 -5.668137073516845703e-01 1.000000000000000000e+00
2.185086965560913086e+00 7.821415364742279053e-02 -5.047901868820190430e-01 2.700000000000000000e+01
5.958239364624022727e+01 2.122311115264893022e+00 3.124561309814453125e+00 6.300000000000000000e+01
3.168646335601807085e+00 1.128664538264275014e-01 -6.163130402565002441e-01 1.300000000000000000e+01
3.810107946395874023e+00 1.343835145235061923e-01 -6.038370132446289062e-01 1.100000000000000000e+01
4.925981521606445312e+00 1.720190644264220914e-01 -6.052031517028808594e-01 1.100000000000000000e+01
6.320030212402343750e+00 2.195959240198135098e-01 -5.532646775245666504e-01 9.000000000000000000e+00
9.407518386840820312e+00 3.235861063003540039e-01 -4.933187365531920832e-01 3.000000000000000000e+00
1.752317619323730113e+01 5.966127514839172363e-01 -3.060454130172728937e-01 2.000000000000000000e+00
2.073703765869141069e+00 6.770487129688262939e-02 -5.559433102607727051e-01 7.000000000000000000e+00
2.214562654495238814e+00 7.152996957302093506e-02 -5.115386843681335449e-01 4.900000000000000000e+01
5.958943939208983664e+01 1.914316892623900923e+00 3.124561309814453125e+00 6.300000000000000000e+01
3.176869869232178178e+00 1.020572707056999068e-01 -6.178395152091979980e-01 1.300000000000000000e+01
3.814502477645874023e+00 1.212084144353866993e-01 -6.044628024101257324e-01 1.100000000000000000e+01
4.914647579193115234e+00 1.544490158557892123e-01 -6.037407517433166504e-01 1.100000000000000000e+01
6.366560459136962891e+00 1.989649683237076083e-01 -5.572738051414489746e-01 9.000000000000000000e+00
9.428553581237792969e+00 2.913626730442047119e-01 -4.943654537200927734e-01 4.000000000000000000e+00
1.767305946350098012e+01 5.399608016014099121e-01 -3.086283504962921143e-01 3.000000000000000000e+00
2.071985721588135210e+00 6.077121570706366799e-02 -5.554256439208984375e-01 4.200000000000000000e+01
2.392048597335814986e+00 6.932294368743896484e-02 -5.524798035621643066e-01 8.000000000000000000e+00
5.959516143798828125e+01 1.727101922035217063e+00 3.124561309814453125e+00 6.300000000000000000e+01
3.165416240692139116e+00 9.118264913558959961e-02 -6.155498027801513672e-01 1.300000000000000000e+01
3.832654714584351030e+00 1.090641096234322011e-01 -6.072785854339599609e-01 1.100000000000000000e+01
4.923069953918457031e+00 1.383737027645111084e-01 -6.047157049179077148e-01 1.100000000000000000e+01
6.365193843841552734e+00 1.777959614992142001e-01 -5.570995211601257324e-01 9.000000000000000000e+00
9.477384567260742188e+00 2.614165246486663818e-01 -4.968775808811187744e-01 4.000000000000000000e+00
1.761078643798828125e+01 4.796098172664641779e-01 -3.075113892555236816e-01 3.000000000000000000e+00
2.132052659988402876e+00 5.508503690361977317e-02 -5.714724659919738770e-01 7.600000000000000000e+01
2.472148418426514116e+00 6.300844997167587280e-02 -5.709257721900939941e-01 2.000000000000000000e+00
3.165715217590332031e+00 8.013273030519485474e-02 -6.155498027801513672e-01 1.300000000000000000e+01
3.833012104034423828e+00 9.568498283624649048e-02 -6.072785854339599609e-01 1.100000000000000000e+01
4.915584564208984375e+00 1.209927499294281006e-01 -6.037407517433166504e-01 1.100000000000000000e+01
6.339882373809813565e+00 1.549433916807174960e-01 -5.548334717750549316e-01 9.000000000000000000e+00
9.506192207336425781e+00 2.290060967206954956e-01 -4.983429610729218084e-01 2.000000000000000000e+00
1.768032455444335938e+01 4.197474420070648193e-01 -3.086981773376464844e-01 3.000000000000000000e+00
2.304123878479003906e+00 5.148318782448769310e-02 -6.175422668457031250e-01 6.600000000000000000e+01
2.478198051452637163e+00 5.450721085071563721e-02 -5.722754597663879395e-01 3.000000000000000000e+00
5.960576629638671875e+01 1.311010599136352983e+00 3.124561309814453125e+00 6.300000000000000000e+01
3.177752494812012163e+00 6.933880597352981567e-02 -6.178395152091979980e-01 1.300000000000000000e+01
3.813573360443114790e+00 8.188065886497497559e-02 -6.041498780250549316e-01 1.000000000000000000e+01
4.925900459289550781e+00 1.040430143475532948e-01 -6.049594283103942871e-01 9.000000000000000000e+00
6.376239776611328125e+00 1.335631757974624911e-01 -5.579710602760314941e-01 7.000000000000000000e+00
9.506934165954589844e+00 1.958218961954117099e-01 -4.983429610729218084e-01 4.000000000000000000e+00
1.778564453125000000e+01 3.601341545581818182e-01 -3.105132281780242920e-01 3.000000000000000000e+00
2.356440305709838867e+00 4.442311450839042664e-02 -6.315184831619262695e-01 5.200000000000000000e+01
2.449147224426269975e+00 4.531559348106384277e-02 -5.655269622802734375e-01 5.000000000000000000e+00
5.960997772216796875e+01 1.102939605712891069e+00 3.124561309814453125e+00 6.300000000000000000e+01
3.183863878250122070e+00 5.835388600826262734e-02 -6.189844012260437012e-01 1.300000000000000000e+01
3.825686454772949219e+00 6.878136098384857178e-02 -6.060271263122558594e-01 1.300000000000000000e+01
4.922264099121093750e+00 8.677779883146286011e-02 -6.044719219207763672e-01 9.000000000000000000e+00
6.366706848144531250e+00 1.111312806606293002e-01 -5.570995211601257324e-01 7.000000000000000000e+00
9.507559776306152344e+00 1.626353114843369085e-01 -4.983429610729218084e-01 4.000000000000000000e+00
1.783078002929687855e+01 2.987855672836304266e-01 -3.112811148166655939e-01 3.000000000000000000e+00
2.366239070892333984e+00 3.634568303823471069e-02 -6.341066360473632812e-01 4.600000000000000000e+01
2.457084417343140093e+00 3.688319399952887795e-02 -5.673265457153320312e-01 7.000000000000000000e+00
5.961362075805664062e+01 8.844507336616516113e-01 3.124561309814453125e+00 6.300000000000000000e+01
3.180122137069702148e+00 4.718152061104773781e-02 -6.182211637496948242e-01 1.100000000000000000e+01
3.831828594207764116e+00 5.551264435052871704e-02 -6.069657206535339355e-01 1.100000000000000000e+01
4.928491592407226562e+00 6.967955082654953003e-02 -6.052031517028808594e-01 1.100000000000000000e+01
6.394946575164794922e+00 8.929610252380371094e-02 -5.595398545265197754e-01 7.000000000000000000e+00
9.520051956176757812e+00 1.296098828315734863e-01 -4.989710152149199884e-01 4.000000000000000000e+00
1.783171463012694957e+01 2.365426868200302124e-01 -3.112811148166655939e-01 3.000000000000000000e+00
2.352829694747924805e+00 2.792525477707386017e-02 -6.304832100868225098e-01 5.000000000000000000e+01
2.476684331893920898e+00 2.853061817586421967e-02 -5.718255639076232910e-01 6.000000000000000000e+00
5.961622619628906250e+01 6.867600083351135254e-01 3.124561309814453125e+00 6.300000000000000000e+01
3.172415018081665039e+00 3.599144890904427269e-02 -6.166946887969970703e-01 1.200000000000000000e+01
3.837924957275391069e+00 4.220188781619071960e-02 -6.079043149948120117e-01 1.100000000000000000e+01
4.928704738616943359e+00 5.247548222541809082e-02 -6.052031517028808594e-01 1.100000000000000000e+01
6.393227100372313565e+00 6.695216149091720581e-02 -5.593655705451965332e-01 9.000000000000000000e+00
9.528434753417968750e+00 9.645877778530120850e-02 -4.993897080421447754e-01 4.000000000000000000e+00
1.786042594909667969e+01 1.745705753564834872e-01 -3.117697834968566895e-01 3.000000000000000000e+00
2.349049091339110884e+00 1.967980898916720997e-02 -6.294479370117187500e-01 5.400000000000000000e+01
2.472871541976929155e+00 1.985391229391098022e-02 -5.709257721900939941e-01 2.000000000000000000e+00
5.961626052856445312e+01 4.786403179168701172e-01 3.124456644058227983e+00 6.300000000000000000e+01
3.172521114349364790e+00 2.491743490099906921e-02 -6.166946887969970703e-01 1.200000000000000000e+01
3.845950126647949219e+00 2.886407263576984059e-02 -6.091558337211608887e-01 1.100000000000000000e+01
4.928857803344726562e+00 3.527076914906501770e-02 -6.052031517028808594e-01 1.100000000000000000e+01
6.397406578063964844e+00 4.466304928064346313e-02 -5.597141981124877930e-01 9.000000000000000000e+00
9.584635734558105469e+00 6.356864422559738159e-02 -5.023205280303955078e-01 2.000000000000000000e+00
1.788092231750487926e+01 1.123506352305412015e-01 -3.121188282966613770e-01 3.000000000000000000e+00
2.347171783447266069e+00 1.147053670138120998e-02 -6.289302706718444824e-01 6.400000000000000000e+01
2.478771924972534180e+00 1.124838739633560007e-02 -5.722754597663879395e-01 1.000000000000000000e+00
3.180441856384276900e+00 1.387738343328238054e-02 -6.182211637496948242e-01 1.300000000000000000e+01
3.838125944137572798e+00 1.540730800479649977e-02 -6.079043149948120117e-01 1.100000000000000000e+01
4.942846775054931641e+00 1.811655983328818928e-02 -6.069093346595764160e-01 1.100000000000000000e+01
6.401508331298828125e+00 2.234556898474692951e-02 -5.600628256797790527e-01 9.000000000000000000e+00
9.552843093872070312e+00 3.001124039292335857e-02 -5.006457567214965820e-01 4.000000000000000000e+00
1.793319892883301137e+01 5.007906630635262230e-02 -3.130263686180114746e-01 3.000000000000000000e+00
2.354924201965332031e+00 3.699109423905611038e-03 -6.310008168220520020e-01 4.900000000000000000e+01
3.202066183090209961e+00 3.353197127580643134e-03 -6.224189400672912598e-01 1.500000000000000000e+01
3.830254554748535156e+00 2.674022456631063981e-03 -6.066528558731079102e-01 1.000000000000000000e+01
4.926998615264892578e+00 1.719847088679671071e-03 -6.049594283103942871e-01 1.100000000000000000e+01
6.405531883239746094e+00 1.117976265959442096e-03 -5.604114532470703125e-01 7.000000000000000000e+00
9.616802215576171875e+00 -1.678448636084794998e-03 -5.039952397346496582e-01 4.000000000000000000e+00
1.803325080871582031e+01 -9.442188777029514313e-03 -3.147715926170349121e-01 3.000000000000000000e+00
2.351059198379517046e+00 -4.513714928179979324e-03 -6.299655437469482422e-01 4.000000000000000000e+01
2.525560617446898970e+00 -5.730325356125831604e-03 -5.830731391906738281e-01 1.000000000000000000e+00
3.188315629959106001e+00 -7.790540345013141632e-03 -6.197476387023925781e-01 1.300000000000000000e+01
3.853944778442382812e+00 -1.076227240264415914e-02 -6.104072928428649902e-01 1.200000000000000000e+01
4.915064334869384766e+00 -1.544118020683526993e-02 -6.034969687461853027e-01 9.000000000000000000e+00
6.425420284271240234e+00 -2.130758017301559101e-02 -5.621545314788818359e-01 9.000000000000000000e+00
9.628721237182617188e+00 -3.529126569628716209e-02 -5.046232938766479492e-01 4.000000000000000000e+00
1.813309097290039062e+01 -7.279128581285476685e-02 -3.165168464183806818e-01 3.000000000000000000e+00
2.352962970733643022e+00 -1.232019811868667949e-02 -6.304832100868225098e-01 3.200000000000000000e+01
4.085917663574218750e+01 -2.210715860128402988e-01 7.132100462913513184e-01 3.700000000000000000e+01
2.525527715682982954e+00 -1.410535536706447948e-02 -5.830731391906738281e-01 1.000000000000000000e+00
4.053170394897460938e+01 -2.334484308958053866e-01 2.124211788177489790e+00 2.400000000000000000e+01
3.178456068038939986e+00 -1.830679550766944885e-02 -6.178395152091979980e-01 1.200000000000000000e+01
3.849937200546265093e+00 -2.351822145283221852e-02 -6.097815632820129395e-01 1.000000000000000000e+01
4.928881645202636719e+00 -3.182977065443993309e-02 -6.052031517028808594e-01 1.100000000000000000e+01
6.423322200775145596e+00 -4.260171204805374146e-02 -5.619802474975585938e-01 7.000000000000000000e+00
9.640534400939941406e+00 -6.730472296476364136e-02 -5.052513480186462402e-01 4.000000000000000000e+00
1.823273277282714844e+01 -1.336553096771239957e-01 -3.182620704174041748e-01 3.000000000000000000e+00
2.350973844528197798e+00 -2.051663957536220897e-02 -6.299655437469482422e-01 2.400000000000000000e+01
2.548847198486328125e+00 -2.313323691487311970e-02 -5.884719491004943848e-01 1.000000000000000000e+00
3.190151929855347124e+00 -2.951052784919739116e-02 -6.201292276382446289e-01 1.300000000000000000e+01
3.857733011245727983e+00 -3.703271597623825073e-02 -6.110330224037170410e-01 1.000000000000000000e+01
4.942635059356688565e+00 -4.917281866073607705e-02 -6.069093346595764160e-01 9.000000000000000000e+00
6.411180496215820312e+00 -6.490201503038406372e-02 -5.609343647956848145e-01 7.000000000000000000e+00
9.688172340393066406e+00 -1.014580130577086986e-01 -5.077634453773498535e-01 2.000000000000000000e+00
1.825215148925780895e+01 -1.975149959325790128e-01 -3.186111450195313055e-01 3.000000000000000000e+00
2.348951339721680132e+00 -2.910931222140789032e-02 -6.294479370117187500e-01 2.100000000000000000e+01
2.529259443283081055e+00 -3.222679346799849770e-02 -5.839729309082031250e-01 1.000000000000000000e+00
4.045709991455078125e+01 -5.225501656532287598e-01 2.120443582534790039e+00 2.400000000000000000e+01
3.195911645889281782e+00 -4.127888754010201194e-02 -6.212741136550903320e-01 1.200000000000000000e+01
3.843744754791260210e+00 -5.098835378885269165e-02 -6.088429093360900879e-01 1.000000000000000000e+01
4.944406509399414062e+00 -6.731517612934112549e-02 -6.071530580520629883e-01 1.100000000000000000e+01
6.430821418762207031e+00 -8.867444097995758057e-02 -5.626775026321411133e-01 7.000000000000000000e+00
9.663770675659179688e+00 -1.366274505853652954e-01 -5.065073966979980469e-01 2.000000000000000000e+00
1.833128356933594105e+01 -2.655698060989379883e-01 -3.200073242187500000e-01 3.000000000000000000e+00
2.354630231857299805e+00 -3.740054741501808167e-02 -6.310008168220520020e-01 1.800000000000000000e+01
2.575895071029663086e+00 -4.181447252631186745e-02 -5.947706103324890137e-01 1.000000000000000000e+00
4.045502853393554688e+01 -6.637685894966125488e-01 2.120443582534790039e+00 2.400000000000000000e+01
3.197710990905762163e+00 -5.246665701270102761e-02 -6.216557025909423828e-01 1.300000000000000000e+01
3.853418827056885210e+00 -6.457069516181945801e-02 -6.104072928428649902e-01 1.000000000000000000e+01
4.944141387939453125e+00 -8.457396924495697021e-02 -6.071530580520629883e-01 1.100000000000000000e+01
6.428480625152587891e+00 -1.110872328281403004e-01 -5.625031590461730957e-01 7.000000000000000000e+00
9.723143577575683594e+00 -1.714156270027160922e-01 -5.096475481986999512e-01 2.000000000000000000e+00
1.839022636413573863e+01 -3.306347131729125977e-01 -3.210544586181641180e-01 3.000000000000000000e+00
2.362219095230102983e+00 -4.535692557692527771e-02 -6.330713629722595215e-01 1.800000000000000000e+01
2.657573699951171875e+00 -5.195603892207145691e-02 -6.136664748191833496e-01 3.000000000000000000e+00
4.015707015991210938e+01 -7.920892834663391113e-01 2.104952096939086914e+00 2.300000000000000000e+01
3.193593740463256836e+00 -6.299292296171188354e-02 -6.208924651145935059e-01 1.300000000000000000e+01
3.855158567428588867e+00 -7.738838344812393188e-02 -6.107201576232910156e-01 9.000000000000000000e+00
4.937880039215087891e+00 -1.008472666144371033e-01 -6.064218282699584961e-01 9.000000000000000000e+00
6.455964565277099609e+00 -1.329786479473114014e-01 -5.649435520172119141e-01 9.000000000000000000e+00
9.710540771484375000e+00 -2.034068256616592130e-01 -5.090194940567016602e-01 2.000000000000000000e+00
1.844900512695312855e+01 -3.928943872451782227e-01 -3.221016228199005127e-01 3.000000000000000000e+00
2.352389574050902876e+00 -5.338319018483161926e-02 -6.304832100868225098e-01 1.400000000000000000e+01
5.952536773681641336e+01 -1.361214160919189009e+00 1.039290785789489968e+00 6.300000000000000000e+01
2.692444086074829102e+00 -6.204043701291084290e-02 -6.217647194862365723e-01 8.000000000000000000e+00
3.187466144561768022e+00 -7.400355488061904907e-02 -6.197476387023925781e-01 1.200000000000000000e+01
3.858814716339110884e+00 -9.093800932168960571e-02 -6.113458871841430664e-01 9.000000000000000000e+00
4.953373908996582031e+00 -1.184627562761307040e-01 -6.083717346191406250e-01 9.000000000000000000e+00
6.443510055541992188e+00 -1.552254706621170044e-01 -5.638976693153381348e-01 9.000000000000000000e+00
9.761684417724609375e+00 -2.385704368352890015e-01 -5.117409825325012207e-01 2.000000000000000000e+00
1.847550964355469105e+01 -4.579848051071166992e-01 -3.225902915000916082e-01 3.000000000000000000e+00
2.350257873535155806e+00 -6.154366582632064819e-02 -6.299655437469482422e-01 1.600000000000000000e+01
2.717535972595214844e+00 -7.211043685674667358e-02 -6.276134252548217773e-01 8.000000000000000000e+00
3.195038557052611861e+00 -8.533912152051925659e-02 -6.212741136550903320e-01 1.300000000000000000e+01
3.860448360443114790e+00 -1.044606640934944014e-01 -6.116587519645690918e-01 1.000000000000000000e+01
4.952930450439453125e+00 -1.357525438070296964e-01 -6.083717346191406250e-01 9.000000000000000000e+00
6.448904037475585938e+00 -1.778813749551773071e-01 -5.644205808639526367e-01 9.000000000000000000e+00
9.804715156555175781e+00 -2.738704979419708252e-01 -5.140437483787536621e-01 2.000000000000000000e+00
1.852577018737792969e+01 -5.239434242248535156e-01 -3.234978020191193182e-01 3.000000000000000000e+00
2.350028753280640093e+00 -6.974722445011138916e-02 -6.299655437469482422e-01 2.000000000000000000e+01
2.709476232528686968e+00 -8.136200159788131714e-02 -6.258138418197631836e-01 8.000000000000000000e+00
3.984711837768554688e+01 -1.203517556190490945e+00 2.089251279830933061e+00 2.300000000000000000e+01
3.196683645248413086e+00 -9.655063599348068237e-02 -6.216557025909423828e-01 1.200000000000000000e+01
3.856111288070679155e+00 -1.178148537874221941e-01 -6.110330224037170410e-01 1.000000000000000000e+01
4.960362911224365234e+00 -1.532859206199645996e-01 -6.093466877937316895e-01 1.100000000000000000e+01
3.764040756225585938e+01 -1.169745683670043945e+00 5.964533329010009766e+00 1.300000000000000000e+01
6.440278053283691406e+00 -2.001436203718184870e-01 -5.637233257293701172e-01 9.000000000000000000e+00
9.815676689147949219e+00 -3.084700703620911200e-01 -5.146718025207519531e-01 2.000000000000000000e+00
1.855580711364746094e+01 -5.896233916282653809e-01 -3.240562975406646729e-01 3.000000000000000000e+00
2.353632450103760210e+00 -7.807803153991699219e-02 -6.310008168220520020e-01 2.000000000000000000e+01
2.724756956100463867e+00 -9.134167432785034180e-02 -6.294130682945251465e-01 1.000000000000000000e+01
3.200251340866088867e+00 -1.078407913446425975e-01 -6.224189400672912598e-01 1.200000000000000000e+01
3.857650756835937944e+00 -1.313416957855224887e-01 -6.113458871841430664e-01 1.000000000000000000e+01
4.935990810394287109e+00 -1.697809994220733920e-01 -6.064218282699584961e-01 9.000000000000000000e+00
3.734019088745117188e+01 -1.284373521804810014e+00 5.917603015899658203e+00 1.300000000000000000e+01
6.459452152252197266e+00 -2.233115434646605890e-01 -5.654664635658264160e-01 9.000000000000000000e+00
9.774620056152343750e+00 -3.413372337818145752e-01 -5.125783681869506836e-01 2.000000000000000000e+00
1.872150611877441051e+01 -6.603124737739562988e-01 -3.269882798194885254e-01 3.000000000000000000e+00
2.376512289047241211e+00 -8.714275062084197998e-02 -6.372125148773193359e-01 1.900000000000000000e+01
2.738053321838378906e+00 -1.013569161295890947e-01 -6.325623393058776855e-01 1.200000000000000000e+01
3.948647308349608664e+01 -1.468606472015381081e+00 2.070829153060913086e+00 2.200000000000000000e+01
3.199855566024779829e+00 -1.190110966563224931e-01 -6.224189400672912598e-01 1.200000000000000000e+01
3.865064859390258789e+00 -1.451030373573302945e-01 -6.125973463058471680e-01 1.000000000000000000e+01
4.951237201690673828e+00 -1.876111179590224942e-01 -6.083717346191406250e-01 9.000000000000000000e+00
3.748155593872070312e+01 -1.420242190361022949e+00 5.940755367279052734e+00 1.300000000000000000e+01
6.470579147338867188e+00 -2.463126182556152066e-01 -5.665123462677001953e-01 7.000000000000000000e+00
9.833242416381835938e+00 -3.777550458908081055e-01 -5.157185196876525879e-01 2.000000000000000000e+00
1.871908569335937855e+01 -7.256587147712707520e-01 -3.269882798194885254e-01 3.000000000000000000e+00
2.378123760223389116e+00 -9.551531821489334106e-02 -6.377301216125488281e-01 1.700000000000000000e+01
2.733788490295410156e+00 -1.107561141252517978e-01 -6.316625475883483887e-01 1.200000000000000000e+01
3.888641357421875000e+01 -1.582233905792236106e+00 2.039636850357056108e+00 2.200000000000000000e+01
3.183727502822875977e+00 -1.295414268970490057e-01 -6.193659901618957520e-01 1.200000000000000000e+01
3.874403238296508789e+00 -1.589987426996231079e-01 -6.141617298126220703e-01 1.000000000000000000e+01
4.958485603332520419e+00 -2.052213698625565130e-01 -6.093466877937316895e-01 9.000000000000000000e+00
3.744846725463867188e+01 -1.556460976600646973e+00 5.936375141143798828e+00 1.300000000000000000e+01
6.465698719024658203e+00 -2.687321603298187256e-01 -5.661637187004089355e-01 6.000000000000000000e+00
9.871773719787597656e+00 -4.137499034404755194e-01 -5.178119540214538574e-01 2.000000000000000000e+00
1.879236030578612926e+01 -7.942046523094177246e-01 -3.283146619796752930e-01 3.000000000000000000e+00
2.373915910720825195e+00 -1.036474108695984025e-01 -6.366948485374450684e-01 1.700000000000000000e+01
2.750906944274901900e+00 -1.210692822933197021e-01 -6.357116699218750000e-01 1.100000000000000000e+01
3.187178611755371094e+00 -1.408272385597229004e-01 -6.201292276382446289e-01 1.200000000000000000e+01
3.873824596405028853e+00 -1.725219637155533114e-01 -6.141617298126220703e-01 1.000000000000000000e+01
4.965671539306640625e+00 -2.228845059871673862e-01 -6.103217005729675293e-01 1.000000000000000000e+01
6.474672794342041016e+00 -2.917484641075134277e-01 -5.670352578163146973e-01 7.000000000000000000e+00
9.890221595764160156e+00 -4.491123259067534845e-01 -5.188586711883544922e-01 2.000000000000000000e+00
1.884141159057616832e+01 -8.621740341186523438e-01 -3.292222023010253906e-01 3.000000000000000000e+00
2.375469446182250977e+00 -1.120242923498153964e-01 -6.372125148773193359e-01 1.900000000000000000e+01
2.748521089553833008e+00 -1.305785179138183871e-01 -6.352617740631103516e-01 1.200000000000000000e+01
3.882255172729492188e+01 -1.851198196411133035e+00 2.036915302276610884e+00 2.200000000000000000e+01
3.204316854476929155e+00 -1.527932882308959961e-01 -6.235638260841369629e-01 1.200000000000000000e+01
3.865306377410889116e+00 -1.856639832258223932e-01 -6.129102110862731934e-01 1.000000000000000000e+01
4.960897922515869141e+00 -2.400247156620025912e-01 -6.098341941833496094e-01 1.000000000000000000e+01
6.489535331726074219e+00 -3.151205778121948242e-01 -5.684297680854797363e-01 7.000000000000000000e+00
9.860665321350097656e+00 -4.822669923305510919e-01 -5.173932909965515137e-01 2.000000000000000000e+00
1.891018867492676137e+01 -9.314793348312377930e-01 -3.304787576198577881e-01 3.000000000000000000e+00
2.388569593429564986e+00 -1.209997087717055997e-01 -6.408359408378601074e-01 1.700000000000000000e+01
2.736371278762816939e+00 -1.395762264728545865e-01 -6.325623393058776855e-01 1.200000000000000000e+01
3.888766098022460938e+01 -1.990378141403198020e+00 2.040683507919311968e+00 2.200000000000000000e+01
3.219449520111083984e+00 -1.647803485393523892e-01 -6.266167163848876953e-01 1.300000000000000000e+01
3.868580341339110884e+00 -1.993586122989655096e-01 -6.135360002517700195e-01 1.000000000000000000e+01
4.960029602050781250e+00 -2.573400139808654785e-01 -6.098341941833496094e-01 1.000000000000000000e+01
6.502323627471923828e+00 -3.384964168071746826e-01 -5.696499347686767578e-01 9.000000000000000000e+00
9.902801513671875000e+00 -5.189838409423828125e-01 -5.196960568428039551e-01 2.000000000000000000e+00
1.898270416259765980e+01 -1.001485943794250044e+00 -3.318051397800446112e-01 3.000000000000000000e+00
2.386226177215576172e+00 -1.288156956434249878e-01 -6.403183341026306152e-01 1.600000000000000000e+01
2.737839221954346147e+00 -1.487553119659424106e-01 -6.330122947692871094e-01 1.300000000000000000e+01
3.886924743652343750e+01 -2.111887216567993164e+00 2.040055513381958008e+00 2.200000000000000000e+01
3.218885421752930132e+00 -1.754555255174637118e-01 -6.266167163848876953e-01 1.300000000000000000e+01
3.875787496566772017e+00 -2.126190066337584894e-01 -6.147874593734741211e-01 1.000000000000000000e+01
4.951220512390136719e+00 -2.733489274978638250e-01 -6.088592410087585449e-01 1.200000000000000000e+01
4.213383483886718750e+01 -2.326141357421875000e+00 6.683506011962890625e+00 1.400000000000000000e+01
6.525037765502929688e+00 -3.613791465759276789e-01 -5.717417001724243164e-01 9.000000000000000000e+00
9.924955368041992188e+00 -5.531535148620605469e-01 -5.209521055221557617e-01 2.000000000000000000e+00
1.910306549072265980e+01 -1.071371793746948020e+00 -3.339692354202271063e-01 3.000000000000000000e+00
2.379975795745850053e+00 -1.368117928504944125e-01 -6.387653946876525879e-01 1.800000000000000000e+01
2.748976230621337891e+00 -1.589863598346709928e-01 -6.357116699218750000e-01 1.200000000000000000e+01
3.888118743896483664e+01 -2.255492687225341797e+00 2.041102409362792969e+00 2.200000000000000000e+01
3.206493616104125977e+00 -1.860082745552062988e-01 -6.243270039558410645e-01 1.400000000000000000e+01
4.098585510253906250e+01 -2.384761810302733931e+00 3.591862440109252930e+00 5.400000000000000000e+01
3.878965854644774947e+00 -2.263769060373305997e-01 -6.154131889343261719e-01 1.000000000000000000e+01
4.948254585266113281e+00 -2.905139029026030939e-01 -6.086155176162719727e-01 1.100000000000000000e+01
6.519758701324462891e+00 -3.839193582534790039e-01 -5.713930726051330566e-01 9.000000000000000000e+00
9.942901611328125000e+00 -5.889757275581359863e-01 -5.219988226890563965e-01 2.000000000000000000e+00
3.654264831542968750e+01 -2.171033382415771040e+00 8.451411247253417969e+00 1.100000000000000000e+01
1.909920883178710938e+01 -1.138047337532043013e+00 -3.339692354202271063e-01 3.000000000000000000e+00
2.375652551651000977e+00 -1.444687843322753906e-01 -6.377301216125488281e-01 1.700000000000000000e+01
2.750378847122191939e+00 -1.682203859090805054e-01 -6.361615657806396484e-01 1.200000000000000000e+01
3.207818746566772017e+00 -1.967605650424956998e-01 -6.247086524963378906e-01 1.300000000000000000e+01
4.117658615112304688e+01 -2.532895326614379883e+00 3.609293699264525923e+00 5.400000000000000000e+01
3.870307207107543945e+00 -2.387522757053374967e-01 -6.141617298126220703e-01 1.100000000000000000e+01
4.961133003234863281e+00 -3.077817261219025213e-01 -6.103217005729675293e-01 1.000000000000000000e+01
6.510495662689208984e+00 -4.050426781177520752e-01 -5.706958174705505371e-01 9.000000000000000000e+00
9.960827827453613281e+00 -6.231914758682250977e-01 -5.230455398559570312e-01 2.000000000000000000e+00
1.914722061157226918e+01 -1.204640984535217063e+00 -3.348767757415770929e-01 3.000000000000000000e+00
2.375133752822875977e+00 -1.527604907751083096e-01 -6.377301216125488281e-01 1.800000000000000000e+01
2.745885610580443892e+00 -1.775684654712677002e-01 -6.352617740631103516e-01 1.300000000000000000e+01
3.207112312316894975e+00 -2.079567462205887118e-01 -6.247086524963378906e-01 1.400000000000000000e+01
3.869450330734252930e+00 -2.522607147693634033e-01 -6.141617298126220703e-01 1.000000000000000000e+01
4.960028648376464844e+00 -3.250974416732788086e-01 -6.103217005729675293e-01 1.000000000000000000e+01
6.515006065368652344e+00 -4.281580448150634766e-01 -5.712187290191650391e-01 9.000000000000000000e+00
9.990478515625000000e+00 -6.600642204284667969e-01 -5.247203111648559570e-01 2.000000000000000000e+00
3.592812347412108664e+01 -2.380045175552368164e+00 8.312841415405273438e+00 1.000000000000000000e+01
1.919078636169433949e+01 -1.274650573730468972e+00 -3.357144892215728760e-01 3.000000000000000000e+00
3.935011672973632812e+01 -2.613631963729857954e+00 1.056706428527832031e+01 9.000000000000000000e+00
2.384251356124877930e+00 -1.612877994775772095e-01 -6.403183341026306152e-01 1.900000000000000000e+01
2.739449024200439009e+00 -1.862765550613403043e-01 -6.339120864868164062e-01 1.200000000000000000e+01
3.218157291412353960e+00 -2.193919569253922064e-01 -6.269983649253845215e-01 1.300000000000000000e+01
3.872534036636352983e+00 -2.653609812259674072e-01 -6.147874593734741211e-01 1.000000000000000000e+01
4.954962253570556641e+00 -3.412708938121796209e-01 -6.098341941833496094e-01 1.200000000000000000e+01
6.527464389801025391e+00 -4.507209658622742254e-01 -5.724388957023620605e-01 9.000000000000000000e+00
9.984250068664550781e+00 -6.929136514663696289e-01 -5.245109796524047852e-01 2.000000000000000000e+00
4.059739685058593750e+01 -2.824606418609619141e+00 9.395305633544921875e+00 1.200000000000000000e+01
1.921837043762207031e+01 -1.340508818626404031e+00 -3.362729549407958984e-01 3.000000000000000000e+00
3.895917892456054688e+01 -2.724291086196898970e+00 1.046457195281982067e+01 9.000000000000000000e+00
2.385600805282593218e+00 -1.697465330362319946e-01 -6.408359408378601074e-01 1.800000000000000000e+01
2.738781929016112837e+00 -1.958378851413727084e-01 -6.339120864868164062e-01 1.100000000000000000e+01
3.217371940612792969e+00 -2.306240797042846957e-01 -6.269983649253845215e-01 1.300000000000000000e+01
3.879465341567993164e+00 -2.794446945190430243e-01 -6.160389184951782227e-01 1.100000000000000000e+01
4.953741073608398438e+00 -3.585648834705352783e-01 -6.098341941833496094e-01 1.000000000000000000e+01
6.551684379577636719e+00 -4.753777384757996161e-01 -5.747049450874328613e-01 8.000000000000000000e+00
9.989738464355468750e+00 -7.283418774604797363e-01 -5.249296426773071289e-01 2.000000000000000000e+00
1.933323478698730113e+01 -1.416351675987244096e+00 -3.383672535419464111e-01 3.000000000000000000e+00
3.788206100463867188e+01 -2.781884670257567915e+00 1.017780017852783025e+01 8.000000000000000000e+00
2.390710830688477007e+00 -1.793388426303864081e-01 -6.423888802528381348e-01 1.900000000000000000e+01
2.755498886108397993e+00 -2.076706588268280029e-01 -6.379612088203430176e-01 1.000000000000000000e+01
3.214504957199097124e+00 -2.428282797336578092e-01 -6.266167163848876953e-01 1.300000000000000000e+01
3.876394033432006836e+00 -2.941892147064208984e-01 -6.157260537147521973e-01 9.000000000000000000e+00
4.950348377227783203e+00 -3.774322867393494207e-01 -6.095904707908630371e-01 1.000000000000000000e+01
6.541864395141601562e+00 -4.999235570430756170e-01 -5.740077495574951172e-01 8.000000000000000000e+00
1.002669620513916016e+01 -7.697518467903137207e-01 -5.270230770111083984e-01 2.000000000000000000e+00
1.932366752624512074e+01 -1.490267753601073997e+00 -3.382974565029143732e-01 3.000000000000000000e+00
3.801748275756835938e+01 -2.938635349273682085e+00 1.021714019775390980e+01 8.000000000000000000e+00
2.376588821411132812e+00 -1.866242289543152133e-01 -6.387653946876525879e-01 1.700000000000000000e+01
2.756700038909912109e+00 -2.174411118030548096e-01 -6.384111046791076660e-01 1.000000000000000000e+01
3.914453125000000000e+01 -3.087615728378295898e+00 2.057849884033203125e+00 2.200000000000000000e+01
3.207766294479370117e+00 -2.535833716392517090e-01 -6.254718899726867676e-01 1.300000000000000000e+01
3.887158393859862837e+00 -3.086567223072052002e-01 -6.176032423973083496e-01 1.100000000000000000e+01
4.962852478027343750e+00 -3.958146572113037109e-01 -6.112966537475585938e-01 1.000000000000000000e+01
6.542065143585205078e+00 -5.229146480560302734e-01 -5.741820335388183594e-01 6.000000000000000000e+00
3.589306640625000000e+01 -2.875277757644652876e+00 6.999255657196044922e+00 6.000000000000000000e+01
1.000802135467528942e+01 -8.034682273864746094e-01 -5.261856913566589355e-01 2.000000000000000000e+00
1.933827972412109020e+01 -1.559318065643310991e+00 -3.386465013027191162e-01 3.000000000000000000e+00
3.797425842285156250e+01 -3.068678140640258789e+00 1.020834064483642933e+01 1.600000000000000000e+01
2.377848148345946822e+00 -1.950768977403641025e-01 -6.392830610275268555e-01 1.600000000000000000e+01
2.755924224853516069e+00 -2.270624637603760043e-01 -6.384111046791076660e-01 1.000000000000000000e+01
3.214687824249268022e+00 -2.654252052307128906e-01 -6.269983649253845215e-01 1.300000000000000000e+01
3.878182888031005859e+00 -3.215706050395966131e-01 -6.163517832756042480e-01 1.000000000000000000e+01
4.963418483734130859e+00 -4.133005738258361816e-01 -6.115403771400451660e-01 9.000000000000000000e+00
6.554098606109619141e+00 -5.469072461128234863e-01 -5.754022002220153809e-01 8.000000000000000000e+00
1.005292224884033025e+01 -8.424005508422851562e-01 -5.286978483200073242e-01 2.000000000000000000e+00
4.068874740600585938e+01 -3.416729688644409180e+00 9.426798820495605469e+00 1.200000000000000000e+01
1.924902725219726918e+01 -1.619769334793091042e+00 -3.371804952621459961e-01 3.000000000000000000e+00
3.807745361328125000e+01 -3.204145669937133789e+00 1.023888111114501953e+01 8.000000000000000000e+00
2.388701677322388139e+00 -2.043640166521072110e-01 -6.423888802528381348e-01 1.600000000000000000e+01
2.751231670379639116e+00 -2.363474667072295865e-01 -6.375113129615783691e-01 1.100000000000000000e+01
3.215697765350341797e+00 -2.768133282661437988e-01 -6.273799538612365723e-01 1.200000000000000000e+01
3.888844966888428178e+00 -3.361266553401947021e-01 -6.182290315628051758e-01 9.000000000000000000e+00
4.956012725830078125e+00 -4.301087260246276855e-01 -6.108091473579406738e-01 1.000000000000000000e+01
6.562074184417724609e+00 -5.706450343132019043e-01 -5.762737989425659180e-01 8.000000000000000000e+00
1.003400325775145951e+01 -8.760968446731567383e-01 -5.278604626655578613e-01 2.000000000000000000e+00
1.923528861999512074e+01 -1.686252593994141069e+00 -3.370408713817595880e-01 3.000000000000000000e+00
2.389972209930419922e+00 -2.120380401611328125e-01 -6.429064869880676270e-01 1.700000000000000000e+01
2.742711305618286133e+00 -2.442979663610458096e-01 -6.357116699218750000e-01 1.100000000000000000e+01
3.958014678955078125e+01 -3.532434225082397017e+00 2.082552433013916016e+00 2.300000000000000000e+01
3.224589824676514116e+00 -2.877869606018065851e-01 -6.292880773544311523e-01 1.300000000000000000e+01
3.891704797744750977e+00 -3.486947417259215753e-01 -6.188547611236572266e-01 9.000000000000000000e+00
4.946728706359863281e+00 -4.449649751186370850e-01 -6.098341941833496094e-01 1.000000000000000000e+01
6.584061145782470703e+00 -5.934036970138549805e-01 -5.783655047416687012e-01 5.000000000000000000e+00
1.007098388671875000e+01 -9.112147688865661621e-01 -5.299538969993591309e-01 2.000000000000000000e+00
3.617810821533203125e+01 -3.279732942581177202e+00 8.386625289916992188e+00 1.100000000000000000e+01
1.957243347167969105e+01 -1.777786612510680930e+00 -3.430444896221160889e-01 3.000000000000000000e+00
2.391141176223754883e+00 -2.205567508935928067e-01 -6.434241533279418945e-01 2.000000000000000000e+01
