4.970445632934570312e+00 -6.914748549461364746e-01 -6.161714196205139160e-01 1.000000000000000000e+01
6.594892024993895596e+00 -9.186366796493530273e-01 -5.825489759445190430e-01 5.000000000000000000e+00
1.027208518981933949e+01 -1.434507369995116965e+00 -5.435612201690673828e-01 2.000000000000000000e+00
2.040187454223633168e+01 -2.856403827667235884e+00 -3.595893681049346924e-01 3.000000000000000000e+00
3.449101638793945312e+01 -4.828981399536132812e+00 9.331979751586914062e+00 7.000000000000000000e+00
2.379542589187622070e+00 -3.365407288074492853e-01 -6.439417600631713867e-01 1.800000000000000000e+01
5.974474716186522727e+01 -8.460386276245117188e+00 1.053252696990967019e+00 6.200000000000000000e+01
2.753314256668090820e+00 -3.903839290142058771e-01 -6.420103311538696289e-01 1.300000000000000000e+01
3.218874454498291016e+00 -4.569673538208007812e-01 -6.319593787193298340e-01 1.300000000000000000e+01
3.885915517807006836e+00 -5.530476570129394531e-01 -6.216705441474914551e-01 1.000000000000000000e+01
3.909254455566406250e+01 -5.570654392242431641e+00 4.848450183868408203e+00 2.000000000000000000e+01
4.968001842498779297e+00 -7.088207602500915527e-01 -6.161714196205139160e-01 1.000000000000000000e+01
6.591645240783691406e+00 -9.416515827178955078e-01 -5.825489759445190430e-01 4.000000000000000000e+00
3.401663589477539062e+01 -4.865515708923339844e+00 6.679459571838378906e+00 5.900000000000000000e+01
1.029469394683838068e+01 -1.474318861961364968e+00 -5.450266599655151367e-01 2.000000000000000000e+00
3.565968322753906250e+01 -5.113229274749755859e+00 8.316890716552734375e+00 1.000000000000000000e+01
2.051846122741698863e+01 -2.945789575576781782e+00 -3.618232905864716131e-01 3.000000000000000000e+00
3.455617523193358664e+01 -4.961153030395507812e+00 9.354237556457519531e+00 1.400000000000000000e+01
2.382177114486693892e+00 -3.453992605209351141e-01 -6.449770331382751465e-01 2.000000000000000000e+01
5.991274642944335938e+01 -8.697611808776855469e+00 1.056743264198303001e+00 6.200000000000000000e+01
2.757720232009888139e+00 -4.008333086967468262e-01 -6.433600187301635742e-01 1.500000000000000000e+01
3.211431264877318892e+00 -4.673523604869843084e-01 -6.308145523071289062e-01 1.300000000000000000e+01
3.880052089691162109e+00 -5.660383701324462891e-01 -6.210448145866394043e-01 1.000000000000000000e+01
4.987103462219238281e+00 -7.293176651000976562e-01 -6.188524961471557617e-01 9.000000000000000000e+00
3.524510574340820312e+01 -5.154270172119140625e+00 5.641652584075927734e+00 1.300000000000000000e+01
6.590289115905761719e+00 -9.649435877799987793e-01 -5.827233195304870605e-01 6.000000000000000000e+00
1.026577186584473012e+01 -1.506764531135559082e+00 -5.437706112861633301e-01 2.000000000000000000e+00
3.484636306762695312e+01 -5.127021312713623047e+00 9.437577247619628906e+00 7.000000000000000000e+00
2.386689662933350053e+00 -3.545641303062438965e-01 -6.465299725532531738e-01 1.900000000000000000e+01
2.754376649856566939e+00 -4.101700782775878906e-01 -6.429101228713989258e-01 1.400000000000000000e+01
3.229198217391968218e+00 -4.814545810222625732e-01 -6.346307396888732910e-01 1.300000000000000000e+01
3.881959915161132812e+00 -5.801628232002258301e-01 -6.216705441474914551e-01 1.000000000000000000e+01
4.982563972473145419e+00 -7.464273571968078613e-01 -6.186087727546691895e-01 1.000000000000000000e+01
6.598702907562255859e+00 -9.897152781486511230e-01 -5.837691426277160645e-01 5.000000000000000000e+00
3.412551116943358664e+01 -5.124450683593750000e+00 6.707699298858642578e+00 5.900000000000000000e+01
1.030390167236327947e+01 -1.549122214317321999e+00 -5.460733771324157715e-01 2.000000000000000000e+00
3.998591995239257812e+01 -6.018750667572020596e+00 9.335468292236328125e+00 1.200000000000000000e+01
4.205183410644531250e+01 -6.344727993011474609e+00 1.139528465270995916e+01 1.100000000000000000e+01
2.387347221374512163e+00 -3.631836175918579102e-01 -6.470476388931274414e-01 1.900000000000000000e+01
3.772908782958983664e+01 -5.746407508850097656e+00 6.661583781242370605e-01 3.100000000000000000e+01
2.749075174331665039e+00 -4.191946387290955145e-01 -6.420103311538696289e-01 1.400000000000000000e+01
3.233320236206055132e+00 -4.936125278472899836e-01 -6.357755661010742188e-01 1.200000000000000000e+01
3.879911184310913086e+00 -5.937098264694213867e-01 -6.216705441474914551e-01 1.000000000000000000e+01
3.655969619750977273e+01 -5.600949764251708984e+00 4.541339397430419922e+00 1.900000000000000000e+01
4.985814571380615234e+00 -7.647180557250976562e-01 -6.193400025367736816e-01 9.000000000000000000e+00
3.537132644653320312e+01 -5.431529521942138672e+00 5.667933464050292969e+00 1.300000000000000000e+01
6.608993053436279297e+00 -1.014859795570373979e+00 -5.849893689155578613e-01 6.000000000000000000e+00
3.423548507690429688e+01 -5.263228416442871094e+00 6.732886314392089844e+00 5.900000000000000000e+01
1.031817150115966975e+01 -1.588118433952331987e+00 -5.471200942993164062e-01 2.000000000000000000e+00
2.068412017822265980e+01 -3.190982103347777876e+00 -3.653137683868408203e-01 3.000000000000000000e+00
4.208784103393554688e+01 -6.492978572845458984e+00 1.141081428527832031e+01 1.100000000000000000e+01
2.389882802963256836e+00 -3.721092343330382746e-01 -6.480829119682312012e-01 2.000000000000000000e+01
3.763766860961914062e+01 -5.866983890533447266e+00 6.649017930030822754e-01 3.100000000000000000e+01
2.739893436431885210e+00 -4.275861978530883789e-01 -6.402106881141662598e-01 1.400000000000000000e+01
3.217999458312987837e+00 -5.027744770050048828e-01 -6.331042647361755371e-01 1.200000000000000000e+01
3.877815008163452148e+00 -6.072496175765991211e-01 -6.216705441474914551e-01 1.000000000000000000e+01
4.981153964996337891e+00 -7.818093895912170410e-01 -6.190962791442871094e-01 1.000000000000000000e+01
6.627060890197753906e+00 -1.041325330734252930e+00 -5.869067907333374023e-01 6.000000000000000000e+00
3.421690368652343750e+01 -5.382700443267822266e+00 6.732886314392089844e+00 5.900000000000000000e+01
1.031256484985351918e+01 -1.624125838279723899e+00 -5.471200942993164062e-01 2.000000000000000000e+00
2.386794090270996094e+00 -3.793122172355651855e-01 -6.475652456283569336e-01 1.900000000000000000e+01
3.769014358520507812e+01 -5.996508121490479404e+00 6.661583781242370605e-01 3.100000000000000000e+01
2.761630535125731978e+00 -4.398700594902039129e-01 -6.456094980239868164e-01 1.300000000000000000e+01
3.789064788818358664e+01 -6.041970252990722656e+00 2.010852098464965820e+00 2.100000000000000000e+01
3.218342781066894975e+00 -5.131908059120178223e-01 -6.334858536720275879e-01 1.100000000000000000e+01
3.891493082046508789e+00 -6.219230294227600098e-01 -6.241735219955444336e-01 1.000000000000000000e+01
4.974752902984619141e+00 -7.968263030052185059e-01 -6.186087727546691895e-01 1.000000000000000000e+01
6.613920688629150391e+00 -1.060562491416930930e+00 -5.860351920127868652e-01 6.000000000000000000e+00
1.033107471466063920e+01 -1.660318732261657937e+00 -5.483761429786682129e-01 2.000000000000000000e+00
3.498981475830078125e+01 -5.629517078399658203e+00 8.181920051574707031e+00 1.000000000000000000e+01
3.626762008666992188e+01 -5.848091602325438565e+00 9.843405723571777344e+00 7.000000000000000000e+00
2.374014377593994141e+00 -3.857821822166442871e-01 -6.444594264030456543e-01 1.600000000000000000e+01
2.756231307983397993e+00 -4.488807916641234796e-01 -6.447097063064575195e-01 1.300000000000000000e+01
3.220407247543334961e+00 -5.250536203384399414e-01 -6.342490911483764648e-01 1.100000000000000000e+01
3.887349128723144975e+00 -6.351845860481262207e-01 -6.238606572151184082e-01 1.100000000000000000e+01
4.983695030212402344e+00 -8.161113858222961426e-01 -6.200712323188781738e-01 1.000000000000000000e+01
3.642176818847656250e+01 -5.970820903778076172e+00 5.845643043518066406e+00 1.300000000000000000e+01
6.620008945465087891e+00 -1.085254430770874023e+00 -5.869067907333374023e-01 8.000000000000000000e+00
1.034886646270751953e+01 -1.700256347656250000e+00 -5.496321916580200195e-01 2.000000000000000000e+00
2.084807205200194957e+01 -3.432686567306518999e+00 -3.688042461872100830e-01 3.000000000000000000e+00
3.481738662719727273e+01 -5.739010334014892578e+00 9.455177307128906250e+00 7.000000000000000000e+00
2.385993480682373047e+00 -3.962823152542114258e-01 -6.480829119682312012e-01 1.800000000000000000e+01
2.746958494186400923e+00 -4.572192728519440252e-01 -6.429101228713989258e-01 1.400000000000000000e+01
3.218554735183715820e+00 -5.362917184829711914e-01 -6.342490911483764648e-01 1.100000000000000000e+01
3.871469259262084961e+00 -6.464726328849792480e-01 -6.216705441474914551e-01 1.100000000000000000e+01
3.740615844726563211e+01 -6.252933025360107422e+00 4.656627655029296875e+00 4.000000000000000000e+01
4.986689567565917969e+00 -8.344856500625610352e-01 -6.208024621009826660e-01 9.000000000000000000e+00
3.550945281982421875e+01 -5.942244529724121094e+00 5.702349185943604404e+00 1.300000000000000000e+01
6.608320236206054688e+00 -1.107039332389831987e+00 -5.862095355987548828e-01 6.000000000000000000e+00
3.686749267578125000e+01 -6.182733058929443359e+00 7.266387939453125000e+00 6.200000000000000000e+01
1.031923198699950994e+01 -1.732402205467223899e+00 -5.483761429786682129e-01 2.000000000000000000e+00
3.406563568115233664e+01 -5.725083827972412109e+00 7.974964618682861328e+00 2.000000000000000000e+01
2.093456077575683949e+01 -3.522027254104613814e+00 -3.705494999885559082e-01 3.000000000000000000e+00
3.480666732788085938e+01 -5.862115383148193359e+00 9.457765579223632812e+00 1.400000000000000000e+01
2.382691144943236861e+00 -4.042854011058806818e-01 -6.475652456283569336e-01 1.500000000000000000e+01
2.739582300186156782e+00 -4.658251404762268066e-01 -6.415604352951049805e-01 1.300000000000000000e+01
3.216663122177124023e+00 -5.475233197212219238e-01 -6.342490911483764648e-01 1.100000000000000000e+01
3.871136426925659180e+00 -6.603147983551025391e-01 -6.219834089279174805e-01 1.100000000000000000e+01
3.739780044555664062e+01 -6.385805606842041016e+00 4.658333778381347656e+00 2.000000000000000000e+01
4.972006320953369141e+00 -8.498805761337280273e-01 -6.193400025367736816e-01 9.000000000000000000e+00
6.620126724243164062e+00 -1.132788181304932085e+00 -5.876040458679199219e-01 8.000000000000000000e+00
1.036430358886718928e+01 -1.777188658714293990e+00 -5.510976314544677734e-01 2.000000000000000000e+00
3.408769989013671875e+01 -5.851212978363037109e+00 7.984862804412841797e+00 1.000000000000000000e+01
2.092214012145996094e+01 -3.595081090927124023e+00 -3.705494999885559082e-01 3.000000000000000000e+00
3.488689804077147727e+01 -6.000934600830078125e+00 9.485199928283691406e+00 7.000000000000000000e+00
2.387048006057738814e+00 -4.131729304790496826e-01 -6.491181850433349609e-01 1.500000000000000000e+01
5.975047302246093750e+01 -1.035292053222656072e+01 1.058488488197327104e+00 6.100000000000000000e+01
2.738022565841674805e+00 -4.749073684215546209e-01 -6.415604352951049805e-01 1.300000000000000000e+01
3.214829921722412109e+00 -5.581871271133422852e-01 -6.342490911483764648e-01 1.100000000000000000e+01
3.882548332214355025e+00 -6.755185127258300781e-01 -6.241735219955444336e-01 1.000000000000000000e+01
3.848331832885742188e+01 -6.702572822570800781e+00 4.796289920806884766e+00 2.000000000000000000e+01
4.961338043212890625e+00 -8.649998307228088379e-01 -6.183650493621826172e-01 9.000000000000000000e+00
3.892431640625000000e+01 -6.786380290985107422e+00 6.258004188537597656e+00 1.400000000000000000e+01
6.622221946716308594e+00 -1.155762791633605957e+00 -5.881269574165344238e-01 5.000000000000000000e+00
1.044098377227783025e+01 -1.825999259948730025e+00 -5.554938316345214844e-01 2.000000000000000000e+00
2.094161796569823863e+01 -3.669964551925659180e+00 -3.711079657077788752e-01 3.000000000000000000e+00
3.475180053710938211e+01 -6.090163230895996094e+00 9.453624725341796875e+00 1.400000000000000000e+01
2.381786346435546875e+00 -4.208304882049561102e-01 -6.480829119682312012e-01 1.800000000000000000e+01
2.744023561477661133e+00 -4.858209192752838135e-01 -6.433600187301635742e-01 1.200000000000000000e+01
3.214794874191284180e+00 -5.697482228279113770e-01 -6.346307396888732910e-01 1.200000000000000000e+01
3.891836404800415039e+00 -6.911394596099853516e-01 -6.260507106781005859e-01 1.000000000000000000e+01
4.977832317352294922e+00 -8.857906460762023926e-01 -6.208024621009826660e-01 9.000000000000000000e+00
6.627954959869384766e+00 -1.180618524551392046e+00 -5.889984965324401855e-01 8.000000000000000000e+00
1.043454647064208984e+01 -1.862434029579163042e+00 -5.554938316345214844e-01 2.000000000000000000e+00
3.426577758789063211e+01 -6.122176647186279297e+00 8.036151885986328125e+00 1.000000000000000000e+01
2.084206771850585938e+01 -3.727551698684691939e+00 -3.695721626281737726e-01 7.000000000000000000e+00
3.531304168701171875e+01 -6.322010040283203125e+00 9.612539291381835938e+00 7.000000000000000000e+00
2.372698068618773970e+00 -4.277708530426024836e-01 -6.460123658180236816e-01 1.900000000000000000e+01
2.748064279556273970e+00 -4.964356720447539728e-01 -6.447097063064575195e-01 1.200000000000000000e+01
3.214718580245972124e+00 -5.813158154487609863e-01 -6.350123286247253418e-01 1.100000000000000000e+01
3.879681587219237837e+00 -7.029593586921691895e-01 -6.244863867759704590e-01 1.100000000000000000e+01
3.831058120727539062e+01 -6.948399066925048828e+00 4.780690670013427734e+00 2.000000000000000000e+01
4.982522964477539062e+00 -9.045795202255249023e-01 -6.217774152755737305e-01 9.000000000000000000e+00
6.645356178283691406e+00 -1.207665920257567915e+00 -5.909159183502197266e-01 5.000000000000000000e+00
1.043584156036376953e+01 -1.900277256965636985e+00 -5.559125542640686035e-01 2.000000000000000000e+00
3.410232925415039062e+01 -6.215890407562255859e+00 8.002859115600585938e+00 1.000000000000000000e+01
2.074040412902832031e+01 -3.784129619598389116e+00 -3.680014312267302912e-01 1.000000000000000000e+01
3.526907730102539062e+01 -6.434916496276854581e+00 9.606328010559082031e+00 1.400000000000000000e+01
2.374990463256835938e+00 -4.367493093013762873e-01 -6.470476388931274414e-01 1.900000000000000000e+01
2.740565061569213867e+00 -5.049657821655273438e-01 -6.433600187301635742e-01 1.300000000000000000e+01
3.224253892898560014e+00 -5.946702957153320312e-01 -6.373020410537719727e-01 1.200000000000000000e+01
3.782977294921875000e+01 -6.984019756317138672e+00 3.365606069564818892e+00 5.000000000000000000e+01
3.886916637420653853e+00 -7.182925343513488770e-01 -6.260507106781005859e-01 1.400000000000000000e+01
4.991046428680419922e+00 -9.241347312927246094e-01 -6.232398152351379395e-01 9.000000000000000000e+00
6.648936271667479581e+00 -1.232307553291321023e+00 -5.916131734848022461e-01 6.000000000000000000e+00
1.046056365966797053e+01 -1.942528009414673074e+00 -5.575872659683227539e-01 2.000000000000000000e+00
3.319718170166016336e+01 -6.170714855194091797e+00 7.795454025268554688e+00 1.900000000000000000e+01
1.983452415466308949e+01 -3.690436363220214844e+00 -3.521546423435211182e-01 1.000000000000000000e+01
3.520157241821289062e+01 -6.556005477905273438e+00 9.594422340393066406e+00 7.000000000000000000e+00
2.381046533584595171e+00 -4.464610517024993896e-01 -6.491181850433349609e-01 1.900000000000000000e+01
2.736870527267456055e+00 -5.141692757606506348e-01 -6.429101228713989258e-01 1.300000000000000000e+01
3.220229148864746094e+00 -6.055585741996765137e-01 -6.369204521179199219e-01 1.200000000000000000e+01
3.880503177642821822e+00 -7.311245203018188477e-01 -6.254249811172485352e-01 1.100000000000000000e+01
5.009247303009033203e+00 -9.456015825271606445e-01 -6.259209513664245605e-01 1.000000000000000000e+01
6.660256385803222656e+00 -1.258468508720397949e+00 -5.930076837539672852e-01 5.000000000000000000e+00
1.045371913909911932e+01 -1.979030370712280051e+00 -5.575872659683227539e-01 2.000000000000000000e+00
3.320607376098632812e+01 -6.292362213134765625e+00 7.802652359008789062e+00 1.900000000000000000e+01
1.977240562438964844e+01 -3.750333070755004883e+00 -3.512820303440093994e-01 1.000000000000000000e+01
3.531250000000000000e+01 -6.697902679443359375e+00 9.630656242370605469e+00 7.000000000000000000e+00
2.394653558731079102e+00 -4.576709568500518799e-01 -6.532592773437500000e-01 1.900000000000000000e+01
2.735059022903441939e+00 -5.237196087837219238e-01 -6.429101228713989258e-01 1.200000000000000000e+01
3.208454847335814986e+00 -6.149477958679199219e-01 -6.350123286247253418e-01 1.100000000000000000e+01
3.883747100830078125e+00 -7.457830905914306641e-01 -6.263635754585266113e-01 1.100000000000000000e+01
4.974726200103759766e+00 -9.570809006690979004e-01 -6.220211386680603027e-01 1.000000000000000000e+01
3.615284347534179688e+01 -6.961940288543701172e+00 5.831251144409179688e+00 1.300000000000000000e+01
6.659735679626464844e+00 -1.282462954521178977e+00 -5.933563113212585449e-01 6.000000000000000000e+00
1.048596954345702947e+01 -2.023075819015502930e+00 -5.596807003021240234e-01 2.000000000000000000e+00
3.334846115112304688e+01 -6.440011501312255859e+00 7.841343879699707031e+00 1.900000000000000000e+01
2.077621078491210938e+01 -4.015912055969238281e+00 -3.693627417087554932e-01 1.000000000000000000e+01
2.379767894744873047e+00 -4.634421467781066895e-01 -6.496357917785644531e-01 1.900000000000000000e+01
4.608745574951171875e+01 -8.983539581298828125e+00 8.195999264717102051e-01 5.400000000000000000e+01
2.748515844345093218e+00 -5.362489223480224609e-01 -6.465093493461608887e-01 1.400000000000000000e+01
3.200508117675780806e+00 -6.250147819519042969e-01 -6.338675022125244141e-01 1.100000000000000000e+01
3.883058786392211914e+00 -7.597146630287170410e-01 -6.266764402389526367e-01 1.100000000000000000e+01
4.971354961395263672e+00 -9.744400978088378906e-01 -6.220211386680603027e-01 1.000000000000000000e+01
3.773075103759766336e+01 -7.395640373229979581e+00 6.089680671691895419e+00 1.400000000000000000e+01
6.659128665924072266e+00 -1.306469082832335982e+00 -5.937049388885498047e-01 8.000000000000000000e+00
1.047884368896484020e+01 -2.059666395187377930e+00 -5.596807003021240234e-01 2.000000000000000000e+00
3.323973083496093750e+01 -6.539452075958251953e+00 7.821098327636718750e+00 9.000000000000000000e+00
2.043244743347167969e+01 -4.023502349853515625e+00 -3.634987175464630127e-01 3.000000000000000000e+00
3.666751480102539062e+01 -7.220468044281005859e+00 1.001370906829833984e+01 8.000000000000000000e+00
2.374345779418944868e+00 -4.709944725036621094e-01 -6.486005187034606934e-01 1.900000000000000000e+01
2.742804527282714844e+00 -5.450800657272338867e-01 -6.456094980239868164e-01 1.400000000000000000e+01
3.200232505798339844e+00 -6.365658044815063477e-01 -6.342490911483764648e-01 1.200000000000000000e+01
3.884257793426514116e+00 -7.740365266799926758e-01 -6.273022294044494629e-01 1.000000000000000000e+01
4.981550216674804688e+00 -9.945078492164611816e-01 -6.237273216247558594e-01 9.000000000000000000e+00
6.662343025207520419e+00 -1.331267476081847922e+00 -5.944021940231323242e-01 5.000000000000000000e+00
3.588632583618164062e+01 -7.177309513092041016e+00 7.113740921020507812e+00 6.100000000000000000e+01
1.051075839996338068e+01 -2.104072570800780806e+00 -5.617741346359252930e-01 2.000000000000000000e+00
3.372114562988281250e+01 -6.756512641906738281e+00 7.939872264862061435e+00 9.000000000000000000e+00
1.979870986938476918e+01 -3.970548629760742188e+00 -3.524687886238098145e-01 3.000000000000000000e+00
2.370709896087646040e+00 -4.793108701705933172e-01 -6.480829119682312012e-01 2.000000000000000000e+01
2.736968278884888139e+00 -5.543556213378906250e-01 -6.447097063064575195e-01 1.400000000000000000e+01
3.209422588348389116e+00 -6.506313681602478027e-01 -6.365388035774230957e-01 1.200000000000000000e+01
3.881394863128662109e+00 -7.882678508758544922e-01 -6.273022294044494629e-01 1.000000000000000000e+01
3.760673522949218750e+01 -7.644341468811035156e+00 4.711956501007080078e+00 2.000000000000000000e+01
5.001214504241943359e+00 -1.017508625984191895e+00 -6.266521811485290527e-01 9.000000000000000000e+00
6.667180538177490234e+00 -1.357665061950684038e+00 -5.952737331390380859e-01 5.000000000000000000e+00
1.047166442871093928e+01 -2.136194705963135210e+00 -5.600994229316711426e-01 2.000000000000000000e+00
3.379544067382813211e+01 -6.900333881378173828e+00 7.963267326354979581e+00 1.000000000000000000e+01
1.820882606506348012e+01 -3.721178293228148970e+00 -3.244053423404694159e-01 3.000000000000000000e+00
4.015053176879882812e+01 -8.205212593078613281e+00 1.098065662384033025e+01 1.000000000000000000e+01
2.370914697647095171e+00 -4.879727363586425781e-01 -6.486005187034606934e-01 1.900000000000000000e+01
2.731199264526367188e+00 -5.631189942359924316e-01 -6.438099145889282227e-01 1.400000000000000000e+01
3.222513914108275923e+00 -6.650046706199645996e-01 -6.395917534828186035e-01 1.300000000000000000e+01
3.886357545852661133e+00 -8.034112453460693359e-01 -6.285536885261535645e-01 1.000000000000000000e+01
4.982081413269042969e+00 -1.031739473342895952e+00 -6.247022747993469238e-01 9.000000000000000000e+00
6.676057338714599609e+00 -1.383760213851928933e+00 -5.964938998222351074e-01 6.000000000000000000e+00
1.049152183532715021e+01 -2.178419351577758789e+00 -5.615648031234741211e-01 2.000000000000000000e+00
1.809783554077148082e+01 -3.764355182647705078e+00 -3.226600885391234796e-01 6.000000000000000000e+00
3.553945541381835938e+01 -7.398688316345214844e+00 9.726937294006347656e+00 7.000000000000000000e+00
2.386388540267943892e+00 -4.989772140979766846e-01 -6.532592773437500000e-01 2.300000000000000000e+01
2.723694801330565962e+00 -5.704979896545410156e-01 -6.424602270126342773e-01 1.200000000000000000e+01
3.216565847396851030e+00 -6.743195056915283203e-01 -6.388285160064697266e-01 1.200000000000000000e+01
3.881881237030028853e+00 -8.152106404304504395e-01 -6.282408237457275391e-01 1.100000000000000000e+01
3.714336776733397727e+01 -7.807025432586669922e+00 4.660283565521240234e+00 2.000000000000000000e+01
4.982700824737548828e+00 -1.048203349113463911e+00 -6.251897215843200684e-01 9.000000000000000000e+00
6.671677112579345703e+00 -1.404726743698119895e+00 -5.964938998222351074e-01 5.000000000000000000e+00
1.052371215820313033e+01 -2.219612360000609907e+00 -5.636582374572753906e-01 2.000000000000000000e+00
3.981992721557617188e+01 -8.405892372131347656e+00 9.395755767822265625e+00 1.200000000000000000e+01
1.803505134582519887e+01 -3.810445070266724077e+00 -3.217525780200958252e-01 3.000000000000000000e+00
3.550978469848632812e+01 -7.502506256103515625e+00 9.724866867065429688e+00 7.000000000000000000e+00
2.378963470458983931e+00 -5.060982704162597656e-01 -6.517063379287719727e-01 2.100000000000000000e+01
2.738840103149414062e+00 -5.836574435234069824e-01 -6.465093493461608887e-01 1.400000000000000000e+01
3.200751781463623047e+00 -6.826766729354858398e-01 -6.361572146415710449e-01 1.200000000000000000e+01
3.896397829055786133e+00 -8.324705362319946289e-01 -6.310566067695617676e-01 1.000000000000000000e+01
3.739542388916016336e+01 -7.996406078338623047e+00 4.695382118225097656e+00 2.000000000000000000e+01
4.996481895446777344e+00 -1.069328784942626953e+00 -6.273833513259887695e-01 1.000000000000000000e+01
3.627610015869141336e+01 -7.763678073883056641e+00 5.875678539276123047e+00 1.300000000000000000e+01
6.688163280487061435e+00 -1.432597041130065918e+00 -5.984113216400146484e-01 6.000000000000000000e+00
1.050027751922607067e+01 -2.252981424331665039e+00 -5.628208518028259277e-01 2.000000000000000000e+00
4.188617324829102273e+01 -8.994912147521972656e+00 9.890647888183593750e+00 1.300000000000000000e+01
1.798254013061523082e+01 -3.864971876144409180e+00 -3.210544586181641180e-01 3.000000000000000000e+00
3.742498397827147727e+01 -8.043720245361328125e+00 1.025699901580811080e+01 8.000000000000000000e+00
2.367741584777832031e+00 -5.123564600944519043e-01 -6.491181850433349609e-01 1.900000000000000000e+01
2.740595102310181108e+00 -5.940398573875427246e-01 -6.474091410636901855e-01 1.400000000000000000e+01
3.200268030166625977e+00 -6.942614316940307617e-01 -6.365388035774230957e-01 1.200000000000000000e+01
3.887677192687987837e+00 -8.448080420494079590e-01 -6.301180124282836914e-01 1.000000000000000000e+01
3.736340332031250000e+01 -8.126048088073730469e+00 4.694894790649414062e+00 2.000000000000000000e+01
4.994658470153808594e+00 -1.087185382843018022e+00 -6.276271343231201172e-01 9.000000000000000000e+00
6.665601253509520596e+00 -1.452117443084717019e+00 -5.968425273895263672e-01 8.000000000000000000e+00
1.058991622924805043e+01 -2.310911417007445845e+00 -5.680544972419738770e-01 2.000000000000000000e+00
3.633712768554688211e+01 -7.936062812805175781e+00 8.586832046508789062e+00 1.100000000000000000e+01
1.912154579162598012e+01 -4.179660320281982422e+00 -3.416483104228972834e-01 6.000000000000000000e+00
2.375372409820557085e+00 -5.226941108703613281e-01 -6.517063379287719727e-01 2.100000000000000000e+01
2.740407943725585938e+00 -6.040222048759460449e-01 -6.478590369224548340e-01 1.500000000000000000e+01
3.207410812377930132e+00 -7.075428366661071777e-01 -6.384469270706176758e-01 1.200000000000000000e+01
3.875060319900513139e+00 -8.562423586845397949e-01 -6.285536885261535645e-01 1.000000000000000000e+01
3.663315963745117188e+01 -8.101254463195800781e+00 4.606661319732666016e+00 1.900000000000000000e+01
5.002461910247802734e+00 -1.107187271118164062e+00 -6.290895342826843262e-01 9.000000000000000000e+00
6.664381980895996094e+00 -1.476237654685973899e+00 -5.971911549568176270e-01 5.000000000000000000e+00
1.058178520202637074e+01 -2.347862958908081055e+00 -5.680544972419738770e-01 2.000000000000000000e+00
3.630920410156250000e+01 -8.062854766845703125e+00 8.586832046508789062e+00 1.100000000000000000e+01
1.915368843078612926e+01 -4.256793498992919922e+00 -3.424860239028931219e-01 9.000000000000000000e+00
2.375418663024901900e+00 -5.314042568206787109e-01 -6.522240042686462402e-01 1.900000000000000000e+01
2.717365503311156782e+00 -6.088972091674804688e-01 -6.429101228713989258e-01 1.200000000000000000e+01
3.208752870559691939e+00 -7.195937037467956543e-01 -6.392101049423217773e-01 1.200000000000000000e+01
3.881684780120850053e+00 -8.719283342361450195e-01 -6.301180124282836914e-01 1.100000000000000000e+01
3.708110046386718750e+01 -8.336187362670898438e+00 4.666620731353759766e+00 2.000000000000000000e+01
5.008250236511229581e+00 -1.126821041107177956e+00 -6.303082704544067383e-01 1.000000000000000000e+01
6.684456825256347656e+00 -1.505181550979614036e+00 -5.994572043418884277e-01 6.000000000000000000e+00
1.054235172271729049e+01 -2.377755165100098100e+00 -5.663797259330749512e-01 2.000000000000000000e+00
1.890854835510253906e+01 -4.271630287170410156e+00 -3.383672535419464111e-01 6.000000000000000000e+00
3.790401077270507812e+01 -8.562894821166992188e+00 1.041229057312012074e+01 8.000000000000000000e+00
2.381084203720093218e+00 -5.414060950279235840e-01 -6.542945504188537598e-01 1.900000000000000000e+01
2.722823858261107954e+00 -6.201097965240478516e-01 -6.447097063064575195e-01 1.400000000000000000e+01
3.208135604858397993e+00 -7.312262058258056641e-01 -6.395917534828186035e-01 1.200000000000000000e+01
3.872839927673339844e+00 -8.841536641120910645e-01 -6.291794180870056152e-01 1.000000000000000000e+01
4.996545791625976562e+00 -1.142526268959044966e+00 -6.293333172798156738e-01 1.000000000000000000e+01
3.613191223144531250e+01 -8.268675804138183594e+00 5.870672702789306641e+00 1.300000000000000000e+01
6.677219867706298828e+00 -1.528061032295227051e+00 -5.992828607559204102e-01 5.000000000000000000e+00
1.062353897094726918e+01 -2.435066699981689009e+00 -5.711946487426757812e-01 3.000000000000000000e+00
1.811782455444335938e+01 -4.159521102905273438e+00 -3.244751393795012873e-01 3.000000000000000000e+00
3.797556304931641336e+01 -8.718494415283203125e+00 1.044024276733398082e+01 8.000000000000000000e+00
2.379179954528809038e+00 -5.497143268585205078e-01 -6.542945504188537598e-01 2.000000000000000000e+01
2.732033967971802202e+00 -6.322466731071472168e-01 -6.474091410636901855e-01 1.300000000000000000e+01
3.203650951385498047e+00 -7.419772744178771973e-01 -6.392101049423217773e-01 1.200000000000000000e+01
3.887048721313477007e+00 -9.016844034194946289e-01 -6.319952607154846191e-01 1.200000000000000000e+01
4.296222305297852273e+01 -9.973912239074707031e+00 5.415386199951171875e+00 3.500000000000000000e+01
4.986726284027099609e+00 -1.158612728118896040e+00 -6.286020874977111816e-01 1.000000000000000000e+01
3.591188049316406250e+01 -8.343742370605468750e+00 5.839385509490966797e+00 1.300000000000000000e+01
6.664083003997802734e+00 -1.549554586410522017e+00 -5.985856652259826660e-01 5.000000000000000000e+00
3.507097244262695312e+01 -8.161271095275878906e+00 6.999255657196044922e+00 6.000000000000000000e+01
1.063442611694335938e+01 -2.476665258407593218e+00 -5.722413659095764160e-01 3.000000000000000000e+00
1.804477310180664062e+01 -4.209111213684082031e+00 -3.234280049800872803e-01 1.500000000000000000e+01
3.671449661254882812e+01 -8.563998222351074219e+00 1.010170745849609020e+01 8.000000000000000000e+00
2.362200736999512163e+00 -5.544841289520263672e-01 -6.501534581184387207e-01 2.000000000000000000e+01
2.743089437484741211e+00 -6.449013352394104004e-01 -6.505584716796875000e-01 1.500000000000000000e+01
3.201041460037231001e+00 -7.531555891036987305e-01 -6.392101049423217773e-01 1.200000000000000000e+01
3.881954908370972124e+00 -9.147941470146179199e-01 -6.316823959350585938e-01 1.000000000000000000e+01
4.254072952270507812e+01 -1.003268623352050959e+01 5.366638183593750000e+00 3.300000000000000000e+01
4.998107910156250000e+00 -1.179660558700561968e+00 -6.305519938468933105e-01 1.000000000000000000e+01
3.607330322265625000e+01 -8.520720481872558594e+00 5.870672702789306641e+00 1.300000000000000000e+01
6.674145698547363281e+00 -1.576471209526062012e+00 -5.999801158905029297e-01 5.000000000000000000e+00
1.059461879730224965e+01 -2.506414175033568892e+00 -5.705665946006774902e-01 3.000000000000000000e+00
3.783530044555664062e+01 -8.957832336425781250e+00 8.976447105407714844e+00 1.200000000000000000e+01
1.798521614074707031e+01 -4.261469364166259766e+00 -3.226251900196074884e-01 1.200000000000000000e+01
3.705880737304688211e+01 -8.787652969360351562e+00 1.020523452758789062e+01 8.000000000000000000e+00
2.360250711441040039e+00 -5.627263784408569336e-01 -6.501534581184387207e-01 2.000000000000000000e+01
4.217546463012695312e+01 -1.006317138671875000e+01 7.568410634994506836e-01 4.400000000000000000e+01
2.731344461441040039e+00 -6.522095203399658203e-01 -6.483089327812194824e-01 1.300000000000000000e+01
3.204121589660644975e+00 -7.656936645507812500e-01 -6.403549909591674805e-01 1.200000000000000000e+01
3.874895572662353960e+00 -9.274195432662963867e-01 -6.310566067695617676e-01 1.000000000000000000e+01
5.011332988739013672e+00 -1.201264739036560059e+00 -6.327456235885620117e-01 1.000000000000000000e+01
6.662789821624755859e+00 -1.598364472389220969e+00 -5.994572043418884277e-01 3.000000000000000000e+00
1.063629722595215021e+01 -2.555512428283690962e+00 -5.732880830764770508e-01 3.000000000000000000e+00
3.777916717529296875e+01 -9.083924293518066406e+00 8.970598220825195312e+00 2.400000000000000000e+01
3.637207794189453125e+01 -8.752307891845703125e+00 1.002406120300292969e+01 8.000000000000000000e+00
2.367660045623778853e+00 -5.732346773147583008e-01 -6.527416110038757324e-01 1.900000000000000000e+01
2.715794086456298828e+00 -6.585251688957214355e-01 -6.451596021652221680e-01 1.300000000000000000e+01
3.207152843475341797e+00 -7.782623767852783203e-01 -6.414998173713684082e-01 1.200000000000000000e+01
3.879312753677368164e+00 -9.428057670593261719e-01 -6.323081254959106445e-01 1.000000000000000000e+01
3.630115509033203125e+01 -8.829133987426757812e+00 4.587162017822265625e+00 1.900000000000000000e+01
4.995536804199218750e+00 -1.215933322906493919e+00 -6.312832236289978027e-01 1.000000000000000000e+01
6.705564498901367188e+00 -1.633400559425354004e+00 -6.038149595260620117e-01 3.000000000000000000e+00
1.060790824890137074e+01 -2.587890863418579102e+00 -5.722413659095764160e-01 3.000000000000000000e+00
3.770747375488281250e+01 -9.206036567687988281e+00 8.961150169372558594e+00 1.200000000000000000e+01
3.718579864501953125e+01 -9.085550308227539062e+00 1.025699901580811080e+01 8.000000000000000000e+00
2.373148679733275923e+00 -5.833404660224914551e-01 -6.548121571540832520e-01 1.900000000000000000e+01
2.717263460159302202e+00 -6.689326763153076172e-01 -6.460594534873962402e-01 1.600000000000000000e+01
3.198698043823242188e+00 -7.880437970161437988e-01 -6.403549909591674805e-01 1.100000000000000000e+01
3.879833936691284180e+00 -9.572877883911132812e-01 -6.329338550567626953e-01 1.000000000000000000e+01
5.000897407531738281e+00 -1.235744595527648926e+00 -6.325019001960754395e-01 1.000000000000000000e+01
6.680480480194091797e+00 -1.652014493942260964e+00 -6.020718812942504883e-01 5.000000000000000000e+00
1.063370609283447088e+01 -2.633546113967895952e+00 -5.741254687309265137e-01 3.000000000000000000e+00
3.596896743774414062e+01 -8.914745330810546875e+00 8.555338859558105469e+00 1.100000000000000000e+01
1.818221473693848012e+01 -4.509747982025145596e+00 -3.269882798194885254e-01 3.000000000000000000e+00
3.911720275878906250e+01 -9.709515571594238281e+00 1.079948329925536932e+01 9.000000000000000000e+00
2.367349386215209961e+00 -5.906853675842285156e-01 -6.537768840789794922e-01 1.900000000000000000e+01
2.726255416870117188e+00 -6.812482476234436035e-01 -6.487588286399841309e-01 1.500000000000000000e+01
4.245260238647460938e+01 -1.060823535919188920e+01 2.293256998062133789e+00 3.200000000000000000e+01
3.190213918685913086e+00 -7.977756857872009277e-01 -6.392101049423217773e-01 1.100000000000000000e+01
3.884133577346802202e+00 -9.727447032928466797e-01 -6.341853141784667969e-01 1.000000000000000000e+01
5.000404357910156250e+00 -1.254159331321716087e+00 -6.329893469810485840e-01 9.000000000000000000e+00
3.716936111450195312e+01 -9.329401969909667969e+00 6.069657325744628906e+00 1.400000000000000000e+01
6.690133094787597656e+00 -1.679203987121582031e+00 -6.034663915634155273e-01 5.000000000000000000e+00
1.070580291748047053e+01 -2.691098451614379883e+00 -5.785216689109802246e-01 3.000000000000000000e+00
1.808103752136230113e+01 -4.551708698272705078e+00 -3.254524767398834229e-01 3.000000000000000000e+00
2.356013298034667969e+00 -5.961630344390869141e-01 -6.511887311935424805e-01 1.900000000000000000e+01
2.729648351669311968e+00 -6.917211413383483887e-01 -6.501085758209228516e-01 1.400000000000000000e+01
3.193259716033935991e+00 -8.097982406616210938e-01 -6.403549909591674805e-01 1.100000000000000000e+01
3.882801055908203125e+00 -9.861057996749877930e-01 -6.344981789588928223e-01 1.100000000000000000e+01
5.003913402557373047e+00 -1.272691607475280984e+00 -6.339643001556396484e-01 9.000000000000000000e+00
6.698043346405029297e+00 -1.704820156097412109e+00 -6.046865582466125488e-01 5.000000000000000000e+00
1.069682025909424006e+01 -2.726585149765015093e+00 -5.785216689109802246e-01 3.000000000000000000e+00
3.573750686645507812e+01 -9.116019248962402344e+00 8.514847755432128906e+00 1.100000000000000000e+01
3.656452941894531250e+01 -9.340573310852050781e+00 1.011206054687500000e+01 8.000000000000000000e+00
2.353918075561522993e+00 -6.043834090232849121e-01 -6.511887311935424805e-01 1.900000000000000000e+01
2.723442554473876953e+00 -7.002746462821960449e-01 -6.492087244987487793e-01 1.400000000000000000e+01
3.196117639541625977e+00 -8.224075436592102051e-01 -6.414998173713684082e-01 1.200000000000000000e+01
3.869770765304564986e+00 -9.971886873245239258e-01 -6.329338550567626953e-01 1.100000000000000000e+01
3.623748397827147727e+01 -9.344664573669433594e+00 4.594961643218994141e+00 1.900000000000000000e+01
5.003284454345703125e+00 -1.291142821311950906e+00 -6.344518065452575684e-01 1.000000000000000000e+01
6.692051887512207031e+00 -1.728190302848815918e+00 -6.046865582466125488e-01 5.000000000000000000e+00
1.068723773956299006e+01 -2.763907432556151900e+00 -5.785216689109802246e-01 3.000000000000000000e+00
3.568283081054688211e+01 -9.234851837158203125e+00 8.509448051452636719e+00 1.100000000000000000e+01
3.892164230346679688e+01 -1.008756732940674006e+01 1.077360153198242010e+01 9.000000000000000000e+00
2.359271764755249023e+00 -6.145442724227905273e-01 -6.532592773437500000e-01 1.800000000000000000e+01
2.717210292816162109e+00 -7.087932229042053223e-01 -6.483089327812194824e-01 1.400000000000000000e+01
3.200825691223144975e+00 -8.355425596237182617e-01 -6.430262923240661621e-01 1.200000000000000000e+01
3.879644393920897993e+00 -1.014187812805176003e+00 -6.351239085197448730e-01 1.100000000000000000e+01
3.590505218505858664e+01 -9.392726898193359375e+00 4.556938648223876953e+00 1.900000000000000000e+01
5.002587795257568359e+00 -1.309605121612549050e+00 -6.349392533302307129e-01 9.000000000000000000e+00
3.643093109130858664e+01 -9.537090301513671875e+00 5.964533329010009766e+00 1.300000000000000000e+01
6.684051036834716797e+00 -1.751034498214721902e+00 -6.045122146606445312e-01 5.000000000000000000e+00
1.067752456665039062e+01 -2.801196098327637163e+00 -5.785216689109802246e-01 3.000000000000000000e+00
2.584682655334473012e+01 -6.790431976318359375e+00 -4.664679169654846191e-01 4.000000000000000000e+00
3.626094436645507812e+01 -9.526410102844238281e+00 1.004580211639403942e+01 8.000000000000000000e+00
2.360847949981689009e+00 -6.237629055976867676e-01 -6.542945504188537598e-01 1.900000000000000000e+01
2.716603517532349077e+00 -7.187721729278564453e-01 -6.487588286399841309e-01 1.500000000000000000e+01
3.188400506973267046e+00 -8.441979289054870605e-01 -6.411182284355163574e-01 1.200000000000000000e+01
3.622294616699218750e+01 -9.597574234008789062e+00 3.278450489044189009e+00 4.700000000000000000e+01
3.872261762619018999e+00 -1.026711583137511985e+00 -6.344981789588928223e-01 1.100000000000000000e+01
3.599484252929688211e+01 -9.550583839416503906e+00 4.572537899017333984e+00 1.900000000000000000e+01
4.990311622619628906e+00 -1.325021743774414062e+00 -6.339643001556396484e-01 9.000000000000000000e+00
3.582464981079102273e+01 -9.512119293212890625e+00 5.870672702789306641e+00 1.300000000000000000e+01
6.693302631378173828e+00 -1.778448581695557085e+00 -6.059067249298095703e-01 3.000000000000000000e+00
1.066768169403075994e+01 -2.838450670242310014e+00 -5.785216689109802246e-01 3.000000000000000000e+00
3.610258483886718750e+01 -9.626399993896484375e+00 1.001163864135742010e+01 8.000000000000000000e+00
2.356790065765380859e+00 -6.315000057220458984e-01 -6.537768840789794922e-01 1.900000000000000000e+01
4.231264877319335938e+01 -1.134555530548096058e+01 7.646597623825073242e-01 4.500000000000000000e+01
2.719724416732788086e+00 -7.297655940055847168e-01 -6.501085758209228516e-01 1.400000000000000000e+01
3.191122531890869141e+00 -8.568497896194458008e-01 -6.422630548477172852e-01 1.200000000000000000e+01
3.887730598449707031e+00 -1.045351386070251021e+00 -6.376268863677978516e-01 1.100000000000000000e+01
4.997157096862792969e+00 -1.345529794692992942e+00 -6.354267597198486328e-01 9.000000000000000000e+00
6.696672916412354404e+00 -1.804393529891967995e+00 -6.067782640457153320e-01 5.000000000000000000e+00
1.068470478057860973e+01 -2.882954597473144975e+00 -5.799870491027832031e-01 3.000000000000000000e+00
3.605181503295897727e+01 -9.741027832031250000e+00 1.000646209716797053e+01 8.000000000000000000e+00
2.354571342468262163e+00 -6.397228837013244629e-01 -6.537768840789794922e-01 2.100000000000000000e+01
2.730323314666748047e+00 -7.428359389305114746e-01 -6.532578468322753906e-01 1.500000000000000000e+01
3.188112020492554155e+00 -8.679836392402648926e-01 -6.422630548477172852e-01 1.200000000000000000e+01
3.874528884887694868e+00 -1.056317806243896040e+00 -6.360625624656677246e-01 1.100000000000000000e+01
3.642521667480468750e+01 -9.937483787536621094e+00 4.635910034179688388e+00 1.900000000000000000e+01
4.996259689331054688e+00 -1.364010572433471902e+00 -6.359142065048217773e-01 1.200000000000000000e+01
6.686489582061767578e+00 -1.826708078384398970e+00 -6.064296364784240723e-01 5.000000000000000000e+00
1.076319408416748047e+01 -2.944476604461669922e+00 -5.848019719123840332e-01 3.000000000000000000e+00
3.561343765258789062e+01 -9.762779235839843750e+00 9.894652366638183594e+00 7.000000000000000000e+00
2.346961975097655806e+00 -6.455797553062438965e-01 -6.522240042686462402e-01 1.900000000000000000e+01
2.712945938110352007e+00 -7.472698092460632324e-01 -6.496586203575134277e-01 1.500000000000000000e+01
3.200510978698730025e+00 -8.821685910224914551e-01 -6.453160047531127930e-01 1.200000000000000000e+01
3.865478515625000000e+00 -1.066908001899719016e+00 -6.351239085197448730e-01 1.200000000000000000e+01
4.997690200805664062e+00 -1.381286501884460005e+00 -6.366454362869262695e-01 1.000000000000000000e+01
6.698000431060791016e+00 -1.852485179901123047e+00 -6.079984903335571289e-01 6.000000000000000000e+00
1.071154499053955078e+01 -2.966547966003417969e+00 -5.824992060661315918e-01 3.000000000000000000e+00
3.561409759521483664e+01 -9.876664161682128906e+00 9.902934074401855469e+00 7.000000000000000000e+00
2.353998661041260210e+00 -6.563625335693359375e-01 -6.548121571540832520e-01 1.900000000000000000e+01
2.704689979553223100e+00 -7.551630139350891113e-01 -6.483089327812194824e-01 1.400000000000000000e+01
3.195521116256713867e+00 -8.928067684173583984e-01 -6.449344158172607422e-01 1.300000000000000000e+01
3.869340181350708008e+00 -1.082523465156554954e+00 -6.363754272460937500e-01 1.200000000000000000e+01
3.656878280639647727e+01 -1.023771286010742010e+01 4.662721157073974609e+00 2.000000000000000000e+01
5.006218433380126953e+00 -1.402471780776977983e+00 -6.383516192436218262e-01 9.000000000000000000e+00
6.710677623748779297e+00 -1.881232380867003950e+00 -6.097415685653686523e-01 5.000000000000000000e+00
1.072419929504395064e+01 -3.010397672653197798e+00 -5.837552547454833984e-01 3.000000000000000000e+00
3.817545318603516336e+01 -1.072344684600830078e+01 9.154607772827148438e+00 1.200000000000000000e+01
3.545492172241210938e+01 -9.972605705261230469e+00 9.868770599365234375e+00 7.000000000000000000e+00
2.362847328186035156e+00 -6.677276492118835449e-01 -6.579180359840393066e-01 1.900000000000000000e+01
2.705787897109984907e+00 -7.656607627868652344e-01 -6.492087244987487793e-01 1.400000000000000000e+01
3.188607215881348100e+00 -9.028860330581665039e-01 -6.441711783409118652e-01 1.200000000000000000e+01
3.873139619827270952e+00 -1.098178744316101074e+00 -6.376268863677978516e-01 1.100000000000000000e+01
3.694150161743164062e+01 -1.048125171661376953e+01 4.714880943298339844e+00 2.000000000000000000e+01
5.007021427154541016e+00 -1.421564698219299094e+00 -6.390828490257263184e-01 1.000000000000000000e+01
6.702153682708740234e+00 -1.904101014137268066e+00 -6.095672845840454102e-01 3.000000000000000000e+00
3.520211410522460938e+01 -1.000766181945800959e+01 7.113740921020507812e+00 6.100000000000000000e+01
1.080967807769775035e+01 -3.075138568878173828e+00 -5.889888405799865723e-01 3.000000000000000000e+00
3.811154937744141336e+01 -1.084916973114014027e+01 9.148309707641601562e+00 1.200000000000000000e+01
3.854299545288085938e+01 -1.097926139831542969e+01 1.073840236663818004e+01 9.000000000000000000e+00
2.358644962310791016e+00 -6.754396557807922363e-01 -6.574003696441650391e-01 1.900000000000000000e+01
2.710591554641724077e+00 -7.772496342658996582e-01 -6.510083675384521484e-01 1.400000000000000000e+01
3.185436248779296875e+00 -9.140108227729797363e-01 -6.441711783409118652e-01 1.300000000000000000e+01
3.880674123764038086e+00 -1.114964723587035911e+00 -6.395040750503540039e-01 1.100000000000000000e+01
4.992490291595458984e+00 -1.436289668083190918e+00 -6.378641724586486816e-01 9.000000000000000000e+00
6.714612483978270596e+00 -1.932996153831481934e+00 -6.113103628158569336e-01 3.000000000000000000e+00
1.079887771606444957e+01 -3.112852811813354048e+00 -5.889888405799865723e-01 3.000000000000000000e+00
3.816706466674804688e+01 -1.100914192199707031e+01 9.170804977416992188e+00 1.200000000000000000e+01
2.345021963119506836e+00 -6.808480620384216309e-01 -6.542945504188537598e-01 1.800000000000000000e+01
2.713338375091553178e+00 -7.888112664222717285e-01 -6.523580551147460938e-01 1.500000000000000000e+01
3.178294658660889116e+00 -9.245831370353698730e-01 -6.434079408645629883e-01 1.300000000000000000e+01
3.868975400924683061e+00 -1.126970887184143066e+00 -6.382526159286499023e-01 1.100000000000000000e+01
3.627857208251953125e+01 -1.057423973083495916e+01 4.639809608459472656e+00 1.900000000000000000e+01
4.985286712646484375e+00 -1.454022645950316939e+00 -6.376203894615173340e-01 9.000000000000000000e+00
6.713220596313476562e+00 -1.959267973899841087e+00 -6.118333339691162109e-01 3.000000000000000000e+00
3.531805419921875000e+01 -1.031434059143066051e+01 7.151902675628662109e+00 6.100000000000000000e+01
1.078739547729492010e+01 -3.152411699295043945e+00 -5.889888405799865723e-01 3.000000000000000000e+00
2.708787345886230113e+01 -7.926180839538574219e+00 -4.926465153694152832e-01 4.000000000000000000e+00
2.337071180343627930e+00 -6.873942613601684570e-01 -6.527416110038757324e-01 1.900000000000000000e+01
2.718045949935913086e+00 -8.004799485206604004e-01 -6.541576385498046875e-01 1.600000000000000000e+01
3.186347007751464844e+00 -9.390016198158264160e-01 -6.456976532936096191e-01 1.200000000000000000e+01
3.861228704452515093e+00 -1.139351129531859907e+00 -6.376268863677978516e-01 1.100000000000000000e+01
3.628713226318358664e+01 -1.071430206298827947e+01 4.645659446716308594e+00 1.900000000000000000e+01
4.989699363708496094e+00 -1.474228024482727051e+00 -6.388391256332397461e-01 9.000000000000000000e+00
3.620810317993164062e+01 -1.070471000671387074e+01 5.980176925659179688e+00 1.300000000000000000e+01
6.717804431915283203e+00 -1.986078858375549094e+00 -6.128791570663452148e-01 3.000000000000000000e+00
1.069972133636474965e+01 -3.167370796203612837e+00 -5.848019719123840332e-01 3.000000000000000000e+00
2.706004142761230113e+01 -8.020687103271484375e+00 -4.926465153694152832e-01 4.000000000000000000e+00
3.836266708374022727e+01 -1.137810802459716975e+01 1.072183799743651988e+01 9.000000000000000000e+00
2.351442575454711914e+00 -7.001017928123474121e-01 -6.574003696441650391e-01 2.000000000000000000e+01
2.706038951873778853e+00 -8.067052364349365234e-01 -6.519081592559814453e-01 1.400000000000000000e+01
3.185096979141234907e+00 -9.501239657402038574e-01 -6.460792422294616699e-01 1.200000000000000000e+01
3.851750850677489790e+00 -1.150453209877013938e+00 -6.366882920265197754e-01 1.000000000000000000e+01
4.994292736053466797e+00 -1.493610143661499023e+00 -6.400578022003173828e-01 1.100000000000000000e+01
3.645817565917968750e+01 -1.090330696105957031e+01 6.027107238769531250e+00 1.300000000000000000e+01
6.695911407470703125e+00 -2.003775358200072798e+00 -6.114847064018249512e-01 2.000000000000000000e+00
1.079247379302979049e+01 -3.233791351318358931e+00 -5.904542803764343262e-01 3.000000000000000000e+00
3.894845962524414062e+01 -1.168509769439697088e+01 1.089576435089110973e+01 1.000000000000000000e+01
2.348984479904174805e+00 -7.083055973052978516e-01 -6.574003696441650391e-01 1.900000000000000000e+01
4.810816955566406250e+01 -1.451555156707764027e+01 8.771230578422546387e-01 6.300000000000000000e+01
2.697609663009643999e+00 -8.144564032554626465e-01 -6.505584716796875000e-01 1.500000000000000000e+01
3.181761026382445845e+00 -9.612362384796142578e-01 -6.460792422294616699e-01 1.200000000000000000e+01
3.866619348526000977e+00 -1.169610619544982910e+00 -6.398169398307800293e-01 1.000000000000000000e+01
4.994748115539550781e+00 -1.512760639190674050e+00 -6.407890319824218750e-01 9.000000000000000000e+00
6.715570449829101562e+00 -2.035226345062255859e+00 -6.139250397682189941e-01 3.000000000000000000e+00
