-3.100577116012572798e+00 -3.710880041122436968e+00 -7.659031152725219727e-01 1.300000000000000000e+01
-3.868396997451781782e+00 -4.626550674438476562e+00 -7.404781579971313477e-01 2.200000000000000000e+01
-4.669572353363037109e+00 -5.582765102386474609e+00 -6.367598772048950195e-01 9.000000000000000000e+00
-1.143470764160156028e+00 -1.365637063980102983e+00 4.112105369567871094e-01 4.200000000000000000e+01
-2.401415634155273082e+01 -2.866972923278808949e+01 -6.527898311614990234e-01 8.000000000000000000e+00
-1.097823381423949973e+00 -1.310656070709228960e+00 4.581097066402434748e-01 6.400000000000000000e+01
-1.082256674766540971e+00 -1.288412690162658913e+00 -4.508627653121948242e-01 5.200000000000000000e+01
-2.061458110809326172e+00 -2.452400684356689009e+00 -7.396390438079833984e-01 1.800000000000000000e+01
-2.485363245010375977e+00 -2.955649137496947798e+00 -7.506425976753234863e-01 1.500000000000000000e+01
-3.096977233886719194e+00 -3.680385589599608931e+00 -7.618358731269836426e-01 1.100000000000000000e+01
-3.880687236785889116e+00 -4.608464241027832031e+00 -7.397469282150268555e-01 1.600000000000000000e+01
-4.673627853393554688e+00 -5.548145771026611328e+00 -6.346681118011474609e-01 1.000000000000000000e+01
-1.151999473571776900e+00 -1.366106629371643066e+00 4.125602245330811102e-01 3.900000000000000000e+01
-2.414503097534180043e+01 -2.862241363525390980e+01 -6.536275148391723633e-01 8.000000000000000000e+00
-1.112356901168823020e+00 -1.318629026412964089e+00 4.622508287429810125e-01 5.500000000000000000e+01
-1.079261302947998047e+00 -1.275777697563170943e+00 -4.477569460868834894e-01 3.400000000000000000e+01
-2.072524309158325195e+00 -2.448164463043212891e+00 -7.405388951301574707e-01 1.800000000000000000e+01
-2.491858720779418945e+00 -2.942461013793944868e+00 -7.494977116584777832e-01 1.300000000000000000e+01
-3.120022535324097124e+00 -3.681608676910399947e+00 -7.643387913703918457e-01 1.100000000000000000e+01
-3.851812124252318892e+00 -4.541901111602783203e+00 -7.312160730361938477e-01 2.400000000000000000e+01
-4.624653339385986328e+00 -5.451274871826171875e+00 -6.254296302795410156e-01 7.000000000000000000e+00
-1.154238224029541016e+00 -1.359106302261352983e+00 4.116604328155518133e-01 3.500000000000000000e+01
-2.424997329711914062e+01 -2.854405403137207031e+01 -6.537671685218811035e-01 8.000000000000000000e+00
-1.127190709114074929e+00 -1.326319575309752974e+00 4.663919210433959961e-01 4.700000000000000000e+01
-2.084850311279296875e+00 -2.445363998413085938e+00 -7.418885827064514160e-01 2.000000000000000000e+01
-2.495744705200194868e+00 -2.926275968551636186e+00 -7.475896477699279785e-01 1.300000000000000000e+01
-3.143113613128662109e+00 -3.682715654373168945e+00 -7.668417692184448242e-01 1.200000000000000000e+01
-3.874089002609252930e+00 -4.535975456237792969e+00 -7.324347496032714844e-01 3.100000000000000000e+01
-4.690245151519775391e+00 -5.489631175994873047e+00 -6.317048072814941406e-01 7.000000000000000000e+00
-1.162775278091431108e+00 -1.359511852264404075e+00 4.130101501941680908e-01 3.400000000000000000e+01
-2.440406417846680043e+01 -2.852304840087890980e+01 -6.552331447601318359e-01 1.600000000000000000e+01
-1.133069753646851030e+00 -1.323844552040100098e+00 4.669095575809478760e-01 4.600000000000000000e+01
-1.778765439987183061e+00 -2.073123455047606978e+00 -7.319402694702148438e-01 1.800000000000000000e+01
-2.095912456512451172e+00 -2.441028594970703125e+00 -7.427883744239807129e-01 1.900000000000000000e+01
-2.503385782241820845e+00 -2.914567947387694868e+00 -7.468264102935791016e-01 1.300000000000000000e+01
-3.145648717880249023e+00 -3.659737348556518999e+00 -7.643387913703918457e-01 1.100000000000000000e+01
-3.896371364593505859e+00 -4.529949665069580078e+00 -7.336534261703491211e-01 2.800000000000000000e+01
-4.713277816772460938e+00 -5.477756500244140625e+00 -6.322277784347534180e-01 1.000000000000000000e+01
-1.194221496582031028e+00 -1.386451601982116921e+00 4.224580824375153143e-01 2.900000000000000000e+01
-2.454263877868651988e+01 -2.848313522338866832e+01 -6.562802791595458984e-01 8.000000000000000000e+00
-1.140206575393676980e+00 -1.322807908058166948e+00 4.679448306560515802e-01 4.500000000000000000e+01
-1.794832706451416016e+00 -2.077133893966674805e+00 -7.355637550354003906e-01 1.900000000000000000e+01
-2.096772670745850053e+00 -2.424853086471558061e+00 -7.400889396667480469e-01 1.900000000000000000e+01
-2.517397403717041016e+00 -2.910266160964965820e+00 -7.479712367057800293e-01 1.300000000000000000e+01
-3.145476102828979048e+00 -3.633799076080321822e+00 -7.612100839614868164e-01 1.100000000000000000e+01
-3.956350564956665039e+00 -4.567336082458496094e+00 -7.419405579566955566e-01 3.500000000000000000e+01
-4.763684272766113281e+00 -5.497408390045166016e+00 -6.364112496376037598e-01 1.100000000000000000e+01
-1.216931223869323953e+00 -1.402883529663085938e+00 4.287567138671875000e-01 2.500000000000000000e+01
-2.466026306152344105e+01 -2.841843605041503906e+01 -6.567689776420593262e-01 8.000000000000000000e+00
-1.175210475921631081e+00 -1.353832721710205078e+00 4.803681373596190851e-01 5.600000000000000000e+01
-1.803340554237365945e+00 -2.072313547134398970e+00 -7.360813617706298828e-01 1.800000000000000000e+01
-2.103944301605225053e+00 -2.416049718856811968e+00 -7.396390438079833984e-01 2.400000000000000000e+01
-2.535278320312500000e+00 -2.910343170166016069e+00 -7.502609491348266602e-01 1.300000000000000000e+01
-3.169823646545410156e+00 -3.636198520660399947e+00 -7.640259265899658203e-01 1.200000000000000000e+01
-3.981404066085814986e+00 -4.563969135284423828e+00 -7.436467409133911133e-01 3.900000000000000000e+01
-4.788084506988525391e+00 -5.486751079559326172e+00 -6.371085047721862793e-01 1.200000000000000000e+01
-1.229513168334960938e+00 -1.407432794570923074e+00 4.314561188220977783e-01 9.000000000000000000e+00
-2.480668258666991832e+01 -2.838638877868651988e+01 -6.580255031585693359e-01 8.000000000000000000e+00
-1.207660317420959029e+00 -1.381930708885193093e+00 4.917561709880828857e-01 5.300000000000000000e+01
-1.811836481094359907e+00 -2.067458868026732954e+00 -7.365990281105041504e-01 1.900000000000000000e+01
-2.113650083541870117e+00 -2.410156011581420898e+00 -7.400889396667480469e-01 2.000000000000000000e+01
-2.540242910385131836e+00 -2.895572185516356978e+00 -7.487344741821289062e-01 1.300000000000000000e+01
-3.186406612396239790e+00 -3.629565000534058061e+00 -7.649645209312438965e-01 1.200000000000000000e+01
-3.977658510208129883e+00 -4.527673721313476562e+00 -7.399906516075134277e-01 3.300000000000000000e+01
-4.825621128082275391e+00 -5.490956306457520419e+00 -6.395488381385803223e-01 1.200000000000000000e+01
-2.494525146484375000e+01 -2.834465980529785156e+01 -6.590726971626281738e-01 8.000000000000000000e+00
-1.217823386192321999e+00 -1.383295059204102007e+00 4.938267469406127930e-01 5.500000000000000000e+01
-1.817404389381408913e+00 -2.059990644454956055e+00 -7.360813617706298828e-01 1.600000000000000000e+01
-2.124210357666016069e+00 -2.406055450439453125e+00 -7.409887909889221191e-01 2.000000000000000000e+01
-2.542033433914185014e+00 -2.878303527832030806e+00 -7.464447617530822754e-01 1.300000000000000000e+01
-3.193192481994628906e+00 -3.613057851791381836e+00 -7.637130618095397949e-01 1.100000000000000000e+01
-3.997911453247069868e+00 -4.520406246185302734e+00 -7.409656047821044922e-01 1.800000000000000000e+01
-4.849084377288818359e+00 -5.480892658233642578e+00 -6.402460932731628418e-01 1.100000000000000000e+01
-2.514784812927246094e+01 -2.838451576232910156e+01 -6.619348526000976562e-01 8.000000000000000000e+00
-1.223444223403931108e+00 -1.380908370018004927e+00 4.943443834781646729e-01 4.800000000000000000e+01
-1.814319133758544922e+00 -2.042080640792847124e+00 -7.319402694702148438e-01 1.700000000000000000e+01
-2.131301164627075195e+00 -2.397169351577758789e+00 -7.405388951301574707e-01 1.900000000000000000e+01
-2.553369760513306108e+00 -2.870879411697388139e+00 -7.468264102935791016e-01 1.500000000000000000e+01
-3.216291427612305132e+00 -3.613694190979003906e+00 -7.662159800529479980e-01 1.200000000000000000e+01
-4.025548934936523438e+00 -4.519764900207520419e+00 -7.431592345237731934e-01 1.600000000000000000e+01
-4.892043590545654297e+00 -5.490709304809570312e+00 -6.433836817741394043e-01 1.100000000000000000e+01
-2.516157150268555043e+01 -2.820106506347655895e+01 -6.597009897232055664e-01 8.000000000000000000e+00
-1.218206167221068892e+00 -1.364884734153748003e+00 4.902032613754271906e-01 4.500000000000000000e+01
-1.824368357658386008e+00 -2.038295984268188032e+00 -7.329755425453186035e-01 1.800000000000000000e+01
-2.138772726058959961e+00 -2.387890100479125977e+00 -7.400889396667480469e-01 1.700000000000000000e+01
-2.566495180130004883e+00 -2.864426136016846147e+00 -7.475896477699279785e-01 1.400000000000000000e+01
-3.208415508270264116e+00 -3.578349590301514116e+00 -7.612100839614868164e-01 1.200000000000000000e+01
-4.108373165130615234e+00 -4.578856468200683594e+00 -7.553461790084838867e-01 1.600000000000000000e+01
-4.970692157745361328e+00 -5.537982463836669922e+00 -6.510533690452575684e-01 9.000000000000000000e+00
-2.537972640991210938e+01 -2.823655700683594105e+01 -6.627027988433837891e-01 8.000000000000000000e+00
-1.224254488945007102e+00 -1.362060904502869096e+00 4.907208979129791260e-01 2.200000000000000000e+01
-1.836645841598510964e+00 -2.037655353546143022e+00 -7.350460886955261230e-01 1.800000000000000000e+01
-2.140568971633911133e+00 -2.373174667358397993e+00 -7.378394603729248047e-01 1.800000000000000000e+01
-2.583054304122924805e+00 -2.862737894058227983e+00 -7.494977116584777832e-01 1.600000000000000000e+01
-3.224858283996582031e+00 -3.571526765823363814e+00 -7.621487379074096680e-01 1.200000000000000000e+01
-4.133646965026854581e+00 -4.574798107147216797e+00 -7.570523619651794434e-01 1.600000000000000000e+01
-4.973960876464843750e+00 -5.502860546112061435e+00 -6.489616632461547852e-01 8.000000000000000000e+00
-2.557475471496582031e+01 -2.825453567504883168e+01 -6.652159094810485840e-01 8.000000000000000000e+00
-1.848585605621337891e+00 -2.037276268005371094e+00 -7.371166348457336426e-01 1.900000000000000000e+01
-2.148427009582519975e+00 -2.366063117980957031e+00 -7.378394603729248047e-01 1.600000000000000000e+01
-2.585932970046997070e+00 -2.846890211105347124e+00 -7.475896477699279785e-01 1.500000000000000000e+01
-3.241998910903931108e+00 -3.566659927368164062e+00 -7.634001970291137695e-01 1.200000000000000000e+01
-4.148795127868652344e+00 -4.561065196990966797e+00 -7.570523619651794434e-01 1.800000000000000000e+01
-5.027045249938964844e+00 -5.524650573730468750e+00 -6.534937620162963867e-01 1.000000000000000000e+01
-2.571679687500000000e+01 -2.822278404235839844e+01 -6.664724946022033691e-01 8.000000000000000000e+00
-1.854382514953613059e+00 -2.029384851455688032e+00 -7.365990281105041504e-01 1.900000000000000000e+01
-2.167193174362183061e+00 -2.370054483413695845e+00 -7.414386868476867676e-01 1.800000000000000000e+01
-2.593204498291016069e+00 -2.834949016571044922e+00 -7.468264102935791016e-01 1.400000000000000000e+01
-3.257096529006958008e+00 -3.558235883712768999e+00 -7.640259265899658203e-01 1.200000000000000000e+01
-4.170054435729979581e+00 -4.552410602569580078e+00 -7.580273151397705078e-01 1.800000000000000000e+01
-5.046299457550048828e+00 -5.507069587707520419e+00 -6.534937620162963867e-01 9.000000000000000000e+00
-2.582597160339355113e+01 -2.814463043212890980e+01 -6.667517423629760742e-01 8.000000000000000000e+00
-1.852298259735106978e+00 -2.012948513031005859e+00 -7.329755425453186035e-01 1.900000000000000000e+01
-2.175453186035155806e+00 -2.362475156784058061e+00 -7.414386868476867676e-01 1.500000000000000000e+01
-2.601754426956177202e+00 -2.824435949325561968e+00 -7.464447617530822754e-01 1.400000000000000000e+01
-3.265480756759643999e+00 -3.542487382888793945e+00 -7.630873322486877441e-01 1.100000000000000000e+01
-4.185919761657714844e+00 -4.537826538085938388e+00 -7.580273151397705078e-01 2.200000000000000000e+01
-5.081705570220947266e+00 -5.506991863250732422e+00 -6.555854678153991699e-01 1.100000000000000000e+01
-2.600005722045898082e+01 -2.813655471801758168e+01 -6.687064170837402344e-01 8.000000000000000000e+00
-1.858000397682189941e+00 -2.005053520202637163e+00 -7.324578762054443359e-01 1.900000000000000000e+01
-2.181036233901977983e+00 -2.352009057998656782e+00 -7.405388951301574707e-01 1.500000000000000000e+01
-2.612932920455933061e+00 -2.816776037216186968e+00 -7.468264102935791016e-01 1.400000000000000000e+01
-3.269762992858887163e+00 -3.522380590438843218e+00 -7.612100839614868164e-01 1.100000000000000000e+01
-4.201734066009520596e+00 -4.523187637329101562e+00 -7.580273151397705078e-01 2.200000000000000000e+01
-5.128023147583007812e+00 -5.518410205841063565e+00 -6.590717434883117676e-01 9.000000000000000000e+00
-2.603817558288573863e+01 -2.798121452331542969e+01 -6.671705842018127441e-01 1.700000000000000000e+01
-1.872278094291687012e+00 -2.004964351654053178e+00 -7.350460886955261230e-01 1.900000000000000000e+01
-2.179407119750977007e+00 -2.332226514816284180e+00 -7.369396686553955078e-01 1.300000000000000000e+01
-2.630432605743408203e+00 -2.813893556594849077e+00 -7.487344741821289062e-01 1.400000000000000000e+01
-3.288661718368529829e+00 -3.515570163726807085e+00 -7.624616026878356934e-01 1.100000000000000000e+01
-4.229923725128173828e+00 -4.518614292144775391e+00 -7.599772214889526367e-01 1.600000000000000000e+01
-5.168240070343017578e+00 -5.519039154052734375e+00 -6.615120768547058105e-01 1.000000000000000000e+01
-2.626579475402832031e+01 -2.800939178466796875e+01 -6.702421903610229492e-01 8.000000000000000000e+00
-1.879265308380126953e+00 -1.998416662216186968e+00 -7.350460886955261230e-01 2.000000000000000000e+01
-2.191541194915771040e+00 -2.328862428665161133e+00 -7.382893562316894531e-01 1.300000000000000000e+01
-2.633510589599608931e+00 -2.797546863555908203e+00 -7.468264102935791016e-01 1.500000000000000000e+01
-3.300913095474243164e+00 -3.504069089889525923e+00 -7.624616026878356934e-01 1.100000000000000000e+01
-4.248394489288330078e+00 -4.506710529327392578e+00 -7.604647278785705566e-01 2.000000000000000000e+01
-5.187473773956298828e+00 -5.500965118408203125e+00 -6.615120768547058105e-01 9.000000000000000000e+00
-2.648422622680664062e+01 -2.804547691345214844e+01 -6.733138561248779297e-01 8.000000000000000000e+00
-1.874911546707153098e+00 -1.981277585029602051e+00 -7.309049963951110840e-01 1.700000000000000000e+01
-2.200186729431151900e+00 -2.323380947113037109e+00 -7.387392520904541016e-01 1.300000000000000000e+01
-2.639585971832274947e+00 -2.786409139633179155e+00 -7.460631728172302246e-01 1.500000000000000000e+01
-3.314623355865478960e+00 -3.496548891067504883e+00 -7.630873322486877441e-01 1.100000000000000000e+01
-4.277559757232666016e+00 -4.509183406829833984e+00 -7.631458044052124023e-01 2.400000000000000000e+01
-5.228044986724854404e+00 -5.509210109710693359e+00 -6.644753813743591309e-01 7.000000000000000000e+00
-2.656118202209473012e+01 -2.795054054260253906e+01 -6.730346083641052246e-01 8.000000000000000000e+00
-1.881816029548645020e+00 -1.974720835685729980e+00 -7.309049963951110840e-01 1.800000000000000000e+01
-2.209628343582152876e+00 -2.317096948623656782e+00 -7.391891479492187500e-01 1.200000000000000000e+01
-2.652006626129149947e+00 -2.780019283294678178e+00 -7.468264102935791016e-01 1.400000000000000000e+01
-3.315896272659302202e+00 -3.473526716232299805e+00 -7.605843544006347656e-01 1.100000000000000000e+01
-4.304243564605712891e+00 -4.505707740783691406e+00 -7.650957107543945312e-01 2.400000000000000000e+01
-5.240361213684082031e+00 -5.483725070953369141e+00 -6.636038422584533691e-01 1.000000000000000000e+01
-2.679684257507323863e+01 -2.800212860107421875e+01 -6.765250563621520996e-01 8.000000000000000000e+00
-1.890035271644592063e+00 -1.969533920288085938e+00 -7.314226031303405762e-01 1.600000000000000000e+01
-2.217702865600585938e+00 -2.309369802474976030e+00 -7.391891479492187500e-01 1.300000000000000000e+01
-2.660334348678588867e+00 -2.769329309463500977e+00 -7.464447617530822754e-01 1.400000000000000000e+01
-3.340321779251099077e+00 -3.474747419357299805e+00 -7.634001970291137695e-01 1.200000000000000000e+01
-4.326826095581054688e+00 -4.497808456420898438e+00 -7.663144469261169434e-01 2.600000000000000000e+01
-5.292627811431884766e+00 -5.499854087829589844e+00 -6.677873134613037109e-01 8.000000000000000000e+00
-2.698600578308105113e+01 -2.800345420837401988e+01 -6.788287758827209473e-01 9.000000000000000000e+00
-1.899583578109740989e+00 -1.965702772140502930e+00 -7.324578762054443359e-01 1.500000000000000000e+01
-2.223041296005249023e+00 -2.298812866210937944e+00 -7.382893562316894531e-01 1.400000000000000000e+01
-2.674079895019530806e+00 -2.764259338378905806e+00 -7.475896477699279785e-01 1.300000000000000000e+01
-3.348308801651000977e+00 -3.458808660507202148e+00 -7.624616026878356934e-01 1.100000000000000000e+01
-4.353549480438232422e+00 -4.494083881378173828e+00 -7.682643532752990723e-01 2.600000000000000000e+01
-5.286836147308349609e+00 -5.455591678619384766e+00 -6.646496653556823730e-01 6.000000000000000000e+00
-2.715879440307616832e+01 -2.798657798767089844e+01 -6.807136535644531250e-01 9.000000000000000000e+00
-1.915864706039428933e+00 -1.968751549720763938e+00 -7.360813617706298828e-01 1.800000000000000000e+01
-2.231052160263061968e+00 -2.291038990020751953e+00 -7.382893562316894531e-01 1.300000000000000000e+01
-2.680972814559936968e+00 -2.752095699310303178e+00 -7.468264102935791016e-01 1.300000000000000000e+01
-3.354846239089965820e+00 -3.441441774368286133e+00 -7.612100839614868164e-01 1.200000000000000000e+01
-4.402478694915770596e+00 -4.512962818145751953e+00 -7.741140723228454590e-01 2.200000000000000000e+01
-5.367074012756347656e+00 -5.499845027923583984e+00 -6.723194122314453125e-01 8.000000000000000000e+00
-2.734576606750487926e+01 -2.798313903808594105e+01 -6.829475760459899902e-01 9.000000000000000000e+00
-1.913260459899901900e+00 -1.952393412590027078e+00 -7.324578762054443359e-01 1.600000000000000000e+01
-2.239035844802856001e+00 -2.283237218856811968e+00 -7.382893562316894531e-01 1.400000000000000000e+01
-2.691937923431396040e+00 -2.744122028350830078e+00 -7.472079992294311523e-01 1.300000000000000000e+01
-3.380676984786986861e+00 -3.443806886672974077e+00 -7.643387913703918457e-01 1.100000000000000000e+01
-4.439071655273438388e+00 -4.518809318542479581e+00 -7.777701616287231445e-01 2.400000000000000000e+01
-5.397411346435546875e+00 -5.492445945739746094e+00 -6.737138628959655762e-01 7.000000000000000000e+00
-2.751341056823730113e+01 -2.795877838134765980e+01 -6.846928000450134277e-01 9.000000000000000000e+00
-1.911922216415405051e+00 -1.937452673912047896e+00 -7.293520569801330566e-01 1.600000000000000000e+01
-2.252469301223754883e+00 -2.280953884124755859e+00 -7.400889396667480469e-01 1.400000000000000000e+01
-2.690462589263916016e+00 -2.723535299301147017e+00 -7.441551089286804199e-01 1.200000000000000000e+01
-3.384345054626464844e+00 -3.423556089401245117e+00 -7.624616026878356934e-01 1.200000000000000000e+01
-4.465986728668212891e+00 -4.514576911926270419e+00 -7.797200679779052734e-01 2.000000000000000000e+01
-5.422156333923339844e+00 -5.479236602783203125e+00 -6.744111180305480957e-01 6.000000000000000000e+00
-2.770936584472655895e+01 -2.796199607849121094e+01 -6.871361732482910156e-01 9.000000000000000000e+00
-1.917311906814574973e+00 -1.929396748542786089e+00 -7.288344502449035645e-01 1.600000000000000000e+01
-2.260417461395264116e+00 -2.273077487945557085e+00 -7.400889396667480469e-01 1.200000000000000000e+01
-2.701337814331055132e+00 -2.715518951416016069e+00 -7.445366978645324707e-01 1.200000000000000000e+01
-3.387912988662720171e+00 -3.403321981430054155e+00 -7.605843544006347656e-01 1.100000000000000000e+01
-4.487322330474854404e+00 -4.504585266113281250e+00 -7.806950211524963379e-01 1.900000000000000000e+01
-5.455313205718994141e+00 -5.474389076232910156e+00 -6.761542558670043945e-01 8.000000000000000000e+00
-2.795652961730957031e+01 -2.801514244079589844e+01 -6.908360719680786133e-01 9.000000000000000000e+00
-1.933600544929503950e+00 -1.932251095771789995e+00 -7.324578762054443359e-01 1.500000000000000000e+01
-2.260064601898192915e+00 -2.256911277770996094e+00 -7.373895645141601562e-01 1.200000000000000000e+01
-2.712189674377440962e+00 -2.707460165023804155e+00 -7.449183464050292969e-01 1.100000000000000000e+01
-3.396975278854370117e+00 -3.388684988021851030e+00 -7.599586248397827148e-01 1.100000000000000000e+01
-4.517077445983886719e+00 -4.502909183502197266e+00 -7.831323742866516113e-01 1.900000000000000000e+01
-5.468743801116943359e+00 -5.449687957763671875e+00 -6.754570007324218750e-01 7.000000000000000000e+00
-2.807682991027832031e+01 -2.793995475769042969e+01 -6.913945078849792480e-01 9.000000000000000000e+00
-1.936219811439513938e+00 -1.921407461166382058e+00 -7.309049963951110840e-01 1.500000000000000000e+01
-2.267929077148437944e+00 -2.249008417129517046e+00 -7.373895645141601562e-01 1.100000000000000000e+01
-2.723018169403076172e+00 -2.699358463287353960e+00 -7.452999353408813477e-01 1.200000000000000000e+01
-3.415800094604492188e+00 -3.383757829666138139e+00 -7.615229487419128418e-01 1.200000000000000000e+01
-4.532768249511718750e+00 -4.487113952636718750e+00 -7.831323742866516113e-01 1.500000000000000000e+01
-5.474987983703613281e+00 -5.417952060699462891e+00 -6.738882064819335938e-01 7.000000000000000000e+00
-2.825668525695801137e+01 -2.792330169677734020e+01 -6.934190392494201660e-01 9.000000000000000000e+00
-1.940163016319274902e+00 -1.911925196647644043e+00 -7.298697233200073242e-01 1.600000000000000000e+01
-2.281319618225098100e+00 -2.246547460556029829e+00 -7.391891479492187500e-01 1.100000000000000000e+01
-2.732424020767211914e+00 -2.689836978912353960e+00 -7.452999353408813477e-01 1.200000000000000000e+01
-3.437448263168334961e+00 -3.381510734558105025e+00 -7.637130618095397949e-01 1.100000000000000000e+01
-4.568222045898438388e+00 -4.490746974945068359e+00 -7.865447402000427246e-01 1.500000000000000000e+01
-5.473971843719482422e+00 -5.379257202148438388e+00 -6.714478135108947754e-01 7.000000000000000000e+00
-2.842534637451171875e+01 -2.789452743530273082e+01 -6.951642632484436035e-01 9.000000000000000000e+00
-1.950967192649841087e+00 -1.909194588661194070e+00 -7.314226031303405762e-01 1.600000000000000000e+01
-2.286361217498778853e+00 -2.235845565795897993e+00 -7.382893562316894531e-01 1.100000000000000000e+01
-2.738988876342772993e+00 -2.677537679672241211e+00 -7.445366978645324707e-01 1.200000000000000000e+01
-3.446404933929442915e+00 -3.366730451583861861e+00 -7.630873322486877441e-01 1.100000000000000000e+01
-4.602336406707763672e+00 -4.492800235748291016e+00 -7.897133231163024902e-01 1.700000000000000000e+01
-5.582549571990966797e+00 -5.447782039642333984e+00 -6.824294924736022949e-01 6.000000000000000000e+00
-2.863711357116698863e+01 -2.790678405761719105e+01 -6.979566216468811035e-01 9.000000000000000000e+00
-1.953463315963744895e+00 -1.898333787918091042e+00 -7.298697233200073242e-01 1.600000000000000000e+01
-2.291355848312377930e+00 -2.225135803222655806e+00 -7.373895645141601562e-01 1.100000000000000000e+01
-2.753953218460083008e+00 -2.673430442810059038e+00 -7.460631728172302246e-01 1.200000000000000000e+01
-3.449629068374633789e+00 -3.346427202224731001e+00 -7.612100839614868164e-01 1.100000000000000000e+01
-4.625117301940917969e+00 -4.483616352081298828e+00 -7.909320592880249023e-01 1.400000000000000000e+01
-5.598670482635498047e+00 -5.425488948822020596e+00 -6.820808649063110352e-01 6.000000000000000000e+00
-2.872285652160644887e+01 -2.779552650451660156e+01 -6.976773738861083984e-01 9.000000000000000000e+00
-1.962858080863953081e+00 -1.894186377525330034e+00 -7.309049963951110840e-01 1.500000000000000000e+01
-2.294900655746459961e+00 -2.213065624237060991e+00 -7.360398769378662109e-01 1.200000000000000000e+01
-2.767508745193481001e+00 -2.667888879776000977e+00 -7.472079992294311523e-01 1.400000000000000000e+01
-3.455598592758179155e+00 -3.328883409500122070e+00 -7.599586248397827148e-01 1.100000000000000000e+01
-4.647890567779541016e+00 -4.474328041076660156e+00 -7.921507358551025391e-01 1.200000000000000000e+01
-5.634802341461181641e+00 -5.422491550445556641e+00 -6.841725707054138184e-01 6.000000000000000000e+00
-2.895235633850098012e+01 -2.782257080078125000e+01 -7.008886337280273438e-01 9.000000000000000000e+00
-1.975037336349487083e+00 -1.892669677734375000e+00 -7.329755425453186035e-01 1.600000000000000000e+01
-2.298389434814453125e+00 -2.200998067855834961e+00 -7.346901297569274902e-01 1.100000000000000000e+01
-2.768295526504517046e+00 -2.650066375732421875e+00 -7.449183464050292969e-01 1.300000000000000000e+01
-3.467197418212891069e+00 -3.316800832748413086e+00 -7.599586248397827148e-01 1.100000000000000000e+01
-4.663480758666992188e+00 -4.458076477050781250e+00 -7.921507358551025391e-01 1.400000000000000000e+01
-5.646493911743164062e+00 -5.395906448364257812e+00 -6.833010315895080566e-01 6.000000000000000000e+00
-2.919685935974121094e+01 -2.786215400695801137e+01 -7.044489383697509766e-01 9.000000000000000000e+00
-1.976034045219420943e+00 -1.880437016487122026e+00 -7.309049963951110840e-01 1.600000000000000000e+01
-2.311707019805908203e+00 -2.198333501815795898e+00 -7.364897727966308594e-01 1.100000000000000000e+01
-2.770414590835570845e+00 -2.633623838424683061e+00 -7.430102229118347168e-01 1.300000000000000000e+01
-3.490211486816405806e+00 -3.315562009811400923e+00 -7.624616026878356934e-01 1.100000000000000000e+01
-4.696290016174316406e+00 -4.458170890808104581e+00 -7.950755953788757324e-01 1.500000000000000000e+01
-5.678301811218261719e+00 -5.388506889343261719e+00 -6.848698258399963379e-01 6.000000000000000000e+00
-2.933167839050292969e+01 -2.779583168029785156e+01 -7.053564786911010742e-01 9.000000000000000000e+00
-1.979777812957763894e+00 -1.870874166488647017e+00 -7.298697233200073242e-01 1.500000000000000000e+01
-2.330701112747191939e+00 -2.200954437255858931e+00 -7.400889396667480469e-01 1.100000000000000000e+01
-2.781018495559691939e+00 -2.625284910202025923e+00 -7.433918714523315430e-01 1.300000000000000000e+01
-3.496016025543212891e+00 -3.297936677932738814e+00 -7.612100839614868164e-01 1.100000000000000000e+01
-4.711823463439941406e+00 -4.441751003265380859e+00 -7.950755953788757324e-01 1.200000000000000000e+01
-5.717376708984375000e+00 -5.387783050537109375e+00 -6.873101592063903809e-01 6.000000000000000000e+00
-2.946638870239258168e+01 -2.772890472412109020e+01 -7.062639594078063965e-01 9.000000000000000000e+00
-1.986296296119689941e+00 -1.863952040672302024e+00 -7.298697233200073242e-01 1.500000000000000000e+01
-2.326997756958007812e+00 -2.182141304016112837e+00 -7.364897727966308594e-01 1.200000000000000000e+01
-2.794462442398070845e+00 -2.619589567184447798e+00 -7.445366978645324707e-01 1.400000000000000000e+01
-3.504623413085937944e+00 -3.283012390136719194e+00 -7.605843544006347656e-01 1.100000000000000000e+01
-4.740342140197753906e+00 -4.437485694885253906e+00 -7.972692251205444336e-01 1.400000000000000000e+01
-5.737603187561035156e+00 -5.369154453277587891e+00 -6.874845027923583984e-01 6.000000000000000000e+00
-2.972079467773437855e+01 -2.777333450317383168e+01 -7.100337147712707520e-01 9.000000000000000000e+00
-1.992790579795836958e+00 -1.857007265090941939e+00 -7.298697233200073242e-01 1.400000000000000000e+01
-2.323191404342650923e+00 -2.163380861282349077e+00 -7.328905463218688965e-01 1.200000000000000000e+01
-2.809337377548218218e+00 -2.615169763565063032e+00 -7.460631728172302246e-01 1.500000000000000000e+01
-3.510276556015015093e+00 -3.265377044677733931e+00 -7.593328952789306641e-01 1.200000000000000000e+01
-4.749987125396729404e+00 -4.415505886077880859e+00 -7.962942719459533691e-01 1.900000000000000000e+01
-5.775283813476563388e+00 -5.366724967956542969e+00 -6.897505521774291992e-01 6.000000000000000000e+00
-2.990257835388183949e+01 -2.774831199645996094e+01 -7.120581865310668945e-01 9.000000000000000000e+00
-2.004932403564453125e+00 -1.855288147926331010e+00 -7.319402694702148438e-01 1.600000000000000000e+01
-2.340744495391846147e+00 -2.164519548416138139e+00 -7.360398769378662109e-01 1.200000000000000000e+01
-2.808357238769530806e+00 -2.596018791198730025e+00 -7.433918714523315430e-01 1.400000000000000000e+01
-3.527457714080810991e+00 -3.258465528488159180e+00 -7.605843544006347656e-01 1.100000000000000000e+01
-4.756619453430175781e+00 -4.390819549560546875e+00 -7.948318719863891602e-01 1.200000000000000000e+01
-5.856944084167479581e+00 -5.404632568359375000e+00 -6.972459554672241211e-01 5.000000000000000000e+00
-3.010807609558105113e+01 -2.774403953552246094e+01 -7.146411538124084473e-01 1.000000000000000000e+01
-2.009973764419556108e+00 -1.846971154212952104e+00 -7.314226031303405762e-01 1.900000000000000000e+01
-2.351156473159790039e+00 -2.158971786499022993e+00 -7.369396686553955078e-01 1.300000000000000000e+01
-2.818848371505736861e+00 -2.587527513504027876e+00 -7.437734603881835938e-01 1.300000000000000000e+01
-3.546088933944702148e+00 -3.252809047698975053e+00 -7.621487379074096680e-01 1.200000000000000000e+01
-4.798257350921630859e+00 -4.398333549499511719e+00 -7.992191314697265625e-01 1.000000000000000000e+01
-5.891932487487792969e+00 -5.398961544036865234e+00 -6.991633772850036621e-01 5.000000000000000000e+00
-3.029030227661133168e+01 -2.771707153320312855e+01 -7.166656255722045898e-01 1.000000000000000000e+01
-2.007846355438231978e+00 -1.832130908966064009e+00 -7.283167839050292969e-01 2.200000000000000000e+01
-2.364438295364379883e+00 -2.156003713607788086e+00 -7.387392520904541016e-01 1.300000000000000000e+01
-2.819157838821411133e+00 -2.569736957550048828e+00 -7.414837479591369629e-01 1.300000000000000000e+01
-3.544278383255004883e+00 -3.228439092636107954e+00 -7.593328952789306641e-01 1.200000000000000000e+01
-4.848813056945800781e+00 -4.413627624511718750e+00 -8.050689101219177246e-01 1.200000000000000000e+01
-5.938741683959960938e+00 -5.403839111328125000e+00 -7.024753093719482422e-01 5.000000000000000000e+00
-3.048750686645508168e+01 -2.770261573791503906e+01 -7.190391421318054199e-01 1.000000000000000000e+01
-2.017092704772949219e+00 -1.827705383300781028e+00 -7.293520569801330566e-01 2.500000000000000000e+01
-2.366171598434447798e+00 -2.142505168914794922e+00 -7.369396686553955078e-01 1.300000000000000000e+01
-2.842665910720825195e+00 -2.573055505752563032e+00 -7.452999353408813477e-01 1.300000000000000000e+01
-3.551131248474121094e+00 -3.212072372436522993e+00 -7.583943009376525879e-01 1.200000000000000000e+01
-4.865662574768066406e+00 -4.398006439208984375e+00 -8.053126335144042969e-01 1.000000000000000000e+01
-5.944263458251953125e+00 -5.371054172515869141e+00 -7.009064555168151855e-01 5.000000000000000000e+00
-3.073248863220214844e+01 -2.772998619079589844e+01 -7.225296497344970703e-01 1.000000000000000000e+01
-2.029204607009888139e+00 -1.825821876525878906e+00 -7.314226031303405762e-01 2.700000000000000000e+01
-2.366390228271483931e+00 -2.127717971801757812e+00 -7.346901297569274902e-01 1.300000000000000000e+01
-2.853090524673461914e+00 -2.564429283142089844e+00 -7.456815242767333984e-01 1.300000000000000000e+01
-3.560852289199829102e+00 -3.198337078094481978e+00 -7.580814361572265625e-01 1.100000000000000000e+01
-4.891325950622558594e+00 -4.390276908874511719e+00 -8.070188164710998535e-01 1.000000000000000000e+01
-5.952595233917236328e+00 -5.340958118438720703e+00 -6.996862888336181641e-01 6.000000000000000000e+00
-3.091249847412109020e+01 -2.769726753234862926e+01 -7.244843244552612305e-01 1.000000000000000000e+01
-2.038446664810181108e+00 -1.821301817893981934e+00 -7.324578762054443359e-01 2.800000000000000000e+01
-2.382524967193603960e+00 -2.127232074737548828e+00 -7.373895645141601562e-01 1.400000000000000000e+01
-2.856165885925292969e+00 -2.549225330352783203e+00 -7.441551089286804199e-01 1.300000000000000000e+01
-3.577891588211060014e+00 -3.191147327423096147e+00 -7.593328952789306641e-01 1.100000000000000000e+01
-4.911067008972167969e+00 -4.377139091491699219e+00 -8.077499866485595703e-01 8.000000000000000000e+00
-5.996491432189941406e+00 -5.342679023742675781e+00 -7.026495933532714844e-01 5.000000000000000000e+00
-3.107173919677734020e+01 -2.764502143859862926e+01 -7.259503006935119629e-01 1.000000000000000000e+01
-2.036121368408203125e+00 -1.806482553482056108e+00 -7.293520569801330566e-01 2.800000000000000000e+01
-2.392852067947388139e+00 -2.121488094329833984e+00 -7.382893562316894531e-01 1.400000000000000000e+01
-2.859169721603393999e+00 -2.534031391143798828e+00 -7.426286339759826660e-01 1.300000000000000000e+01
-3.602318048477172852e+00 -3.190425872802733931e+00 -7.621487379074096680e-01 1.200000000000000000e+01
-4.938208103179931641e+00 -4.370494365692138672e+00 -8.096998929977416992e-01 8.000000000000000000e+00
-5.985260009765625000e+00 -5.295310974121093750e+00 -6.991633772850036621e-01 7.000000000000000000e+00
-3.132989883422851918e+01 -2.767938423156737926e+01 -7.297199964523315430e-01 1.000000000000000000e+01
-2.035166978836060014e+00 -1.792978882789612038e+00 -7.267639040946960449e-01 3.100000000000000000e+01
-2.397317647933959961e+00 -2.110547065734862837e+00 -7.373895645141601562e-01 1.300000000000000000e+01
-2.873893022537231001e+00 -2.529223680496215820e+00 -7.441551089286804199e-01 1.300000000000000000e+01
-3.608982801437377930e+00 -3.173918485641479048e+00 -7.612100839614868164e-01 1.100000000000000000e+01
-4.947469711303710938e+00 -4.347988605499267578e+00 -8.087249398231506348e-01 8.000000000000000000e+00
-5.997720241546630859e+00 -5.269125938415527344e+00 -6.984661221504211426e-01 6.000000000000000000e+00
-3.144436454772948863e+01 -2.758567810058594105e+01 -7.301388978958129883e-01 1.000000000000000000e+01
-2.044321298599243164e+00 -1.788407921791077104e+00 -7.277991771697998047e-01 2.900000000000000000e+01
-2.395867109298706055e+00 -2.094470500946044922e+00 -7.346901297569274902e-01 1.100000000000000000e+01
-2.881225824356079102e+00 -2.517884492874145952e+00 -7.437734603881835938e-01 1.300000000000000000e+01
-3.602185249328612837e+00 -3.145709276199340820e+00 -7.574557065963745117e-01 1.200000000000000000e+01
-4.959625720977783203e+00 -4.328081607818604404e+00 -8.082374930381774902e-01 8.000000000000000000e+00
-6.049107074737548828e+00 -5.276972770690917969e+00 -7.023009657859802246e-01 7.000000000000000000e+00
-3.167315292358398082e+01 -2.759133720397948863e+01 -7.332105040550231934e-01 1.000000000000000000e+01
-2.056385278701781782e+00 -1.786328554153441939e+00 -7.298697233200073242e-01 3.100000000000000000e+01
-2.398748874664307085e+00 -2.082262277603148970e+00 -7.333404421806335449e-01 1.300000000000000000e+01
-2.887031793594359907e+00 -2.505238533020019975e+00 -7.430102229118347168e-01 1.300000000000000000e+01
-3.622098207473754883e+00 -3.140881061553955078e+00 -7.593328952789306641e-01 1.100000000000000000e+01
-4.980703830718994141e+00 -4.315942764282226562e+00 -8.092124462127685547e-01 8.000000000000000000e+00
-6.052431106567382812e+00 -5.242780208587645596e+00 -7.005578875541687012e-01 8.000000000000000000e+00
-3.187513923645019887e+01 -2.757218551635741832e+01 -7.356538176536560059e-01 1.000000000000000000e+01
-2.068459510803223100e+00 -1.784186840057373047e+00 -7.319402694702148438e-01 2.900000000000000000e+01
-2.410430908203125000e+00 -2.077693223953247070e+00 -7.346901297569274902e-01 1.400000000000000000e+01
-2.906170129776000977e+00 -2.504116296768188032e+00 -7.456815242767333984e-01 1.300000000000000000e+01
-3.636033773422241211e+00 -3.130796194076538086e+00 -7.599586248397827148e-01 1.200000000000000000e+01
-4.974672794342041016e+00 -4.280404567718505859e+00 -8.058000802993774414e-01 8.000000000000000000e+00
-6.088820934295654297e+00 -5.237212181091308594e+00 -7.026495933532714844e-01 9.000000000000000000e+00
-3.209254455566406250e+01 -2.756498718261719105e+01 -7.384462356567382812e-01 1.000000000000000000e+01
-2.068805932998656782e+00 -1.771928906440735085e+00 -7.298697233200073242e-01 3.100000000000000000e+01
-2.420629739761352983e+00 -2.071800947189331055e+00 -7.355899214744567871e-01 1.300000000000000000e+01
-2.899975776672362837e+00 -2.481193304061890093e+00 -7.418653964996337891e-01 1.300000000000000000e+01
-3.655948638916016069e+00 -3.125787258148192915e+00 -7.618358731269836426e-01 1.100000000000000000e+01
-5.003167152404785156e+00 -4.274618625640869141e+00 -8.079937696456909180e-01 1.000000000000000000e+01
-6.114640235900878906e+00 -5.222395896911621094e+00 -7.035211324691772461e-01 7.000000000000000000e+00
-3.228594589233397727e+01 -2.753584480285644887e+01 -7.406801581382751465e-01 1.000000000000000000e+01
-2.066148757934569868e+00 -1.757187247276305930e+00 -7.267639040946960449e-01 3.100000000000000000e+01
-2.427846908569335938e+00 -2.063338756561278853e+00 -7.355899214744567871e-01 1.400000000000000000e+01
-2.910115242004394975e+00 -2.472326517105102983e+00 -7.422469854354858398e-01 1.300000000000000000e+01
-3.660813808441162109e+00 -3.107892751693726030e+00 -7.605843544006347656e-01 1.200000000000000000e+01
-5.005948066711425781e+00 -4.246854782104492188e+00 -8.060438632965087891e-01 8.000000000000000000e+00
-6.125234603881835938e+00 -5.194576740264892578e+00 -7.026495933532714844e-01 9.000000000000000000e+00
-3.255888366699218750e+01 -2.757288551330566051e+01 -7.447291016578674316e-01 1.000000000000000000e+01
-2.076697826385498047e+00 -1.753703594207763894e+00 -7.283167839050292969e-01 2.500000000000000000e+01
-2.438013076782227007e+00 -2.057364940643310991e+00 -7.364897727966308594e-01 1.400000000000000000e+01
-2.926230669021606001e+00 -2.468482732772827148e+00 -7.441551089286804199e-01 1.300000000000000000e+01
-3.659557342529296875e+00 -3.084909677505493164e+00 -7.580814361572265625e-01 1.100000000000000000e+01
-5.017704963684082031e+00 -4.226797103881835938e+00 -8.055563569068908691e-01 7.000000000000000000e+00
-6.198194503784179688e+00 -5.219364643096923828e+00 -7.089248299598693848e-01 6.000000000000000000e+00
-3.280798339843750000e+01 -2.758776473999023082e+01 -7.482195496559143066e-01 1.000000000000000000e+01
-2.082806825637816939e+00 -1.746443867683411089e+00 -7.283167839050292969e-01 2.100000000000000000e+01
-2.433230161666870117e+00 -2.038829565048218218e+00 -7.328905463218688965e-01 1.400000000000000000e+01
-2.933324575424193892e+00 -2.456992626190185991e+00 -7.437734603881835938e-01 1.300000000000000000e+01
-3.670303344726562944e+00 -3.072116851806641069e+00 -7.580814361572265625e-01 1.100000000000000000e+01
-5.046133041381835938e+00 -4.220718860626220703e+00 -8.077499866485595703e-01 8.000000000000000000e+00
-6.162878513336181641e+00 -5.152966499328613281e+00 -7.028239369392395020e-01 6.000000000000000000e+00
-3.297162246704102273e+01 -2.752946662902832031e+01 -7.497553825378417969e-01 1.000000000000000000e+01
-2.088586807250977007e+00 -1.739527463912964089e+00 -7.283167839050292969e-01 2.200000000000000000e+01
-2.448964834213256836e+00 -2.038229227066040039e+00 -7.355899214744567871e-01 1.400000000000000000e+01
-2.939946889877318892e+00 -2.445996046066284180e+00 -7.433918714523315430e-01 1.100000000000000000e+01
-3.686546564102172852e+00 -3.064980268478393999e+00 -7.593328952789306641e-01 1.100000000000000000e+01
-5.034144401550292969e+00 -4.182396411895751953e+00 -8.036064505577087402e-01 7.000000000000000000e+00
-6.210587024688720703e+00 -5.157959938049316406e+00 -7.063101530075073242e-01 6.000000000000000000e+00
-3.317971420288085938e+01 -2.751699447631835938e+01 -7.524081468582153320e-01 1.000000000000000000e+01
-2.097623586654663086e+00 -1.734688639640808105e+00 -7.293520569801330566e-01 2.200000000000000000e+01
-2.456064701080321822e+00 -2.029668331146239790e+00 -7.355899214744567871e-01 1.600000000000000000e+01
-2.937871932983397993e+00 -2.426966428756713867e+00 -7.407205104827880859e-01 1.200000000000000000e+01
-3.700269699096680132e+00 -3.054608106613159180e+00 -7.599586248397827148e-01 1.100000000000000000e+01
-5.045650482177734375e+00 -4.162272453308104581e+00 -8.031189441680908203e-01 1.000000000000000000e+01
-6.283891201019287109e+00 -5.181882381439208984e+00 -7.125853300094604492e-01 6.000000000000000000e+00
-3.332187271118164062e+01 -2.743914222717285156e+01 -7.534552812576293945e-01 1.000000000000000000e+01
-2.095008134841918945e+00 -1.719634652137755904e+00 -7.262462377548217773e-01 2.500000000000000000e+01
-2.461980581283568892e+00 -2.019416809082030806e+00 -7.351400256156921387e-01 1.500000000000000000e+01
-2.949783802032471147e+00 -2.418671846389770952e+00 -7.414837479591369629e-01 1.200000000000000000e+01
-3.700744867324829102e+00 -3.032261610031127930e+00 -7.577685713768005371e-01 1.100000000000000000e+01
-5.091590404510498047e+00 -4.168902873992919922e+00 -8.079937696456909180e-01 7.000000000000000000e+00
-6.325968742370604581e+00 -5.177745342254638672e+00 -7.152000069618225098e-01 5.000000000000000000e+00
-3.372259521484375000e+01 -2.756233215332030895e+01 -7.602268457412719727e-01 1.100000000000000000e+01
-2.102495431900023970e+00 -1.713531732559204102e+00 -7.267639040946960449e-01 2.300000000000000000e+01
-2.467503786087036133e+00 -2.009580135345458984e+00 -7.346901297569274902e-01 1.600000000000000000e+01
-2.964298486709595171e+00 -2.413318395614624023e+00 -7.430102229118347168e-01 1.200000000000000000e+01
-3.709774494171143022e+00 -3.018078565597534180e+00 -7.574557065963745117e-01 1.100000000000000000e+01
-5.076846122741699219e+00 -4.127312183380126953e+00 -8.033627271652221680e-01 1.000000000000000000e+01
-6.361011981964111328e+00 -5.169454097747802734e+00 -7.171174287796020508e-01 6.000000000000000000e+00
-3.389623641967772727e+01 -2.750745391845703125e+01 -7.619720697402954102e-01 1.100000000000000000e+01
-2.109965801239014116e+00 -1.707397460937500000e+00 -7.272815108299255371e-01 2.100000000000000000e+01
-2.463896274566649947e+00 -1.992377281188965066e+00 -7.315407991409301758e-01 1.500000000000000000e+01
-2.972704648971558061e+00 -2.402956485748291016e+00 -7.430102229118347168e-01 1.200000000000000000e+01
-3.726433515548706055e+00 -3.010075807571411133e+00 -7.587071657180786133e-01 1.100000000000000000e+01
-5.091222286224365234e+00 -4.109565734863281250e+00 -8.033627271652221680e-01 8.000000000000000000e+00
-6.411579608917236328e+00 -5.173492431640625000e+00 -7.207779884338378906e-01 7.000000000000000000e+00
-3.409482192993164062e+01 -2.747177314758301137e+01 -7.642757892608642578e-01 1.100000000000000000e+01
-2.126454830169678178e+00 -1.708491802215575950e+00 -7.309049963951110840e-01 2.000000000000000000e+01
-2.476914167404174805e+00 -1.988644719123840110e+00 -7.333404421806335449e-01 1.500000000000000000e+01
-2.970356464385985884e+00 -2.383963108062744141e+00 -7.403389215469360352e-01 1.200000000000000000e+01
-3.736917972564696822e+00 -2.997049808502196822e+00 -7.587071657180786133e-01 1.100000000000000000e+01
-5.116379261016845703e+00 -4.100459098815917969e+00 -8.050689101219177246e-01 7.000000000000000000e+00
-6.448258399963378906e+00 -5.166028976440429688e+00 -7.228697538375854492e-01 8.000000000000000000e+00
-3.425296783447266336e+01 -2.740256118774414062e+01 -7.656719684600830078e-01 1.100000000000000000e+01
-2.123048782348632812e+00 -1.694200873374938965e+00 -7.277991771697998047e-01 1.800000000000000000e+01
-2.488065958023070845e+00 -1.984064936637877974e+00 -7.346901297569274902e-01 1.700000000000000000e+01
-2.981316089630126953e+00 -2.376547574996947798e+00 -7.411021590232849121e-01 1.100000000000000000e+01
-3.748381137847899947e+00 -2.985872030258179155e+00 -7.590200304985046387e-01 9.000000000000000000e+00
-5.122183322906494141e+00 -4.077288627624511719e+00 -8.038501739501953125e-01 1.000000000000000000e+01
-6.476267337799072266e+00 -5.153301715850830078e+00 -7.240899205207824707e-01 6.000000000000000000e+00
-3.453152465820313211e+01 -2.743810653686523082e+01 -7.698605656623840332e-01 1.100000000000000000e+01
-2.119864463806151900e+00 -1.679581522941588911e+00 -7.246932983398437500e-01 1.800000000000000000e+01
-2.498032331466674805e+00 -1.977787256240844949e+00 -7.355899214744567871e-01 1.700000000000000000e+01
-2.995751380920410156e+00 -2.370999813079833984e+00 -7.426286339759826660e-01 1.100000000000000000e+01
-3.760330438613892046e+00 -2.973994970321654829e+00 -7.593328952789306641e-01 1.100000000000000000e+01
-5.083431720733642578e+00 -4.017534732818604404e+00 -7.955631017684936523e-01 1.200000000000000000e+01
-6.486399650573729581e+00 -5.124488353729248047e+00 -7.232183814048767090e-01 6.000000000000000000e+00
-3.470558929443358664e+01 -2.737932968139648082e+01 -7.716057896614074707e-01 1.100000000000000000e+01
-2.133306264877318892e+00 -1.678143620491028054e+00 -7.272815108299255371e-01 1.600000000000000000e+01
-2.497260570526123047e+00 -1.963033795356750044e+00 -7.333404421806335449e-01 1.900000000000000000e+01
-2.993203639984130859e+00 -2.352037191390991211e+00 -7.399572730064392090e-01 1.000000000000000000e+01
-3.764473915100098100e+00 -2.955971002578734907e+00 -7.580814361572265625e-01 1.100000000000000000e+01
-5.128658771514892578e+00 -4.024273872375488281e+00 -8.004378676414489746e-01 8.000000000000000000e+00
-6.494842052459716797e+00 -5.094437122344970703e+00 -7.221724987030029297e-01 6.000000000000000000e+00
-3.487966156005858664e+01 -2.731966972351073863e+01 -7.733510136604309082e-01 1.100000000000000000e+01
-2.145241260528564009e+00 -1.675443172454833984e+00 -7.293520569801330566e-01 1.600000000000000000e+01
-2.494879961013793945e+00 -1.947111010551453081e+00 -7.306410074234008789e-01 1.600000000000000000e+01
-3.009135007858275923e+00 -2.347612857818603960e+00 -7.418653964996337891e-01 1.100000000000000000e+01
-3.768537759780883789e+00 -2.937954187393188032e+00 -7.568299174308776855e-01 1.100000000000000000e+01
-5.144240856170654297e+00 -4.007566928863525391e+00 -8.006815910339355469e-01 1.000000000000000000e+01
-6.482717990875244141e+00 -5.048475742340087891e+00 -7.188605666160583496e-01 5.000000000000000000e+00
-3.518002700805664062e+01 -2.735733413696289062e+01 -7.778886556625366211e-01 1.100000000000000000e+01
-2.148604393005371094e+00 -1.664827227592468040e+00 -7.283167839050292969e-01 1.600000000000000000e+01
-2.503878831863402876e+00 -1.938710093498229980e+00 -7.310909032821655273e-01 1.600000000000000000e+01
-3.021232128143310991e+00 -2.338444471359252930e+00 -7.426286339759826660e-01 1.100000000000000000e+01
-3.770415544509888139e+00 -2.916211366653441939e+00 -7.549527287483215332e-01 1.100000000000000000e+01
-5.170585632324218750e+00 -3.996282577514647993e+00 -8.023877739906311035e-01 8.000000000000000000e+00
-6.500478267669677734e+00 -5.022328853607177734e+00 -7.186862826347351074e-01 5.000000000000000000e+00
-3.539247512817382812e+01 -2.730511093139648082e+01 -7.802621722221374512e-01 1.100000000000000000e+01
-2.152871370315552202e+00 -1.656139135360717995e+00 -7.277991771697998047e-01 1.700000000000000000e+01
-2.513720989227294922e+00 -1.932333469390868919e+00 -7.319907546043395996e-01 1.400000000000000000e+01
-3.013809204101562944e+00 -2.315921783447266069e+00 -7.388124465942382812e-01 1.100000000000000000e+01
-3.799373149871826172e+00 -2.917469263076781782e+00 -7.587071657180786133e-01 1.200000000000000000e+01
-5.154581069946289062e+00 -3.955249071121215820e+00 -7.977567315101623535e-01 7.000000000000000000e+00
-6.611241817474365234e+00 -5.071151256561279297e+00 -7.289706468582153320e-01 8.000000000000000000e+00
-7.074607372283936435e+00 -5.422654151916503906e+00 -4.671507477760314941e-01 3.000000000000000000e+00
-3.564632415771483664e+01 -2.730299758911133168e+01 -7.837526798248291016e-01 1.100000000000000000e+01
-2.151924133300780806e+00 -1.644675135612488015e+00 -7.257286310195922852e-01 1.600000000000000000e+01
-2.524425268173218218e+00 -1.927975296974181907e+00 -7.333404421806335449e-01 1.500000000000000000e+01
-3.017949104309082031e+00 -2.304059505462646040e+00 -7.380492091178894043e-01 1.100000000000000000e+01
