1.750370144844054954e+00 1.399304032325745073e+00 -6.004601716995239258e-01 2.200000000000000000e+01
2.002161026000977007e+00 1.599448680877685991e+00 -5.916212797164916992e-01 1.200000000000000000e+01
2.327244281768798828e+00 1.858479857444762962e+00 -5.789144635200500488e-01 1.400000000000000000e+01
2.765326261520386186e+00 2.206740856170653853e+00 -5.603482723236083984e-01 1.000000000000000000e+01
3.425348997116088867e+00 2.731484889984130859e+00 -5.379312634468078613e-01 1.000000000000000000e+01
4.458882808685302734e+00 3.554385662078856978e+00 -4.988794624805449884e-01 9.000000000000000000e+00
6.437838077545166016e+00 5.128229618072509766e+00 -4.313529431819915771e-01 2.000000000000000000e+00
1.054502201080322088e+01 8.393900871276855469e+00 -2.352584451436995905e-01 2.000000000000000000e+00
1.761296629905700906e+00 1.397989630699157937e+00 -6.025307178497314453e-01 2.000000000000000000e+01
2.001624584197998047e+00 1.587606072425842063e+00 -5.898216366767883301e-01 1.200000000000000000e+01
2.332179069519042969e+00 1.849125266075134055e+00 -5.785328745841979980e-01 1.400000000000000000e+01
2.776108980178833008e+00 2.199527978897095171e+00 -5.609740018844604492e-01 1.000000000000000000e+01
3.442644596099853960e+00 2.725672721862792969e+00 -5.391499996185302734e-01 1.000000000000000000e+01
4.452515602111816406e+00 3.523962020874022993e+00 -4.967877268791198730e-01 1.100000000000000000e+01
6.471364974975585938e+00 5.118115901947020596e+00 -4.323996603488922119e-01 2.000000000000000000e+00
1.058367061614990057e+01 8.364480018615722656e+00 -2.354678660631180087e-01 2.000000000000000000e+00
1.770717740058898926e+00 1.395420193672179954e+00 -6.040836572647094727e-01 1.900000000000000000e+01
2.013278245925902876e+00 1.585432052612304910e+00 -5.916212797164916992e-01 1.100000000000000000e+01
2.335534334182738814e+00 1.838544487953186035e+00 -5.777696371078491211e-01 1.300000000000000000e+01
2.783769845962523970e+00 2.189824104309082031e+00 -5.609740018844604492e-01 1.000000000000000000e+01
3.433410167694091797e+00 2.698917627334595171e+00 -5.362251400947570801e-01 1.000000000000000000e+01
4.474188804626464844e+00 3.515784502029418945e+00 -4.978336095809937079e-01 1.100000000000000000e+01
6.476624488830566406e+00 5.085627555847167969e+00 -4.315623044967650812e-01 2.000000000000000000e+00
1.062539005279541016e+01 8.337360382080078125e+00 -2.357470989227294922e-01 2.000000000000000000e+00
1.772534847259521040e+00 1.386849880218506081e+00 -6.030483841896057129e-01 1.900000000000000000e+01
2.024940967559814009e+00 1.583195924758910911e+00 -5.934208631515502930e-01 1.100000000000000000e+01
2.335750341415404829e+00 1.825544834136962891e+00 -5.762431621551513672e-01 1.300000000000000000e+01
2.805408239364624023e+00 2.191036701202393022e+00 -5.637897849082946777e-01 9.000000000000000000e+00
3.554373931884766336e+01 2.774983787536621094e+01 5.536767959594726562e+00 3.800000000000000000e+01
3.458459377288817915e+00 2.699129581451416016e+00 -5.386624932289123535e-01 1.000000000000000000e+01
4.470725059509277344e+00 3.487889766693114790e+00 -4.960905015468596857e-01 1.100000000000000000e+01
6.522689819335938388e+00 5.085092544555664062e+00 -4.334463775157927912e-01 2.000000000000000000e+00
1.062603282928466975e+01 8.278099060058593750e+00 -2.351188212633132935e-01 2.000000000000000000e+00
1.769496917724608931e+00 1.375037431716918945e+00 -6.004601716995239258e-01 1.800000000000000000e+01
2.033258438110352007e+00 1.578862667083740012e+00 -5.943207144737243652e-01 1.100000000000000000e+01
2.341791391372681108e+00 1.817789196968079057e+00 -5.762431621551513672e-01 1.300000000000000000e+01
2.806415081024169922e+00 2.176878690719604048e+00 -5.625383257865905762e-01 1.000000000000000000e+01
3.465822219848632812e+00 2.686429977416992188e+00 -5.384187698364257812e-01 9.000000000000000000e+00
4.486991882324218750e+00 3.476706027984619141e+00 -4.966134130954741877e-01 1.100000000000000000e+01
6.542675018310546875e+00 5.065880298614501953e+00 -4.336557388305664062e-01 1.000000000000000000e+00
1.065342521667479936e+01 8.242816925048828125e+00 -2.351188212633132935e-01 2.000000000000000000e+00
3.714649200439453125e+01 2.874115371704101918e+01 1.258481693267822088e+01 1.400000000000000000e+01
1.772756338119507058e+00 1.367672324180603027e+00 -5.999425649642944336e-01 2.100000000000000000e+01
2.032583951950072798e+00 1.566996335983275923e+00 -5.925210714340209961e-01 1.100000000000000000e+01
2.354342460632324219e+00 1.814397335052490012e+00 -5.777696371078491211e-01 1.300000000000000000e+01
2.804606199264525923e+00 2.159837722778319868e+00 -5.606611371040344238e-01 9.000000000000000000e+00
3.478324890136719194e+00 2.676737070083618164e+00 -5.389062166213989258e-01 9.000000000000000000e+00
4.514892101287841797e+00 3.473170518875122070e+00 -4.983565509319304865e-01 9.000000000000000000e+00
6.572986125946044922e+00 5.052749156951904297e+00 -4.344930946826934814e-01 2.000000000000000000e+00
1.069799137115479049e+01 8.217761039733886719e+00 -2.354678660631180087e-01 2.000000000000000000e+00
1.788016200065613015e+00 1.370010972023010032e+00 -6.035659909248352051e-01 1.800000000000000000e+01
2.028485298156737837e+00 1.553139328956604004e+00 -5.898216366767883301e-01 1.200000000000000000e+01
2.361905336380004883e+00 1.807773351669311968e+00 -5.781512856483459473e-01 1.300000000000000000e+01
2.824305534362792969e+00 2.160125970840454102e+00 -5.631640553474426270e-01 1.000000000000000000e+01
3.487182140350341797e+00 2.665187597274779829e+00 -5.389062166213989258e-01 9.000000000000000000e+00
4.548549652099609375e+00 3.475113630294799805e+00 -5.007969141006469727e-01 9.000000000000000000e+00
6.557955741882324219e+00 5.006684780120849609e+00 -4.323996603488922119e-01 1.000000000000000000e+00
1.071882438659667969e+01 8.177388191223144531e+00 -2.353282421827316007e-01 2.000000000000000000e+00
3.588214111328125000e+01 2.737447547912598012e+01 1.209306144714354936e+01 1.200000000000000000e+01
1.786637425422668013e+00 1.359082818031311035e+00 -6.014954447746276855e-01 1.800000000000000000e+01
2.040100097656250000e+00 1.550766229629517046e+00 -5.916212797164916992e-01 1.200000000000000000e+01
2.366637945175170898e+00 1.798329949378967063e+00 -5.777696371078491211e-01 1.100000000000000000e+01
2.828682184219359907e+00 2.147864818572998047e+00 -5.625383257865905762e-01 9.000000000000000000e+00
3.488557100296020952e+00 2.646999359130858931e+00 -5.376875400543212891e-01 9.000000000000000000e+00
4.536840915679931641e+00 3.441154479980469194e+00 -4.981822371482849121e-01 9.000000000000000000e+00
6.594492912292479581e+00 4.998239994049072266e+00 -4.336557388305664062e-01 2.000000000000000000e+00
3.414525604248046875e+01 2.587072753906250000e+01 9.890197753906250000e+00 1.300000000000000000e+01
1.075368022918700994e+01 8.144752502441406250e+00 -2.354678660631180087e-01 2.000000000000000000e+00
1.794217228889465110e+00 1.355479598045348899e+00 -6.025307178497314453e-01 1.700000000000000000e+01
2.048341989517211914e+00 1.546340823173522949e+00 -5.925210714340209961e-01 1.100000000000000000e+01
2.371021509170531782e+00 1.789289355278014915e+00 -5.773880481719970703e-01 1.000000000000000000e+01
2.845252275466918945e+00 2.145608901977539062e+00 -5.644155740737915039e-01 1.000000000000000000e+01
3.502071619033813032e+00 2.639000415802001953e+00 -5.384187698364257812e-01 9.000000000000000000e+00
4.586421012878417969e+00 3.454861402511597124e+00 -5.023657083511352539e-01 9.000000000000000000e+00
6.601457118988037109e+00 4.969137668609619141e+00 -4.330277144908905029e-01 2.000000000000000000e+00
1.081898403167724965e+01 8.137896537780761719e+00 -2.363055795431137085e-01 2.000000000000000000e+00
1.795846939086914062e+00 1.346890211105346902e+00 -6.014954447746276855e-01 1.800000000000000000e+01
2.063083648681641069e+00 1.546193599700927956e+00 -5.952205061912536621e-01 1.100000000000000000e+01
2.378823995590209961e+00 1.782179236412047896e+00 -5.777696371078491211e-01 1.100000000000000000e+01
2.846399307250977007e+00 2.130928754806518999e+00 -5.631640553474426270e-01 9.000000000000000000e+00
3.514441251754761186e+00 2.629137992858887163e+00 -5.389062166213989258e-01 9.000000000000000000e+00
4.609622001647949219e+00 3.447183132171630859e+00 -5.035858750343322754e-01 8.000000000000000000e+00
6.644360542297363281e+00 4.965192794799804688e+00 -4.347024559974669855e-01 2.000000000000000000e+00
1.082809734344482067e+01 8.085723876953125000e+00 -2.358867228031157892e-01 2.000000000000000000e+00
1.802321195602416992e+00 1.341452479362488015e+00 -6.020131111145019531e-01 1.900000000000000000e+01
2.065609455108643022e+00 1.536295652389525923e+00 -5.943207144737243652e-01 1.100000000000000000e+01
2.396368741989136186e+00 1.781647920608520952e+00 -5.804409384727478027e-01 1.000000000000000000e+01
2.844676494598389116e+00 2.113413572311400923e+00 -5.612868666648864746e-01 9.000000000000000000e+00
3.530429363250731978e+00 2.620972394943236861e+00 -5.398811697959899902e-01 9.000000000000000000e+00
4.607826232910156250e+00 3.419578790664672852e+00 -5.020170807838439941e-01 9.000000000000000000e+00
6.652888774871826172e+00 4.933668613433837891e+00 -4.340744316577910822e-01 2.000000000000000000e+00
3.147742843627930043e+01 2.333460807800292969e+01 9.046181678771972656e+00 1.200000000000000000e+01
1.083838081359862926e+01 8.031695365905761719e+00 -2.354678660631180087e-01 2.000000000000000000e+00
3.218495941162108664e+01 2.385040664672851918e+01 1.073374366760254084e+01 9.000000000000000000e+00
1.811653852462768999e+00 1.338597059249877930e+00 -6.035659909248352051e-01 1.700000000000000000e+01
2.066256523132324219e+00 1.525603413581847922e+00 -5.929709672927856445e-01 1.300000000000000000e+01
2.396254777908325195e+00 1.768608808517456055e+00 -5.789144635200500488e-01 1.200000000000000000e+01
2.856805562973022017e+00 2.106988430023192915e+00 -5.622254610061645508e-01 1.000000000000000000e+01
3.531566858291625977e+00 2.602744340896606001e+00 -5.386624932289123535e-01 7.000000000000000000e+00
4.642191410064697266e+00 3.420018196105957031e+00 -5.044574141502380371e-01 9.000000000000000000e+00
6.676503658294677734e+00 4.915152072906494141e+00 -4.344930946826934814e-01 2.000000000000000000e+00
3.150532531738280895e+01 2.318531799316405895e+01 9.030884742736816406e+00 1.200000000000000000e+01
1.092433834075927912e+01 8.036472320556640625e+00 -2.367244362831116000e-01 2.000000000000000000e+00
3.230328750610352273e+01 2.375517272949219105e+01 1.074409580230713068e+01 9.000000000000000000e+00
1.814757704734802024e+00 1.331122517585753950e+00 -6.030483841896057129e-01 1.600000000000000000e+01
2.063710451126099077e+00 1.512621402740478960e+00 -5.907214879989624023e-01 1.100000000000000000e+01
2.402413845062255859e+00 1.760233521461487038e+00 -5.789144635200500488e-01 1.200000000000000000e+01
2.862549066543579102e+00 2.095836639404296875e+00 -5.619125962257385254e-01 1.100000000000000000e+01
3.535824298858643022e+00 2.586884737014770952e+00 -5.379312634468078613e-01 9.000000000000000000e+00
4.583341121673583984e+00 3.352042198181151900e+00 -4.967877268791198730e-01 9.000000000000000000e+00
6.683944702148438388e+00 4.884746074676513672e+00 -4.338650703430175781e-01 2.000000000000000000e+00
3.157032966613769887e+01 2.306370735168457031e+01 9.026386260986328125e+00 1.200000000000000000e+01
1.093294525146484020e+01 7.984138011932373047e+00 -2.363055795431137085e-01 2.000000000000000000e+00
3.235692214965820312e+01 2.362969207763671875e+01 1.073581409454346058e+01 9.000000000000000000e+00
1.814707994461060014e+00 1.321368217468261941e+00 -6.014954447746276855e-01 1.800000000000000000e+01
2.081583976745605025e+00 1.514580726623534934e+00 -5.943207144737243652e-01 1.100000000000000000e+01
2.403780460357666016e+00 1.748372435569762962e+00 -5.777696371078491211e-01 1.100000000000000000e+01
2.874641180038452148e+00 2.089315652847290039e+00 -5.628511905670166016e-01 1.300000000000000000e+01
3.551257371902465820e+00 2.579192638397216797e+00 -5.389062166213989258e-01 1.000000000000000000e+01
4.636933326721191406e+00 3.366456985473632812e+00 -5.013198256492614746e-01 9.000000000000000000e+00
6.684788703918457031e+00 4.849656581878662109e+00 -4.328183531761168878e-01 2.000000000000000000e+00
3.171690177917480113e+01 2.300141525268555043e+01 9.045282363891601562e+00 1.200000000000000000e+01
1.096074867248534979e+01 7.945926666259765625e+00 -2.363055795431137085e-01 2.000000000000000000e+00
3.217644119262695312e+01 2.332610893249512074e+01 1.064885044097900035e+01 9.000000000000000000e+00
1.822440743446350098e+00 1.317289113998413086e+00 -6.025307178497314453e-01 2.000000000000000000e+01
2.090017795562744141e+00 1.509587526321410911e+00 -5.952205061912536621e-01 1.100000000000000000e+01
2.409868717193603960e+00 1.739971041679382102e+00 -5.777696371078491211e-01 1.200000000000000000e+01
2.883518695831298828e+00 2.080424547195435014e+00 -5.631640553474426270e-01 1.400000000000000000e+01
3.565069675445557085e+00 2.570263385772705078e+00 -5.396374464035034180e-01 1.000000000000000000e+01
3.150877189636230113e+01 2.271648406982421875e+01 6.152254581451416016e+00 1.400000000000000000e+01
4.692297935485839844e+00 3.381702661514281782e+00 -5.060262680053710938e-01 9.000000000000000000e+00
6.737332344055175781e+00 4.851970672607421875e+00 -4.351211488246917725e-01 1.000000000000000000e+00
3.192352104187012074e+01 2.298164749145508168e+01 9.081274032592773438e+00 1.200000000000000000e+01
1.096894073486327947e+01 7.893601417541503906e+00 -2.358867228031157892e-01 2.000000000000000000e+00
3.191583633422851918e+01 2.296765708923339844e+01 1.053600597381591975e+01 9.000000000000000000e+00
1.822319030761718972e+00 1.307540893554687944e+00 -6.009778380393981934e-01 1.900000000000000000e+01
2.093690633773804155e+00 1.501147270202636941e+00 -5.947706103324890137e-01 1.200000000000000000e+01
2.423906326293944868e+00 1.737266898155211958e+00 -5.796777009963989258e-01 1.200000000000000000e+01
2.882733345031737837e+00 2.064595460891724077e+00 -5.615997314453125000e-01 1.400000000000000000e+01
3.731107330322266336e+01 2.671210670471191051e+01 5.634263515472412109e+00 4.000000000000000000e+01
3.572405338287353960e+00 2.556648254394530806e+00 -5.393937230110168457e-01 9.000000000000000000e+00
3.159181976318359020e+01 2.260084533691405895e+01 6.152254581451416016e+00 1.400000000000000000e+01
4.715416431427001953e+00 3.373417615890502930e+00 -5.072464346885681152e-01 6.000000000000000000e+00
6.737979888916015625e+00 4.816808223724365234e+00 -4.340744316577910822e-01 2.000000000000000000e+00
1.101595401763916016e+01 7.869213104248046875e+00 -2.363055795431137085e-01 2.000000000000000000e+00
1.834739685058593972e+00 1.306775450706481934e+00 -6.035659909248352051e-01 1.800000000000000000e+01
2.094154834747314009e+00 1.490439891815185991e+00 -5.934208631515502930e-01 1.300000000000000000e+01
2.439553976058959961e+00 1.735623955726623979e+00 -5.819674134254455566e-01 1.200000000000000000e+01
2.896362543106079102e+00 2.059098482131958008e+00 -5.628511905670166016e-01 1.400000000000000000e+01
3.589399576187133789e+00 2.549910783767700195e+00 -5.406123995780944824e-01 1.000000000000000000e+01
3.150946044921875000e+01 2.237605857849121094e+01 6.120967864990234375e+00 1.400000000000000000e+01
4.736909866333007812e+00 3.363858699798583984e+00 -5.082923173904418945e-01 9.000000000000000000e+00
3.160333633422851918e+01 2.243442726135253906e+01 7.533520698547363281e+00 6.300000000000000000e+01
6.748237133026123047e+00 4.788635730743408203e+00 -4.336557388305664062e-01 1.000000000000000000e+00
3.235657119750977273e+01 2.295214843750000000e+01 9.158657073974609375e+00 1.200000000000000000e+01
1.107598018646240057e+01 7.853845596313476562e+00 -2.370036840438843051e-01 2.000000000000000000e+00
1.847177267074584961e+00 1.305939316749572976e+00 -6.061542034149169922e-01 1.900000000000000000e+01
2.091386556625366211e+00 1.477498650550842063e+00 -5.911713838577270508e-01 1.300000000000000000e+01
2.431164503097534180e+00 1.716904997825623003e+00 -5.785328745841979980e-01 1.100000000000000000e+01
2.905146360397338867e+00 2.050114870071411133e+00 -5.631640553474426270e-01 1.100000000000000000e+01
3.249731445312500000e+01 2.292433166503905895e+01 4.883060932159423828e+00 2.100000000000000000e+01
3.586922407150268999e+00 2.529357910156250000e+00 -5.389062166213989258e-01 1.000000000000000000e+01
4.756765842437744141e+00 3.353042840957642046e+00 -5.091638565063476562e-01 8.000000000000000000e+00
6.771442890167236328e+00 4.769651412963867188e+00 -4.340744316577910822e-01 2.000000000000000000e+00
3.136573982238769887e+01 2.208512687683105113e+01 8.856323242187500000e+00 1.200000000000000000e+01
1.110332775115966975e+01 7.815135478973388672e+00 -2.370036840438843051e-01 2.000000000000000000e+00
3.209140777587891336e+01 2.258770561218262074e+01 1.051529979705811080e+01 9.000000000000000000e+00
1.848109006881714089e+00 1.297909259796143022e+00 -6.051189303398132324e-01 1.900000000000000000e+01
2.103993654251099077e+00 1.476518273353577104e+00 -5.934208631515502930e-01 1.100000000000000000e+01
2.433331966400146040e+00 1.707003831863403098e+00 -5.777696371078491211e-01 1.100000000000000000e+01
2.921277999877930132e+00 2.047781229019165039e+00 -5.650413036346435547e-01 1.100000000000000000e+01
3.606232166290283203e+00 2.526049137115478960e+00 -5.406123995780944824e-01 1.000000000000000000e+01
3.181509399414062855e+01 2.228544616699219105e+01 6.152254581451416016e+00 1.400000000000000000e+01
4.772172451019287109e+00 3.341511011123656782e+00 -5.096867680549621582e-01 9.000000000000000000e+00
6.786394119262695312e+00 4.748354911804199219e+00 -4.340744316577910822e-01 1.000000000000000000e+00
1.112126922607422053e+01 7.775631427764892578e+00 -2.368640601634978970e-01 2.000000000000000000e+00
3.248282241821289062e+01 2.270249938964844105e+01 1.061882781982422053e+01 9.000000000000000000e+00
1.847873806953429954e+00 1.288136005401611106e+00 -6.035659909248352051e-01 1.800000000000000000e+01
2.113932132720946822e+00 1.472506523132323997e+00 -5.947706103324890137e-01 1.200000000000000000e+01
2.442497968673706055e+00 1.700743317604064941e+00 -5.785328745841979980e-01 1.200000000000000000e+01
2.923543691635131836e+00 2.034186840057373047e+00 -5.641027092933654785e-01 1.300000000000000000e+01
3.610138177871704102e+00 2.510046005249022993e+00 -5.398811697959899902e-01 9.000000000000000000e+00
4.780535221099854404e+00 3.322558403015137163e+00 -5.093381404876708984e-01 9.000000000000000000e+00
6.809489250183104581e+00 4.729194164276123047e+00 -4.344930946826934814e-01 1.000000000000000000e+00
3.033334159851073863e+01 2.105867576599121094e+01 8.525195121765136719e+00 1.100000000000000000e+01
1.112205791473389027e+01 7.718522071838378906e+00 -2.363055795431137085e-01 2.000000000000000000e+00
3.256187057495117188e+01 2.258897399902344105e+01 1.061882781982422053e+01 9.000000000000000000e+00
1.851217269897460938e+00 1.279932498931884988e+00 -6.030483841896057129e-01 1.900000000000000000e+01
2.105140686035155806e+00 1.454409360885619895e+00 -5.907214879989624023e-01 1.300000000000000000e+01
2.458702802658081055e+00 1.698046207427978960e+00 -5.808225870132446289e-01 1.200000000000000000e+01
2.923203945159912109e+00 2.017336368560791016e+00 -5.625383257865905762e-01 1.100000000000000000e+01
3.623017787933350053e+00 2.498419523239136186e+00 -5.403686761856079102e-01 1.000000000000000000e+01
4.798178672790527344e+00 3.307570457458496094e+00 -5.098611116409301758e-01 9.000000000000000000e+00
6.834177017211914062e+00 4.707544803619384766e+00 -4.349117875099182129e-01 2.000000000000000000e+00
3.047175979614258168e+01 2.098183631896973012e+01 8.541391372680664062e+00 1.100000000000000000e+01
1.118455696105957031e+01 7.698435306549072266e+00 -2.370036840438843051e-01 2.000000000000000000e+00
1.862045168876647949e+00 1.277835130691528098e+00 -6.051189303398132324e-01 1.900000000000000000e+01
2.110204696655272993e+00 1.447052240371704102e+00 -5.907214879989624023e-01 1.400000000000000000e+01
2.464615345001221147e+00 1.689453482627869096e+00 -5.808225870132446289e-01 1.100000000000000000e+01
2.933487176895142046e+00 2.009352684020996094e+00 -5.631640553474426270e-01 1.100000000000000000e+01
3.258163452148438211e+01 2.230911064147948863e+01 4.848450183868408203e+00 2.000000000000000000e+01
3.631716966629027876e+00 2.485757589340209961e+00 -5.403686761856079102e-01 9.000000000000000000e+00
3.286943054199218750e+01 2.249774360656737926e+01 6.308689117431640625e+00 1.400000000000000000e+01
4.834360122680664062e+00 3.307677507400513139e+00 -5.124757885932922363e-01 9.000000000000000000e+00
6.834080219268798828e+00 4.672387599945068359e+00 -4.338650703430175781e-01 2.000000000000000000e+00
3.057055664062500000e+01 2.089293479919433949e+01 8.548589706420898438e+00 1.100000000000000000e+01
1.121136188507080078e+01 7.659347057342529297e+00 -2.370036840438843051e-01 2.000000000000000000e+00
3.248728179931641336e+01 2.218625640869140980e+01 1.054118251800536932e+01 9.000000000000000000e+00
1.869687676429748979e+00 1.273502707481384055e+00 -6.061542034149169922e-01 1.900000000000000000e+01
2.118464946746826172e+00 1.441870450973510964e+00 -5.916212797164916992e-01 1.400000000000000000e+01
2.462381601333618164e+00 1.675318241119384988e+00 -5.789144635200500488e-01 1.100000000000000000e+01
2.942116975784302202e+00 2.000211477279663086e+00 -5.634769201278686523e-01 1.100000000000000000e+01
3.299095916748046875e+01 2.242063140869140980e+01 4.897685050964354581e+00 2.100000000000000000e+01
3.637087583541870117e+00 2.470834255218505859e+00 -5.398811697959899902e-01 1.000000000000000000e+01
3.180397033691405895e+01 2.160584259033203125e+01 6.089680671691895419e+00 1.400000000000000000e+01
4.845876693725585938e+00 3.290782213211060014e+00 -5.124757885932922363e-01 9.000000000000000000e+00
6.850348472595214844e+00 4.648503780364990234e+00 -4.338650703430175781e-01 2.000000000000000000e+00
3.059169197082519887e+01 2.075108909606933949e+01 8.534193038940429688e+00 1.100000000000000000e+01
1.124464988708495916e+01 7.624654293060302734e+00 -2.371432930231094083e-01 2.000000000000000000e+00
3.088499450683594105e+01 2.094217300415039062e+01 9.998697280883789062e+00 8.000000000000000000e+00
1.874121665954590066e+00 1.266968488693237083e+00 -6.061542034149169922e-01 1.900000000000000000e+01
2.136403799057006836e+00 1.443193554878235085e+00 -5.952205061912536621e-01 1.400000000000000000e+01
2.466587543487548828e+00 1.665614008903502974e+00 -5.785328745841979980e-01 1.100000000000000000e+01
2.955631017684936968e+00 1.994348883628844993e+00 -5.647284388542175293e-01 1.100000000000000000e+01
3.458966064453125000e+01 2.333102035522460938e+01 5.122899532318115234e+00 2.700000000000000000e+01
3.650628089904785156e+00 2.461452722549438032e+00 -5.406123995780944824e-01 1.000000000000000000e+01
3.184643745422362926e+01 2.147260856628417969e+01 6.083423614501953125e+00 1.400000000000000000e+01
4.852377891540527344e+00 3.270506143569945845e+00 -5.119528174400329590e-01 9.000000000000000000e+00
6.893038272857666016e+00 4.642414569854736328e+00 -4.355398416519165039e-01 2.000000000000000000e+00
1.127783203125000000e+01 7.589822769165039062e+00 -2.372829169034957886e-01 2.000000000000000000e+00
3.096154403686523082e+01 2.082883453369140980e+01 9.998697280883789062e+00 8.000000000000000000e+00
1.867303252220154031e+00 1.252884387969970925e+00 -6.025307178497314453e-01 1.700000000000000000e+01
2.144665718078612837e+00 1.437897801399230957e+00 -5.961202979087829590e-01 1.100000000000000000e+01
2.474017381668090820e+00 1.658086895942687988e+00 -5.789144635200500488e-01 1.000000000000000000e+01
2.957650661468505859e+00 1.980722069740294966e+00 -5.637897849082946777e-01 9.000000000000000000e+00
3.664147138595581055e+00 2.452006816864014116e+00 -5.413436293601989746e-01 9.000000000000000000e+00
3.195403099060058949e+01 2.138328361511230113e+01 6.089680671691895419e+00 1.400000000000000000e+01
4.858796119689941406e+00 3.250225067138671875e+00 -5.114299058914184570e-01 9.000000000000000000e+00
6.899238586425781250e+00 4.611665725708007812e+00 -4.349117875099182129e-01 2.000000000000000000e+00
3.205799484252929688e+01 2.142046737670898082e+01 8.901312828063964844e+00 1.200000000000000000e+01
1.130425739288330078e+01 7.550409793853759766e+00 -2.372829169034957886e-01 2.000000000000000000e+00
3.119108963012694957e+01 2.083334732055664062e+01 1.005046081542968928e+01 8.000000000000000000e+00
1.874881148338318093e+00 1.248500108718872070e+00 -6.035659909248352051e-01 1.800000000000000000e+01
3.243516921997070312e+01 2.159069824218750000e+01 6.801202893257141113e-01 3.300000000000000000e+01
2.143182277679442915e+00 1.426084518432616965e+00 -5.943207144737243652e-01 1.100000000000000000e+01
2.484694004058837891e+00 1.652702689170836958e+00 -5.800593495368957520e-01 1.100000000000000000e+01
2.959611177444458008e+00 1.967105627059936968e+00 -5.628511905670166016e-01 1.000000000000000000e+01
3.679298400878905806e+00 2.443594455718994141e+00 -5.423185825347900391e-01 1.000000000000000000e+01
3.203219223022460938e+01 2.126602363586426137e+01 6.089680671691895419e+00 1.400000000000000000e+01
4.863472461700438565e+00 3.228836774826049805e+00 -5.107326507568359375e-01 9.000000000000000000e+00
6.915294170379638672e+00 4.587554931640625000e+00 -4.349117875099182129e-01 2.000000000000000000e+00
1.133387756347656072e+01 7.513113975524902344e+00 -2.373527288436889926e-01 2.000000000000000000e+00
3.287440490722656250e+01 2.178385543823241832e+01 1.056706428527832031e+01 9.000000000000000000e+00
1.887068629264831987e+00 1.247603058815001997e+00 -6.061542034149169922e-01 1.600000000000000000e+01
2.141395568847655806e+00 1.414672970771789995e+00 -5.925210714340209961e-01 1.000000000000000000e+01
2.495075702667235884e+00 1.647699713706969993e+00 -5.812041759490966797e-01 1.200000000000000000e+01
2.966118097305297852e+00 1.957280397415160911e+00 -5.628511905670166016e-01 1.000000000000000000e+01
3.672466039657593218e+00 2.421545267105102983e+00 -5.401249527931213379e-01 1.000000000000000000e+01
4.895778656005859375e+00 3.226945638656616211e+00 -5.129987001419067383e-01 8.000000000000000000e+00
6.913789272308349609e+00 4.553611755371093750e+00 -4.338650703430175781e-01 2.000000000000000000e+00
3.233326721191406250e+01 2.128749084472655895e+01 8.937305450439453125e+00 1.200000000000000000e+01
1.140550041198729936e+01 7.506269931793212891e+00 -2.383300662040709894e-01 2.000000000000000000e+00
3.306854629516602273e+01 2.176330947875976918e+01 1.060743999481200994e+01 9.000000000000000000e+00
1.896257638931273970e+00 1.244187712669373003e+00 -6.077071428298950195e-01 1.900000000000000000e+01
2.156098842620850053e+00 1.413600444793700950e+00 -5.952205061912536621e-01 1.100000000000000000e+01
2.497528076171875000e+00 1.636827945709228960e+00 -5.804409384727478027e-01 1.500000000000000000e+01
2.976237297058105025e+00 1.949079155921936035e+00 -5.634769201278686523e-01 1.000000000000000000e+01
3.684218645095825195e+00 2.410885095596313032e+00 -5.406123995780944824e-01 1.000000000000000000e+01
4.908680438995361328e+00 3.210927009582519975e+00 -5.131729841232299805e-01 8.000000000000000000e+00
6.943016529083251953e+00 4.538192272186279297e+00 -4.347024559974669855e-01 2.000000000000000000e+00
3.247263336181641336e+01 2.121713256835937855e+01 8.955301284790039062e+00 1.200000000000000000e+01
1.142828464508056996e+01 7.464224338531494141e+00 -2.382602542638778964e-01 2.000000000000000000e+00
3.334543991088867188e+01 2.177080726623535156e+01 1.067059135437012074e+01 9.000000000000000000e+00
1.890875697135925071e+00 1.231236100196837935e+00 -6.046012639999389648e-01 1.900000000000000000e+01
2.154486417770386186e+00 1.401814460754394975e+00 -5.934208631515502930e-01 1.000000000000000000e+01
2.504872322082519975e+00 1.629170417785644975e+00 -5.808225870132446289e-01 1.400000000000000000e+01
2.996273279190063032e+00 1.947289824485779031e+00 -5.659798979759216309e-01 1.100000000000000000e+01
3.695941448211669922e+00 2.400172472000122070e+00 -5.410999059677124023e-01 1.000000000000000000e+01
3.290849685668945312e+01 2.137102699279785156e+01 6.214828491210938388e+00 1.400000000000000000e+01
4.924872398376464844e+00 3.197027444839477983e+00 -5.136959552764892578e-01 8.000000000000000000e+00
3.094683837890625000e+01 2.008175659179687855e+01 7.170983791351318359e+00 6.100000000000000000e+01
6.965517997741699219e+00 4.518276691436767578e+00 -4.351211488246917725e-01 2.000000000000000000e+00
1.143077754974365057e+01 7.409059524536132812e+00 -2.377715855836868009e-01 2.000000000000000000e+00
3.260041427612304688e+01 2.113053321838378906e+01 1.040970230102539062e+01 8.000000000000000000e+00
1.891916871070862038e+00 1.222531199455261008e+00 -6.035659909248352051e-01 1.900000000000000000e+01
2.162640810012816939e+00 1.396399497985840066e+00 -5.943207144737243652e-01 1.100000000000000000e+01
2.513842821121215820e+00 1.622546195983886941e+00 -5.815858244895935059e-01 1.400000000000000000e+01
3.001392126083374023e+00 1.935748457908629927e+00 -5.656670331954956055e-01 9.000000000000000000e+00
3.702628374099731001e+00 2.386181116104125977e+00 -5.408561229705810547e-01 9.000000000000000000e+00
3.315266418457031250e+01 2.135724639892578125e+01 6.246115207672119141e+00 1.400000000000000000e+01
4.930977344512938565e+00 3.176579952239989790e+00 -5.131729841232299805e-01 9.000000000000000000e+00
3.109927940368651988e+01 2.002675628662109020e+01 7.190064430236816406e+00 6.100000000000000000e+01
6.984606266021729404e+00 4.496097087860107422e+00 -4.353304803371428888e-01 2.000000000000000000e+00
3.072225379943848012e+01 1.976879882812500000e+01 8.434314727783203125e+00 1.100000000000000000e+01
1.147002506256104049e+01 7.377768039703369141e+00 -2.380508184432983121e-01 2.000000000000000000e+00
3.262889480590820312e+01 2.097956085205078125e+01 1.039417266845702947e+01 8.000000000000000000e+00
1.900625824928283913e+00 1.219711661338805930e+00 -6.051189303398132324e-01 1.900000000000000000e+01
3.229108428955078125e+01 2.071459388732910156e+01 6.696488261222839355e-01 3.200000000000000000e+01
2.170297861099243164e+00 1.391702294349669966e+00 -5.952205061912536621e-01 1.100000000000000000e+01
2.522233486175537109e+00 1.616759657859802024e+00 -5.823490619659423828e-01 1.400000000000000000e+01
3.007458686828612837e+00 1.926309704780579057e+00 -5.656670331954956055e-01 8.000000000000000000e+00
3.723482370376586914e+00 2.383098125457764116e+00 -5.428060293197631836e-01 1.000000000000000000e+01
3.135244369506835938e+01 2.006614875793457031e+01 5.895701885223388672e+00 1.300000000000000000e+01
4.935897350311279297e+00 3.157852172851562944e+00 -5.126500725746154785e-01 9.000000000000000000e+00
6.995330810546875000e+00 4.471980571746826172e+00 -4.351211488246917725e-01 2.000000000000000000e+00
3.087288093566894887e+01 1.972884941101073863e+01 8.458609580993652344e+00 1.100000000000000000e+01
1.150999832153319957e+01 7.352462291717529297e+00 -2.383998781442641934e-01 2.000000000000000000e+00
1.903242349624634011e+00 1.212032198905945046e+00 -6.046012639999389648e-01 1.700000000000000000e+01
2.161989927291870117e+00 1.375748515129088911e+00 -5.916212797164916992e-01 1.000000000000000000e+01
2.534487724304199219e+00 1.612160325050354004e+00 -5.838755369186401367e-01 1.300000000000000000e+01
2.994158983230590820e+00 1.903084516525268999e+00 -5.619125962257385254e-01 7.000000000000000000e+00
3.605366134643554688e+01 2.290683746337890980e+01 5.244769096374511719e+00 3.000000000000000000e+01
3.723399877548218218e+00 2.364764928817749023e+00 -5.415873527526855469e-01 1.000000000000000000e+01
4.945208549499511719e+00 3.139535427093505859e+00 -5.124757885932922363e-01 9.000000000000000000e+00
3.073412704467773082e+01 1.950447082519530895e+01 7.075579166412354404e+00 6.100000000000000000e+01
7.004152297973632812e+00 4.443255424499511719e+00 -4.347024559974669855e-01 2.000000000000000000e+00
3.094155883789062855e+01 1.962096405029296875e+01 8.458609580993652344e+00 1.100000000000000000e+01
1.156261634826659979e+01 7.329370021820068359e+00 -2.389583438634871881e-01 2.000000000000000000e+00
3.282606506347656250e+01 2.079992103576660156e+01 1.041280746459960938e+01 8.000000000000000000e+00
1.922371387481689009e+00 1.214333772659301980e+00 -6.092600226402282715e-01 1.600000000000000000e+01
2.176905155181885210e+00 1.374056220054626021e+00 -5.943207144737243652e-01 1.100000000000000000e+01
2.527096509933472124e+00 1.594479203224181907e+00 -5.808225870132446289e-01 1.400000000000000000e+01
3.009469032287598100e+00 1.897365093231200950e+00 -5.634769201278686523e-01 9.000000000000000000e+00
3.145184516906737926e+01 1.982161903381348012e+01 4.564738273620604581e+00 1.900000000000000000e+01
3.723644256591796875e+00 2.345811605453491211e+00 -5.403686761856079102e-01 9.000000000000000000e+00
4.960053920745849609e+00 3.123512744903564009e+00 -5.128244161605834961e-01 9.000000000000000000e+00
7.037294864654541016e+00 4.428191184997558594e+00 -4.357491731643676758e-01 2.000000000000000000e+00
3.101326560974121094e+01 1.950742530822753906e+01 8.458609580993652344e+00 1.100000000000000000e+01
1.158940219879150035e+01 7.286941528320313388e+00 -2.389583438634871881e-01 2.000000000000000000e+00
3.243400573730468750e+01 2.039317512512207031e+01 1.026579856872558949e+01 8.000000000000000000e+00
1.923324704170227051e+00 1.205564022064208984e+00 -6.082247495651245117e-01 1.900000000000000000e+01
2.184991359710692915e+00 1.368517756462096946e+00 -5.952205061912536621e-01 1.200000000000000000e+01
2.532646894454956055e+00 1.585648298263550027e+00 -5.808225870132446289e-01 1.400000000000000000e+01
3.027796268463135210e+00 1.894182205200195090e+00 -5.656670331954956055e-01 1.100000000000000000e+01
3.160836410522460938e+01 1.976644325256348012e+01 4.577412605285645419e+00 1.900000000000000000e+01
3.736859560012816939e+00 2.335956096649169922e+00 -5.410999059677124023e-01 1.000000000000000000e+01
4.974306106567382812e+00 3.108291387557982954e+00 -5.131729841232299805e-01 9.000000000000000000e+00
7.059485912322998047e+00 4.407830715179443359e+00 -4.361678659915924072e-01 1.000000000000000000e+00
3.115390968322753906e+01 1.944445037841796875e+01 8.478404998779296875e+00 1.100000000000000000e+01
1.160798168182373047e+01 7.242208480834960938e+00 -2.388187348842621127e-01 2.000000000000000000e+00
3.271478652954102273e+01 2.041072463989258168e+01 1.033205604553223012e+01 8.000000000000000000e+00
1.922599911689758079e+00 1.195782065391540971e+00 -6.066718697547912598e-01 1.900000000000000000e+01
2.193065404891968218e+00 1.362939715385437012e+00 -5.961202979087829590e-01 1.100000000000000000e+01
2.534831285476685014e+00 1.574725985527039018e+00 -5.800593495368957520e-01 1.400000000000000000e+01
3.032711505889893022e+00 1.882559895515441895e+00 -5.653541684150695801e-01 1.300000000000000000e+01
3.169403648376464844e+01 1.966645431518555043e+01 4.579849720001220703e+00 1.900000000000000000e+01
3.753425598144530806e+00 2.328129529953002930e+00 -5.423185825347900391e-01 9.000000000000000000e+00
4.978352546691895419e+00 3.086709260940552202e+00 -5.124757885932922363e-01 8.000000000000000000e+00
7.085016250610351562e+00 4.389472961425781250e+00 -4.367958903312683105e-01 2.000000000000000000e+00
3.124810218811035156e+01 1.935200119018555043e+01 8.485603332519531250e+00 1.100000000000000000e+01
1.163999176025390980e+01 7.205855369567871094e+00 -2.389583438634871881e-01 2.000000000000000000e+00
3.268070983886718750e+01 2.023132514953612926e+01 1.029892730712890980e+01 8.000000000000000000e+00
1.926762223243712935e+00 1.189063668251038042e+00 -6.066718697547912598e-01 1.900000000000000000e+01
2.194492101669311968e+00 1.353230476379394975e+00 -5.952205061912536621e-01 1.000000000000000000e+01
2.546997547149658203e+00 1.569988965988158958e+00 -5.815858244895935059e-01 1.300000000000000000e+01
3.029172658920288086e+00 1.865746617317199929e+00 -5.634769201278686523e-01 1.200000000000000000e+01
3.188420104980469105e+01 1.963063621520996094e+01 4.597399234771729404e+00 1.900000000000000000e+01
3.771672964096068892e+00 2.321256160736083984e+00 -5.437809824943542480e-01 9.000000000000000000e+00
3.140183448791503906e+01 1.931853866577148082e+01 5.839385509490966797e+00 1.300000000000000000e+01
4.987400054931640625e+00 3.068268775939940962e+00 -5.123014450073242188e-01 6.000000000000000000e+00
3.261891555786132812e+01 2.005944442749023082e+01 7.443459033966063565e+00 6.200000000000000000e+01
7.100295066833496094e+00 4.364715099334716797e+00 -4.367958903312683105e-01 1.000000000000000000e+00
3.139515876770019887e+01 1.929177856445312855e+01 8.507199287414550781e+00 1.100000000000000000e+01
1.170596790313721058e+01 7.190299034118652344e+00 -2.397960573434829989e-01 2.000000000000000000e+00
3.266574096679688211e+01 2.005682373046875000e+01 1.027097511291504084e+01 8.000000000000000000e+00
1.930901169776916948e+00 1.182330846786499023e+00 -6.066718697547912598e-01 2.000000000000000000e+01
2.185904264450072798e+00 1.337425589561461958e+00 -5.916212797164916992e-01 1.200000000000000000e+01
2.559161663055419922e+00 1.565186023712157981e+00 -5.831122994422912598e-01 1.300000000000000000e+01
3.040723562240601030e+00 1.858251690864562988e+00 -5.644155740737915039e-01 1.200000000000000000e+01
3.778058290481566939e+00 2.307041883468627930e+00 -5.435372591018676758e-01 1.000000000000000000e+01
5.006582736968994141e+00 3.056031227111815962e+00 -5.131729841232299805e-01 9.000000000000000000e+00
7.098436355590820312e+00 4.329503536224365234e+00 -4.357491731643676758e-01 2.000000000000000000e+00
3.175515174865723012e+01 1.936061286926269887e+01 8.586381912231445312e+00 1.100000000000000000e+01
1.176514720916748047e+01 7.170207500457763672e+00 -2.404941618442535123e-01 2.000000000000000000e+00
1.946573734283447044e+00 1.182604908943176047e+00 -6.102952957153320312e-01 2.100000000000000000e+01
2.200554370880126953e+00 1.335854649543761985e+00 -5.943207144737243652e-01 1.200000000000000000e+01
2.559574365615845171e+00 1.553187847137450950e+00 -5.819674134254455566e-01 1.300000000000000000e+01
3.053948163986206055e+00 1.851722955703734907e+00 -5.656670331954956055e-01 1.100000000000000000e+01
3.407119369506835938e+01 2.065050697326660156e+01 4.891835212707520419e+00 2.100000000000000000e+01
3.780995130538939986e+00 2.290754079818726030e+00 -5.428060293197631836e-01 1.000000000000000000e+01
3.322560501098632812e+01 2.012214088439941051e+01 6.152254581451416016e+00 1.400000000000000000e+01
5.020628452301025391e+00 3.040600538253784180e+00 -5.135216116905212402e-01 9.000000000000000000e+00
7.130593299865722656e+00 4.315039634704589844e+00 -4.367958903312683105e-01 2.000000000000000000e+00
3.182253837585448863e+01 1.924964904785155895e+01 8.586381912231445312e+00 1.100000000000000000e+01
1.179010391235351918e+01 7.129095554351806641e+00 -2.404941618442535123e-01 2.000000000000000000e+00
3.351235580444335938e+01 2.026383972167969105e+01 1.049355983734131037e+01 9.000000000000000000e+00
1.935799121856689009e+00 1.166827321052551047e+00 -6.056365370750427246e-01 2.000000000000000000e+01
2.215219974517821822e+00 1.334197759628295898e+00 -5.970200896263122559e-01 1.100000000000000000e+01
2.556570768356322798e+00 1.539180755615233931e+00 -5.800593495368957520e-01 1.200000000000000000e+01
3.067163944244385210e+00 1.845124483108520952e+00 -5.669184923171997070e-01 1.100000000000000000e+01
3.411925125122070312e+01 2.051712799072265980e+01 4.888422966003417969e+00 2.100000000000000000e+01
3.790669679641724077e+00 2.278564691543579102e+00 -5.430498123168945312e-01 1.000000000000000000e+01
3.157539558410644887e+01 1.897991371154785156e+01 5.835005760192871094e+00 1.300000000000000000e+01
5.005594253540039062e+00 3.007664442062377930e+00 -5.109069347381591797e-01 8.000000000000000000e+00
7.145612239837645596e+00 4.290122985839843750e+00 -4.367958903312683105e-01 2.000000000000000000e+00
3.205663299560546875e+01 1.923872947692871094e+01 8.631371498107910156e+00 1.100000000000000000e+01
1.181491756439208984e+01 7.087897300720214844e+00 -2.404941618442535123e-01 2.000000000000000000e+00
3.356963348388671875e+01 2.013878631591796875e+01 1.048941802978515980e+01 9.000000000000000000e+00
1.939860343933105025e+00 1.160063028335571067e+00 -6.056365370750427246e-01 2.000000000000000000e+01
2.216517925262451172e+00 1.324457883834839089e+00 -5.961202979087829590e-01 1.200000000000000000e+01
2.570355176925659180e+00 1.535280942916869895e+00 -5.819674134254455566e-01 1.300000000000000000e+01
3.071889638900756836e+00 1.833394527435302956e+00 -5.666056275367736816e-01 1.200000000000000000e+01
3.395881271362304688e+01 2.025958633422851918e+01 4.855274677276611328e+00 2.000000000000000000e+01
3.798600196838378906e+00 2.265318870544434038e+00 -5.430498123168945312e-01 1.000000000000000000e+01
5.026330471038818359e+00 2.996294498443603960e+00 -5.119528174400329590e-01 9.000000000000000000e+00
7.184566974639892578e+00 4.279462814331054688e+00 -4.382613003253936768e-01 2.000000000000000000e+00
3.233456802368164062e+01 1.925233078002930043e+01 8.688059806823730469e+00 1.100000000000000000e+01
1.185333442687987926e+01 7.054793834686279297e+00 -2.407733947038651068e-01 2.000000000000000000e+00
1.950543761253356934e+00 1.157227396965027078e+00 -6.077071428298950195e-01 2.000000000000000000e+01
2.224480390548706055e+00 1.318700194358825906e+00 -5.970200896263122559e-01 1.300000000000000000e+01
2.574009656906127930e+00 1.525298595428467019e+00 -5.815858244895935059e-01 1.300000000000000000e+01
3.068072319030762163e+00 1.816621780395508035e+00 -5.647284388542175293e-01 1.300000000000000000e+01
3.182903671264648082e+01 1.883864021301269887e+01 4.541339397430419922e+00 1.900000000000000000e+01
3.811609983444213867e+00 2.255077838897705078e+00 -5.437809824943542480e-01 9.000000000000000000e+00
3.181922149658203125e+01 1.881783485412598012e+01 5.855029106140136719e+00 1.300000000000000000e+01
5.038474082946777344e+00 2.979745149612427202e+00 -5.121271610260009766e-01 9.000000000000000000e+00
3.319387817382813211e+01 1.962298583984375000e+01 7.495358943939208984e+00 6.300000000000000000e+01
7.182266235351563388e+00 4.244197368621826172e+00 -4.372145831584929865e-01 1.000000000000000000e+00
1.188133144378661932e+01 7.015408515930175781e+00 -2.408432066440581998e-01 2.000000000000000000e+00
3.628785324096679688e+01 2.142639541625976918e+01 1.129175758361816051e+01 1.000000000000000000e+01
1.959565997123718040e+00 1.153351426124572976e+00 -6.092600226402282715e-01 2.200000000000000000e+01
2.220670938491820845e+00 1.305987834930419922e+00 -5.947706103324890137e-01 1.300000000000000000e+01
2.592858076095581055e+00 1.524263858795166016e+00 -5.846387743949890137e-01 1.400000000000000000e+01
3.079504489898682085e+00 1.808902621269226074e+00 -5.656670331954956055e-01 1.200000000000000000e+01
3.831442356109619141e+00 2.248792886734008789e+00 -5.454871654510498047e-01 1.000000000000000000e+01
5.055718421936035156e+00 2.966172456741333008e+00 -5.128244161605834961e-01 9.000000000000000000e+00
3.326217269897460938e+01 1.950699806213378906e+01 7.495358943939208984e+00 6.300000000000000000e+01
7.190145492553710938e+00 4.215060234069824219e+00 -4.367958903312683105e-01 2.000000000000000000e+00
1.190229606628417969e+01 6.971870899200438565e+00 -2.407733947038651068e-01 2.000000000000000000e+00
1.966716051101685014e+00 1.148795723915100098e+00 -6.102952957153320312e-01 2.100000000000000000e+01
2.219940423965454102e+00 1.295669674873352051e+00 -5.934208631515502930e-01 1.400000000000000000e+01
2.586028099060059038e+00 1.508731961250304954e+00 -5.819674134254455566e-01 1.200000000000000000e+01
3.092312335968018022e+00 1.802660107612610085e+00 -5.669184923171997070e-01 1.100000000000000000e+01
3.233386230468750000e+01 1.884142875671387074e+01 4.594961643218994141e+00 1.900000000000000000e+01
3.816579341888428178e+00 2.223086118698120117e+00 -5.423185825347900391e-01 9.000000000000000000e+00
3.213791656494141336e+01 1.871973419189453125e+01 5.890696048736572266e+00 1.300000000000000000e+01
5.070692062377929688e+00 2.952398300170897993e+00 -5.133473277091979980e-01 1.100000000000000000e+01
7.204083442687988281e+00 4.191193580627441406e+00 -4.367958903312683105e-01 2.000000000000000000e+00
1.193226623535156072e+01 6.936383247375488281e+00 -2.409130185842514038e-01 2.000000000000000000e+00
3.726837539672852273e+01 2.165589332580566051e+01 1.154954147338867010e+01 1.100000000000000000e+01
1.965699553489685059e+00 1.139017939567565918e+00 -6.087424159049987793e-01 2.300000000000000000e+01
2.234568595886230025e+00 1.293771386146544966e+00 -5.961202979087829590e-01 1.400000000000000000e+01
2.592978000640869141e+00 1.500679254531859907e+00 -5.823490619659423828e-01 1.200000000000000000e+01
3.108846187591553178e+00 1.797788262367248979e+00 -5.687957406044006348e-01 1.100000000000000000e+01
3.224131774902343750e+01 1.863705062866210938e+01 4.572537899017333984e+00 1.900000000000000000e+01
3.841504096984862837e+00 2.219681739807128906e+00 -5.447559356689453125e-01 9.000000000000000000e+00
5.086143016815186435e+00 2.937669754028319868e+00 -5.138702392578125000e-01 9.000000000000000000e+00
7.208290576934813565e+00 4.160031318664550781e+00 -4.361678659915924072e-01 2.000000000000000000e+00
3.288052368164063211e+01 1.896827888488769887e+01 8.763643264770507812e+00 1.100000000000000000e+01
1.194254684448242010e+01 6.886697769165039062e+00 -2.406337857246398926e-01 2.000000000000000000e+00
1.962964057922363059e+00 1.128298521041869895e+00 -6.066718697547912598e-01 2.000000000000000000e+01
2.239070892333983931e+00 1.285963416099547896e+00 -5.961202979087829590e-01 1.200000000000000000e+01
2.591390132904053178e+00 1.487709045410156028e+00 -5.808225870132446289e-01 1.200000000000000000e+01
3.113389253616333008e+00 1.785942435264586958e+00 -5.684828162193298340e-01 1.000000000000000000e+01
3.236817169189453125e+01 1.855994033813476918e+01 4.581312179565429688e+00 1.900000000000000000e+01
3.850951194763184038e+00 2.207246065139770952e+00 -5.449997186660766602e-01 1.000000000000000000e+01
5.082536220550537109e+00 2.911974191665648970e+00 -5.124757885932922363e-01 6.000000000000000000e+00
7.240101337432861328e+00 4.144767284393311435e+00 -4.372145831584929865e-01 1.000000000000000000e+00
3.318671035766602273e+01 1.899082756042480113e+01 8.827528953552246094e+00 1.200000000000000000e+01
1.198734283447265980e+01 6.856883049011229581e+00 -2.410526424646378119e-01 5.000000000000000000e+00
1.968568801879883035e+00 1.122396469116210938e+00 -6.071894764900207520e-01 2.100000000000000000e+01
2.243546247482299805e+00 1.278139710426331010e+00 -5.961202979087829590e-01 1.100000000000000000e+01
2.598273515701293945e+00 1.479625821113585982e+00 -5.812041759490966797e-01 1.000000000000000000e+01
3.100718498229980025e+00 1.764317750930785911e+00 -5.650413036346435547e-01 9.000000000000000000e+00
3.870712280273437944e+00 2.200658082962036133e+00 -5.467059016227722168e-01 9.000000000000000000e+00
5.099598884582520419e+00 2.898152828216553178e+00 -5.131729841232299805e-01 9.000000000000000000e+00
7.278840065002441406e+00 4.133276462554931641e+00 -4.386799931526184082e-01 2.000000000000000000e+00
3.362564468383789062e+01 1.908650207519530895e+01 8.926507949829101562e+00 1.200000000000000000e+01
1.202859687805175959e+01 6.824866294860839844e+00 -2.414016872644423883e-01 5.000000000000000000e+00
3.721416091918945312e+01 2.110623359680176137e+01 1.146361351013183949e+01 1.100000000000000000e+01
1.979005575180053933e+00 1.119667410850524902e+00 -6.092600226402282715e-01 2.100000000000000000e+01
2.249468803405762163e+00 1.271651864051819070e+00 -5.965701937675476074e-01 1.200000000000000000e+01
2.610002756118773970e+00 1.474864959716797097e+00 -5.827306509017944336e-01 1.200000000000000000e+01
3.116873025894165039e+00 1.759853005409240945e+00 -5.669184923171997070e-01 9.000000000000000000e+00
3.869343996047974077e+00 2.182933330535889116e+00 -5.454871654510498047e-01 1.000000000000000000e+01
5.107445716857910156e+00 2.880247354507445845e+00 -5.129987001419067383e-01 9.000000000000000000e+00
