5.935510635375977273e+01 1.506324958801270064e+01 1.068890094757080078e+00 6.000000000000000000e+01
2.570856094360352007e+00 6.519591212272644043e-01 -6.123167872428894043e-01 1.100000000000000000e+01
3.786964035034179688e+01 9.603592872619628906e+00 2.047487258911132812e+00 2.200000000000000000e+01
2.987866401672362837e+00 7.571562528610229492e-01 -5.991402268409729004e-01 1.300000000000000000e+01
3.596407175064086914e+00 9.100309014320373535e-01 -5.875678658485412598e-01 9.000000000000000000e+00
3.705862426757813211e+01 9.370391845703125000e+00 4.693432331085205078e+00 2.000000000000000000e+01
4.553623199462890625e+00 1.150552749633789062e+00 -5.766857266426086426e-01 8.000000000000000000e+00
3.881109619140625000e+01 9.799097061157226562e+00 6.339975833892822266e+00 1.400000000000000000e+01
5.853257656097412109e+00 1.477841377258301003e+00 -5.281637907028198242e-01 9.000000000000000000e+00
8.507748603820800781e+00 2.144893407821654829e+00 -4.598236978054047186e-01 3.000000000000000000e+00
1.489688301086425959e+01 3.750131368637084961e+00 -2.681387662887573242e-01 2.000000000000000000e+00
3.546725082397460938e+01 8.928502082824707031e+00 9.799923896789550781e+00 7.000000000000000000e+00
2.237626314163208008e+00 5.599774122238159180e-01 -6.180598735809326172e-01 1.500000000000000000e+01
5.931032562255858664e+01 1.483171367645264027e+01 1.067144870758057085e+00 6.000000000000000000e+01
2.576897382736206055e+00 6.439260244369506836e-01 -6.132165789604187012e-01 1.200000000000000000e+01
3.836189651489257812e+01 9.578919410705566406e+00 2.072189807891846147e+00 2.200000000000000000e+01
2.996205329895019975e+00 7.481489181518554688e-01 -6.002851128578186035e-01 1.300000000000000000e+01
3.591894865036011186e+00 8.955600261688232422e-01 -5.863163471221923828e-01 9.000000000000000000e+00
3.706028747558593750e+01 9.233297348022460938e+00 4.689532279968261719e+00 2.000000000000000000e+01
4.578801155090332031e+00 1.139925837516784890e+00 -5.793668627738952637e-01 1.100000000000000000e+01
5.868048191070556641e+00 1.459805607795715110e+00 -5.290353298187255859e-01 8.000000000000000000e+00
8.519061088562011719e+00 2.116145610809326172e+00 -4.600330591201782227e-01 1.000000000000000000e+00
3.421068191528320312e+01 8.491638183593750000e+00 8.137829780578613281e+00 1.000000000000000000e+01
1.495258140563965021e+01 3.708699703216553178e+00 -2.689066827297211248e-01 2.000000000000000000e+00
3.550536346435546875e+01 8.799842834472656250e+00 9.801477432250976562e+00 1.500000000000000000e+01
2.247070074081420898e+00 5.540130138397216797e-01 -6.201304197311401367e-01 1.500000000000000000e+01
2.573452711105347124e+00 6.335295438766479492e-01 -6.118668913841247559e-01 1.200000000000000000e+01
3.010237216949462891e+00 7.404994368553161621e-01 -6.025748252868652344e-01 1.200000000000000000e+01
3.602672576904296875e+00 8.849012851715087891e-01 -5.875678658485412598e-01 9.000000000000000000e+00
3.743930816650391336e+01 9.189047813415527344e+00 4.733405113220214844e+00 2.000000000000000000e+01
4.584680080413818359e+00 1.124408721923827903e+00 -5.796105861663818359e-01 9.000000000000000000e+00
5.886653900146484375e+00 1.442633152008057085e+00 -5.302555561065673828e-01 9.000000000000000000e+00
8.491475105285644531e+00 2.077850818634033203e+00 -4.581489562988281250e-01 1.000000000000000000e+00
3.424011611938477273e+01 8.372169494628906250e+00 8.137829780578613281e+00 1.000000000000000000e+01
1.495766639709473012e+01 3.654584169387816939e+00 -2.687670588493347168e-01 2.000000000000000000e+00
3.646109008789063211e+01 8.901740074157714844e+00 1.005667304992675959e+01 8.000000000000000000e+00
2.254717588424683061e+00 5.471401214599609375e-01 -6.216833591461181641e-01 1.400000000000000000e+01
2.583333253860474077e+00 6.259286999702453613e-01 -6.136664748191833496e-01 1.300000000000000000e+01
3.007206678390502930e+00 7.280754446983337402e-01 -6.014299392700195312e-01 1.100000000000000000e+01
3.613571882247924805e+00 8.735474944114685059e-01 -5.888193249702453613e-01 9.000000000000000000e+00
3.754606246948242188e+01 9.069476127624511719e+00 4.742667198181152344e+00 2.000000000000000000e+01
4.571403503417968750e+00 1.103405594825745073e+00 -5.774169564247131348e-01 1.000000000000000000e+01
5.882217884063720703e+00 1.418712019920348899e+00 -5.293839573860168457e-01 9.000000000000000000e+00
3.596009826660156250e+01 8.666452407836914062e+00 7.190064430236816406e+00 6.100000000000000000e+01
8.537868499755859375e+00 2.056066036224364790e+00 -4.602423906326293945e-01 1.000000000000000000e+00
3.414173507690429688e+01 8.215614318847656250e+00 8.107235908508300781e+00 1.000000000000000000e+01
1.502928924560547053e+01 3.613762140274047852e+00 -2.698141932487487793e-01 2.000000000000000000e+00
3.647844314575195312e+01 8.764433860778808594e+00 1.005253124237061080e+01 8.000000000000000000e+00
2.254734754562377930e+00 5.388173460960388184e-01 -6.211656928062438965e-01 1.500000000000000000e+01
2.583606958389281782e+00 6.164550781250000000e-01 -6.132165789604187012e-01 1.300000000000000000e+01
2.998271465301514116e+00 7.148420214653015137e-01 -5.991402268409729004e-01 1.200000000000000000e+01
3.620442628860474077e+00 8.618433475494384766e-01 -5.894450545310974121e-01 9.000000000000000000e+00
3.766632843017578125e+01 8.959491729736328125e+00 4.753879547119140625e+00 2.000000000000000000e+01
4.590677738189697266e+00 1.091113924980164018e+00 -5.793668627738952637e-01 1.100000000000000000e+01
5.894887924194335938e+00 1.400012135505676047e+00 -5.300812125205993652e-01 9.000000000000000000e+00
8.564427375793457031e+00 2.030859231948852983e+00 -4.612891077995299738e-01 1.000000000000000000e+00
3.430673217773438211e+01 8.128737449645996094e+00 8.139629364013671875e+00 1.000000000000000000e+01
1.505737876892090021e+01 3.564963817596435991e+00 -2.700934410095214844e-01 2.000000000000000000e+00
3.642233657836914062e+01 8.616588592529296875e+00 1.002871990203857067e+01 8.000000000000000000e+00
2.250867843627930132e+00 5.300090312957763672e-01 -6.196128129959106445e-01 1.500000000000000000e+01
2.602710008621215820e+00 6.118980646133422852e-01 -6.172657012939453125e-01 1.500000000000000000e+01
3.014003992080688032e+00 7.080383300781250000e-01 -6.018115878105163574e-01 1.200000000000000000e+01
3.619434356689453125e+00 8.489306569099426270e-01 -5.888193249702453613e-01 9.000000000000000000e+00
3.772675323486328125e+01 8.841783523559570312e+00 4.757779121398925781e+00 2.000000000000000000e+01
4.596203327178955078e+00 1.076337218284606934e+00 -5.796105861663818359e-01 1.100000000000000000e+01
5.891738414764404297e+00 1.378640532493591087e+00 -5.293839573860168457e-01 9.000000000000000000e+00
8.512768745422363281e+00 1.988815903663635032e+00 -4.581489562988281250e-01 1.000000000000000000e+00
3.356492614746093750e+01 7.835508346557617188e+00 7.957418441772460938e+00 9.000000000000000000e+00
1.505353832244873047e+01 3.511378049850463867e+00 -2.698141932487487793e-01 2.000000000000000000e+00
3.657339477539063211e+01 8.531085014343261719e+00 1.006288433074950994e+01 8.000000000000000000e+00
2.252704381942749023e+00 5.221487879753112793e-01 -6.196128129959106445e-01 1.600000000000000000e+01
2.595337390899658203e+00 6.006123423576354980e-01 -6.150161623954772949e-01 1.300000000000000000e+01
3.014544486999512163e+00 6.970708966255187988e-01 -6.014299392700195312e-01 1.200000000000000000e+01
3.616601228713988814e+00 8.349581956863403320e-01 -5.878807306289672852e-01 8.000000000000000000e+00
3.786957550048828125e+01 8.735918998718261719e+00 4.771915912628173828e+00 2.000000000000000000e+01
4.619276046752929688e+00 1.064745664596558061e+00 -5.820479989051818848e-01 1.100000000000000000e+01
5.898456096649169922e+00 1.358513236045836958e+00 -5.295583009719848633e-01 9.000000000000000000e+00
8.531337738037109375e+00 1.961774230003356934e+00 -4.587769806385039728e-01 3.000000000000000000e+00
3.363005447387695312e+01 7.727025032043457031e+00 7.966416835784912109e+00 1.000000000000000000e+01
1.514366340637207031e+01 3.476708173751831055e+00 -2.712104022502899170e-01 2.000000000000000000e+00
3.298540115356445312e+01 7.566784381866455078e+00 9.067983627319335938e+00 6.000000000000000000e+00
2.267697572708129883e+00 5.172897577285766602e-01 -6.232362389564514160e-01 1.500000000000000000e+01
2.586017608642578125e+00 5.889528393745422363e-01 -6.123167872428894043e-01 1.400000000000000000e+01
3.028445243835449219e+00 6.891576647758483887e-01 -6.037196516990661621e-01 1.100000000000000000e+01
3.619493722915648970e+00 8.223288059234619141e-01 -5.878807306289672852e-01 9.000000000000000000e+00
3.778756332397460938e+01 8.578187942504882812e+00 4.757779121398925781e+00 2.000000000000000000e+01
4.613285064697265625e+00 1.046419382095336914e+00 -5.808292627334594727e-01 1.100000000000000000e+01
3.576243209838867188e+01 8.111898422241210938e+00 5.808098793029785156e+00 1.300000000000000000e+01
5.918707370758056641e+00 1.341438651084899902e+00 -5.309528112411499023e-01 9.000000000000000000e+00
8.542029380798339844e+00 1.932863950729369895e+00 -4.589863419532775879e-01 4.000000000000000000e+00
1.515570735931395951e+01 3.423825740814208984e+00 -2.712104022502899170e-01 2.000000000000000000e+00
3.376405715942382812e+01 7.627638339996337891e+00 9.275039672851562500e+00 6.000000000000000000e+00
2.265719413757324219e+00 5.085247159004211426e-01 -6.222009658813476562e-01 1.500000000000000000e+01
2.599467039108275923e+00 5.824790000915527344e-01 -6.150161623954772949e-01 1.300000000000000000e+01
3.023169040679932085e+00 6.768664717674255371e-01 -6.021931767463684082e-01 1.200000000000000000e+01
3.626197814941405806e+00 8.105512261390686035e-01 -5.885064601898193359e-01 9.000000000000000000e+00
3.793351745605468750e+01 8.472194671630859375e+00 4.772403717041015625e+00 2.000000000000000000e+01
4.611097335815429688e+00 1.029012560844420943e+00 -5.800980925559997559e-01 1.100000000000000000e+01
3.591146087646483664e+01 8.007422447204589844e+00 5.827496528625488281e+00 1.300000000000000000e+01
5.935021400451660156e+00 1.323372006416321023e+00 -5.319986343383789062e-01 9.000000000000000000e+00
8.577967643737792969e+00 1.909544706344604048e+00 -4.605564177036284845e-01 4.000000000000000000e+00
3.305163192749022727e+01 7.351583003997802734e+00 7.817049026489257812e+00 9.000000000000000000e+00
1.520660781860351918e+01 3.379578113555908203e+00 -2.719084918498992920e-01 2.000000000000000000e+00
2.271166086196898970e+00 5.018421411514282227e-01 -6.232362389564514160e-01 1.500000000000000000e+01
2.599481344223022017e+00 5.734358429908752441e-01 -6.145662665367126465e-01 1.500000000000000000e+01
3.786004257202147727e+01 8.344854354858398438e+00 2.031786441802978960e+00 2.200000000000000000e+01
3.013893604278564009e+00 6.643020510673522949e-01 -5.999034643173217773e-01 1.200000000000000000e+01
3.642370462417602983e+00 8.014935255050659180e-01 -5.906965136528015137e-01 9.000000000000000000e+00
4.618361949920654297e+00 1.014567732810973899e+00 -5.805855393409729004e-01 9.000000000000000000e+00
3.600975418090820312e+01 7.910669803619384766e+00 5.839385509490966797e+00 1.300000000000000000e+01
5.943269252777099609e+00 1.304537773132323997e+00 -5.323472619056701660e-01 9.000000000000000000e+00
3.555564117431641336e+01 7.797900199890136719e+00 7.075579166412354404e+00 6.100000000000000000e+01
8.586203575134277344e+00 1.881516218185425027e+00 -4.606610834598541260e-01 4.000000000000000000e+00
1.522554492950438920e+01 3.330842256546020952e+00 -2.720481157302855890e-01 2.000000000000000000e+00
3.286403656005858664e+01 7.189556598663330078e+00 9.014149665832519531e+00 6.000000000000000000e+00
2.265352725982666016e+00 4.922703206539154053e-01 -6.211656928062438965e-01 1.500000000000000000e+01
2.610989332199097124e+00 5.664241909980773926e-01 -6.168158054351806641e-01 1.400000000000000000e+01
3.857211685180664062e+01 8.360730171203613281e+00 2.068421602249145952e+00 2.200000000000000000e+01
3.025787591934204102e+00 6.558569669723510742e-01 -6.018115878105163574e-01 1.200000000000000000e+01
3.645145893096923828e+00 7.887743711471557617e-01 -5.906965136528015137e-01 9.000000000000000000e+00
3.612765502929688211e+01 7.811075687408447266e+00 4.538414478302001953e+00 1.900000000000000000e+01
4.633517265319824219e+00 1.000955462455749956e+00 -5.820479989051818848e-01 1.100000000000000000e+01
3.603850555419921875e+01 7.778634071350097656e+00 5.839385509490966797e+00 1.300000000000000000e+01
5.936101436614990234e+00 1.281261801719665971e+00 -5.313013792037963867e-01 9.000000000000000000e+00
3.558264541625977273e+01 7.673740386962890625e+00 7.075579166412354404e+00 6.100000000000000000e+01
8.643482208251953125e+00 1.862471699714661089e+00 -4.633825421333312988e-01 3.000000000000000000e+00
3.333713912963867188e+01 7.177298069000244141e+00 7.872837066650390625e+00 9.000000000000000000e+00
1.526835918426514027e+01 3.284403324127196822e+00 -2.726065814495087225e-01 2.000000000000000000e+00
3.289772415161132812e+01 7.070679664611816406e+00 9.016220092773437500e+00 6.000000000000000000e+00
2.263278961181641069e+00 4.835525155067443848e-01 -6.201304197311401367e-01 1.600000000000000000e+01
2.607233047485352007e+00 5.560871958732604980e-01 -6.154660582542419434e-01 1.300000000000000000e+01
3.037659168243408203e+00 6.473369598388671875e-01 -6.037196516990661621e-01 1.200000000000000000e+01
3.632419824600220171e+00 7.727573513984680176e-01 -5.881935954093933105e-01 9.000000000000000000e+00
3.605761718750000000e+01 7.664282798767089844e+00 4.526227474212645596e+00 1.900000000000000000e+01
4.648633956909179688e+00 9.872496724128723145e-01 -5.835103988647460938e-01 9.000000000000000000e+00
3.632689285278320312e+01 7.714893341064453125e+00 5.881936073303222656e+00 1.300000000000000000e+01
5.932742118835449219e+00 1.258878946304321067e+00 -5.306041836738586426e-01 9.000000000000000000e+00
3.560921478271483664e+01 7.549487113952636719e+00 7.075579166412354404e+00 6.100000000000000000e+01
8.642115592956542969e+00 1.830633401870727983e+00 -4.629638791084290106e-01 3.000000000000000000e+00
1.531885910034180043e+01 3.239361047744750977e+00 -2.733046710491179865e-01 2.000000000000000000e+00
3.352958679199218750e+01 7.090243339538574219e+00 9.182899475097656250e+00 6.000000000000000000e+00
2.274405956268310991e+00 4.776344299316406250e-01 -6.227186322212219238e-01 1.600000000000000000e+01
5.944627380371093750e+01 1.247312450408936080e+01 1.060233712196350098e+00 6.100000000000000000e+01
2.607251167297362837e+00 5.465830564498901367e-01 -6.150161623954772949e-01 1.300000000000000000e+01
3.872728729248046875e+01 8.111717224121093750e+00 2.073655366897583008e+00 2.200000000000000000e+01
3.049508094787598100e+00 6.387420296669006348e-01 -6.056277751922607422e-01 1.200000000000000000e+01
3.635095119476317915e+00 7.600731253623962402e-01 -5.881935954093933105e-01 9.000000000000000000e+00
3.618130493164063211e+01 7.558668613433837891e+00 4.538414478302001953e+00 1.900000000000000000e+01
4.650108337402343750e+00 9.706113338470458984e-01 -5.832666754722595215e-01 1.100000000000000000e+01
3.570517730712891336e+01 7.446194171905517578e+00 5.776812076568604404e+00 1.300000000000000000e+01
5.944901943206787109e+00 1.239789128303528054e+00 -5.313013792037963867e-01 9.000000000000000000e+00
8.648452758789062500e+00 1.800455570220947044e+00 -4.629638791084290106e-01 3.000000000000000000e+00
3.398933029174804688e+01 7.069790840148925781e+00 8.015006065368652344e+00 1.000000000000000000e+01
1.540838813781737926e+01 3.202143669128417969e+00 -2.747008800506591797e-01 2.000000000000000000e+00
3.313543319702147727e+01 6.880114078521729404e+00 9.067983627319335938e+00 6.000000000000000000e+00
2.291112661361693892e+00 4.732156991958618164e-01 -6.268597245216369629e-01 1.600000000000000000e+01
2.610957860946654829e+00 5.383275747299194336e-01 -6.154660582542419434e-01 1.200000000000000000e+01
3.047763824462891069e+00 6.278337836265563965e-01 -6.048645377159118652e-01 1.200000000000000000e+01
3.647270202636719194e+00 7.500039339065551758e-01 -5.897579193115234375e-01 1.000000000000000000e+01
4.649412631988525391e+00 9.543873071670532227e-01 -5.827792286872863770e-01 1.100000000000000000e+01
5.984112262725830078e+00 1.227273464202881081e+00 -5.344390273094177246e-01 9.000000000000000000e+00
8.697422981262207031e+00 1.780579209327697976e+00 -4.652666449546813965e-01 3.000000000000000000e+00
3.417296218872070312e+01 6.989842891693115234e+00 8.052798271179199219e+00 1.000000000000000000e+01
1.546986103057860973e+01 3.161440134048461914e+00 -2.756083905696868896e-01 2.000000000000000000e+00
3.327423477172852273e+01 6.799963951110839844e+00 9.100077629089355469e+00 6.000000000000000000e+00
2.275711297988892046e+00 4.617579281330109198e-01 -6.222009658813476562e-01 1.600000000000000000e+01
2.614731073379517046e+00 5.295972228050231934e-01 -6.159160137176513672e-01 1.300000000000000000e+01
3.036466836929320845e+00 6.144654750823974609e-01 -6.021931767463684082e-01 1.200000000000000000e+01
3.651802301406859907e+00 7.376591563224792480e-01 -5.900707840919494629e-01 1.100000000000000000e+01
3.739943313598632812e+01 7.547841548919677734e+00 4.684657573699951172e+00 2.000000000000000000e+01
4.654661655426025391e+00 9.385443925857543945e-01 -5.830229520797729492e-01 9.000000000000000000e+00
3.633597946166992188e+01 7.320018768310546875e+00 5.870672702789306641e+00 1.300000000000000000e+01
5.988359928131104404e+00 1.206377506256103960e+00 -5.344390273094177246e-01 9.000000000000000000e+00
8.715333938598632812e+00 1.752571105957031028e+00 -4.658946692943572998e-01 1.000000000000000000e+00
3.421625900268554688e+01 6.874352931976318359e+00 8.057296752929687500e+00 1.000000000000000000e+01
1.542982673645020064e+01 3.097188711166381836e+00 -2.747008800506591797e-01 2.000000000000000000e+00
3.526126098632813211e+01 7.071498394012451172e+00 9.636350631713867188e+00 7.000000000000000000e+00
2.267915010452270952e+00 4.515278637409210205e-01 -6.196128129959106445e-01 1.600000000000000000e+01
5.937750244140625000e+01 1.181091976165770951e+01 1.056743264198303001e+00 6.200000000000000000e+01
2.630033969879149947e+00 5.226691365242004395e-01 -6.190652847290039062e-01 1.300000000000000000e+01
3.812445449829102273e+01 7.569591522216796875e+00 2.037020206451416016e+00 2.200000000000000000e+01
3.042550086975098100e+00 6.040968298912048340e-01 -6.029564142227172852e-01 1.200000000000000000e+01
3.654481410980225053e+00 7.242696285247802734e-01 -5.900707840919494629e-01 1.100000000000000000e+01
3.645320510864257812e+01 7.217928886413574219e+00 4.562788009643554688e+00 1.900000000000000000e+01
4.658070087432861328e+00 9.214779138565063477e-01 -5.830229520797729492e-01 1.100000000000000000e+01
3.645819854736328125e+01 7.212305545806884766e+00 5.886315822601318359e+00 1.300000000000000000e+01
5.984922885894775391e+00 1.182875752449036089e+00 -5.337417721748352051e-01 9.000000000000000000e+00
8.733455657958984375e+00 1.722935438156127930e+00 -4.665227234363555908e-01 1.000000000000000000e+00
1.553917598724365057e+01 3.059932708740233931e+00 -2.764461040496826172e-01 2.000000000000000000e+00
3.524402999877929688e+01 6.940159320831298828e+00 9.624962806701660156e+00 7.000000000000000000e+00
2.278957128524779829e+00 4.454616010189055841e-01 -6.222009658813476562e-01 1.500000000000000000e+01
2.603152275085449219e+00 5.078878402709960938e-01 -6.123167872428894043e-01 8.000000000000000000e+00
3.048494100570679155e+00 5.942239165306091309e-01 -6.037196516990661621e-01 1.200000000000000000e+01
3.655048131942749023e+00 7.111314535140991211e-01 -5.897579193115234375e-01 1.200000000000000000e+01
4.680745124816895419e+00 9.089969396591186523e-01 -5.854603052139282227e-01 1.100000000000000000e+01
5.969456195831298828e+00 1.158182382583617942e+00 -5.319986343383789062e-01 9.000000000000000000e+00
8.755103111267089844e+00 1.695477366447448953e+00 -4.673600792884827215e-01 1.000000000000000000e+00
3.364850616455078125e+01 6.510138511657714844e+00 7.912428379058837891e+00 9.000000000000000000e+00
1.556939601898193004e+01 3.009467124938964844e+00 -2.767951786518096924e-01 2.000000000000000000e+00
3.326887512207031250e+01 6.430665969848632812e+00 9.079372406005859375e+00 6.000000000000000000e+00
2.282395601272583008e+00 4.378678202629088800e-01 -6.227186322212219238e-01 1.600000000000000000e+01
2.585769653320312944e+00 4.951331019401549738e-01 -6.078177690505981445e-01 8.000000000000000000e+00
3.058263063430786133e+00 5.850545763969421387e-01 -6.052461266517639160e-01 1.200000000000000000e+01
3.663329362869263139e+00 6.994801163673400879e-01 -5.906965136528015137e-01 1.100000000000000000e+01
3.704088592529296875e+01 7.065927028656005859e+00 4.630060195922851562e+00 1.900000000000000000e+01
4.670239925384520596e+00 8.900511264801025391e-01 -5.837541818618774414e-01 1.100000000000000000e+01
6.006735324859619141e+00 1.143673181533813032e+00 -5.349619388580322266e-01 9.000000000000000000e+00
8.760968208312988281e+00 1.664906024932861106e+00 -4.673600792884827215e-01 1.000000000000000000e+00
1.557194709777832031e+01 2.953610897064208984e+00 -2.766555547714232843e-01 2.000000000000000000e+00
3.422494125366210938e+01 6.491619110107421875e+00 9.334050178527832031e+00 7.000000000000000000e+00
2.291504144668579102e+00 4.313275218009948730e-01 -6.247891783714294434e-01 1.500000000000000000e+01
2.598973751068114790e+00 4.882629215717316229e-01 -6.105171442031860352e-01 8.000000000000000000e+00
3.761273574829102273e+01 7.059417724609375000e+00 2.005618572235106978e+00 2.100000000000000000e+01
3.056427478790283203e+00 5.736513733863830566e-01 -6.044828891754150391e-01 1.200000000000000000e+01
3.663806915283203125e+00 6.863247156143188477e-01 -5.903836488723754883e-01 1.100000000000000000e+01
3.695605850219727273e+01 6.916138172149658203e+00 4.616410732269287109e+00 1.900000000000000000e+01
4.679172039031982422e+00 8.748379945755004883e-01 -5.844853520393371582e-01 9.000000000000000000e+00
3.733682250976563211e+01 6.973907470703125000e+00 6.015843868255615234e+00 1.300000000000000000e+01
6.012649536132813388e+00 1.123064637184143066e+00 -5.351362824440002441e-01 9.000000000000000000e+00
8.739238739013671875e+00 1.629189968109131081e+00 -4.658946692943572998e-01 1.000000000000000000e+00
3.433684158325195312e+01 6.394956111907958984e+00 8.063595771789550781e+00 1.000000000000000000e+01
1.558609485626221058e+01 2.899968147277832031e+00 -2.767253518104553223e-01 2.000000000000000000e+00
3.355715179443358664e+01 6.237626075744628906e+00 9.145629882812500000e+00 6.000000000000000000e+00
2.294895410537720171e+00 4.236767888069152832e-01 -6.253067851066589355e-01 1.500000000000000000e+01
2.608328104019165039e+00 4.806003272533416748e-01 -6.123167872428894043e-01 8.000000000000000000e+00
3.048757076263428178e+00 5.612018704414367676e-01 -6.025748252868652344e-01 1.200000000000000000e+01
3.683666229248046875e+00 6.767438650131225586e-01 -5.931994915008544922e-01 1.100000000000000000e+01
3.670662689208983664e+01 6.736926555633544922e+00 4.582287311553955078e+00 1.900000000000000000e+01
4.682197093963623047e+00 8.584993481636047363e-01 -5.844853520393371582e-01 9.000000000000000000e+00
6.008694171905517578e+00 1.100633740425110085e+00 -5.344390273094177246e-01 9.000000000000000000e+00
8.784166336059570312e+00 1.605857849121093972e+00 -4.679881334304810125e-01 1.000000000000000000e+00
1.564727020263672053e+01 2.854876995086669922e+00 -2.776328921318054199e-01 2.000000000000000000e+00
3.351493453979492188e+01 6.114869594573974609e+00 9.128547668457031250e+00 1.300000000000000000e+01
2.283053636550902876e+00 4.132548868656157892e-01 -6.216833591461181641e-01 1.600000000000000000e+01
2.621495962142943892e+00 4.735712110996245783e-01 -6.150161623954772949e-01 8.000000000000000000e+00
3.052629470825194868e+00 5.509049892425537109e-01 -6.029564142227172852e-01 1.200000000000000000e+01
3.674341440200806108e+00 6.617804169654846191e-01 -5.913223028182983398e-01 1.100000000000000000e+01
3.664395523071289062e+01 6.593288421630859375e+00 4.571562767028808594e+00 1.900000000000000000e+01
4.675396442413330078e+00 8.403941988945007324e-01 -5.832666754722595215e-01 1.100000000000000000e+01
6.028187751770020419e+00 1.082469940185547097e+00 -5.358334779739379883e-01 9.000000000000000000e+00
8.832968711853027344e+00 1.582936525344849077e+00 -4.702908992767333984e-01 1.000000000000000000e+00
3.396630859375000000e+01 6.080907821655273438e+00 7.966416835784912109e+00 1.000000000000000000e+01
1.571619415283202947e+01 2.810801982879639116e+00 -2.786800265312194824e-01 2.000000000000000000e+00
3.355509185791016336e+01 6.001244544982910156e+00 9.133724212646484375e+00 1.300000000000000000e+01
2.284482240676879883e+00 4.052830040454865057e-01 -6.216833591461181641e-01 1.500000000000000000e+01
2.607781887054442915e+00 4.616997241973876953e-01 -6.114169359207153320e-01 8.000000000000000000e+00
3.793123245239257812e+01 6.715607643127441406e+00 2.018807172775268999e+00 2.200000000000000000e+01
3.066133499145507812e+00 5.422975420951843262e-01 -6.052461266517639160e-01 1.200000000000000000e+01
3.672738313674927202e+00 6.482638716697692871e-01 -5.906965136528015137e-01 1.100000000000000000e+01
4.701761722564697266e+00 8.282013535499572754e-01 -5.861915349960327148e-01 1.100000000000000000e+01
6.012307167053222656e+00 1.057968139648437944e+00 -5.340903997421264648e-01 9.000000000000000000e+00
8.818768501281738281e+00 1.548639535903931108e+00 -4.692441821098328192e-01 1.000000000000000000e+00
3.414088439941406250e+01 5.989243507385253906e+00 8.002408981323242188e+00 1.000000000000000000e+01
1.573772811889648082e+01 2.757996320724486861e+00 -2.788894474506378174e-01 2.000000000000000000e+00
3.365385437011718750e+01 5.897751331329345703e+00 9.154947280883789062e+00 6.000000000000000000e+00
2.293496370315552202e+00 3.986294567584990900e-01 -6.237539052963256836e-01 1.400000000000000000e+01
2.605537652969359907e+00 4.519279897212982178e-01 -6.105171442031860352e-01 8.000000000000000000e+00
3.780603027343750000e+01 6.550622940063476562e+00 2.010852098464965820e+00 2.100000000000000000e+01
3.071876525878905806e+00 5.322617888450622559e-01 -6.060093641281127930e-01 1.200000000000000000e+01
3.676925420761107954e+00 6.357762217521667480e-01 -5.910094380378723145e-01 1.000000000000000000e+01
3.779234695434570312e+01 6.527872085571289062e+00 4.709031581878662109e+00 2.000000000000000000e+01
4.694842815399169922e+00 8.100963830947875977e-01 -5.849728584289550781e-01 9.000000000000000000e+00
3.672196578979492188e+01 6.329784870147705078e+00 5.901959419250488281e+00 1.300000000000000000e+01
6.055232048034667969e+00 1.043743610382080078e+00 -5.375766158103942871e-01 9.000000000000000000e+00
8.831994056701660156e+00 1.519201159477234109e+00 -4.696628749370574951e-01 3.000000000000000000e+00
3.393111038208007812e+01 5.830430984497070312e+00 7.948420524597167969e+00 9.000000000000000000e+00
1.577090930938721058e+01 2.707104206085205078e+00 -2.793083190917968750e-01 2.000000000000000000e+00
3.535081863403320312e+01 6.061678409576416016e+00 9.610468864440917969e+00 7.000000000000000000e+00
2.302423238754272017e+00 3.923197686672211248e-01 -6.258244514465332031e-01 1.500000000000000000e+01
5.948522567749022727e+01 1.012525939941406072e+01 1.053252696990967019e+00 6.200000000000000000e+01
2.605100631713867188e+00 4.429585635662078857e-01 -6.100672483444213867e-01 8.000000000000000000e+00
3.817296600341796875e+01 6.490744113922119141e+00 2.029274463653564009e+00 2.200000000000000000e+01
3.065882682800292969e+00 5.207571387290954590e-01 -6.044828891754150391e-01 1.200000000000000000e+01
3.682908773422241211e+00 6.242398023605346680e-01 -5.916351675987243652e-01 1.000000000000000000e+01
4.689674377441406250e+00 7.931990623474121094e-01 -5.839979052543640137e-01 9.000000000000000000e+00
6.056695461273193359e+00 1.023326039314270020e+00 -5.374023318290710449e-01 9.000000000000000000e+00
8.844861030578613281e+00 1.491233110427856001e+00 -4.700815677642822266e-01 3.000000000000000000e+00
3.341218948364257812e+01 5.627258300781250000e+00 7.822447776794433594e+00 9.000000000000000000e+00
1.585079097747802912e+01 2.666734695434569868e+00 -2.805648744106292725e-01 2.000000000000000000e+00
3.380752182006835938e+01 5.687772274017333984e+00 9.186005592346191406e+00 6.000000000000000000e+00
2.307589769363402876e+00 3.849161267280579168e-01 -6.268597245216369629e-01 1.500000000000000000e+01
5.942158508300781250e+01 9.901122093200683594e+00 1.051507472991942915e+00 6.300000000000000000e+01
2.627776384353638139e+00 4.373818933963776190e-01 -6.150161623954772949e-01 8.000000000000000000e+00
3.814416503906250000e+01 6.348930358886718750e+00 2.026552915573120117e+00 2.200000000000000000e+01
3.071555137634276900e+00 5.106959939002990723e-01 -6.052461266517639160e-01 1.100000000000000000e+01
3.692860126495360884e+00 6.126735210418701172e-01 -5.928866267204284668e-01 1.000000000000000000e+01
3.700163650512695312e+01 6.132215976715087891e+00 4.605198860168457031e+00 1.900000000000000000e+01
4.700248241424561435e+00 7.781210541725158691e-01 -5.849728584289550781e-01 9.000000000000000000e+00
3.695909118652343750e+01 6.111910343170166016e+00 5.933246612548828125e+00 1.300000000000000000e+01
6.073990345001220703e+00 1.004453420639038086e+00 -5.386224985122680664e-01 9.000000000000000000e+00
8.853954315185546875e+00 1.460999965667725053e+00 -4.702908992767333984e-01 3.000000000000000000e+00
1.591919708251952947e+01 2.621135234832764116e+00 -2.816120386123657227e-01 2.000000000000000000e+00
3.375092315673828125e+01 5.557173252105712891e+00 9.165300369262695312e+00 6.000000000000000000e+00
2.289853096008300781e+00 3.737468123435974121e-01 -6.216833591461181641e-01 1.500000000000000000e+01
5.945578384399414062e+01 9.693641662597656250e+00 1.051507472991942915e+00 6.300000000000000000e+01
2.615823268890380859e+00 4.260138571262360174e-01 -6.118668913841247559e-01 8.000000000000000000e+00
3.804101562500000000e+01 6.188557147979736328e+00 2.019853830337523970e+00 2.200000000000000000e+01
3.071381330490111861e+00 4.996559321880341131e-01 -6.048645377159118652e-01 1.000000000000000000e+01
3.734166336059570312e+01 6.068096637725830078e+00 3.309826374053955078e+00 4.800000000000000000e+01
3.698876142501831055e+00 6.004123091697692871e-01 -5.935123562812805176e-01 1.100000000000000000e+01
3.654861450195313211e+01 5.926130771636962891e+00 4.546214103698729581e+00 1.900000000000000000e+01
4.710773944854736328e+00 7.629789113998413086e-01 -5.859478116035461426e-01 1.100000000000000000e+01
3.834413146972656250e+01 6.210393905639648438e+00 6.152254581451416016e+00 1.400000000000000000e+01
6.061725139617919922e+00 9.806995391845703125e-01 -5.372279882431030273e-01 9.000000000000000000e+00
8.926038742065429688e+00 1.440907001495361106e+00 -4.738497436046599787e-01 1.000000000000000000e+00
3.320824813842772727e+01 5.354773521423339844e+00 7.765760421752929688e+00 9.000000000000000000e+00
1.590455913543700994e+01 2.561734914779663086e+00 -2.811931669712067206e-01 2.000000000000000000e+00
2.304497718811035156e+00 3.678832352161406916e-01 -6.253067851066589355e-01 1.800000000000000000e+01
5.939052200317382812e+01 9.470298767089843750e+00 1.049762248992919922e+00 6.300000000000000000e+01
2.599973917007445845e+00 4.141215682029724121e-01 -6.078177690505981445e-01 7.000000000000000000e+00
3.808893966674804688e+01 6.066772937774658203e+00 2.021319389343262163e+00 2.200000000000000000e+01
3.075045585632324219e+00 4.892402589321135919e-01 -6.052461266517639160e-01 1.100000000000000000e+01
3.730358505249022727e+01 5.928331375122070312e+00 3.304597139358520952e+00 4.800000000000000000e+01
3.695096492767333984e+00 5.865680575370788574e-01 -5.925737619400024414e-01 1.100000000000000000e+01
4.705565929412841797e+00 7.452884316444396973e-01 -5.849728584289550781e-01 9.000000000000000000e+00
3.824176406860352273e+01 6.050058841705322266e+00 6.132231235504150391e+00 1.400000000000000000e+01
6.080854892730712891e+00 9.620248675346374512e-01 -5.386224985122680664e-01 9.000000000000000000e+00
8.887611389160156250e+00 1.402889490127563032e+00 -4.715469777584075928e-01 1.000000000000000000e+00
3.346928405761718750e+01 5.277064323425292969e+00 7.822447776794433594e+00 9.000000000000000000e+00
1.596871376037598012e+01 2.514912843704224077e+00 -2.821705043315886896e-01 2.000000000000000000e+00
3.495393753051757812e+01 5.498644351959229404e+00 9.481059074401855469e+00 7.000000000000000000e+00
2.301950216293334961e+00 3.592410385608673096e-01 -6.242715120315551758e-01 1.600000000000000000e+01
2.503201246261597124e+00 3.897531330585479736e-01 -5.848727226257324219e-01 7.000000000000000000e+00
3.801121139526367188e+01 5.918416976928710938e+00 2.016085624694824219e+00 2.200000000000000000e+01
3.092254161834716797e+00 4.809170067310333252e-01 -6.082990765571594238e-01 1.100000000000000000e+01
3.722561264038085938e+01 5.782789707183837891e+00 3.295881509780883789e+00 4.800000000000000000e+01
3.695169448852539062e+00 5.733633041381835938e-01 -5.922608971595764160e-01 1.000000000000000000e+01
3.868416213989257812e+01 5.995538234710693359e+00 4.806527137756347656e+00 2.000000000000000000e+01
4.717947483062744141e+00 7.303768992424011230e-01 -5.861915349960327148e-01 1.100000000000000000e+01
3.682485580444335938e+01 5.700788497924804688e+00 5.901959419250488281e+00 1.300000000000000000e+01
6.088113784790039062e+00 9.414017796516418457e-01 -5.389711260795593262e-01 9.000000000000000000e+00
3.461985397338867188e+01 5.347062587738037109e+00 6.809209823608398438e+00 5.900000000000000000e+01
8.924036979675292969e+00 1.376729726791382058e+00 -4.732217192649840753e-01 1.000000000000000000e+00
3.354528045654296875e+01 5.169106006622313565e+00 7.835945129394531250e+00 9.000000000000000000e+00
1.602482986450194957e+01 2.466457128524779829e+00 -2.830082178115844727e-01 2.000000000000000000e+00
3.471323776245117188e+01 5.336676597595214844e+00 9.410660743713378906e+00 7.000000000000000000e+00
2.312739133834838867e+00 3.526596128940582275e-01 -6.268597245216369629e-01 1.900000000000000000e+01
2.442896127700806108e+00 3.716341853141785223e-01 -5.704758763313293457e-01 1.000000000000000000e+01
3.842654800415039062e+01 5.845774173736572266e+00 2.037020206451416016e+00 2.200000000000000000e+01
3.086149930953979048e+00 4.689403474330902100e-01 -6.067726016044616699e-01 1.100000000000000000e+01
3.724557495117188211e+01 5.652812957763671875e+00 3.295881509780883789e+00 4.800000000000000000e+01
3.710819721221923828e+00 5.625337362289428711e-01 -5.944509506225585938e-01 1.100000000000000000e+01
3.674213409423828125e+01 5.563284873962402344e+00 4.562788009643554688e+00 1.900000000000000000e+01
4.718505382537841797e+00 7.136068940162658691e-01 -5.859478116035461426e-01 9.000000000000000000e+00
3.684452819824218750e+01 5.572211265563964844e+00 5.901959419250488281e+00 1.300000000000000000e+01
6.107122898101806641e+00 9.225252866744995117e-01 -5.403655767440795898e-01 9.000000000000000000e+00
8.932738304138183594e+00 1.346165895462035911e+00 -4.734310507774353027e-01 1.000000000000000000e+00
3.334343719482421875e+01 5.018912792205811435e+00 7.784656047821044922e+00 9.000000000000000000e+00
1.607684516906737926e+01 2.417045593261719194e+00 -2.837761342525482178e-01 2.000000000000000000e+00
3.721521759033203125e+01 5.588415622711181641e+00 1.008358955383300959e+01 8.000000000000000000e+00
2.315806627273560014e+00 3.452732264995574951e-01 -6.273773908615112305e-01 1.800000000000000000e+01
2.449897766113280806e+00 3.643912971019744873e-01 -5.718255639076232910e-01 9.000000000000000000e+00
3.889218902587891336e+01 5.784721374511718750e+00 2.060675859451293945e+00 2.200000000000000000e+01
3.087688207626343218e+00 4.587037265300750732e-01 -6.067726016044616699e-01 1.000000000000000000e+01
3.706703186035156250e+01 5.500027656555175781e+00 3.278450489044189009e+00 4.700000000000000000e+01
3.720480918884276900e+00 5.513834953308105469e-01 -5.957024693489074707e-01 1.100000000000000000e+01
3.676037979125977273e+01 5.441412925720214844e+00 4.562788009643554688e+00 1.900000000000000000e+01
4.728701114654541016e+00 6.991171240806579590e-01 -5.869227647781372070e-01 9.000000000000000000e+00
6.106206893920898438e+00 9.016861319541931152e-01 -5.400170087814331055e-01 9.000000000000000000e+00
8.968768119812011719e+00 1.321193695068358931e+00 -4.751058220863341730e-01 1.000000000000000000e+00
1.608477210998535156e+01 2.363719463348389116e+00 -2.837761342525482178e-01 2.000000000000000000e+00
3.484725952148438211e+01 5.120939254760742188e+00 9.437577247619628906e+00 7.000000000000000000e+00
2.307439088821411133e+00 3.357964158058167059e-01 -6.247891783714294434e-01 1.900000000000000000e+01
5.951544952392578125e+01 8.650542259216308594e+00 1.049762248992919922e+00 6.300000000000000000e+01
2.447297573089600053e+00 3.552773892879486084e-01 -5.709257721900939941e-01 9.000000000000000000e+00
3.886075592041016336e+01 5.641466617584229404e+00 2.057954549789429155e+00 2.200000000000000000e+01
3.095099210739136186e+00 4.487680494785308838e-01 -6.079174876213073730e-01 1.100000000000000000e+01
3.718472957611083984e+00 5.378277301788330078e-01 -5.950766801834106445e-01 1.200000000000000000e+01
3.715244293212891336e+01 5.366987705230712891e+00 4.609098434448242188e+00 1.900000000000000000e+01
4.727182865142822266e+00 6.820396780967712402e-01 -5.864352583885192871e-01 9.000000000000000000e+00
6.095512866973876953e+00 8.783767819404602051e-01 -5.387967824935913086e-01 9.000000000000000000e+00
9.001002311706542969e+00 1.293857216835021973e+00 -4.765712320804595947e-01 1.000000000000000000e+00
3.397094726562500000e+01 4.877133369445800781e+00 7.923225879669188565e+00 9.000000000000000000e+00
1.616814422607421875e+01 2.318344354629517046e+00 -2.851025164127349854e-01 2.000000000000000000e+00
3.495758438110352273e+01 5.006329059600830078e+00 9.462424278259277344e+00 7.000000000000000000e+00
2.310452699661254883e+00 3.284146785736083984e-01 -6.253067851066589355e-01 1.600000000000000000e+01
2.440744638442993164e+00 3.460656404495239258e-01 -5.691261887550354004e-01 1.000000000000000000e+01
3.094626665115356001e+00 4.382265806198120117e-01 -6.075358390808105469e-01 1.100000000000000000e+01
3.710456132888793945e+00 5.241124033927917480e-01 -5.935123562812805176e-01 1.000000000000000000e+01
3.681622314453125000e+01 5.193841934204101562e+00 4.565225601196289062e+00 1.900000000000000000e+01
4.745144367218017578e+00 6.685757040977478027e-01 -5.883851647377014160e-01 9.000000000000000000e+00
3.631222915649414062e+01 5.116277694702148438e+00 5.808098793029785156e+00 1.300000000000000000e+01
6.127986431121826172e+00 8.623229861259460449e-01 -5.414114594459533691e-01 9.000000000000000000e+00
3.507826614379882812e+01 4.929928779602050781e+00 6.885533332824707031e+00 6.000000000000000000e+01
9.001288414001464844e+00 1.263446569442749023e+00 -4.763618707656859796e-01 1.000000000000000000e+00
3.379394912719727273e+01 4.737401008605957031e+00 7.878235816955566406e+00 9.000000000000000000e+00
1.621535110473633168e+01 2.270261526107788086e+00 -2.858006060123444159e-01 2.000000000000000000e+00
3.542465591430664062e+01 4.959697246551513672e+00 9.584587097167968750e+00 7.000000000000000000e+00
2.309671401977539062e+00 3.200825154781342108e-01 -6.247891783714294434e-01 1.900000000000000000e+01
2.430355310440063032e+00 3.359427452087401789e-01 -5.664267539978027344e-01 9.000000000000000000e+00
3.830564498901367188e+01 5.288092613220214844e+00 2.026552915573120117e+00 2.200000000000000000e+01
3.109750986099243164e+00 4.293010234832764227e-01 -6.102071404457092285e-01 1.100000000000000000e+01
3.716176986694335938e+00 5.116962194442749023e-01 -5.941380858421325684e-01 1.000000000000000000e+01
3.681446456909179688e+01 5.062593460083007812e+00 4.562788009643554688e+00 1.900000000000000000e+01
4.743515968322753906e+00 6.514678001403808594e-01 -5.878977179527282715e-01 9.000000000000000000e+00
6.123063564300537109e+00 8.398441076278686523e-01 -5.407142043113708496e-01 9.000000000000000000e+00
9.005643844604492188e+00 1.232018470764159934e+00 -4.763618707656859796e-01 1.000000000000000000e+00
1.622317695617676137e+01 2.213645696640015093e+00 -2.858006060123444159e-01 2.000000000000000000e+00
3.541196823120117188e+01 4.825652599334716797e+00 9.576304435729980469e+00 7.000000000000000000e+00
2.316572666168212891e+00 3.123895227909088135e-01 -6.263421177864074707e-01 1.600000000000000000e+01
2.441227197647095171e+00 3.283315598964691162e-01 -5.686762928962707520e-01 1.000000000000000000e+01
3.095737457275391069e+00 4.158095121383666992e-01 -6.071542501449584961e-01 1.000000000000000000e+01
3.723901033401488814e+00 4.988591670989990234e-01 -5.950766801834106445e-01 1.000000000000000000e+01
4.749806880950927734e+00 6.346033215522766113e-01 -5.883851647377014160e-01 9.000000000000000000e+00
3.700579071044921875e+01 4.944200992584229404e+00 5.913222789764404297e+00 1.300000000000000000e+01
6.157698631286621094e+00 8.216124176979064941e-01 -5.435032248497009277e-01 9.000000000000000000e+00
9.037816047668457031e+00 1.202691316604614036e+00 -4.778272807598114014e-01 1.000000000000000000e+00
3.541875076293945312e+01 4.706995964050292969e+00 8.248954772949218750e+00 1.000000000000000000e+01
1.627479171752930043e+01 2.159957647323607954e+00 -2.865685224533081055e-01 2.000000000000000000e+00
3.565074539184570312e+01 4.731494903564453125e+00 9.636350631713867188e+00 7.000000000000000000e+00
2.319564342498778853e+00 3.045527637004851740e-01 -6.268597245216369629e-01 1.600000000000000000e+01
5.943215560913085938e+01 7.792736053466796875e+00 1.046271800994873047e+00 6.300000000000000000e+01
2.440426111221313032e+00 3.195550739765167236e-01 -5.682263374328613281e-01 9.000000000000000000e+00
3.097170114517211914e+00 4.050008356571198065e-01 -6.071542501449584961e-01 1.200000000000000000e+01
3.735413789749145952e+00 4.871345162391663153e-01 -5.966410636901855469e-01 1.000000000000000000e+01
3.718438720703125000e+01 4.842607975006104404e+00 4.604223728179931641e+00 1.900000000000000000e+01
4.763804435729979581e+00 6.195556521415710449e-01 -5.898476243019104004e-01 9.000000000000000000e+00
6.164480686187744141e+00 8.006262779235839844e-01 -5.438518524169921875e-01 9.000000000000000000e+00
9.022151947021484375e+00 1.168570637702941895e+00 -4.767805635929108221e-01 3.000000000000000000e+00
1.625050163269042969e+01 2.099036216735839844e+00 -2.860100269317626953e-01 2.000000000000000000e+00
3.566784667968750000e+01 4.600796699523925781e+00 9.636350631713867188e+00 7.000000000000000000e+00
2.310980319976807085e+00 2.956334650516510010e-01 -6.242715120315551758e-01 1.700000000000000000e+01
5.945766830444335938e+01 7.595608711242675781e+00 1.046271800994873047e+00 6.300000000000000000e+01
2.170841932296752930e+00 2.769360542297362726e-01 -5.052400827407836914e-01 9.000000000000000000e+00
3.100443601608275923e+00 3.949761390686035156e-01 -6.075358390808105469e-01 1.100000000000000000e+01
3.740927696228026900e+00 4.752426445484160822e-01 -5.972667932510375977e-01 1.000000000000000000e+01
3.716085433959960938e+01 4.714276790618895596e+00 4.599349021911621094e+00 1.900000000000000000e+01
4.773709774017333984e+00 6.047528386116027832e-01 -5.908225774765014648e-01 1.100000000000000000e+01
3.696804046630858664e+01 4.683260440826416016e+00 5.901959419250488281e+00 1.300000000000000000e+01
6.145359039306640625e+00 7.774290442466735840e-01 -5.419344305992126465e-01 8.000000000000000000e+00
9.049756050109863281e+00 1.141645431518554910e+00 -4.780366122722625732e-01 1.000000000000000000e+00
3.535329437255858664e+01 4.453622817993164062e+00 8.226460456848144531e+00 1.000000000000000000e+01
1.630499076843262074e+01 2.051126241683959961e+00 -2.868477404117584229e-01 2.000000000000000000e+00
3.670183181762695312e+01 4.616997241973876953e+00 9.911734580993652344e+00 7.000000000000000000e+00
2.308164119720458984e+00 2.870879471302031916e-01 -6.232362389564514160e-01 1.600000000000000000e+01
5.948382186889647727e+01 7.388016700744628906e+00 1.046271800994873047e+00 6.300000000000000000e+01
2.088636636734008789e+00 2.590429484844207764e-01 -4.858942627906798761e-01 5.400000000000000000e+01
3.099854946136475053e+00 3.839098513126372736e-01 -6.071542501449584961e-01 1.100000000000000000e+01
3.722959041595458984e+00 4.597604274749755859e-01 -5.941380858421325684e-01 1.000000000000000000e+01
3.720466613769531250e+01 4.587934017181395596e+00 4.602761268615722656e+00 1.900000000000000000e+01
4.777761936187744141e+00 5.883283615112304688e-01 -5.910663008689880371e-01 8.000000000000000000e+00
6.146057605743408203e+00 7.557298541069030762e-01 -5.417600870132446289e-01 9.000000000000000000e+00
9.073510169982910156e+00 1.112479448318481001e+00 -4.790833294391632080e-01 1.000000000000000000e+00
3.600307464599608664e+01 4.407865524291992188e+00 8.374028205871582031e+00 1.000000000000000000e+01
1.633586883544921875e+01 1.997110724449157937e+00 -2.872666120529174805e-01 5.000000000000000000e+00
3.681055450439453125e+01 4.493683815002441406e+00 9.936580657958984375e+00 8.000000000000000000e+00
2.169145345687866211e+00 2.621113061904907227e-01 -5.854486823081970215e-01 1.600000000000000000e+01
5.950924682617188211e+01 7.180334568023681641e+00 1.046271800994873047e+00 6.300000000000000000e+01
2.103071451187133789e+00 2.533823847770690918e-01 -4.890435934066771906e-01 3.400000000000000000e+01
3.118719100952147993e+00 3.751974999904633123e-01 -6.105887889862060547e-01 1.100000000000000000e+01
3.734347820281981978e+00 4.479383826255797785e-01 -5.957024693489074707e-01 1.000000000000000000e+01
3.758706283569335938e+01 4.501947402954101562e+00 4.648096561431884766e+00 1.900000000000000000e+01
4.777815341949462891e+00 5.714115500450134277e-01 -5.908225774765014648e-01 9.000000000000000000e+00
6.166463375091552734e+00 7.363978028297424316e-01 -5.433288812637329102e-01 8.000000000000000000e+00
9.124936103820800781e+00 1.086467504501342995e+00 -4.815954566001892090e-01 1.000000000000000000e+00
1.645791435241698863e+01 1.953748226165771040e+00 -2.892910838127136230e-01 2.000000000000000000e+00
3.684443664550781250e+01 4.373868465423583984e+00 9.941757202148437500e+00 8.000000000000000000e+00
2.056843996047974077e+00 2.412596940994262973e-01 -5.549080371856689453e-01 5.400000000000000000e+01
2.105878591537476030e+00 2.462661117315292081e-01 -4.894934892654418945e-01 6.700000000000000000e+01
3.112209558486938032e+00 3.633980751037598211e-01 -6.090623140335083008e-01 1.200000000000000000e+01
3.741775035858153853e+00 4.355855882167816162e-01 -5.966410636901855469e-01 1.000000000000000000e+01
4.783724784851074219e+00 5.551881194114685059e-01 -5.913100838661193848e-01 9.000000000000000000e+00
6.170975208282470703e+00 7.150976657867431641e-01 -5.435032248497009277e-01 9.000000000000000000e+00
9.120737075805664062e+00 1.053692102432250977e+00 -4.811767935752869207e-01 1.200000000000000000e+01
3.559158325195313211e+01 4.105497360229492188e+00 8.271450042724609375e+00 1.000000000000000000e+01
1.654806900024414062e+01 1.905897021293639915e+00 -2.907570898532866877e-01 2.000000000000000000e+00
3.611172866821289062e+01 4.152723789215087891e+00 9.739878654479980469e+00 7.000000000000000000e+00
2.057673454284667969e+00 2.340784966945647916e-01 -5.549080371856689453e-01 4.000000000000000000e+01
2.116407155990601030e+00 2.400116622447968084e-01 -4.917429983615875244e-01 1.000000000000000000e+02
3.941569900512695312e+01 4.462979316711425781e+00 2.078888893127440962e+00 2.200000000000000000e+01
3.103705167770386186e+00 3.514277935028076172e-01 -6.071542501449584961e-01 1.200000000000000000e+01
3.755050182342528853e+00 4.238510727882385254e-01 -5.985182523727416992e-01 1.000000000000000000e+01
4.777742862701416016e+00 5.375985503196716309e-01 -5.903350710868835449e-01 9.000000000000000000e+00
3.702982330322266336e+01 4.166649341583251953e+00 5.901959419250488281e+00 1.300000000000000000e+01
6.179373741149902344e+00 6.942198872566223145e-01 -5.440261363983154297e-01 9.000000000000000000e+00
9.120389938354492188e+00 1.021403789520263894e+00 -4.809674322605133057e-01 5.000000000000000000e+00
