-1.650904536247252974e+00 1.663050889968872070e+00 -6.278949975967407227e-01 1.900000000000000000e+01
-1.917277336120605025e+00 1.932732343673706055e+00 -6.285132169723510742e-01 1.400000000000000000e+01
-2.218757390975952148e+00 2.237423419952393022e+00 -6.124968528747558594e-01 1.200000000000000000e+01
-2.686348199844359907e+00 2.710839986801147017e+00 -6.044628024101257324e-01 9.000000000000000000e+00
-3.406785011291503906e+00 3.440246343612670898e+00 -5.944786667823791504e-01 8.000000000000000000e+00
-4.597521305084229404e+00 4.644298553466796875e+00 -5.717417001724243164e-01 3.000000000000000000e+00
-7.060992717742919922e+00 7.137816429138183594e+00 -5.261856913566589355e-01 2.000000000000000000e+00
-1.646445512771606001e+00 1.670179247856139915e+00 -6.284126639366149902e-01 1.900000000000000000e+01
-1.898210883140563965e+00 1.926918745040893999e+00 -6.244641542434692383e-01 1.300000000000000000e+01
-2.213688850402832031e+00 2.247952461242675781e+00 -6.132600903511047363e-01 1.200000000000000000e+01
-2.676869392395019975e+00 2.720200777053833008e+00 -6.044628024101257324e-01 9.000000000000000000e+00
-3.414241790771483931e+00 3.471932649612427202e+00 -5.978909730911254883e-01 8.000000000000000000e+00
-4.561727523803710938e+00 4.640427112579345703e+00 -5.693013072013854980e-01 4.000000000000000000e+00
-7.002442836761474609e+00 7.128225326538085938e+00 -5.236735939979553223e-01 2.000000000000000000e+00
-1.647656202316283958e+00 1.682531118392943892e+00 -6.310008168220520020e-01 1.900000000000000000e+01
-1.887721657752990945e+00 1.929024457931518999e+00 -6.231144070625305176e-01 1.400000000000000000e+01
-2.211713552474976030e+00 2.260894536972045898e+00 -6.147865653038024902e-01 1.200000000000000000e+01
-2.667834043502808061e+00 2.729062557220458984e+00 -6.044628024101257324e-01 9.000000000000000000e+00
-3.377740621566772017e+00 3.457675695419311968e+00 -5.935037136077880859e-01 9.000000000000000000e+00
-4.554666042327880859e+00 4.664081573486328125e+00 -5.703471899032592773e-01 7.000000000000000000e+00
-6.906230449676513672e+00 7.077077388763427734e+00 -5.182306170463562012e-01 2.000000000000000000e+00
-1.640426278114319070e+00 1.686887264251708984e+00 -6.304832100868225098e-01 1.600000000000000000e+01
-1.878260374069214089e+00 1.932806968688965066e+00 -6.222146153450012207e-01 1.400000000000000000e+01
-2.195600271224976030e+00 2.260151863098144975e+00 -6.124968528747558594e-01 1.200000000000000000e+01
-2.661043405532836914e+00 2.741193056106566939e+00 -6.050885319709777832e-01 9.000000000000000000e+00
-3.347681999206542969e+00 3.450922489166260210e+00 -5.903350710868835449e-01 9.000000000000000000e+00
-4.548067092895507812e+00 4.689963817596436435e+00 -5.715673565864562988e-01 6.000000000000000000e+00
-6.948200702667236328e+00 7.169987201690673828e+00 -5.232548713684082031e-01 2.000000000000000000e+00
-1.631843924522399902e+00 1.689823865890502930e+00 -6.294479370117187500e-01 1.800000000000000000e+01
-1.878268361091613992e+00 1.946362972259521040e+00 -6.244641542434692383e-01 1.500000000000000000e+01
-2.184971570968627930e+00 2.264976263046265093e+00 -6.117336153984069824e-01 1.200000000000000000e+01
-2.651458740234375000e+00 2.750465154647827148e+00 -6.050885319709777832e-01 9.000000000000000000e+00
-3.345256090164185014e+00 3.472594499588013139e+00 -5.920412540435791016e-01 8.000000000000000000e+00
-4.521994113922119141e+00 4.695765018463134766e+00 -5.703471899032592773e-01 7.000000000000000000e+00
-6.914821147918701172e+00 7.185562133789063388e+00 -5.226268768310546875e-01 2.000000000000000000e+00
-1.621924042701720969e+00 1.691326737403870073e+00 -6.278949975967407227e-01 1.900000000000000000e+01
-1.880900979042053001e+00 1.962756395339966042e+00 -6.276134252548217773e-01 1.400000000000000000e+01
-2.177052021026610884e+00 2.272589445114136186e+00 -6.117336153984069824e-01 1.200000000000000000e+01
-2.639109611511230025e+00 2.756849765777587891e+00 -6.044628024101257324e-01 9.000000000000000000e+00
-3.346836328506470171e+00 3.498594760894774947e+00 -5.944786667823791504e-01 8.000000000000000000e+00
-4.486297130584716797e+00 4.691361904144287109e+00 -5.679067969322204590e-01 6.000000000000000000e+00
-6.831742286682128906e+00 7.149009704589843750e+00 -5.182306170463562012e-01 2.000000000000000000e+00
-1.614678144454956055e+00 1.695579051971435991e+00 -6.273773908615112305e-01 1.900000000000000000e+01
-1.867321252822875977e+00 1.962251543998718040e+00 -6.253639459609985352e-01 1.200000000000000000e+01
-2.165046453475952148e+00 2.275907754898070845e+00 -6.105887889862060547e-01 1.100000000000000000e+01
-2.607694149017333984e+00 2.743138074874877930e+00 -5.994568467140197754e-01 9.000000000000000000e+00
-3.334603548049927202e+00 3.510256052017211914e+00 -5.944786667823791504e-01 8.000000000000000000e+00
-4.465777873992919922e+00 4.702659130096436435e+00 -5.673838853836059570e-01 6.000000000000000000e+00
-6.790247917175292969e+00 7.155428409576416016e+00 -5.169745683670043945e-01 2.000000000000000000e+00
-1.614058971405029075e+00 1.706819534301758035e+00 -6.294479370117187500e-01 1.900000000000000000e+01
-5.841024017333983664e+01 6.178869628906250000e+01 1.484152674674988015e+00 1.500000000000000000e+01
-1.853767991065979004e+00 1.961675882339477983e+00 -6.231144070625305176e-01 1.300000000000000000e+01
-2.169222354888916016e+00 2.296295642852783203e+00 -6.140233278274536133e-01 1.200000000000000000e+01
-2.611663103103638139e+00 2.766588449478148970e+00 -6.025855541229248047e-01 9.000000000000000000e+00
-3.310070753097534180e+00 3.508878946304320845e+00 -5.922850370407104492e-01 9.000000000000000000e+00
-4.445234298706054688e+00 4.713870525360107422e+00 -5.668609738349914551e-01 6.000000000000000000e+00
-6.789885044097900391e+00 7.205251216888427734e+00 -5.188586711883544922e-01 2.000000000000000000e+00
-1.613381028175354004e+00 1.718076229095458984e+00 -6.315184831619262695e-01 1.900000000000000000e+01
-1.848242759704590066e+00 1.969555854797363059e+00 -6.235643029212951660e-01 1.200000000000000000e+01
-2.151791334152222124e+00 2.293830633163452148e+00 -6.113520264625549316e-01 1.200000000000000000e+01
-2.601989984512329102e+00 2.775687932968140093e+00 -6.025855541229248047e-01 9.000000000000000000e+00
-3.288302421569824219e+00 3.510270595550537109e+00 -5.905788540840148926e-01 8.000000000000000000e+00
-4.442371368408203125e+00 4.743901252746582031e+00 -5.686040520668029785e-01 6.000000000000000000e+00
-6.751046180725097656e+00 7.214324951171875000e+00 -5.178119540214538574e-01 2.000000000000000000e+00
-1.599468827247620073e+00 1.715220332145690918e+00 -6.284126639366149902e-01 1.700000000000000000e+01
-1.844013571739196999e+00 1.978846788406372070e+00 -6.244641542434692383e-01 1.200000000000000000e+01
-2.138418436050415039e+00 2.295581579208374023e+00 -6.098255515098571777e-01 1.100000000000000000e+01
-2.592285156250000000e+00 2.784753561019897017e+00 -6.025855541229248047e-01 9.000000000000000000e+00
-3.276029109954833984e+00 3.521727561950684038e+00 -5.905788540840148926e-01 8.000000000000000000e+00
-4.405433654785156250e+00 4.737493991851806641e+00 -5.659893751144409180e-01 4.000000000000000000e+00
-6.714945316314697266e+00 7.226141929626464844e+00 -5.169745683670043945e-01 2.000000000000000000e+00
-1.590846776962280051e+00 1.717958211898803933e+00 -6.273773908615112305e-01 2.000000000000000000e+01
-1.845036149024962935e+00 1.993853449821471946e+00 -6.271635293960571289e-01 1.300000000000000000e+01
-2.129059314727783203e+00 2.301590919494628906e+00 -6.094439029693603516e-01 1.200000000000000000e+01
-2.579866886138916016e+00 2.790884256362915039e+00 -6.019598245620727539e-01 9.000000000000000000e+00
-3.265063047409058061e+00 3.534599781036376953e+00 -5.908225774765014648e-01 9.000000000000000000e+00
-4.383462905883789062e+00 4.746987819671630859e+00 -5.652921199798583984e-01 6.000000000000000000e+00
-6.673427104949951172e+00 7.231923580169677734e+00 -5.157185196876525879e-01 2.000000000000000000e+00
-1.584840297698975053e+00 1.723500847816467063e+00 -6.273773908615112305e-01 1.900000000000000000e+01
-1.830153703689574973e+00 1.991672158241271973e+00 -6.244641542434692383e-01 1.300000000000000000e+01
-2.122340202331542969e+00 2.310454607009888139e+00 -6.098255515098571777e-01 1.200000000000000000e+01
-2.564765930175780806e+00 2.794051647186278853e+00 -6.007083654403686523e-01 9.000000000000000000e+00
-3.250021457672119141e+00 3.543049812316894975e+00 -5.903350710868835449e-01 9.000000000000000000e+00
-4.352054119110107422e+00 4.746106624603270596e+00 -5.633746981620788574e-01 6.000000000000000000e+00
-6.615758419036865234e+00 7.219833374023438388e+00 -5.132063627243041992e-01 2.000000000000000000e+00
-1.399886703491210938e+01 1.528779315948485973e+01 -3.618232905864716131e-01 3.000000000000000000e+00
-1.579417943954467995e+00 1.728471279144287109e+00 -6.273773908615112305e-01 1.800000000000000000e+01
-1.816003441810607910e+00 1.988777518272399902e+00 -6.217647194862365723e-01 1.500000000000000000e+01
-2.115071296691894975e+00 2.317110776901245117e+00 -6.098255515098571777e-01 1.200000000000000000e+01
-2.547988176345825195e+00 2.793338775634766069e+00 -5.988311171531677246e-01 9.000000000000000000e+00
-3.234862804412841797e+00 3.548841238021851030e+00 -5.896039009094238281e-01 8.000000000000000000e+00
-4.342490196228027344e+00 4.765646457672119141e+00 -5.640719532966613770e-01 6.000000000000000000e+00
-6.603801727294921875e+00 7.252396106719970703e+00 -5.140437483787536621e-01 2.000000000000000000e+00
-1.395077037811278942e+01 1.533169651031493963e+01 -3.618232905864716131e-01 3.000000000000000000e+00
-1.578567385673522949e+00 1.739696621894835982e+00 -6.294479370117187500e-01 1.800000000000000000e+01
-1.812977313995361106e+00 1.999435424804687944e+00 -6.231144070625305176e-01 1.400000000000000000e+01
-2.112244129180908203e+00 2.330297946929932085e+00 -6.113520264625549316e-01 1.200000000000000000e+01
-2.554135560989379883e+00 2.819784641265869141e+00 -6.025855541229248047e-01 9.000000000000000000e+00
-3.211798191070557085e+00 3.548337697982788086e+00 -5.876539945602416992e-01 8.000000000000000000e+00
-4.320481300354003906e+00 4.774866104125976562e+00 -5.633746981620788574e-01 6.000000000000000000e+00
-6.565050601959229404e+00 7.260588645935058594e+00 -5.129970312118530273e-01 2.000000000000000000e+00
-1.569594740867614968e+00 1.742599844932555930e+00 -6.284126639366149902e-01 2.000000000000000000e+01
-1.805636763572693093e+00 2.006066799163817915e+00 -6.231144070625305176e-01 1.400000000000000000e+01
-2.097123384475708008e+00 2.330726861953734907e+00 -6.094439029693603516e-01 1.300000000000000000e+01
-2.546424865722655806e+00 2.832065105438231978e+00 -6.032112836837768555e-01 9.000000000000000000e+00
-3.204078197479248047e+00 3.565992116928101030e+00 -5.886289477348327637e-01 9.000000000000000000e+00
-4.300288677215576172e+00 4.787704944610595703e+00 -5.630260705947875977e-01 6.000000000000000000e+00
-6.506376743316650391e+00 7.248929977416992188e+00 -5.104849338531494141e-01 2.000000000000000000e+00
-1.551911234855652078e+00 1.735108733177185059e+00 -6.237539052963256836e-01 1.700000000000000000e+01
-1.806415200233459029e+00 2.021075248718262163e+00 -6.258138418197631836e-01 1.100000000000000000e+01
-2.090282678604125977e+00 2.339497089385985884e+00 -6.098255515098571777e-01 1.100000000000000000e+01
-2.528630018234252930e+00 2.832095384597777876e+00 -6.013340950012207031e-01 9.000000000000000000e+00
-3.199540615081787109e+00 3.586041927337646040e+00 -5.900913476943969727e-01 9.000000000000000000e+00
-4.272941112518311435e+00 4.790791034698486328e+00 -5.616316199302673340e-01 6.000000000000000000e+00
-6.502295970916748047e+00 7.295453071594238281e+00 -5.121596455574035645e-01 2.000000000000000000e+00
-1.546148896217345969e+00 1.740245580673217995e+00 -6.237539052963256836e-01 1.800000000000000000e+01
-1.786764979362488015e+00 2.012481689453125000e+00 -6.213148236274719238e-01 1.200000000000000000e+01
-2.083816528320312944e+00 2.347884178161621094e+00 -6.102071404457092285e-01 1.200000000000000000e+01
-2.506117105484008789e+00 2.825686216354370117e+00 -5.982053875923156738e-01 9.000000000000000000e+00
-3.174464464187622070e+00 3.581776380538939986e+00 -5.876539945602416992e-01 8.000000000000000000e+00
-4.249103546142578125e+00 4.795986652374267578e+00 -5.605857372283935547e-01 6.000000000000000000e+00
-6.467475891113281250e+00 7.305012226104736328e+00 -5.113223195075988770e-01 2.000000000000000000e+00
-1.547733306884766069e+00 1.754323959350585938e+00 -6.268597245216369629e-01 1.800000000000000000e+01
-1.777151703834533913e+00 2.015783071517943892e+00 -6.204150319099426270e-01 1.200000000000000000e+01
-2.076906204223632812e+00 2.356616735458374023e+00 -6.105887889862060547e-01 1.200000000000000000e+01
-2.494932889938354048e+00 2.832934617996215820e+00 -5.978925228118896484e-01 8.000000000000000000e+00
-3.161942481994628906e+00 3.592835426330565962e+00 -5.876539945602416992e-01 8.000000000000000000e+00
-4.233652114868164062e+00 4.812285423278808594e+00 -5.607600212097167969e-01 9.000000000000000000e+00
-6.431387901306152344e+00 7.315543174743652344e+00 -5.104849338531494141e-01 2.000000000000000000e+00
-1.545419096946716087e+00 1.764075160026550071e+00 -6.284126639366149902e-01 1.600000000000000000e+01
-5.851808929443358664e+01 6.682113647460937500e+01 1.550401926040648970e+00 3.000000000000000000e+00
-1.771388173103332964e+00 2.023440361022949219e+00 -6.208649277687072754e-01 1.300000000000000000e+01
-2.063495635986328125e+00 2.357942342758179155e+00 -6.090623140335083008e-01 1.100000000000000000e+01
-2.494131565093994141e+00 2.852035284042357954e+00 -6.000826358795166016e-01 9.000000000000000000e+00
-3.136319398880004883e+00 3.588903188705443892e+00 -5.852165818214416504e-01 8.000000000000000000e+00
-4.220760822296142578e+00 4.831535816192626953e+00 -5.612829923629760742e-01 6.000000000000000000e+00
-6.439962863922119141e+00 7.377068042755126953e+00 -5.132063627243041992e-01 2.000000000000000000e+00
-1.532912373542786089e+00 1.762171268463134988e+00 -6.258244514465332031e-01 1.800000000000000000e+01
-1.771985173225403054e+00 2.038435697555541992e+00 -6.235643029212951660e-01 1.500000000000000000e+01
-2.050101280212401900e+00 2.359203338623046875e+00 -6.075358390808105469e-01 1.100000000000000000e+01
-2.489341497421265093e+00 2.866689920425415039e+00 -6.013340950012207031e-01 9.000000000000000000e+00
-3.123772621154785156e+00 3.599829196929932085e+00 -5.852165818214416504e-01 8.000000000000000000e+00
-4.211703300476074219e+00 4.855269908905029297e+00 -5.623288750648498535e-01 3.000000000000000000e+00
-6.380159378051757812e+00 7.360264301300048828e+00 -5.104849338531494141e-01 2.000000000000000000e+00
-1.520437717437743919e+00 1.760201573371886985e+00 -6.232362389564514160e-01 1.600000000000000000e+01
-1.766132235527039018e+00 2.046083927154541016e+00 -6.240141987800598145e-01 1.400000000000000000e+01
-2.040571212768555132e+00 2.364858865737915039e+00 -6.071542501449584961e-01 1.100000000000000000e+01
-2.474159955978393999e+00 2.869377851486206055e+00 -6.000826358795166016e-01 9.000000000000000000e+00
-3.116370916366577148e+00 3.616726636886597124e+00 -5.861915349960327148e-01 8.000000000000000000e+00
-4.173924922943115234e+00 4.845788478851318359e+00 -5.595398545265197754e-01 4.000000000000000000e+00
-6.315340042114257812e+00 7.337078094482421875e+00 -5.073447823524475098e-01 2.000000000000000000e+00
-1.278961372375487926e+01 1.486929798126221058e+01 -3.423464000225067139e-01 3.000000000000000000e+00
-1.518057346343993919e+00 1.769897222518920898e+00 -6.247891783714294434e-01 1.800000000000000000e+01
-1.752638339996337891e+00 2.044838190078734907e+00 -6.217647194862365723e-01 1.500000000000000000e+01
-2.034858703613280806e+00 2.374948978424071822e+00 -6.079174876213073730e-01 1.000000000000000000e+01
-2.461559295654296875e+00 2.874995708465576172e+00 -5.994568467140197754e-01 9.000000000000000000e+00
-3.110179901123046875e+00 3.635124444961547852e+00 -5.874102115631103516e-01 9.000000000000000000e+00
-4.164754867553710938e+00 4.869413375854492188e+00 -5.605857372283935547e-01 4.000000000000000000e+00
-6.279309272766113281e+00 7.346931934356688565e+00 -5.065073966979980469e-01 2.000000000000000000e+00
-1.268568515777588068e+01 1.485302829742431996e+01 -3.409502208232880194e-01 3.000000000000000000e+00
-1.517191171646117942e+00 1.780803680419922097e+00 -6.268597245216369629e-01 1.800000000000000000e+01
-1.742057919502258079e+00 2.046187400817871094e+00 -6.204150319099426270e-01 1.400000000000000000e+01
-2.033334016799927202e+00 2.389159202575684038e+00 -6.098255515098571777e-01 1.100000000000000000e+01
-2.449452400207519975e+00 2.880133390426636186e+00 -5.988311171531677246e-01 9.000000000000000000e+00
-3.099393844604492188e+00 3.646930932998656782e+00 -5.876539945602416992e-01 9.000000000000000000e+00
-4.138264179229736328e+00 4.871050357818604404e+00 -5.591912269592285156e-01 4.000000000000000000e+00
-6.283348560333251953e+00 7.401211261749267578e+00 -5.088101625442504883e-01 2.000000000000000000e+00
-1.263636016845702947e+01 1.489501380920409979e+01 -3.409502208232880194e-01 3.000000000000000000e+00
-1.510965824127197044e+00 1.786088824272155984e+00 -6.268597245216369629e-01 1.700000000000000000e+01
-1.737421035766602007e+00 2.055232286453247070e+00 -6.213148236274719238e-01 1.600000000000000000e+01
-2.021180152893065962e+00 2.391743898391724077e+00 -6.086806654930114746e-01 1.100000000000000000e+01
-2.440658569335937944e+00 2.890175104141234907e+00 -5.991439819335937500e-01 8.000000000000000000e+00
-3.085364580154418945e+00 3.656210422515869141e+00 -5.874102115631103516e-01 9.000000000000000000e+00
-4.116097450256347656e+00 4.879374027252197266e+00 -5.584939718246459961e-01 4.000000000000000000e+00
-6.244602680206298828e+00 7.407828330993652344e+00 -5.077634453773498535e-01 2.000000000000000000e+00
-1.253275775909424006e+01 1.487785720825194957e+01 -3.395540118217468262e-01 3.000000000000000000e+00
-1.499128460884094016e+00 1.785958647727966087e+00 -6.247891783714294434e-01 1.700000000000000000e+01
-1.730769038200377974e+00 2.063381433486938032e+00 -6.217647194862365723e-01 1.600000000000000000e+01
-2.003151655197143999e+00 2.388956308364868164e+00 -6.060093641281127930e-01 1.100000000000000000e+01
-2.429543018341064009e+00 2.899525165557860884e+00 -5.991439819335937500e-01 9.000000000000000000e+00
-3.067479848861693892e+00 3.663464307785034180e+00 -5.866790413856506348e-01 9.000000000000000000e+00
-4.105004310607910156e+00 4.904309749603270596e+00 -5.595398545265197754e-01 4.000000000000000000e+00
-6.169981956481933594e+00 7.376598834991455078e+00 -5.039952397346496582e-01 2.000000000000000000e+00
-1.244476032257080078e+01 1.488904571533202947e+01 -3.387162983417510986e-01 3.000000000000000000e+00
-1.487937808036803977e+00 1.785244703292846902e+00 -6.227186322212219238e-01 1.500000000000000000e+01
-1.724803090095520020e+00 2.070907831192017046e+00 -6.222146153450012207e-01 1.400000000000000000e+01
-2.003593683242797852e+00 2.406495332717895952e+00 -6.086806654930114746e-01 1.100000000000000000e+01
-2.419407129287720171e+00 2.907988309860229048e+00 -5.991439819335937500e-01 8.000000000000000000e+00
-3.048327922821044922e+00 3.666517257690430132e+00 -5.854603052139282227e-01 8.000000000000000000e+00
-4.076398849487304688e+00 4.904818534851074219e+00 -5.579710602760314941e-01 4.000000000000000000e+00
-6.149299621582031250e+00 7.404237270355224609e+00 -5.044139623641967773e-01 2.000000000000000000e+00
-1.239271163940430043e+01 1.493239498138427912e+01 -3.387162983417510986e-01 3.000000000000000000e+00
-1.490318775177001953e+00 1.800845861434936968e+00 -6.263421177864074707e-01 1.600000000000000000e+01
-1.715079903602600098e+00 2.073912382125854048e+00 -6.213148236274719238e-01 1.300000000000000000e+01
-1.995181202888488992e+00 2.413474559783935991e+00 -6.086806654930114746e-01 1.100000000000000000e+01
-2.397918701171875000e+00 2.902709484100341797e+00 -5.963281989097595215e-01 9.000000000000000000e+00
-3.044357061386107954e+00 3.687851667404174805e+00 -5.871664881706237793e-01 9.000000000000000000e+00
-4.055448532104492188e+00 4.914407730102539062e+00 -5.574481487274169922e-01 4.000000000000000000e+00
-6.133581638336181641e+00 7.437984466552734375e+00 -5.052513480186462402e-01 2.000000000000000000e+00
-1.232016563415526988e+01 1.495087146759033025e+01 -3.381578326225280762e-01 3.000000000000000000e+00
-1.477891206741333008e+00 1.798574090003967063e+00 -6.237539052963256836e-01 1.800000000000000000e+01
-1.697936892509460005e+00 2.067837953567504883e+00 -6.177155971527099609e-01 1.200000000000000000e+01
-1.985498905181884988e+00 2.418906927108765093e+00 -6.082990765571594238e-01 1.200000000000000000e+01
-2.391530036926269975e+00 2.915643930435181108e+00 -5.972667932510375977e-01 9.000000000000000000e+00
-3.025173425674438032e+00 3.690779685974121094e+00 -5.859478116035461426e-01 8.000000000000000000e+00
-4.038269519805908203e+00 4.928534030914306641e+00 -5.574481487274169922e-01 4.000000000000000000e+00
-6.069622039794921875e+00 7.412989139556884766e+00 -5.021111369132995605e-01 2.000000000000000000e+00
-1.482007622718811035e+00 1.815179586410522017e+00 -6.278949975967407227e-01 1.800000000000000000e+01
-1.693896055221558061e+00 2.076181888580321822e+00 -6.186153888702392578e-01 1.100000000000000000e+01
-1.975408196449280007e+00 2.422089815139770952e+00 -6.075358390808105469e-01 1.100000000000000000e+01
-2.388598442077637163e+00 2.930799007415771040e+00 -5.988311171531677246e-01 9.000000000000000000e+00
-3.003535032272338867e+00 3.687951564788817915e+00 -5.839979052543640137e-01 8.000000000000000000e+00
-4.030313491821289062e+00 4.950466632843017578e+00 -5.584939718246459961e-01 7.000000000000000000e+00
-6.084116458892822266e+00 7.478499889373779297e+00 -5.052513480186462402e-01 2.000000000000000000e+00
-1.215009689331055043e+01 1.494536113739014027e+01 -3.362031579017639160e-01 3.000000000000000000e+00
-1.474445939064026101e+00 1.818841099739074929e+00 -6.273773908615112305e-01 1.600000000000000000e+01
-1.687865138053894043e+00 2.083596229553223100e+00 -6.190652847290039062e-01 1.200000000000000000e+01
-1.959528326988219993e+00 2.419816017150878906e+00 -6.052461266517639160e-01 1.100000000000000000e+01
-2.379595994949340820e+00 2.940654516220093218e+00 -5.991439819335937500e-01 8.000000000000000000e+00
-2.999380826950072798e+00 3.709218502044678178e+00 -5.857040882110595703e-01 9.000000000000000000e+00
-4.000483512878417969e+00 4.949010372161865234e+00 -5.567508935928344727e-01 7.000000000000000000e+00
-6.057974815368652344e+00 7.499691963195800781e+00 -5.052513480186462402e-01 2.000000000000000000e+00
-1.201746940612792969e+01 1.488809585571289062e+01 -3.339692354202271063e-01 3.000000000000000000e+00
-1.457186341285706010e+00 1.810432314872741921e+00 -6.227186322212219238e-01 1.500000000000000000e+01
-1.689131259918212891e+00 2.100104808807373047e+00 -6.222146153450012207e-01 1.200000000000000000e+01
-1.955990433692931907e+00 2.432761430740356001e+00 -6.067726016044616699e-01 1.100000000000000000e+01
-2.368079423904418945e+00 2.947403192520142046e+00 -5.988311171531677246e-01 9.000000000000000000e+00
-2.983929395675659180e+00 3.716569900512694868e+00 -5.852165818214416504e-01 9.000000000000000000e+00
-3.968219041824340820e+00 4.944298267364501953e+00 -5.546591281890869141e-01 6.000000000000000000e+00
-6.031759262084960938e+00 7.520792484283447266e+00 -5.052513480186462402e-01 2.000000000000000000e+00
-1.196542739868164062e+01 1.492995357513427912e+01 -3.339692354202271063e-01 3.000000000000000000e+00
-1.452063918113708052e+00 1.817016959190369096e+00 -6.232362389564514160e-01 1.600000000000000000e+01
-1.684222340583801047e+00 2.109033823013306108e+00 -6.231144070625305176e-01 1.300000000000000000e+01
-1.946261763572693093e+00 2.438040018081665039e+00 -6.063910126686096191e-01 1.100000000000000000e+01
-2.351617336273192915e+00 2.947930097579956055e+00 -5.972667932510375977e-01 8.000000000000000000e+00
-2.969700574874877930e+00 3.725410699844359907e+00 -5.849728584289550781e-01 9.000000000000000000e+00
-3.944727659225463867e+00 4.950329303741455078e+00 -5.537875890731811523e-01 6.000000000000000000e+00
-5.943262577056884766e+00 7.463680267333984375e+00 -5.000177025794982910e-01 2.000000000000000000e+00
-1.191323852539063033e+01 1.497163009643555043e+01 -3.339692354202271063e-01 3.000000000000000000e+00
-1.448995947837830034e+00 1.826867580413817915e+00 -6.247891783714294434e-01 1.700000000000000000e+01
-1.664376497268676980e+00 2.099920511245727983e+00 -6.186153888702392578e-01 1.300000000000000000e+01
-1.937312841415405051e+00 2.445157051086425781e+00 -6.063910126686096191e-01 1.000000000000000000e+01
-2.337118387222290039e+00 2.951883316040039062e+00 -5.963281989097595215e-01 9.000000000000000000e+00
-2.957257986068726030e+00 3.737827062606811968e+00 -5.852165818214416504e-01 9.000000000000000000e+00
-3.920377731323242188e+00 4.956940174102783203e+00 -5.529160499572753906e-01 4.000000000000000000e+00
-5.891098976135253906e+00 7.454073905944824219e+00 -4.979242980480194092e-01 2.000000000000000000e+00
-1.183349800109862926e+01 1.498380756378174006e+01 -3.332711458206176758e-01 3.000000000000000000e+00
-1.450976610183716042e+00 1.842538595199584961e+00 -6.284126639366149902e-01 1.900000000000000000e+01
-1.659446477890015093e+00 2.108780384063721147e+00 -6.195151805877685547e-01 1.400000000000000000e+01
-1.927551984786987083e+00 2.450361490249633789e+00 -6.060093641281127930e-01 1.100000000000000000e+01
-2.330462455749512163e+00 2.964682340621947798e+00 -5.972667932510375977e-01 8.000000000000000000e+00
-2.935608863830565962e+00 3.737199544906616211e+00 -5.835103988647460938e-01 1.100000000000000000e+01
-3.896898508071898970e+00 4.962759971618652344e+00 -5.520444512367248535e-01 7.000000000000000000e+00
-5.842850685119628906e+00 7.446309566497802734e+00 -4.960401952266693115e-01 2.000000000000000000e+00
-1.177371883392333984e+01 1.501558113098145064e+01 -3.330617249011992853e-01 3.000000000000000000e+00
-1.440966367721558061e+00 1.843026518821716087e+00 -6.268597245216369629e-01 1.800000000000000000e+01
-1.649675846099853960e+00 2.111488819122314009e+00 -6.186153888702392578e-01 1.400000000000000000e+01
-1.914153218269347922e+00 2.450886011123656782e+00 -6.044828891754150391e-01 1.000000000000000000e+01
-2.323745489120482954e+00 2.977470874786376953e+00 -5.982053875923156738e-01 9.000000000000000000e+00
-2.921324968338013139e+00 3.745858669281005859e+00 -5.832666754722595215e-01 9.000000000000000000e+00
-3.875876665115356001e+00 4.971618175506591797e+00 -5.515215396881103516e-01 7.000000000000000000e+00
-5.831552028656005859e+00 7.485566139221191406e+00 -4.972962439060211182e-01 2.000000000000000000e+00
-1.170894908905028942e+01 1.504080772399901988e+01 -3.327126801013947088e-01 3.000000000000000000e+00
-1.422678470611572044e+00 1.832784652709960938e+00 -6.216833591461181641e-01 1.700000000000000000e+01
-1.647072911262511985e+00 2.123393535614014116e+00 -6.204150319099426270e-01 1.400000000000000000e+01
-1.906789422035217063e+00 2.459104061126708984e+00 -6.048645377159118652e-01 1.000000000000000000e+01
-2.310918331146239790e+00 2.982441186904906782e+00 -5.975796580314636230e-01 9.000000000000000000e+00
-2.905801057815552202e+00 3.752893924713135210e+00 -5.827792286872863770e-01 9.000000000000000000e+00
-3.847523212432860884e+00 4.970937252044677734e+00 -5.499527454376220703e-01 7.000000000000000000e+00
-5.810274600982666016e+00 7.512196063995361328e+00 -4.977149367332457941e-01 2.000000000000000000e+00
-1.170039939880370916e+01 1.513854789733887074e+01 -3.339692354202271063e-01 3.000000000000000000e+00
-1.422168493270874023e+00 1.845390439033508079e+00 -6.242715120315551758e-01 1.900000000000000000e+01
-1.636083722114562988e+00 2.124498128890991211e+00 -6.190652847290039062e-01 1.600000000000000000e+01
-1.899391531944274902e+00 2.467300891876221147e+00 -6.052461266517639160e-01 9.000000000000000000e+00
-2.289653539657593218e+00 2.976398229598999023e+00 -5.947638154029846191e-01 8.000000000000000000e+00
-2.899942159652709961e+00 3.772457122802733931e+00 -5.842416286468505859e-01 9.000000000000000000e+00
-3.822864055633544922e+00 4.974858283996582031e+00 -5.489068627357482910e-01 7.000000000000000000e+00
-5.781583786010742188e+00 7.529263496398925781e+00 -4.975056052207946777e-01 2.000000000000000000e+00
-1.158661746978759943e+01 1.509997367858887074e+01 -3.322240114212036133e-01 3.000000000000000000e+00
-1.415718197822571023e+00 1.850343465805053933e+00 -6.242715120315551758e-01 1.600000000000000000e+01
-1.622739791870116965e+00 2.122455596923828125e+00 -6.168158054351806641e-01 1.600000000000000000e+01
-1.895536065101623979e+00 2.480155229568481001e+00 -6.067726016044616699e-01 9.000000000000000000e+00
-2.282846927642821822e+00 2.989082098007202148e+00 -5.957024693489074707e-01 9.000000000000000000e+00
-2.879530191421508789e+00 3.773088693618773970e+00 -5.827792286872863770e-01 9.000000000000000000e+00
-3.811517715454102007e+00 4.996092796325683594e+00 -5.497784018516540527e-01 6.000000000000000000e+00
-5.752844810485839844e+00 7.546222686767578125e+00 -4.972962439060211182e-01 2.000000000000000000e+00
-1.147324848175049006e+01 1.506079196929931996e+01 -3.304787576198577881e-01 3.000000000000000000e+00
-1.419767379760741965e+00 1.869119405746459961e+00 -6.289302706718444824e-01 1.700000000000000000e+01
-1.614143013954163042e+00 2.126554965972899947e+00 -6.163659095764160156e-01 1.600000000000000000e+01
-1.880933642387389915e+00 2.478936910629272017e+00 -6.048645377159118652e-01 1.000000000000000000e+01
-2.279560089111328125e+00 3.006477117538452148e+00 -5.975796580314636230e-01 9.000000000000000000e+00
-2.861546993255614790e+00 3.776788234710692915e+00 -5.818042159080505371e-01 9.000000000000000000e+00
-3.784431219100952148e+00 4.996660709381104404e+00 -5.483839511871337891e-01 6.000000000000000000e+00
-5.707183837890625000e+00 7.540776729583740234e+00 -4.956215023994445801e-01 2.000000000000000000e+00
-1.403929114341736062e+00 1.861724376678467019e+00 -6.247891783714294434e-01 1.600000000000000000e+01
-1.609055638313293013e+00 2.135288953781127930e+00 -6.172657012939453125e-01 1.600000000000000000e+01
-1.865181565284729004e+00 2.476078510284423828e+00 -6.025748252868652344e-01 1.000000000000000000e+01
-2.269051551818848100e+00 3.014415979385375977e+00 -5.975796580314636230e-01 9.000000000000000000e+00
-2.848345994949340820e+00 3.786753892898560014e+00 -5.818042159080505371e-01 9.000000000000000000e+00
-3.757387638092041016e+00 4.997100830078125000e+00 -5.469894409179687500e-01 6.000000000000000000e+00
-5.671228408813476562e+00 7.547878742218017578e+00 -4.947841167449951172e-01 2.000000000000000000e+00
-1.136782550811767933e+01 1.514052200317382990e+01 -3.304787576198577881e-01 3.000000000000000000e+00
-1.390799403190613015e+00 1.857092022895812988e+00 -6.216833591461181641e-01 1.700000000000000000e+01
-1.604301214218140093e+00 2.143733501434326172e+00 -6.181654930114746094e-01 1.500000000000000000e+01
-1.866368651390075906e+00 2.494826555252075195e+00 -6.056277751922607422e-01 1.000000000000000000e+01
-2.254312038421630859e+00 3.015595197677611861e+00 -5.963281989097595215e-01 9.000000000000000000e+00
-2.838149070739746094e+00 3.799359083175659180e+00 -5.822917222976684570e-01 9.000000000000000000e+00
-3.743180036544799805e+00 5.012726306915283203e+00 -5.473380684852600098e-01 8.000000000000000000e+00
-5.631834506988525391e+00 7.547434806823729581e+00 -4.935280680656433105e-01 1.000000000000000000e+00
-1.119802093505859020e+01 1.501782608032226918e+01 -3.269882798194885254e-01 3.000000000000000000e+00
-1.387766361236572044e+00 1.866586446762084961e+00 -6.232362389564514160e-01 1.500000000000000000e+01
-1.592159748077393022e+00 2.143063306808472124e+00 -6.163659095764160156e-01 1.500000000000000000e+01
-1.854137063026428001e+00 2.496597766876221147e+00 -6.044828891754150391e-01 1.100000000000000000e+01
-2.237885951995850053e+00 3.015514373779296875e+00 -5.947638154029846191e-01 8.000000000000000000e+00
-2.827234506607056108e+00 3.812432050704956055e+00 -5.827792286872863770e-01 9.000000000000000000e+00
-3.720913648605347124e+00 5.019359588623046875e+00 -5.466408133506774902e-01 8.000000000000000000e+00
-5.619720935821533203e+00 7.586306095123291016e+00 -4.947841167449951172e-01 2.000000000000000000e+00
-1.118836116790770951e+01 1.511468505859375000e+01 -3.282448649406433105e-01 3.000000000000000000e+00
-1.381568908691406028e+00 1.871178150177001953e+00 -6.232362389564514160e-01 1.100000000000000000e+01
-1.580416440963744895e+00 2.142058849334716797e+00 -6.145662665367126465e-01 1.500000000000000000e+01
-1.848178505897521973e+00 2.505892515182495117e+00 -6.052461266517639160e-01 1.100000000000000000e+01
-2.229045629501343218e+00 3.024508953094481978e+00 -5.950766801834106445e-01 9.000000000000000000e+00
-2.809867858886719194e+00 3.815392971038817915e+00 -5.818042159080505371e-01 9.000000000000000000e+00
-3.699523448944091797e+00 5.025252819061279297e+00 -5.459435582160949707e-01 6.000000000000000000e+00
-5.594532966613770419e+00 7.604900360107421875e+00 -4.947841167449951172e-01 2.000000000000000000e+00
-1.109553909301757990e+01 1.509370040893555043e+01 -3.269882798194885254e-01 3.000000000000000000e+00
-1.381881237030029075e+00 1.885338187217711958e+00 -6.263421177864074707e-01 1.000000000000000000e+01
-1.575232625007628950e+00 2.150706768035889116e+00 -6.154660582542419434e-01 1.600000000000000000e+01
-1.839420080184936968e+00 2.512328624725341797e+00 -6.052461266517639160e-01 1.100000000000000000e+01
-2.218474626541138139e+00 3.032271385192871094e+00 -5.950766801834106445e-01 9.000000000000000000e+00
-2.788331508636475053e+00 3.813960313796997070e+00 -5.800980925559997559e-01 1.100000000000000000e+01
-3.690188646316527876e+00 5.049396514892578125e+00 -5.471637248992919922e-01 9.000000000000000000e+00
-5.567952632904052734e+00 7.624382495880126953e+00 -4.947841167449951172e-01 2.000000000000000000e+00
-1.104278469085693004e+01 1.513233947753906072e+01 -3.269882798194885254e-01 3.000000000000000000e+00
-1.361652493476867898e+00 1.871405005455017090e+00 -6.201304197311401367e-01 8.000000000000000000e+00
-1.572299599647521973e+00 2.162497043609619141e+00 -6.172657012939453125e-01 1.600000000000000000e+01
-1.821405172348022017e+00 2.506029129028319868e+00 -6.021931767463684082e-01 1.100000000000000000e+01
-2.210198163986206055e+00 3.043193578720093218e+00 -5.957024693489074707e-01 9.000000000000000000e+00
-2.775001287460327148e+00 3.823670148849486861e+00 -5.800980925559997559e-01 1.100000000000000000e+01
-3.670200586318970171e+00 5.059021472930908203e+00 -5.468151569366455078e-01 8.000000000000000000e+00
-5.522548675537109375e+00 7.617898941040039062e+00 -4.931093752384185791e-01 1.000000000000000000e+00
-1.098989582061767933e+01 1.517079353332520064e+01 -3.269882798194885254e-01 3.000000000000000000e+00
-1.363029837608336958e+00 1.887109160423279031e+00 -6.237539052963256836e-01 7.000000000000000000e+00
-1.565881967544556108e+00 2.169552326202393022e+00 -6.177155971527099609e-01 1.700000000000000000e+01
-1.817241191864013894e+00 2.518740415573120117e+00 -6.037196516990661621e-01 1.100000000000000000e+01
-2.194941043853760210e+00 3.044480562210083008e+00 -5.944509506225585938e-01 9.000000000000000000e+00
-2.761637210845946822e+00 3.833333492279053178e+00 -5.800980925559997559e-01 1.100000000000000000e+01
-3.642040014266968218e+00 5.057250976562500000e+00 -5.452463030815124512e-01 6.000000000000000000e+00
-5.514589309692382812e+00 7.663067817687988281e+00 -4.947841167449951172e-01 2.000000000000000000e+00
-1.357559919357300027e+00 1.893425464630126953e+00 -6.242715120315551758e-01 8.000000000000000000e+00
-1.556029319763184038e+00 2.171836853027344194e+00 -6.168158054351806641e-01 1.600000000000000000e+01
-1.807294964790344016e+00 2.523472309112548828e+00 -6.033380627632141113e-01 1.100000000000000000e+01
-2.183150768280028853e+00 3.050517320632935014e+00 -5.941380858421325684e-01 1.000000000000000000e+01
-2.751703739166260210e+00 3.847794055938721147e+00 -5.808292627334594727e-01 9.000000000000000000e+00
-3.623205900192261186e+00 5.068312168121337891e+00 -5.450720191001892090e-01 8.000000000000000000e+00
-5.469231128692626953e+00 7.656267642974854404e+00 -4.931093752384185791e-01 1.000000000000000000e+00
-1.084189128875732067e+01 1.518855381011963068e+01 -3.257317245006560724e-01 3.000000000000000000e+00
-1.355423092842102051e+00 1.904448390007019043e+00 -6.263421177864074707e-01 9.000000000000000000e+00
-1.539403438568115012e+00 2.164550542831420898e+00 -6.132165789604187012e-01 1.700000000000000000e+01
-1.797337770462035911e+00 2.528165340423583984e+00 -6.029564142227172852e-01 1.100000000000000000e+01
-2.169057130813599077e+00 3.053288221359252930e+00 -5.931994915008544922e-01 9.000000000000000000e+00
-2.737106561660767046e+00 3.855757236480712891e+00 -5.805855393409729004e-01 1.100000000000000000e+01
-3.611257314682006836e+00 5.089053153991699219e+00 -5.459435582160949707e-01 9.000000000000000000e+00
-5.426299095153808594e+00 7.652503013610839844e+00 -4.916439652442932129e-01 1.000000000000000000e+00
-1.083042716979979936e+01 1.528504562377930043e+01 -3.269882798194885254e-01 3.000000000000000000e+00
-1.346537709236145020e+00 1.906012535095215066e+00 -6.253067851066589355e-01 1.000000000000000000e+01
-1.530714392662047896e+00 2.168318748474121094e+00 -6.127666831016540527e-01 1.600000000000000000e+01
-1.790765881538390891e+00 2.537631988525391069e+00 -6.037196516990661621e-01 1.100000000000000000e+01
-2.160662651062012163e+00 3.064069986343383789e+00 -5.938252210617065430e-01 9.000000000000000000e+00
-2.713340044021606001e+00 3.850683689117432085e+00 -5.783919095993041992e-01 8.000000000000000000e+00
-3.593471288681029829e+00 5.101627826690673828e+00 -5.459435582160949707e-01 9.000000000000000000e+00
-5.376562118530273438e+00 7.638732433319091797e+00 -4.895505309104918878e-01 1.000000000000000000e+00
-1.073559188842773082e+01 1.526387405395507990e+01 -3.257317245006560724e-01 3.000000000000000000e+00
-1.338767051696776900e+00 1.909119486808777078e+00 -6.247891783714294434e-01 1.300000000000000000e+01
-1.532082796096801980e+00 2.186416149139403853e+00 -6.163659095764160156e-01 1.500000000000000000e+01
-1.780770540237426980e+00 2.542259454727172852e+00 -6.033380627632141113e-01 1.100000000000000000e+01
-2.160148620605469194e+00 3.086158275604248047e+00 -5.966410636901855469e-01 1.000000000000000000e+01
-2.704433202743529829e+00 3.866638183593750000e+00 -5.793668627738952637e-01 9.000000000000000000e+00
-3.566508054733275923e+00 5.101077556610107422e+00 -5.445491075515747070e-01 9.000000000000000000e+00
-5.349864959716796875e+00 7.657454013824462891e+00 -4.895505309104918878e-01 1.000000000000000000e+00
-1.060898590087890980e+01 1.519631767272949041e+01 -3.234978020191193182e-01 3.000000000000000000e+00
-1.330991268157958984e+00 1.912195444107056108e+00 -6.242715120315551758e-01 1.400000000000000000e+01
-1.526666879653931108e+00 2.194950342178345171e+00 -6.172657012939453125e-01 1.500000000000000000e+01
-1.770764827728271040e+00 2.546848058700561968e+00 -6.029564142227172852e-01 1.100000000000000000e+01
-2.140346050262451172e+00 3.080701589584351030e+00 -5.941380858421325684e-01 1.000000000000000000e+01
-2.684127092361450195e+00 3.866271018981934038e+00 -5.779044032096862793e-01 8.000000000000000000e+00
-3.545272588729857954e+00 5.108585357666015625e+00 -5.440261363983154297e-01 9.000000000000000000e+00
-5.313997745513916016e+00 7.662951946258544922e+00 -4.887131452560424805e-01 1.000000000000000000e+00
-1.321014046669005904e+00 1.912061572074889915e+00 -6.227186322212219238e-01 1.700000000000000000e+01
-1.515674352645874023e+00 2.195455074310303178e+00 -6.159160137176513672e-01 1.600000000000000000e+01
-1.759633660316467063e+00 2.549782037734984907e+00 -6.021931767463684082e-01 1.100000000000000000e+01
-2.125093698501586914e+00 3.081649303436278853e+00 -5.928866267204284668e-01 1.000000000000000000e+01
-2.680752277374268022e+00 3.890328168869018999e+00 -5.800980925559997559e-01 1.100000000000000000e+01
-3.526288509368896040e+00 5.119288444519042969e+00 -5.438518524169921875e-01 8.000000000000000000e+00
-5.287216663360595703e+00 7.681454181671142578e+00 -4.887131452560424805e-01 1.000000000000000000e+00
-1.050263786315917969e+01 1.527001094818115057e+01 -3.234978020191193182e-01 3.000000000000000000e+00
-1.319037437438965066e+00 1.922803878784179910e+00 -6.247891783714294434e-01 2.000000000000000000e+01
-1.500672936439513938e+00 2.189217567443848100e+00 -6.127666831016540527e-01 1.500000000000000000e+01
-1.755607604980468972e+00 2.562081336975098100e+00 -6.037196516990661621e-01 1.100000000000000000e+01
-2.113746881484984907e+00 3.087049484252930132e+00 -5.925737619400024414e-01 9.000000000000000000e+00
-2.657748460769652876e+00 3.884451627731322798e+00 -5.779044032096862793e-01 8.000000000000000000e+00
-3.511542320251464844e+00 5.134243011474609375e+00 -5.442004799842834473e-01 8.000000000000000000e+00
-5.250445842742919922e+00 7.682455539703369141e+00 -4.876664280891417902e-01 1.000000000000000000e+00
-1.041134452819824041e+01 1.524530696868895951e+01 -3.222412467002869207e-01 3.000000000000000000e+00
-1.316666603088378906e+00 1.933783888816833052e+00 -6.268597245216369629e-01 1.900000000000000000e+01
-1.493021965026855025e+00 2.194442749023437944e+00 -6.127666831016540527e-01 1.500000000000000000e+01
-1.741133213043212891e+00 2.560076951980590820e+00 -6.018115878105163574e-01 1.200000000000000000e+01
-2.100737571716309038e+00 3.091141462326049805e+00 -5.919480323791503906e-01 9.000000000000000000e+00
-2.639712095260620117e+00 3.887136220932006836e+00 -5.769294500350952148e-01 1.000000000000000000e+01
-3.485765933990478960e+00 5.134930133819580078e+00 -5.429802536964416504e-01 6.000000000000000000e+00
-5.214627265930175781e+00 7.687513351440429688e+00 -4.868290722370148260e-01 1.000000000000000000e+00
-1.028625869750976918e+01 1.517561817169188920e+01 -3.200073242187500000e-01 3.000000000000000000e+00
-1.300918936729430930e+00 1.925790071487426980e+00 -6.227186322212219238e-01 1.800000000000000000e+01
-1.489330053329467995e+00 2.206360816955565962e+00 -6.145662665367126465e-01 1.500000000000000000e+01
-1.728443980216979980e+00 2.561559200286864790e+00 -6.006667017936706543e-01 1.100000000000000000e+01
-2.098228454589844194e+00 3.111922979354857954e+00 -5.944509506225585938e-01 9.000000000000000000e+00
-2.625447273254394975e+00 3.896785259246826172e+00 -5.769294500350952148e-01 1.000000000000000000e+01
-3.459131240844727007e+00 5.136104106903076172e+00 -5.417600870132446289e-01 6.000000000000000000e+00
-5.206488609313964844e+00 7.736399650573729581e+00 -4.887131452560424805e-01 1.000000000000000000e+00
-1.023056793212890980e+01 1.521321678161620916e+01 -3.200073242187500000e-01 3.000000000000000000e+00
-1.289885520935059038e+00 1.923901081085205078e+00 -6.206480860710144043e-01 1.700000000000000000e+01
-1.481619358062743919e+00 2.211546182632445845e+00 -6.145662665367126465e-01 1.600000000000000000e+01
-1.719491958618164062e+00 2.567576885223389116e+00 -6.006667017936706543e-01 1.200000000000000000e+01
-2.080761432647705078e+00 3.109378099441527876e+00 -5.925737619400024414e-01 9.000000000000000000e+00
-2.615139245986938032e+00 3.910876512527465820e+00 -5.776606798171997070e-01 8.000000000000000000e+00
-3.443396329879761186e+00 5.151460170745849609e+00 -5.421087145805358887e-01 6.000000000000000000e+00
-5.155046463012695312e+00 7.717988014221191406e+00 -4.864103794097899836e-01 1.000000000000000000e+00
-1.017740154266357067e+01 1.524883556365966975e+01 -3.200073242187500000e-01 3.000000000000000000e+00
-1.285302400588989036e+00 1.931608557701111062e+00 -6.216833591461181641e-01 1.600000000000000000e+01
-1.473890542984009011e+00 2.216704607009888139e+00 -6.145662665367126465e-01 1.500000000000000000e+01
-1.717039346694946067e+00 2.583373546600341797e+00 -6.029564142227172852e-01 1.200000000000000000e+01
-2.061151981353760210e+00 3.103458166122436968e+00 -5.900707840919494629e-01 9.000000000000000000e+00
-2.604764699935913086e+00 3.924943208694458008e+00 -5.783919095993041992e-01 1.000000000000000000e+01
-3.412176370620727983e+00 5.143525123596191406e+00 -5.400170087814331055e-01 8.000000000000000000e+00
-5.123660087585449219e+00 7.729276657104492188e+00 -4.859916865825653076e-01 1.000000000000000000e+00
-1.010202503204346058e+01 1.525092601776123047e+01 -3.193092346191406250e-01 3.000000000000000000e+00
-1.279616475105286089e+00 1.937695384025573953e+00 -6.222009658813476562e-01 1.600000000000000000e+01
-1.460777282714843972e+00 2.213703155517578125e+00 -6.123167872428894043e-01 1.400000000000000000e+01
-1.704768180847167969e+00 2.584434986114501953e+00 -6.018115878105163574e-01 1.200000000000000000e+01
-2.056828975677489790e+00 3.120530128479003906e+00 -5.919480323791503906e-01 9.000000000000000000e+00
-2.584496974945067915e+00 3.924064636230469194e+00 -5.769294500350952148e-01 1.000000000000000000e+01
-3.409539937973022017e+00 5.178701877593994141e+00 -5.424573421478271484e-01 6.000000000000000000e+00
-5.079085350036621094e+00 7.720417499542236328e+00 -4.843169450759888250e-01 1.000000000000000000e+00
-1.007069683074950994e+01 1.531951522827148082e+01 -3.200073242187500000e-01 3.000000000000000000e+00
-1.280257463455199973e+00 1.953460693359375000e+00 -6.258244514465332031e-01 1.600000000000000000e+01
-1.454108715057373047e+00 2.220419168472290039e+00 -6.127666831016540527e-01 1.500000000000000000e+01
-1.690359950065613015e+00 2.582157135009766069e+00 -5.999034643173217773e-01 1.200000000000000000e+01
-2.043761253356934038e+00 3.124384403228760210e+00 -5.913223028182983398e-01 9.000000000000000000e+00
-2.568611621856689009e+00 3.929738998413085938e+00 -5.764420032501220703e-01 1.000000000000000000e+01
-3.389262437820435014e+00 5.187236309051513672e+00 -5.421087145805358887e-01 8.000000000000000000e+00
-5.063024044036865234e+00 7.754823684692382812e+00 -4.853636622428894043e-01 1.000000000000000000e+00
-9.947233200073242188e+00 1.524738788604735973e+01 -3.177734017372130793e-01 3.000000000000000000e+00
-1.273430824279784934e+00 1.957917690277100053e+00 -6.258244514465332031e-01 1.700000000000000000e+01
-1.452720761299133079e+00 2.235285282135010210e+00 -6.154660582542419434e-01 1.300000000000000000e+01
-1.677057981491089089e+00 2.581456422805786133e+00 -5.983769893646240234e-01 1.200000000000000000e+01
-2.034993648529053178e+00 3.134813308715819868e+00 -5.919480323791503906e-01 9.000000000000000000e+00
-2.552717924118041992e+00 3.935350418090819868e+00 -5.759544968605041504e-01 1.000000000000000000e+01
-3.370050907135010210e+00 5.197363376617431641e+00 -5.419344305992126465e-01 6.000000000000000000e+00
-5.025063514709472656e+00 7.755687713623046875e+00 -4.843169450759888250e-01 1.000000000000000000e+00
-9.893949508666992188e+00 1.528201770782471058e+01 -3.177734017372130793e-01 3.000000000000000000e+00
-1.253308176994323953e+00 1.941031575202941895e+00 -6.190951466560363770e-01 1.600000000000000000e+01
-1.446356773376465066e+00 2.241727828979492188e+00 -6.159160137176513672e-01 1.400000000000000000e+01
-1.672744750976562944e+00 2.593603134155272993e+00 -5.999034643173217773e-01 1.200000000000000000e+01
-2.022446870803833008e+00 3.138223409652709961e+00 -5.913223028182983398e-01 9.000000000000000000e+00
-2.543952941894530806e+00 3.950469970703125000e+00 -5.769294500350952148e-01 1.000000000000000000e+01
-3.340934753417969194e+00 5.190082073211669922e+00 -5.400170087814331055e-01 8.000000000000000000e+00
-4.982029438018798828e+00 7.745432376861572266e+00 -4.826421737670897882e-01 1.000000000000000000e+00
-9.832406044006347656e+00 1.529792118072509943e+01 -3.174243569374083918e-01 3.000000000000000000e+00
-1.252778649330138938e+00 1.955154180526732954e+00 -6.222009658813476562e-01 1.600000000000000000e+01
-1.436421275138854980e+00 2.243480443954468218e+00 -6.150161623954772949e-01 1.400000000000000000e+01
