-5.794236660003662109e+00 -5.359963700175285339e-02 -7.114732265472412109e-01 1.100000000000000000e+01
-8.483244895935058594e+00 -7.699359953403472900e-02 -7.422183156013488770e-01 3.000000000000000000e+00
-1.662255477905273082e+01 -1.450628340244292935e-01 -8.711843490600585938e-01 5.000000000000000000e+00
-3.460551452636718750e+01 -2.899172604084014893e-01 -6.040626764297485352e-01 1.300000000000000000e+01
-2.546118497848511186e+00 -1.777554862201213837e-02 -6.822469830513000488e-01 2.900000000000000000e+01
-4.472215270996093750e+01 -3.044187426567078192e-01 7.806461453437805176e-01 4.800000000000000000e+01
-2.962019920349121094e+00 -1.964514702558517109e-02 -6.838511824607849121e-01 1.400000000000000000e+01
-4.504923629760742188e+01 -2.909193038940430243e-01 2.360979557037353960e+00 3.500000000000000000e+01
-3.539673805236815962e+00 -2.285853400826454163e-02 -6.880572438240051270e-01 1.200000000000000000e+01
-4.481393051147460938e+01 -2.815779447555541992e-01 3.920788288116455078e+00 5.400000000000000000e+01
-4.426736354827880859e+00 -2.704173140227794994e-02 -7.011392712593078613e-01 1.000000000000000000e+01
-5.786448001861572266e+00 -3.332791849970818260e-02 -7.104982733726501465e-01 1.100000000000000000e+01
-8.479476928710937500e+00 -4.735882580280303955e-02 -7.418696880340576172e-01 2.000000000000000000e+00
-3.460631561279296875e+01 -1.691197007894515991e-01 -6.040626764297485352e-01 1.300000000000000000e+01
-2.548096895217895952e+00 -8.894572034478187561e-03 -6.827646493911743164e-01 3.200000000000000000e+01
-4.471094512939453125e+01 -1.482676416635513028e-01 7.804366946220397949e-01 4.800000000000000000e+01
-2.962070465087891069e+00 -9.305649437010288239e-03 -6.838511824607849121e-01 1.300000000000000000e+01
-4.499804687500000000e+01 -1.335122883319855014e-01 2.358258247375487837e+00 3.400000000000000000e+01
-3.537768840789794922e+00 -1.049680169671774084e-02 -6.876755952835083008e-01 1.200000000000000000e+01
-4.483456420898438211e+01 -1.252020448446274081e-01 3.922531366348267046e+00 5.400000000000000000e+01
-4.424828529357910156e+00 -1.158420089632273067e-02 -7.008264064788818359e-01 1.000000000000000000e+01
-5.794469356536865234e+00 -1.314725726842880076e-02 -7.114732265472412109e-01 1.100000000000000000e+01
-8.463651657104492188e+00 -1.772625558078289032e-02 -7.404751777648925781e-01 3.000000000000000000e+00
-1.662316131591796875e+01 -2.901292033493518829e-02 -8.711843490600585938e-01 5.000000000000000000e+00
-3.457669830322266336e+01 -4.827821254730225303e-02 -6.035391092300415039e-01 2.000000000000000000e+01
-2.532657623291016069e+00 -4.652416342462522246e-16 -6.786235570907592773e-01 3.500000000000000000e+01
-4.473518371582031250e+01 7.807762827724218369e-03 7.808555960655212402e-01 4.800000000000000000e+01
-2.967931032180786133e+00 1.036003464832901955e-03 -6.852009296417236328e-01 1.200000000000000000e+01
-4.499824142456054688e+01 2.356102503836154938e-02 2.358258247375487837e+00 3.400000000000000000e+01
-3.527967691421508789e+00 1.847239676862955093e-03 -6.857675313949584961e-01 1.200000000000000000e+01
-4.483472824096679688e+01 3.130054846405982971e-02 3.922531366348267046e+00 5.400000000000000000e+01
-4.403112888336181641e+00 3.842441830784081979e-03 -6.973848342895507812e-01 1.000000000000000000e+01
-5.778599262237548828e+00 7.059894502162933350e-03 -7.095233201980590820e-01 1.100000000000000000e+01
-8.443737983703613281e+00 1.178968977183104082e-02 -7.387320995330810547e-01 2.000000000000000000e+00
-3.457465744018554688e+01 7.241310179233551025e-02 -6.035042405128479004e-01 1.300000000000000000e+01
-2.542301177978516069e+00 8.874341845512390137e-03 -6.812117099761962891e-01 4.000000000000000000e+01
-4.471488952636718750e+01 1.638893634080887118e-01 7.805064916610717773e-01 4.800000000000000000e+01
-2.964011907577515093e+00 1.138104498386383057e-02 -6.843010783195495605e-01 1.500000000000000000e+01
-4.498989486694335938e+01 1.806019842624664029e-01 2.357839584350585938e+00 3.400000000000000000e+01
-3.533829450607299805e+00 1.418577693402767008e-02 -6.869123578071594238e-01 1.200000000000000000e+01
-4.483434677124022727e+01 1.878027617931365967e-01 3.922531366348267046e+00 5.400000000000000000e+01
-4.397146701812744141e+00 1.918629370629787098e-02 -6.964462399482727051e-01 1.100000000000000000e+01
-5.778539657592773438e+00 2.723092772066593170e-02 -7.095233201980590820e-01 1.100000000000000000e+01
-8.431691169738769531e+00 4.120534285902976990e-02 -7.376862168312072754e-01 2.000000000000000000e+00
-3.454619979858397727e+01 1.929443776607512873e-01 -6.030155420303344727e-01 1.300000000000000000e+01
-2.549982070922852007e+00 1.780252158641814839e-02 -6.832822561264038086e-01 3.600000000000000000e+01
-4.473004150390625000e+01 3.200869262218474787e-01 7.807857394218444824e-01 4.800000000000000000e+01
-2.954210758209228960e+00 2.165588364005089153e-02 -6.820515990257263184e-01 1.400000000000000000e+01
-4.499697875976563211e+01 3.377048969268798828e-01 2.358258247375487837e+00 3.400000000000000000e+01
-3.539648056030272993e+00 2.656525932252407074e-02 -6.880572438240051270e-01 1.200000000000000000e+01
-4.486130905151367188e+01 3.445169031620026190e-01 3.924971818923950195e+00 5.400000000000000000e+01
-4.387176513671875000e+00 3.445751219987869263e-02 -6.948819160461425781e-01 9.000000000000000000e+00
-5.770469188690186435e+00 4.733649268746376038e-02 -7.085483670234680176e-01 1.100000000000000000e+01
-8.419542312622070312e+00 7.053703814744949341e-02 -7.366403341293334961e-01 2.000000000000000000e+00
-3.455331420898438211e+01 3.136045336723328192e-01 -6.031551957130432129e-01 2.000000000000000000e+01
-2.549904346466064009e+00 2.670351229608058929e-02 -6.832822561264038086e-01 3.100000000000000000e+01
-4.475264739990233664e+01 4.764774143695830744e-01 7.812046408653259277e-01 4.800000000000000000e+01
-2.954117059707642046e+00 3.196787089109420776e-02 -6.820515990257263184e-01 1.300000000000000000e+01
-4.499951934814453125e+01 4.948155283927916925e-01 2.358467578887939009e+00 3.400000000000000000e+01
-3.527754783630371094e+00 3.879125416278839111e-02 -6.857675313949584961e-01 1.200000000000000000e+01
-4.485983276367188211e+01 5.011100172996520996e-01 3.924971818923950195e+00 5.400000000000000000e+01
-4.398880958557128906e+00 4.990585893392562866e-02 -6.967591047286987305e-01 1.000000000000000000e+01
-5.762329101562500000e+00 6.738605350255966187e-02 -7.075734138488769531e-01 1.100000000000000000e+01
-8.427213668823242188e+00 1.000208780169487000e-01 -7.373375892639160156e-01 2.000000000000000000e+00
-1.642223548889160156e+01 2.006454467773438055e-01 -8.607171177864074707e-01 5.000000000000000000e+00
-3.452601242065429688e+01 4.338895380496978760e-01 -6.027014255523681641e-01 2.000000000000000000e+01
-2.545932292938231978e+00 3.555022925138474205e-02 -6.822469830513000488e-01 2.600000000000000000e+01
-4.472271728515625000e+01 6.322946548461914062e-01 7.807159423828125000e-01 4.800000000000000000e+01
-2.955935955047606978e+00 4.230735823512077332e-02 -6.825014948844909668e-01 1.300000000000000000e+01
-4.496956253051757812e+01 6.514850854873657227e-01 2.357002019882202148e+00 3.400000000000000000e+01
-3.513856649398804155e+00 5.090610682964324951e-02 -6.830962300300598145e-01 1.100000000000000000e+01
-4.482992172241210938e+01 6.572880744934082031e-01 3.922531366348267046e+00 5.400000000000000000e+01
-4.394729614257813388e+00 6.520190834999084473e-02 -6.961333751678466797e-01 1.000000000000000000e+01
-5.762058734893798828e+00 8.749992400407791138e-02 -7.075734138488769531e-01 1.100000000000000000e+01
-8.430797576904296875e+00 1.294979304075241089e-01 -7.376862168312072754e-01 3.000000000000000000e+00
-3.452628707885742188e+01 5.544372797012329102e-01 -6.027362942695617676e-01 2.000000000000000000e+01
-2.534203290939331055e+00 4.423468559980391762e-02 -6.791411638259887695e-01 2.400000000000000000e+01
-4.476022720336914062e+01 7.891072034835815430e-01 7.814140319824218750e-01 4.800000000000000000e+01
-2.961615562438964844e+00 5.272931233048439026e-02 -6.838511824607849121e-01 1.300000000000000000e+01
-4.492308044433593750e+01 8.076643347740173340e-01 2.354699373245238814e+00 3.400000000000000000e+01
-3.517583370208739790e+00 6.324202567338943481e-02 -6.838594675064086914e-01 1.100000000000000000e+01
-4.482735443115233664e+01 8.137696981430053711e-01 3.922531366348267046e+00 5.400000000000000000e+01
-4.382624626159667969e+00 8.032478392124176025e-02 -6.942561268806457520e-01 9.000000000000000000e+00
-5.763702869415283203e+00 1.076497957110404968e-01 -7.078171372413635254e-01 9.000000000000000000e+00
-8.418341636657714844e+00 1.587007939815520963e-01 -7.366403341293334961e-01 2.000000000000000000e+00
-3.449615097045897727e+01 6.744059324264526367e-01 -6.022476553916931152e-01 2.000000000000000000e+01
-2.530170679092406782e+00 5.299951881170272827e-02 -6.781058907508850098e-01 2.400000000000000000e+01
-4.472121047973632812e+01 9.445846080780029297e-01 7.807857394218444824e-01 4.800000000000000000e+01
-2.955568552017211914e+00 6.294248253107070923e-02 -6.825014948844909668e-01 1.500000000000000000e+01
-4.503979492187500000e+01 9.670426249504089355e-01 2.360979557037353960e+00 3.500000000000000000e+01
-3.517341136932373047e+00 7.552029937505722046e-02 -6.838594675064086914e-01 1.100000000000000000e+01
-4.482423782348632812e+01 9.702413678169250488e-01 3.922531366348267046e+00 5.400000000000000000e+01
-4.370468139648438388e+00 9.536395967006683350e-02 -6.923789381980895996e-01 1.000000000000000000e+01
-5.767261028289794922e+00 1.278562098741531095e-01 -7.083046436309814453e-01 9.000000000000000000e+00
-8.385866165161132812e+00 1.873732209205626886e-01 -7.338513731956481934e-01 2.000000000000000000e+00
-1.621955871582030895e+01 3.680732846260070801e-01 -8.502499461174011230e-01 4.000000000000000000e+00
-3.450758361816406250e+01 7.951382994651794434e-01 -6.024919748306274414e-01 2.000000000000000000e+01
-2.537695407867432085e+00 6.201993674039840698e-02 -6.801764369010925293e-01 2.100000000000000000e+01
-4.476961898803710938e+01 1.101964354515075906e+00 7.816932797431945801e-01 4.800000000000000000e+01
-2.945590257644652876e+00 7.301750034093856812e-02 -6.802520155906677246e-01 1.400000000000000000e+01
-4.503614425659179688e+01 1.124254941940308061e+00 2.360979557037353960e+00 3.500000000000000000e+01
-3.536682605743408203e+00 8.828759193420410156e-02 -6.876755952835083008e-01 1.200000000000000000e+01
-4.482057952880858664e+01 1.126701235771178977e+00 3.922531366348267046e+00 5.400000000000000000e+01
-4.370108604431152344e+00 1.106191575527191023e-01 -6.923789381980895996e-01 9.000000000000000000e+00
-5.772733211517333984e+00 1.481397002935410101e-01 -7.090358138084411621e-01 1.100000000000000000e+01
-8.397111892700195312e+00 2.169529795646666925e-01 -7.348971962928771973e-01 2.000000000000000000e+00
-1.621817588806151988e+01 4.246878921985626221e-01 -8.502499461174011230e-01 4.000000000000000000e+00
-3.448860549926757812e+01 9.151630401611328125e-01 -6.022127270698547363e-01 2.000000000000000000e+01
-2.558705568313599077e+00 7.147111743688583374e-02 -6.858704686164855957e-01 1.800000000000000000e+01
-4.474950790405272727e+01 1.257783293724060059e+00 7.814140319824218750e-01 4.800000000000000000e+01
-2.941421508789062944e+00 8.318889886140823364e-02 -6.793521642684936523e-01 1.300000000000000000e+01
-4.503194808959960938e+01 1.281453609466552956e+00 2.360979557037353960e+00 3.500000000000000000e+01
-3.508878469467163086e+00 9.985055029392242432e-02 -6.823329925537109375e-01 1.100000000000000000e+01
-4.483628845214843750e+01 1.283717632293700950e+00 3.924274444580078125e+00 5.400000000000000000e+01
-4.379569053649902344e+00 1.261574029922485074e-01 -6.939432621002197266e-01 1.000000000000000000e+01
-5.744401454925537109e+00 1.674794852733612061e-01 -7.056235074996948242e-01 1.100000000000000000e+01
-8.380371093750000000e+00 2.457957565784454068e-01 -7.335027456283569336e-01 2.000000000000000000e+00
-3.453517150878906250e+01 1.037045717239380105e+00 -6.030853390693664551e-01 1.300000000000000000e+01
-2.542993307113647017e+00 7.991678267717361450e-02 -6.817293763160705566e-01 2.000000000000000000e+01
-4.476483154296875000e+01 1.414612174034119096e+00 7.817630767822265625e-01 4.800000000000000000e+01
-2.945008754730225053e+00 9.357965737581253052e-02 -6.802520155906677246e-01 1.400000000000000000e+01
-4.502719879150391336e+01 1.438636541366576926e+00 2.360979557037353960e+00 3.500000000000000000e+01
-3.510470628738402876e+00 1.121609136462212025e-01 -6.827145814895629883e-01 1.200000000000000000e+01
-4.481162261962891336e+01 1.439577937126159890e+00 3.922531366348267046e+00 5.400000000000000000e+01
-4.365281105041503906e+00 1.409977823495864868e-01 -6.917532086372375488e-01 9.000000000000000000e+00
-5.739813804626464844e+00 1.874006092548370084e-01 -7.051360011100769043e-01 1.100000000000000000e+01
-8.361539840698242188e+00 2.744589447975159247e-01 -7.319339513778686523e-01 3.000000000000000000e+00
-3.447937774658203125e+01 1.155847668647765891e+00 -6.021778583526611328e-01 1.300000000000000000e+01
-2.538868188858031782e+00 8.777192980051040649e-02 -6.806941032409667969e-01 1.600000000000000000e+01
-4.475217437744141336e+01 1.554960131645203081e+00 7.816234827041625977e-01 4.800000000000000000e+01
-2.956385374069213867e+00 1.032392531633376936e-01 -6.829513907432556152e-01 1.400000000000000000e+01
-4.502273178100585938e+01 1.572228431701659934e+00 2.360979557037353960e+00 3.500000000000000000e+01
-3.506176948547362837e+00 1.230510920286179005e-01 -6.819513440132141113e-01 1.000000000000000000e+01
-4.484669876098632812e+01 1.581755042076111062e+00 3.926017522811890093e+00 5.400000000000000000e+01
-4.382584095001220703e+00 1.553407609462738037e-01 -6.945690512657165527e-01 1.000000000000000000e+01
-5.739196777343750000e+00 2.054318189620971957e-01 -7.051360011100769043e-01 1.100000000000000000e+01
-8.344707489013671875e+00 3.001531362533568781e-01 -7.305394411087036133e-01 3.000000000000000000e+00
-3.445958709716796875e+01 1.263575792312622070e+00 -6.018986105918884277e-01 1.300000000000000000e+01
-2.532754898071289062e+00 9.641323983669281006e-02 -6.791411638259887695e-01 1.400000000000000000e+01
-4.474647140502929688e+01 1.711164832115172896e+00 7.816234827041625977e-01 4.800000000000000000e+01
-2.942375898361206055e+00 1.130346804857254028e-01 -6.798020601272583008e-01 1.300000000000000000e+01
-4.501666641235352273e+01 1.737234473228455034e+00 2.360979557037353960e+00 3.500000000000000000e+01
-3.507687807083129883e+00 1.353648900985718051e-01 -6.823329925537109375e-01 1.200000000000000000e+01
-4.482896041870117188e+01 1.737826466560363992e+00 3.924971818923950195e+00 5.400000000000000000e+01
-4.342537403106688565e+00 1.691006124019623080e-01 -6.883116364479064941e-01 1.000000000000000000e+01
-5.738444328308104581e+00 2.254640907049179077e-01 -7.051360011100769043e-01 1.100000000000000000e+01
-8.353563308715820312e+00 3.296726346015930176e-01 -7.314109802246093750e-01 2.000000000000000000e+00
-3.446295928955078125e+01 1.384175419807434082e+00 -6.020382046699523926e-01 1.300000000000000000e+01
-2.543984174728393999e+00 1.057349592447281023e-01 -6.822469830513000488e-01 1.600000000000000000e+01
-4.476420211791992188e+01 1.868349432945251021e+00 7.820423245429992676e-01 4.800000000000000000e+01
-2.938069343566894975e+00 1.231415942311287065e-01 -6.789022684097290039e-01 1.200000000000000000e+01
-4.501065826416016336e+01 1.886505603790282981e+00 2.360979557037353960e+00 3.500000000000000000e+01
-3.515040159225463867e+00 1.479384005069732944e-01 -6.838594675064086914e-01 1.300000000000000000e+01
-4.482262039184570312e+01 1.894298195838928001e+00 3.924971818923950195e+00 5.400000000000000000e+01
-4.353762626647949219e+00 1.847603917121886929e-01 -6.901888847351074219e-01 1.000000000000000000e+01
-5.737622737884520596e+00 2.454936355352402011e-01 -7.051360011100769043e-01 1.100000000000000000e+01
-8.352361679077148438e+00 3.588300049304962158e-01 -7.314109802246093750e-01 3.000000000000000000e+00
-3.442995071411132812e+01 1.503244042396544966e+00 -6.015495657920837402e-01 2.000000000000000000e+01
-2.560968637466431108e+00 1.153971254825592041e-01 -6.869057416915893555e-01 1.800000000000000000e+01
-4.476939392089843750e+01 2.025136470794678178e+00 7.822517752647399902e-01 4.800000000000000000e+01
-2.935674905776977983e+00 1.333082169294357022e-01 -6.784523725509643555e-01 1.100000000000000000e+01
-4.500379943847656250e+01 2.043610572814940962e+00 2.360979557037353960e+00 3.500000000000000000e+01
-3.502734899520874023e+00 1.596708744764328003e-01 -6.815697550773620605e-01 1.100000000000000000e+01
-4.481573486328125000e+01 2.050746917724608931e+00 3.924971818923950195e+00 5.400000000000000000e+01
-4.353090763092041016e+00 1.999567300081253052e-01 -6.901888847351074219e-01 1.000000000000000000e+01
-5.705003261566162109e+00 2.640517055988311768e-01 -7.012361884117126465e-01 1.100000000000000000e+01
-8.323194503784179688e+00 3.866884708404541016e-01 -7.289706468582153320e-01 2.000000000000000000e+00
-3.438454437255858664e+01 1.621533870697021040e+00 -6.008514761924743652e-01 1.300000000000000000e+01
-2.550858974456787109e+00 1.247578114271163940e-01 -6.843175292015075684e-01 2.400000000000000000e+01
-4.474131393432617188e+01 2.196043014526367188e+00 7.819027304649353027e-01 4.800000000000000000e+01
-2.935141324996947798e+00 1.445793956518172940e-01 -6.784523725509643555e-01 1.200000000000000000e+01
-3.498174190521239790e+00 1.729253381490707120e-01 -6.808065176010131836e-01 1.100000000000000000e+01
-4.481946945190429688e+01 2.223403692245482954e+00 3.926017522811890093e+00 5.400000000000000000e+01
-4.352291107177734375e+00 2.166698873043060025e-01 -6.901888847351074219e-01 1.000000000000000000e+01
-5.703947067260742188e+00 2.859553396701812744e-01 -7.012361884117126465e-01 1.100000000000000000e+01
-8.293789863586425781e+00 4.172428250312805176e-01 -7.265302538871765137e-01 3.000000000000000000e+00
-3.435409927368164062e+01 1.752326369285583052e+00 -6.004325747489929199e-01 1.300000000000000000e+01
-2.546549320220946822e+00 1.334590017795563022e-01 -6.832822561264038086e-01 2.100000000000000000e+01
-4.475334548950195312e+01 2.353255987167357954e+00 7.822517752647399902e-01 4.800000000000000000e+01
-2.936564922332764116e+00 1.549267321825026911e-01 -6.789022684097290039e-01 1.200000000000000000e+01
-3.493628263473511186e+00 1.849276423454284946e-01 -6.800432801246643066e-01 1.100000000000000000e+01
-4.480745697021483664e+01 2.379627943038939986e+00 3.925668954849243164e+00 5.400000000000000000e+01
-4.331782341003417969e+00 2.308098524808883945e-01 -6.870601773262023926e-01 1.000000000000000000e+01
-5.714807510375976562e+00 3.065019547939301092e-01 -7.026986479759216309e-01 1.100000000000000000e+01
-8.300241470336914062e+00 4.466192424297332764e-01 -7.272275090217590332e-01 2.000000000000000000e+00
-1.590084457397460938e+01 8.611589670181274414e-01 -8.345491290092468262e-01 4.000000000000000000e+00
-3.434777069091796875e+01 1.872233867645263894e+00 -6.004325747489929199e-01 1.900000000000000000e+01
-2.549975395202637163e+00 1.416728794574738104e-01 -6.843175292015075684e-01 2.800000000000000000e+01
-4.474573135375977273e+01 2.493840932846068892e+00 7.822517752647399902e-01 4.800000000000000000e+01
-2.934118032455443892e+00 1.640426665544509888e-01 -6.784523725509643555e-01 1.200000000000000000e+01
-3.500870704650878906e+00 1.963420063257217130e-01 -6.815697550773620605e-01 1.100000000000000000e+01
-4.484750366210938211e+01 2.523068666458129883e+00 3.929852485656737837e+00 5.400000000000000000e+01
-4.327091693878173828e+00 2.441947758197783869e-01 -6.864344477653503418e-01 1.000000000000000000e+01
-5.709852695465087891e+00 3.242289423942565918e-01 -7.022111415863037109e-01 1.100000000000000000e+01
-8.235143661499023438e+00 4.690673351287841797e-01 -7.216495275497436523e-01 2.000000000000000000e+00
-1.580234909057617010e+01 9.056234359741210938e-01 -8.295249342918395996e-01 4.000000000000000000e+00
-3.433972549438477273e+01 1.980015993118285911e+00 -6.003977060317993164e-01 1.900000000000000000e+01
-2.551393747329711914e+00 1.506869941949844083e-01 -6.848351955413818359e-01 2.300000000000000000e+01
-4.473675537109375000e+01 2.650017499923706055e+00 7.822517752647399902e-01 4.800000000000000000e+01
-2.921855688095093218e+00 1.735902130603790006e-01 -6.757529377937316895e-01 1.200000000000000000e+01
-3.508003234863280806e+00 2.090282291173934937e-01 -6.830962300300598145e-01 1.100000000000000000e+01
-4.480660247802733664e+01 2.677698612213135210e+00 3.927063465118408203e+00 5.400000000000000000e+01
-4.334100246429443359e+00 2.597703933715819757e-01 -6.876859068870544434e-01 1.000000000000000000e+01
-5.675000667572020596e+00 3.421272933483123779e-01 -6.980676054954528809e-01 1.000000000000000000e+01
-8.263287544250488281e+00 4.996141493320465088e-01 -7.242642045021057129e-01 3.000000000000000000e+00
-3.434258270263671875e+01 2.100482463836669922e+00 -6.005722284317016602e-01 1.300000000000000000e+01
-2.550852298736571822e+00 1.595920920372009000e-01 -6.848351955413818359e-01 1.900000000000000000e+01
-4.475517272949218750e+01 2.807914733886719194e+00 7.827404141426086426e-01 4.800000000000000000e+01
-2.925121784210205078e+00 1.840330511331557950e-01 -6.766527891159057617e-01 1.200000000000000000e+01
-3.491577386856079102e+00 2.202832400798797885e-01 -6.800432801246643066e-01 1.200000000000000000e+01
-4.486458587646483664e+01 2.838363647460937944e+00 3.932990074157714844e+00 5.400000000000000000e+01
-4.329224109649658203e+00 2.746475040912628174e-01 -6.870601773262023926e-01 1.000000000000000000e+01
-5.671791076660156250e+00 3.618082702159882147e-01 -6.978238821029663086e-01 1.000000000000000000e+01
-8.271434783935546875e+00 5.290912985801696777e-01 -7.251358032226562500e-01 2.000000000000000000e+00
-3.432506561279296875e+01 2.219702243804932085e+00 -6.003977060317993164e-01 1.900000000000000000e+01
-2.529075384140015093e+00 1.670943200588226041e-01 -6.791411638259887695e-01 1.400000000000000000e+01
-4.474908828735352273e+01 2.964386701583861861e+00 7.828102111816406250e-01 4.800000000000000000e+01
-2.926405906677246094e+00 1.943716704845427912e-01 -6.771026849746704102e-01 1.200000000000000000e+01
-3.482951402664185014e+00 2.319479584693908969e-01 -6.785168051719665527e-01 1.200000000000000000e+01
-4.483452606201171875e+01 2.993625640869141069e+00 3.931246995925902876e+00 5.400000000000000000e+01
-4.328238964080811435e+00 2.897576689720153809e-01 -6.870601773262023926e-01 1.000000000000000000e+01
-5.682377338409423828e+00 3.824040591716765802e-01 -6.992862820625305176e-01 1.200000000000000000e+01
-8.245683670043945312e+00 5.563512444496154785e-01 -7.230440378189086914e-01 2.000000000000000000e+00
-1.572026252746582031e+01 1.066187262535094993e+00 -8.257567286491394043e-01 4.000000000000000000e+00
-3.431710815429688211e+01 2.339505672454833984e+00 -6.003977060317993164e-01 1.900000000000000000e+01
-2.518840789794921875e+00 1.752509921789169034e-01 -6.765530109405517578e-01 1.400000000000000000e+01
-4.473447799682617188e+01 3.120293855667113814e+00 7.827404141426086426e-01 4.800000000000000000e+01
-2.931541681289672852e+00 2.049933522939682007e-01 -6.784523725509643555e-01 1.200000000000000000e+01
-3.482120513916016069e+00 2.441043108701705933e-01 -6.785168051719665527e-01 1.100000000000000000e+01
-4.482380294799804688e+01 3.150109052658081055e+00 3.931246995925902876e+00 5.400000000000000000e+01
-4.313407897949218750e+00 3.038924634456635077e-01 -6.848700642585754395e-01 9.000000000000000000e+00
-5.677047252655029297e+00 4.019565284252166748e-01 -6.987988352775573730e-01 1.000000000000000000e+01
-8.227791786193847656e+00 5.840021371841430664e-01 -7.216495275497436523e-01 2.000000000000000000e+00
-3.431671142578125000e+01 2.459852457046508789e+00 -6.005373001098632812e-01 1.900000000000000000e+01
-2.522067070007324219e+00 1.843239367008208951e-01 -6.775882840156555176e-01 1.400000000000000000e+01
-4.475123596191406250e+01 3.278472661972045898e+00 7.832291126251220703e-01 4.800000000000000000e+01
-2.917203664779663086e+00 2.142260372638702115e-01 -6.753030419349670410e-01 1.300000000000000000e+01
-3.492995023727416992e+00 2.571224570274353027e-01 -6.808065176010131836e-01 1.100000000000000000e+01
-4.483638000488281250e+01 3.308313369750977007e+00 3.933338642120360884e+00 5.400000000000000000e+01
-4.294590950012207031e+00 3.176358938217163086e-01 -6.820542812347412109e-01 1.000000000000000000e+01
-4.496796035766602273e+01 3.333805084228516069e+00 5.536524295806884766e+00 3.800000000000000000e+01
-5.683528423309326172e+00 4.223591089248657227e-01 -6.997737884521484375e-01 1.000000000000000000e+01
-8.209808349609375000e+00 6.115349531173706055e-01 -7.202550768852233887e-01 2.000000000000000000e+00
-3.430990982055664062e+01 2.579774856567382812e+00 -6.005722284317016602e-01 1.300000000000000000e+01
-2.519448518753052202e+00 1.934186667203902921e-01 -6.770706176757812500e-01 1.300000000000000000e+01
-4.473493194580078125e+01 3.442165374755858931e+00 7.831593155860900879e-01 4.800000000000000000e+01
-2.922227859497069868e+00 2.253662198781966886e-01 -6.766527891159057617e-01 1.400000000000000000e+01
-4.495602035522460938e+01 3.474962949752808061e+00 2.363073110580443892e+00 3.500000000000000000e+01
-3.488114356994628906e+00 2.696205973625183105e-01 -6.800432801246643066e-01 1.100000000000000000e+01
-4.483189773559570312e+01 3.473240375518798828e+00 3.934036016464232954e+00 5.400000000000000000e+01
-4.309153079986572266e+00 3.345976173877716064e-01 -6.845571994781494141e-01 1.000000000000000000e+01
-4.495544052124022727e+01 3.498598575592041016e+00 5.536524295806884766e+00 3.800000000000000000e+01
-5.654234886169433594e+00 4.410263001918792725e-01 -6.963614225387573242e-01 1.000000000000000000e+01
-8.195593833923339844e+00 6.406896114349365234e-01 -7.192091941833496094e-01 3.000000000000000000e+00
-1.548103237152099965e+01 1.215664982795715110e+00 -8.138241171836853027e-01 4.000000000000000000e+00
-3.435205459594727273e+01 2.709598064422606978e+00 -6.014797091484069824e-01 2.000000000000000000e+01
-2.528386354446411133e+00 2.029849886894226074e-01 -6.796588301658630371e-01 1.400000000000000000e+01
-4.470270919799804688e+01 3.596694707870482954e+00 7.828102111816406250e-01 4.800000000000000000e+01
-2.925308227539062944e+00 2.358785867691040039e-01 -6.775525808334350586e-01 1.300000000000000000e+01
-3.471497058868408203e+00 2.805296778678894043e-01 -6.769903302192687988e-01 1.100000000000000000e+01
-4.488702011108397727e+01 3.635179758071898970e+00 3.939962625503540039e+00 5.400000000000000000e+01
-4.300083637237548828e+00 3.489981293678284247e-01 -6.833057403564453125e-01 1.000000000000000000e+01
-4.486381149291992188e+01 3.649063825607299805e+00 5.526774883270263672e+00 3.800000000000000000e+01
-5.648704051971436435e+00 4.604380428791046143e-01 -6.958739757537841797e-01 1.000000000000000000e+01
-8.201251029968261719e+00 6.699425578117370605e-01 -7.199064493179321289e-01 3.000000000000000000e+00
-3.434836578369141336e+01 2.829985141754149947e+00 -6.015844345092773438e-01 2.000000000000000000e+01
-2.527662277221680132e+00 2.118094712495804111e-01 -6.796588301658630371e-01 1.300000000000000000e+01
-4.470980834960938211e+01 3.754387617111206055e+00 7.831593155860900879e-01 4.800000000000000000e+01
-2.920583248138428178e+00 2.457615584135056097e-01 -6.766527891159057617e-01 1.500000000000000000e+01
-3.474409103393555132e+00 2.929756641387938898e-01 -6.777535676956176758e-01 1.200000000000000000e+01
-4.487405776977539062e+01 3.791842699050902876e+00 3.939962625503540039e+00 5.400000000000000000e+01
-4.300807476043701172e+00 3.641727566719055176e-01 -6.836186051368713379e-01 1.000000000000000000e+01
-4.485871124267578125e+01 3.806316852569580078e+00 5.527749538421630859e+00 3.800000000000000000e+01
-5.662886142730712891e+00 4.814983308315277100e-01 -6.978238821029663086e-01 1.000000000000000000e+01
-8.190921783447265625e+00 6.978895664215087891e-01 -7.192091941833496094e-01 3.000000000000000000e+00
-1.537266826629639027e+01 1.315199851989746094e+00 -8.085905313491821289e-01 4.000000000000000000e+00
-3.428846740722656250e+01 2.945587158203125000e+00 -6.007118225097656250e-01 1.900000000000000000e+01
-2.505737781524658203e+00 2.187829762697220126e-01 -6.739647984504699707e-01 1.300000000000000000e+01
-4.471635437011718750e+01 3.912173986434936968e+00 7.835083603858947754e-01 4.800000000000000000e+01
-2.925531387329102007e+00 2.564653456211090088e-01 -6.780024766921997070e-01 1.400000000000000000e+01
-3.465542554855347124e+00 3.044146895408629816e-01 -6.762270927429199219e-01 1.100000000000000000e+01
-4.486054992675781250e+01 3.948459148406981978e+00 3.939962625503540039e+00 5.400000000000000000e+01
-4.299510002136229581e+00 3.791831731796265204e-01 -6.836186051368713379e-01 9.000000000000000000e+00
-4.486097335815429688e+01 3.964277744293212891e+00 5.529699802398681641e+00 3.800000000000000000e+01
-5.625578403472900391e+00 4.981110692024230957e-01 -6.934365630149841309e-01 1.000000000000000000e+01
-8.158666610717773438e+00 7.238358855247497559e-01 -7.165945172309875488e-01 2.000000000000000000e+00
-1.536798381805419922e+01 1.368852496147155984e+00 -8.085905313491821289e-01 4.000000000000000000e+00
-3.427996826171875000e+01 3.065436363220214844e+00 -6.007467508316040039e-01 1.900000000000000000e+01
-2.512654542922974077e+00 2.282273024320601862e-01 -6.760353446006774902e-01 1.400000000000000000e+01
-4.472233963012695312e+01 4.070051670074462891e+00 7.838574051856994629e-01 4.800000000000000000e+01
-2.920737028121947798e+00 2.663218975067139227e-01 -6.771026849746704102e-01 1.400000000000000000e+01
-3.474234342575072798e+00 3.174028992652893066e-01 -6.781351566314697266e-01 1.100000000000000000e+01
-4.482268142700195312e+01 4.102848529815673828e+00 3.937870740890502930e+00 5.400000000000000000e+01
-4.288324356079101562e+00 3.932869136333466131e-01 -6.820542812347412109e-01 1.000000000000000000e+01
-4.488639450073242188e+01 4.124480247497558594e+00 5.534574508666992188e+00 3.800000000000000000e+01
-5.647526264190673828e+00 5.199287533760070801e-01 -6.963614225387573242e-01 1.000000000000000000e+01
-8.140218734741210938e+00 7.508465647697448730e-01 -7.152000069618225098e-01 3.000000000000000000e+00
-1.526367473602294922e+01 1.413281321525573953e+00 -8.033569455146789551e-01 4.000000000000000000e+00
-3.432082748413085938e+01 3.189888715744018999e+00 -6.016542315483093262e-01 2.000000000000000000e+01
-2.517612457275391069e+00 2.375411242246628085e-01 -6.775882840156555176e-01 1.500000000000000000e+01
-4.473573303222656250e+01 4.228771686553955078e+00 7.843460440635681152e-01 4.800000000000000000e+01
-2.904268980026245117e+00 2.750456929206848145e-01 -6.735034584999084473e-01 1.400000000000000000e+01
-3.473105192184447798e+00 3.295283317565917969e-01 -6.781351566314697266e-01 1.100000000000000000e+01
-4.483189010620117188e+01 4.261546134948729581e+00 3.939962625503540039e+00 5.400000000000000000e+01
-4.286925792694091797e+00 4.082535505294799805e-01 -6.820542812347412109e-01 1.000000000000000000e+01
-4.483615493774414062e+01 4.277744293212890625e+00 5.530187129974365234e+00 3.800000000000000000e+01
-5.633820056915283203e+00 5.385058522224426270e-01 -6.948990225791931152e-01 1.000000000000000000e+01
-8.135564804077148438e+00 7.790666818618774414e-01 -7.150257229804992676e-01 2.000000000000000000e+00
-1.515924358367919922e+01 1.456998825073241965e+00 -7.981233596801757812e-01 4.000000000000000000e+00
-3.431943893432617188e+01 3.310631513595581055e+00 -6.018287539482116699e-01 2.000000000000000000e+01
-2.518690586090087891e+00 2.465159595012665072e-01 -6.781058907508850098e-01 1.500000000000000000e+01
-4.475651931762695312e+01 4.388415336608886719e+00 7.849743366241455078e-01 4.900000000000000000e+01
-2.903291225433350053e+00 2.851817905902863104e-01 -6.735034584999084473e-01 1.400000000000000000e+01
-3.456303119659423828e+00 3.401116132736206055e-01 -6.750822067260742188e-01 1.100000000000000000e+01
-4.484846496582031250e+01 4.421140193939208984e+00 3.942751407623291016e+00 5.400000000000000000e+01
-4.285474300384520596e+00 4.232152402400969904e-01 -6.820542812347412109e-01 1.000000000000000000e+01
-4.487231063842772727e+01 4.439306735992431641e+00 5.536524295806884766e+00 3.800000000000000000e+01
-5.616102695465087891e+00 5.566020011901855469e-01 -6.929491162300109863e-01 1.000000000000000000e+01
-8.116934776306152344e+00 8.058856129646301270e-01 -7.136312127113342285e-01 2.000000000000000000e+00
-1.515406513214110973e+01 1.509905576705933061e+00 -7.981233596801757812e-01 4.000000000000000000e+00
-3.422808074951171875e+01 3.422450304031372070e+00 -6.004325747489929199e-01 1.300000000000000000e+01
-2.510126829147338867e+00 2.545267641544342041e-01 -6.760353446006774902e-01 1.200000000000000000e+01
-4.477276229858397727e+01 4.547851085662841797e+00 7.855328321456909180e-01 4.900000000000000000e+01
-2.906155586242675781e+00 2.957089841365814209e-01 -6.744032502174377441e-01 1.300000000000000000e+01
-3.451188802719116211e+00 3.517761230468750000e-01 -6.743189692497253418e-01 1.100000000000000000e+01
-4.490015029907227273e+01 4.584544658660888672e+00 3.948678016662598100e+00 5.400000000000000000e+01
-4.283970832824707031e+00 4.381717443466187079e-01 -6.820542812347412109e-01 1.000000000000000000e+01
-4.486444091796875000e+01 4.596722602844238281e+00 5.537499427795410156e+00 3.800000000000000000e+01
-5.602277278900145596e+00 5.749864578247070312e-01 -6.914866566658020020e-01 1.000000000000000000e+01
-8.114071846008300781e+00 8.342140913009643555e-01 -7.136312127113342285e-01 2.000000000000000000e+00
-1.514870166778563920e+01 1.562793970108032005e+00 -7.981233596801757812e-01 4.000000000000000000e+00
-3.427559661865233664e+01 3.548084735870360884e+00 -6.014797091484069824e-01 6.000000000000000000e+00
-2.505380392074584961e+00 2.628839910030364990e-01 -6.750000715255737305e-01 1.500000000000000000e+01
-4.476456832885742188e+01 4.704945564270020419e+00 7.856724262237548828e-01 4.900000000000000000e+01
-2.905105590820312944e+00 3.058515489101409912e-01 -6.744032502174377441e-01 1.400000000000000000e+01
-3.444082498550415039e+00 3.632031977176666260e-01 -6.731741428375244141e-01 1.000000000000000000e+01
-4.485613632202147727e+01 4.738317012786865234e+00 3.946237802505493164e+00 5.400000000000000000e+01
-4.274557590484619141e+00 4.522915184497833252e-01 -6.808027625083923340e-01 1.000000000000000000e+01
-4.488365554809570312e+01 4.757066726684570312e+00 5.541886329650878906e+00 7.600000000000000000e+01
-5.604184150695800781e+00 5.949576497077941895e-01 -6.919741034507751465e-01 1.000000000000000000e+01
-8.087335586547851562e+00 8.600042462348937988e-01 -7.115395069122314453e-01 2.000000000000000000e+00
-3.427095794677733664e+01 3.668558597564696822e+00 -6.016193628311157227e-01 1.300000000000000000e+01
-2.508288621902465820e+00 2.720444202423096258e-01 -6.760353446006774902e-01 1.500000000000000000e+01
-4.477172851562500000e+01 4.863766193389892578e+00 7.860912680625915527e-01 4.900000000000000000e+01
-2.902083158493041992e+00 3.157795965671538752e-01 -6.739533543586730957e-01 1.300000000000000000e+01
-4.498352432250977273e+01 4.902662754058837891e+00 2.371446847915648970e+00 3.500000000000000000e+01
-3.464262247085570845e+00 3.775629103183745783e-01 -6.773719191551208496e-01 1.100000000000000000e+01
-4.483139801025391336e+01 4.894000530242919922e+00 3.945540428161621094e+00 5.400000000000000000e+01
-4.267061710357666016e+00 4.665656089782714844e-01 -6.798641681671142578e-01 9.000000000000000000e+00
-4.487861633300781250e+01 4.915007591247558594e+00 5.543348789215087891e+00 7.600000000000000000e+01
-5.606019973754882812e+00 6.149492263793945312e-01 -6.924616098403930664e-01 1.000000000000000000e+01
-8.082304000854492188e+00 8.880114555358886719e-01 -7.113651633262634277e-01 2.000000000000000000e+00
-3.420626449584960938e+01 3.782449960708618164e+00 -6.007118225097656250e-01 1.300000000000000000e+01
-2.509341478347777876e+00 2.801374197006226141e-01 -6.765530109405517578e-01 1.400000000000000000e+01
-4.476417541503906250e+01 5.005285263061523438e+00 7.862309217453002930e-01 4.900000000000000000e+01
-2.895266771316527876e+00 3.242445290088654120e-01 -6.726036667823791504e-01 1.400000000000000000e+01
-3.463059186935424805e+00 3.884443044662476141e-01 -6.773719191551208496e-01 1.200000000000000000e+01
-4.487916183471679688e+01 5.041935920715332031e+00 3.951118469238280806e+00 5.400000000000000000e+01
-4.265574932098388672e+00 4.799686670303344727e-01 -6.798641681671142578e-01 9.000000000000000000e+00
-4.485900878906250000e+01 5.055529117584229404e+00 5.542861461639404297e+00 7.600000000000000000e+01
-5.604060173034667969e+00 6.325579881668090820e-01 -6.924616098403930664e-01 1.000000000000000000e+01
-8.095313072204589844e+00 9.151889085769653320e-01 -7.127596735954284668e-01 2.000000000000000000e+00
-3.421408462524414062e+01 3.892153501510620117e+00 -6.010608673095703125e-01 1.300000000000000000e+01
-2.510267496109008789e+00 2.891159653663635254e-01 -6.770706176757812500e-01 1.400000000000000000e+01
-4.480602645874022727e+01 5.168385028839111328e+00 7.872780561447143555e-01 4.900000000000000000e+01
-2.899924993515015093e+00 3.350198566913604736e-01 -6.739533543586730957e-01 1.300000000000000000e+01
-3.438279151916503906e+00 3.978224694728850763e-01 -6.727924942970275879e-01 1.200000000000000000e+01
-4.490483093261718750e+01 5.203608512878417969e+00 3.954953193664550781e+00 5.400000000000000000e+01
-4.263873577117919922e+00 4.948553740978240967e-01 -6.798641681671142578e-01 9.000000000000000000e+00
-4.486474990844727273e+01 5.214835643768311435e+00 5.545786380767822266e+00 7.700000000000000000e+01
-5.566326141357421875e+00 6.479842662811279297e-01 -6.880742907524108887e-01 1.000000000000000000e+01
-8.060404777526855469e+00 9.397495985031127930e-01 -7.099706530570983887e-01 2.000000000000000000e+00
-1.492764949798583984e+01 1.745672345161437988e+00 -7.876561284065246582e-01 4.000000000000000000e+00
-3.417446899414063211e+01 4.008530616760253906e+00 -6.006070971488952637e-01 1.900000000000000000e+01
-2.505354404449462891e+00 2.978584766387938898e-01 -6.760353446006774902e-01 1.500000000000000000e+01
-4.477089691162108664e+01 5.330681324005126953e+00 7.869988083839416504e-01 4.900000000000000000e+01
-2.896742582321166992e+00 3.454156219959259033e-01 -6.735034584999084473e-01 1.400000000000000000e+01
-3.434848546981811968e+00 4.101889133453369141e-01 -6.724109053611755371e-01 1.200000000000000000e+01
-4.491315078735352273e+01 5.371470451354979581e+00 3.957393646240233931e+00 5.400000000000000000e+01
-4.271838188171386719e+00 5.116545557975769043e-01 -6.814285516738891602e-01 1.000000000000000000e+01
-4.486898803710938211e+01 5.382075309753417969e+00 5.548711299896240234e+00 7.700000000000000000e+01
-5.585593700408936435e+00 6.709859371185302734e-01 -6.907554268836975098e-01 8.000000000000000000e+00
-8.064819335937500000e+00 9.702380299568176270e-01 -7.106679081916809082e-01 2.000000000000000000e+00
-3.413969421386718750e+01 4.131357192993164062e+00 -6.002580523490905762e-01 1.900000000000000000e+01
-2.496629238128662109e+00 3.056629300117493231e-01 -6.739647984504699707e-01 1.500000000000000000e+01
-4.481156158447266336e+01 5.494229316711425781e+00 7.880459427833557129e-01 4.900000000000000000e+01
-2.901321887969971147e+00 3.562375307083129883e-01 -6.748531460762023926e-01 1.300000000000000000e+01
-3.435344457626343218e+00 4.224158823490142822e-01 -6.727924942970275879e-01 1.100000000000000000e+01
-4.487039947509766336e+01 5.525291919708251953e+00 3.955302000045775923e+00 5.400000000000000000e+01
-4.258263111114501953e+00 5.251123309135437012e-01 -6.795513033866882324e-01 1.000000000000000000e+01
-4.489130020141602273e+01 5.543773651123046875e+00 5.553829669952392578e+00 7.700000000000000000e+01
-5.581247806549072266e+00 6.902355551719665527e-01 -6.905117034912109375e-01 1.000000000000000000e+01
-8.023815155029296875e+00 9.937308430671691895e-01 -7.073560357093811035e-01 2.000000000000000000e+00
-3.412109756469727273e+01 4.250007152557373047e+00 -6.001882553100585938e-01 1.900000000000000000e+01
-2.495547056198120117e+00 3.143759369850159247e-01 -6.739647984504699707e-01 1.500000000000000000e+01
-4.477227020263671875e+01 5.648114681243895596e+00 7.876968979835510254e-01 4.900000000000000000e+01
-2.903927326202393022e+00 3.668513298034667969e-01 -6.757529377937316895e-01 1.200000000000000000e+01
-3.433848857879639116e+00 4.344049096107482910e-01 -6.727924942970275879e-01 1.200000000000000000e+01
-4.483502578735352273e+01 5.679881572723388672e+00 3.953907489776610884e+00 5.400000000000000000e+01
-4.238767147064208984e+00 5.377357602119445801e-01 -6.767355203628540039e-01 9.000000000000000000e+00
-4.486576461791992188e+01 5.699689388275145596e+00 5.553098678588867188e+00 7.700000000000000000e+01
-5.574865818023681641e+00 7.092124819755554199e-01 -6.900241971015930176e-01 1.000000000000000000e+01
-8.016344070434570312e+00 1.021229624748229980e+00 -7.070074081420898438e-01 2.000000000000000000e+00
-1.471010303497313920e+01 1.879188776016234907e+00 -7.771889567375183105e-01 4.000000000000000000e+00
-3.411200332641602273e+01 4.369848728179931641e+00 -6.002929806709289551e-01 1.300000000000000000e+01
-2.502097845077515093e+00 3.240776956081389826e-01 -6.760353446006774902e-01 1.500000000000000000e+01
-4.480780792236328125e+01 5.811566352844238281e+00 7.886742353439331055e-01 4.900000000000000000e+01
-2.885236501693726030e+00 3.747268021106719971e-01 -6.717038750648498535e-01 1.300000000000000000e+01
-3.438152313232421875e+00 4.471482336521149237e-01 -6.739373803138732910e-01 1.200000000000000000e+01
-4.485443878173828125e+01 5.841496467590332031e+00 3.957393646240233931e+00 5.400000000000000000e+01
-4.244699478149414062e+00 5.535503625869750977e-01 -6.779869794845581055e-01 9.000000000000000000e+00
-4.484756469726563211e+01 5.856522560119628906e+00 5.553342342376708984e+00 7.700000000000000000e+01
-5.552672863006591797e+00 7.260941863059997559e-01 -6.875868439674377441e-01 1.000000000000000000e+01
-8.000877380371093750e+00 1.047653555870055930e+00 -7.059615254402160645e-01 2.000000000000000000e+00
-1.470345401763916016e+01 1.930525183677672896e+00 -7.771889567375183105e-01 4.000000000000000000e+00
-3.405094528198242188e+01 4.482892036437988281e+00 -5.994901657104492188e-01 1.900000000000000000e+01
-2.499036550521851030e+00 3.325548470020294189e-01 -6.755176782608032227e-01 1.500000000000000000e+01
-4.479914474487304688e+01 5.969523906707763672e+00 7.888836860656738281e-01 4.900000000000000000e+01
-2.883910894393920898e+00 3.847958743572235107e-01 -6.717038750648498535e-01 1.300000000000000000e+01
-3.430732488632202148e+00 4.583669006824492853e-01 -6.727924942970275879e-01 1.200000000000000000e+01
-4.491671752929688211e+01 6.009128570556640625e+00 3.964714765548706055e+00 5.400000000000000000e+01
-4.246656894683837891e+00 5.688883066177368164e-01 -6.786127090454101562e-01 9.000000000000000000e+00
-4.486423110961914062e+01 6.018048286437988281e+00 5.557973384857177734e+00 7.700000000000000000e+01
-5.542234897613525391e+00 7.444151639938354492e-01 -6.866118907928466797e-01 1.200000000000000000e+01
-8.005069732666015625e+00 1.076637744903564009e+00 -7.066587805747985840e-01 2.000000000000000000e+00
-1.469662570953368963e+01 1.981838107109070046e+00 -7.771889567375183105e-01 4.000000000000000000e+00
-3.401725387573242188e+01 4.599313259124755859e+00 -5.991759896278381348e-01 1.900000000000000000e+01
-2.497860431671143022e+00 3.412760794162750244e-01 -6.755176782608032227e-01 1.500000000000000000e+01
-4.479388427734375000e+01 6.128034114837645596e+00 7.891629338264465332e-01 4.900000000000000000e+01
-2.880619525909423828e+00 3.945957720279694159e-01 -6.712539196014404297e-01 1.200000000000000000e+01
-4.502912139892578125e+01 6.168222427368164062e+00 2.381914138793944868e+00 3.500000000000000000e+01
-3.413551330566405806e+00 4.682053327560424805e-01 -6.697395443916320801e-01 1.200000000000000000e+01
-4.486388778686522727e+01 6.161542892456054688e+00 3.961925745010375977e+00 5.400000000000000000e+01
-4.246602058410645419e+00 5.839775204658508301e-01 -6.789255738258361816e-01 7.000000000000000000e+00
-4.486655044555664062e+01 6.177866458892822266e+00 5.560898303985595703e+00 7.700000000000000000e+01
-5.527803421020507812e+00 7.621299028396606445e-01 -6.851494312286376953e-01 1.000000000000000000e+01
-7.973631858825683594e+00 1.100759625434875044e+00 -7.042183876037597656e-01 1.000000000000000000e+00
-1.468961811065674006e+01 2.033126831054687944e+00 -7.771889567375183105e-01 4.000000000000000000e+00
-3.396533966064453125e+01 4.713080406188964844e+00 -5.985477566719055176e-01 1.900000000000000000e+01
-2.487088203430175781e+00 3.486521840095520020e-01 -6.729295253753662109e-01 1.700000000000000000e+01
-4.478806304931641336e+01 6.286580562591552734e+00 7.894421815872192383e-01 4.900000000000000000e+01
-2.888873338699340820e+00 4.060046672821044922e-01 -6.735034584999084473e-01 1.200000000000000000e+01
-4.481744384765625000e+01 6.298680782318115234e+00 2.371865510940552202e+00 3.500000000000000000e+01
-3.415784358978271040e+00 4.806651473045349121e-01 -6.705027818679809570e-01 1.100000000000000000e+01
-4.485394287109375000e+01 6.319777488708496094e+00 3.962971687316894975e+00 5.400000000000000000e+01
-4.232801914215087891e+00 5.971417427062988281e-01 -6.770483851432800293e-01 9.000000000000000000e+00
-4.491154098510742188e+01 6.343882083892822266e+00 5.569185256958007812e+00 7.800000000000000000e+01
-5.538868427276611328e+00 7.833667993545532227e-01 -6.868556141853332520e-01 1.200000000000000000e+01
-7.981576919555664062e+00 1.130262136459351030e+00 -7.052642703056335449e-01 2.000000000000000000e+00
-3.399619293212891336e+01 4.838375091552734375e+00 -5.993854403495788574e-01 1.300000000000000000e+01
-2.487768173217772993e+00 3.576065003871917725e-01 -6.734471321105957031e-01 1.500000000000000000e+01
-4.475396728515625000e+01 6.441172122955322266e+00 7.892327308654785156e-01 4.900000000000000000e+01
-2.889367341995238814e+00 4.163641929626464844e-01 -6.739533543586730957e-01 1.300000000000000000e+01
-4.484658050537108664e+01 6.462491035461425781e+00 2.374587059020996094e+00 3.500000000000000000e+01
-3.423801422119141069e+00 4.939873218536376953e-01 -6.724109053611755371e-01 1.200000000000000000e+01
-4.491442871093750000e+01 6.488272666931152344e+00 3.970292806625366211e+00 5.400000000000000000e+01
-4.218961238861083984e+00 6.102167367935180664e-01 -6.751711368560791016e-01 7.000000000000000000e+00
-4.488912200927733664e+01 6.500614166259765625e+00 5.569185256958007812e+00 7.800000000000000000e+01
-5.528242111206054688e+00 8.015569448471069336e-01 -6.858806610107421875e-01 1.200000000000000000e+01
-7.973639965057373047e+00 1.157543659210205078e+00 -7.049156427383422852e-01 1.000000000000000000e+00
-3.397909927368164062e+01 4.957014083862304688e+00 -5.993854403495788574e-01 1.300000000000000000e+01
-2.494149684906005859e+00 3.674144148826599121e-01 -6.755176782608032227e-01 1.500000000000000000e+01
-4.479451751708983664e+01 6.606690406799316406e+00 7.903496623039245605e-01 4.900000000000000000e+01
-2.876329421997069868e+00 4.247393608093262274e-01 -6.712539196014404297e-01 1.300000000000000000e+01
-4.482770156860352273e+01 6.619579315185546875e+00 2.374796390533446822e+00 3.500000000000000000e+01
-3.422056198120117188e+00 5.059356093406677246e-01 -6.724109053611755371e-01 1.200000000000000000e+01
-4.488362503051757812e+01 6.643846988677979404e+00 3.969595432281494141e+00 5.400000000000000000e+01
-4.220713615417479581e+00 6.255190968513488770e-01 -6.757968664169311523e-01 7.000000000000000000e+00
-4.488972091674804688e+01 6.660762786865234375e+00 5.572110176086425781e+00 7.800000000000000000e+01
-5.519519805908203125e+00 8.199741244316101074e-01 -6.851494312286376953e-01 1.200000000000000000e+01
-7.985316276550292969e+00 1.187714815139770952e+00 -7.063101530075073242e-01 1.000000000000000000e+00
