1.409491747617722113e-01 -1.775084495544434038e+00 -3.461275100708007812e-01 4.700000000000000000e+01
1.323406398296355924e-01 -1.670365095138550027e+00 1.465959548950195035e-01 9.400000000000000000e+01
1.390165835618973056e-01 -1.758525133132935014e+00 -2.793919444084166925e-01 5.800000000000000000e+01
1.309628188610076904e-01 -1.660335421562195046e+00 2.044967561960220059e-01 7.900000000000000000e+01
1.379932165145874023e-01 -1.753370046615601030e+00 -2.159524708986282071e-01 7.300000000000000000e+01
1.283533275127410889e-01 -1.634530901908874956e+00 2.596812248229979914e-01 6.900000000000000000e+01
1.372574716806412021e-01 -1.747921824455261008e+00 -1.533941030502319058e-01 7.800000000000000000e+01
1.249818503856658936e-01 -1.595163583755492942e+00 3.110186755657196045e-01 1.000000000000000000e+02
1.340237557888031006e-01 -1.714409351348876953e+00 -9.012251347303390503e-02 6.600000000000000000e+01
1.248690187931061069e-01 -1.600899457931518999e+00 3.707193434238433838e-01 9.200000000000000000e+01
1.328122913837432861e-01 -1.706579089164734109e+00 -2.987851947546004902e-02 7.400000000000000000e+01
1.262239664793015081e-01 -1.625589609146117942e+00 4.368865489959716797e-01 1.000000000000000000e+02
1.289056241512298862e-01 -1.686824083328247070e+00 2.952947095036507000e-02 7.400000000000000000e+01
2.459272444248198908e-01 -3.225547075271606001e+00 -7.468374967575073242e-01 1.100000000000000000e+01
1.280089765787124911e-01 -1.682822227478026900e+00 8.844776451587677002e-02 7.700000000000000000e+01
2.946942746639252264e-01 -3.874088048934936968e+00 -7.552220225334167480e-01 8.000000000000000000e+00
1.264992356300354004e-01 -1.666821479797363059e+00 1.462473422288894931e-01 9.400000000000000000e+01
1.345266252756119052e-01 -1.776704072952270952e+00 -2.822077870368958075e-01 4.800000000000000000e+01
1.256057620048522949e-01 -1.662740111351012962e+00 2.047404944896697998e-01 9.000000000000000000e+01
1.330731809139251987e-01 -1.765694856643676980e+00 -2.174149155616759976e-01 6.600000000000000000e+01
1.223269402980804027e-01 -1.623107314109802024e+00 2.578040063381195068e-01 7.000000000000000000e+01
1.311616301536560059e-01 -1.744393825531006081e+00 -1.530454903841018954e-01 7.900000000000000000e+01
1.202788501977920949e-01 -1.603400349617003950e+00 3.125451207160950262e-01 1.000000000000000000e+02
1.286359429359436035e-01 -1.718827724456787109e+00 -9.033185988664627075e-02 6.600000000000000000e+01
1.204301342368126054e-01 -1.612964630126952903e+00 3.734187483787537176e-01 9.400000000000000000e+01
1.275979727506638128e-01 -1.712992668151855025e+00 -2.998323366045951843e-02 7.300000000000000000e+01
1.201118901371956010e-01 -1.612492561340332031e+00 4.332630932331085205e-01 1.000000000000000000e+02
1.238891854882240018e-01 -1.699230194091797097e+00 2.973890118300915111e-02 7.000000000000000000e+01
2.352319508790970126e-01 -3.234160184860229048e+00 -7.486370801925659180e-01 1.200000000000000000e+01
1.227122023701668063e-01 -1.691226959228516069e+00 8.886645734310150146e-02 8.200000000000000000e+01
2.814535200595856268e-01 -3.879009485244750977e+00 -7.559852600097656250e-01 1.100000000000000000e+01
1.206801682710647999e-01 -1.667252779006958008e+00 1.462473422288894931e-01 8.800000000000000000e+01
1.206566691398621022e-01 -1.675048112869262917e+00 2.062029242515563965e-01 9.900000000000000000e+01
1.276203244924545011e-01 -1.776048541069030984e+00 -2.186336070299149115e-01 5.700000000000000000e+01
1.160946637392044067e-01 -1.619604110717772993e+00 2.571782469749451239e-01 7.000000000000000000e+01
1.247868537902832031e-01 -1.740866422653198020e+00 -1.526968628168106079e-01 8.200000000000000000e+01
1.148212328553200046e-01 -1.605768680572509988e+00 3.129267394542694092e-01 1.000000000000000000e+02
1.241984739899635037e-01 -1.741180539131164995e+00 -9.148325026035308838e-02 7.000000000000000000e+01
1.150757297873497009e-01 -1.617262840270996094e+00 3.743185400962830145e-01 9.400000000000000000e+01
1.219008937478064936e-01 -1.717417001724242942e+00 -3.005304373800754894e-02 7.100000000000000000e+01
1.139281168580054959e-01 -1.609067916870116965e+00 4.322278201580048163e-01 1.000000000000000000e+02
1.169878765940666060e-01 -1.685688018798827903e+00 2.949456684291363109e-02 6.400000000000000000e+01
2.238066196441650113e-01 -3.233017444610596147e+00 -7.481871843338012695e-01 1.200000000000000000e+01
1.172207221388816972e-01 -1.697622537612915039e+00 8.918046951293945312e-02 9.600000000000000000e+01
2.685877680778502863e-01 -3.889761209487915039e+00 -7.578933238983154297e-01 1.100000000000000000e+01
1.149965375661849976e-01 -1.669651627540587935e+00 1.464216411113739014e-01 7.500000000000000000e+01
3.358969092369080145e-01 -4.889385223388671875e+00 -7.762278318405151367e-01 9.000000000000000000e+00
1.138589680194855014e-01 -1.661595940589905007e+00 2.044967561960220059e-01 9.500000000000000000e+01
1.216906979680061063e-01 -1.780444145202636941e+00 -2.191210836172103882e-01 2.400000000000000000e+01
1.108579263091087064e-01 -1.621950984001159890e+00 2.574911415576934814e-01 7.500000000000000000e+01
1.192513927817344943e-01 -1.749242544174193892e+00 -1.533941030502319058e-01 7.900000000000000000e+01
1.084162145853043019e-01 -1.594407320022583008e+00 3.106370568275452215e-01 1.000000000000000000e+02
1.181198656558990062e-01 -1.741603374481200950e+00 -9.148325026035308838e-02 6.900000000000000000e+01
1.096927747130393982e-01 -1.621543288230895996e+00 3.752183616161345880e-01 9.400000000000000000e+01
1.161744818091392933e-01 -1.721822261810302956e+00 -3.012285381555556904e-02 7.100000000000000000e+01
1.088517308235168041e-01 -1.613291740417480025e+00 4.332630932331085205e-01 1.000000000000000000e+02
1.117604300379752974e-01 -1.696062922477721946e+00 2.966909110546112061e-02 7.000000000000000000e+01
2.116253525018692017e-01 -3.220167160034180132e+00 -7.450379133224487305e-01 1.200000000000000000e+01
1.112941950559615950e-01 -1.698021292686461958e+00 8.918046951293945312e-02 9.300000000000000000e+01
2.544946968555449884e-01 -3.882838964462279829e+00 -7.563668489456176758e-01 1.100000000000000000e+01
1.089077442884445052e-01 -1.666066527366637962e+00 1.460730284452438077e-01 6.100000000000000000e+01
3.195987641811370850e-01 -4.902355194091796875e+00 -7.781050205230712891e-01 9.000000000000000000e+00
1.074142530560493053e-01 -1.652078747749329057e+00 2.032780647277832031e-01 9.100000000000000000e+01
1.050399094820022999e-01 -1.624317646026611106e+00 2.578040063381195068e-01 8.500000000000000000e+01
1.141732558608054976e-01 -1.765553951263427956e+00 -1.547885984182358066e-01 7.600000000000000000e+01
1.027236878871918002e-01 -1.592816829681396040e+00 3.102554380893707275e-01 1.000000000000000000e+02
1.115270480513572970e-01 -1.734032630920409934e+00 -9.106456488370895386e-02 6.900000000000000000e+01
1.044060811400414068e-01 -1.627750515937804954e+00 3.765680789947509766e-01 8.700000000000000000e+01
1.110570579767227034e-01 -1.736186623573303001e+00 -3.036718629300593983e-02 6.700000000000000000e+01
1.026920229196548046e-01 -1.609824061393738015e+00 4.322278201580048163e-01 1.000000000000000000e+02
1.077587157487868985e-01 -1.722369551658629927e+00 3.012285381555556904e-02 7.700000000000000000e+01
2.013097703456878940e-01 -3.226686239242554155e+00 -7.463876008987426758e-01 1.200000000000000000e+01
1.054147109389304976e-01 -1.694394230842590110e+00 8.897112309932708740e-02 9.600000000000000000e+01
2.413735389709472934e-01 -3.879742622375487837e+00 -7.556036114692687988e-01 1.100000000000000000e+01
1.038757413625717024e-01 -1.674372792243957964e+00 1.467702686786651889e-01 6.400000000000000000e+01
3.038280904293059748e-01 -4.911274433135986328e+00 -7.793564796447753906e-01 9.000000000000000000e+00
1.012018248438835005e-01 -1.640537858009337935e+00 2.018156349658966064e-01 6.300000000000000000e+01
4.305971562862396240e-01 -7.000100135803222656e+00 -8.611288070678710938e-01 1.000000000000000000e+00
9.945132583379745483e-02 -1.616752982139586958e+00 2.565525174140930176e-01 8.300000000000000000e+01
1.089277416467667042e-01 -1.775866150856018066e+00 -1.556601524353027066e-01 6.700000000000000000e+01
9.732129424810409546e-02 -1.591189146041869895e+00 3.098738193511962891e-01 1.000000000000000000e+02
1.067488268017768999e-01 -1.750341296195984109e+00 -9.190193563699722290e-02 6.900000000000000000e+01
9.853453934192657471e-02 -1.620307207107543945e+00 3.747684657573699951e-01 8.000000000000000000e+01
1.060252413153647960e-01 -1.748521566390990989e+00 -3.057661652565002094e-02 6.700000000000000000e+01
9.856952726840972900e-02 -1.625565171241760032e+00 4.363689124584197998e-01 1.000000000000000000e+02
1.024532541632652005e-01 -1.734712481498718040e+00 3.033228218555450093e-02 8.600000000000000000e+01
1.901598572731018066e-01 -3.229314565658568892e+00 -7.468374967575073242e-01 1.200000000000000000e+01
9.973364323377609253e-02 -1.698739528656006081e+00 8.918046951293945312e-02 9.600000000000000000e+01
2.277141660451889038e-01 -3.878601551055908203e+00 -7.552220225334167480e-01 1.200000000000000000e+01
9.721547365188598633e-02 -1.660802364349365012e+00 1.455500870943068903e-01 7.300000000000000000e+01
2.869128882884979248e-01 -4.916249275207520419e+00 -7.799822688102722168e-01 9.000000000000000000e+00
9.708896279335021973e-02 -1.668625593185425027e+00 2.052279710769653043e-01 7.500000000000000000e+01
4.073092341423035223e-01 -7.021378040313720703e+00 -8.635661602020263672e-01 1.000000000000000000e+00
9.289200603961944580e-02 -1.601313829421997070e+00 2.540495693683624268e-01 8.300000000000000000e+01
1.035334020853043019e-01 -1.790158987045288086e+00 -1.568803340196608942e-01 2.300000000000000000e+01
9.300955384969711304e-02 -1.613079071044922097e+00 3.140715956687927246e-01 1.000000000000000000e+02
1.020138114690781056e-01 -1.774630904197693093e+00 -9.315799921751022339e-02 8.500000000000000000e+01
9.287801384925842285e-02 -1.620641350746155007e+00 3.747684657573699951e-01 7.200000000000000000e+01
1.004914417862892012e-01 -1.758863210678101030e+00 -3.075114078819752086e-02 9.900000000000000000e+01
9.267425537109375000e-02 -1.622041940689086914e+00 4.353336393833159845e-01 1.000000000000000000e+02
9.639735519886016846e-02 -1.735059499740601030e+00 3.033228218555450093e-02 9.100000000000000000e+01
1.795328706502913874e-01 -3.241633176803588867e+00 -7.495369315147399902e-01 1.100000000000000000e+01
9.413362294435501099e-02 -1.705060005187988059e+00 8.949448168277740479e-02 8.000000000000000000e+01
2.140657156705856046e-01 -3.877412557601929155e+00 -7.548403739929199219e-01 1.100000000000000000e+01
9.130811691284179688e-02 -1.659142136573791948e+00 1.453757733106612882e-01 9.700000000000000000e+01
2.695338129997252863e-01 -4.913275718688964844e+00 -7.793564796447753906e-01 9.000000000000000000e+00
9.083022922277450562e-02 -1.661025762557982954e+00 2.042530179023742953e-01 8.700000000000000000e+01
3.843101561069489081e-01 -7.050507068634033203e+00 -8.669785261154174805e-01 1.000000000000000000e+00
8.745095878839492798e-02 -1.609533429145812988e+00 2.553010582923889160e-01 8.500000000000000000e+01
8.631658554077148438e-02 -1.593790173530579057e+00 3.102554380893707275e-01 1.000000000000000000e+02
9.614156186580657959e-02 -1.780959248542786089e+00 -9.347201883792877197e-02 5.800000000000000000e+01
8.648740500211715698e-02 -1.607334136962891069e+00 3.716191351413726807e-01 7.100000000000000000e+01
9.467253834009170532e-02 -1.765193819999695046e+00 -3.085585497319697987e-02 1.000000000000000000e+02
8.639093488454818726e-02 -1.610781073570251021e+00 4.322278201580048163e-01 1.000000000000000000e+02
8.971652388572692871e-02 -1.723403453826904075e+00 3.012285381555556904e-02 8.200000000000000000e+01
1.677115112543106079e-01 -3.232509613037108931e+00 -7.472873926162719727e-01 1.200000000000000000e+01
8.849068731069564819e-02 -1.711362004280090110e+00 8.980850130319595337e-02 7.500000000000000000e+01
2.010366171598433893e-01 -3.887939214706420898e+00 -7.567484974861145020e-01 1.200000000000000000e+01
8.633637428283691406e-02 -1.675368785858154075e+00 1.467702686786651889e-01 1.000000000000000000e+02
2.513684630393981934e-01 -4.894458770751953125e+00 -7.762278318405151367e-01 9.000000000000000000e+00
8.462573587894439697e-02 -1.653402686119080034e+00 2.032780647277832031e-01 8.700000000000000000e+01
3.603036999702454168e-01 -7.063700675964354581e+00 -8.684409260749816895e-01 1.000000000000000000e+00
8.203267306089401245e-02 -1.613774538040160911e+00 2.559267878532410223e-01 8.100000000000000000e+01
8.035539090633392334e-02 -1.586238741874695046e+00 3.087289631366729736e-01 1.000000000000000000e+02
8.077832311391830444e-02 -1.605679988861083984e+00 3.711692392826079767e-01 8.000000000000000000e+01
8.921115845441818237e-02 -1.779493808746337891e+00 -3.110018745064735066e-02 7.100000000000000000e+01
8.067932724952697754e-02 -1.614945769309998003e+00 4.332630932331085205e-01 1.000000000000000000e+02
8.408813178539276123e-02 -1.731695532798767090e+00 3.026247210800648083e-02 7.500000000000000000e+01
1.567094475030899048e-01 -3.238914728164672852e+00 -7.486370801925659180e-01 1.400000000000000000e+01
8.184316754341125488e-02 -1.697695851325988992e+00 8.907579630613327026e-02 8.200000000000000000e+01
1.879366338253020963e-01 -3.898422241210937944e+00 -7.586565613746643066e-01 1.100000000000000000e+01
8.058331161737442017e-02 -1.677649974822998047e+00 1.469445824623107910e-01 9.300000000000000000e+01
2.352263778448105136e-01 -4.915037631988525391e+00 -7.793564796447753906e-01 9.000000000000000000e+00
7.800282537937164307e-02 -1.635842442512511985e+00 2.010844200849533081e-01 8.200000000000000000e+01
3.347025811672211248e-01 -7.045086860656738281e+00 -8.660035729408264160e-01 1.000000000000000000e+00
7.658584415912628174e-02 -1.617997288703918013e+00 2.565525174140930176e-01 8.300000000000000000e+01
7.491037249565124512e-02 -1.588470697402954102e+00 3.091105818748474121e-01 1.000000000000000000e+02
7.581079006195068359e-02 -1.619578480720520020e+00 3.743185400962830145e-01 8.900000000000000000e+01
8.411685377359390259e-02 -1.803764700889586958e+00 -3.151904419064521790e-02 4.600000000000000000e+01
7.577349245548248291e-02 -1.624853253364562988e+00 4.358512759208679199e-01 8.600000000000000000e+01
3.221286460757256248e-02 -7.121250629425048828e-01 -1.910084486007689875e-01 7.000000000000000000e+00
7.876299321651458740e-02 -1.747959852218627930e+00 3.054171055555343975e-02 6.600000000000000000e+01
1.445287615060805997e-01 -3.219974279403686968e+00 -7.441380620002746582e-01 1.000000000000000000e+01
7.582739740610122681e-02 -1.695975899696350098e+00 8.897112309932708740e-02 6.800000000000000000e+01
1.738889962434768954e-01 -3.889248132705688032e+00 -7.567484974861145020e-01 1.000000000000000000e+01
7.472673058509826660e-02 -1.677921056747436968e+00 1.469445824623107910e-01 8.200000000000000000e+01
2.182433456182480136e-01 -4.919775962829589844e+00 -7.799822688102722168e-01 9.000000000000000000e+00
7.255507260560989380e-02 -1.642054319381714089e+00 2.018156349658966064e-01 9.000000000000000000e+01
7.059147208929061890e-02 -1.610360860824584961e+00 2.553010582923889160e-01 8.500000000000000000e+01
6.979329884052276611e-02 -1.598529458045959029e+00 3.110186755657196045e-01 9.300000000000000000e+01
7.792032510042190552e-02 -1.791845202445984109e+00 -9.399537742137908936e-02 6.000000000000000000e+00
6.906074285507202148e-02 -1.594523310661315918e+00 3.684698343276978094e-01 7.200000000000000000e+01
7.687205821275711060e-02 -1.782071113586426003e+00 -3.113509342074393879e-02 6.100000000000000000e+01
6.910216808319091797e-02 -1.601947188377379927e+00 4.296396076679229736e-01 8.400000000000000000e+01
3.107600845396519054e-02 -7.508474588394165039e-01 -2.013612240552901944e-01 6.000000000000000000e+00
7.188605517148971558e-02 -1.744253396987915039e+00 3.047190234065055847e-02 5.600000000000000000e+01
7.075735926628112793e-02 -1.724180579185486062e+00 9.043653309345245361e-02 5.100000000000000000e+01
1.587937921285628995e-01 -3.885963916778564009e+00 -7.559852600097656250e-01 9.000000000000000000e+00
6.804043799638748169e-02 -1.672223448753356934e+00 1.464216411113739014e-01 7.800000000000000000e+01
2.004707157611846924e-01 -4.948210239410400391e+00 -7.843624353408813477e-01 1.000000000000000000e+00
6.672959029674530029e-02 -1.654221653938293013e+00 2.032780647277832031e-01 9.000000000000000000e+01
6.429235637187957764e-02 -1.600739836692810059e+00 2.537367045879364014e-01 7.700000000000000000e+01
7.164962589740753174e-02 -1.791718363761902078e+00 -1.568803340196608942e-01 1.000000000000000000e+00
6.334247440099716187e-02 -1.590938806533813032e+00 3.094922006130219061e-01 9.300000000000000000e+01
7.096046209335327148e-02 -1.790135502815247026e+00 -9.389070421457290649e-02 4.400000000000000000e+01
6.286087632179260254e-02 -1.592829465866089089e+00 3.680199384689331055e-01 7.100000000000000000e+01
6.932227313518524170e-02 -1.764369726181030051e+00 -3.082094900310039867e-02 6.500000000000000000e+01
6.279894709587097168e-02 -1.598339915275573953e+00 4.286043345928192139e-01 8.800000000000000000e+01
2.816227823495864868e-02 -7.432295083999633789e-01 -1.992906630039215088e-01 6.000000000000000000e+00
6.496797502040863037e-02 -1.722512722015381081e+00 3.008794784545898091e-02 7.400000000000000000e+01
6.916063278913497925e-02 -1.842210412025452104e+00 -4.256073832511901855e-01 5.000000000000000000e+00
6.369163841009140015e-02 -1.704469680786133035e+00 8.938981592655181885e-02 6.000000000000000000e+01
1.445684880018233975e-01 -3.868837594985961914e+00 -7.525506615638732910e-01 1.000000000000000000e+00
6.168451532721518776e-02 -1.658513665199280007e+00 1.452014744281769076e-01 7.200000000000000000e+01
6.124721840023993752e-02 -1.662379503250122070e+00 2.042530179023742953e-01 9.000000000000000000e+01
5.792063474655150673e-02 -1.587146282196044922e+00 2.515466213226317804e-01 8.300000000000000000e+01
6.503162533044815063e-02 -1.782002329826354980e+00 -1.560087800025939941e-01 2.900000000000000000e+01
5.800244212150573730e-02 -1.597036123275757058e+00 3.106370568275452215e-01 1.000000000000000000e+02
6.456700712442398071e-02 -1.786380410194396973e+00 -9.368136525154113770e-02 5.400000000000000000e+01
5.716038122773169777e-02 -1.589144229888916016e+00 3.671201169490814209e-01 7.400000000000000000e+01
6.301999092102050781e-02 -1.760604143142699973e+00 -3.075114078819752086e-02 6.500000000000000000e+01
5.645893886685370705e-02 -1.585044980049133079e+00 4.249808788299561102e-01 9.500000000000000000e+01
2.475387975573540081e-02 -7.124233245849609375e-01 -1.910084486007689875e-01 7.000000000000000000e+00
5.934896320104598999e-02 -1.716712713241576926e+00 2.998323366045951843e-02 8.900000000000000000e+01
6.377477198839187622e-02 -1.854104161262511985e+00 -4.283068180084229071e-01 4.000000000000000000e+01
5.842813104391098022e-02 -1.698662877082824929e+00 8.907579630613327026e-02 7.600000000000000000e+01
6.352087110280990601e-02 -1.856152057647705078e+00 -3.610106110572814941e-01 1.000000000000000000e+00
5.688061937689781189e-02 -1.670646667480468972e+00 1.462473422288894931e-01 7.000000000000000000e+01
5.562327802181243896e-02 -1.650659918785094993e+00 2.027905881404876987e-01 8.700000000000000000e+01
6.012380495667458274e-02 -1.793515920639038086e+00 -2.203397750854491910e-01 9.000000000000000000e+00
5.319754406809806824e-02 -1.595217585563659890e+00 2.527981102466583252e-01 9.000000000000000000e+01
5.930017679929733276e-02 -1.778215289115905984e+00 -1.556601524353027066e-01 6.100000000000000000e+01
5.226891487836837769e-02 -1.575626492500304954e+00 3.064392507076262873e-01 1.000000000000000000e+02
5.816416814923285744e-02 -1.762620329856873003e+00 -9.242530167102813721e-02 6.000000000000000000e+01
5.255124717950820923e-02 -1.601002097129821999e+00 3.698195219039916992e-01 7.100000000000000000e+01
5.709706246852874756e-02 -1.748801589012145996e+00 -3.054171055555343975e-02 5.800000000000000000e+01
5.219705402851104736e-02 -1.598721265792846902e+00 4.286043345928192139e-01 9.700000000000000000e+01
2.226690761744976044e-02 -7.125054001808166504e-01 -1.910084486007689875e-01 7.000000000000000000e+00
5.323192477226257324e-02 -1.712911963462830034e+00 2.991342544555664062e-02 8.200000000000000000e+01
5.658005177974700928e-02 -1.830941677093506081e+00 -4.229079782962799072e-01 5.900000000000000000e+01
5.206650123000144958e-02 -1.684882402420043945e+00 8.834309130907058716e-02 7.500000000000000000e+01
5.559416860342025757e-02 -1.809266567230225053e+00 -3.518517911434174139e-01 8.000000000000000000e+00
5.068356171250343323e-02 -1.658886313438415971e+00 1.452014744281769076e-01 8.600000000000000000e+01
5.578182637691497803e-02 -1.836253285408020020e+00 -2.909680902957916260e-01 9.000000000000000000e+00
4.974120110273361206e-02 -1.646875619888306108e+00 2.023031115531921109e-01 8.700000000000000000e+01
5.404164642095565796e-02 -1.799667477607727051e+00 -2.210709899663924893e-01 4.600000000000000000e+01
4.780571162700653076e-02 -1.601317048072814941e+00 2.537367045879364014e-01 9.900000000000000000e+01
5.309268459677696228e-02 -1.778411388397217019e+00 -1.556601524353027066e-01 5.800000000000000000e+01
4.671039059758186340e-02 -1.573837041854857954e+00 3.060576319694519043e-01 9.600000000000000000e+01
5.148099362850189209e-02 -1.744845151901244895e+00 -9.148325026035308838e-02 5.700000000000000000e+01
4.701951891183853149e-02 -1.603123784065247026e+00 3.702694475650786798e-01 6.600000000000000000e+01
5.099225789308547974e-02 -1.748990297317505105e+00 -3.054171055555343975e-02 5.500000000000000000e+01
4.667245596647263267e-02 -1.600824832916259988e+00 4.291219711303710938e-01 1.000000000000000000e+02
1.977966353297233928e-02 -7.125787734985351562e-01 -1.910084486007689875e-01 7.000000000000000000e+00
4.752810671925544739e-02 -1.723082065582274947e+00 3.008794784545898091e-02 7.100000000000000000e+01
5.008174479007720947e-02 -1.827232003211975098e+00 -4.220081865787506104e-01 6.300000000000000000e+01
4.572763293981552124e-02 -1.679072380065917969e+00 8.802907913923263550e-02 8.000000000000000000e+01
4.965243861079216003e-02 -1.823187351226807085e+00 -3.545231223106384277e-01 3.500000000000000000e+01
4.510822892189025879e-02 -1.667019724845886008e+00 1.458987146615982056e-01 8.000000000000000000e+01
4.873471334576606750e-02 -1.812740802764893022e+00 -2.872136831283568781e-01 3.300000000000000000e+01
4.415123909711837769e-02 -1.652992367744446023e+00 2.030343264341354093e-01 8.500000000000000000e+01
4.712742939591407776e-02 -1.776032447814940962e+00 -2.181461304426192960e-01 5.400000000000000000e+01
4.244289174675940773e-02 -1.599492073059082031e+00 2.534238398075103760e-01 8.500000000000000000e+01
4.677954316139221191e-02 -1.774602532386780007e+00 -1.553115397691726962e-01 6.500000000000000000e+01
4.137056693434715271e-02 -1.579878211021422896e+00 3.072024881839752197e-01 1.000000000000000000e+02
4.523423314094542763e-02 -1.739024400711060014e+00 -9.116923809051513672e-02 6.000000000000000000e+01
4.137295484542846680e-02 -1.601330041885375977e+00 3.698195219039916992e-01 7.100000000000000000e+01
4.457903653383255005e-02 -1.737163424491882102e+00 -3.033228218555450093e-02 5.500000000000000000e+01
4.114937782287597656e-02 -1.614503622055053933e+00 4.327454566955565851e-01 9.700000000000000000e+01
1.710473001003265034e-02 -7.049183845520019531e-01 -1.889379024505614957e-01 7.000000000000000000e+00
4.146498069167137146e-02 -1.721238374710083008e+00 3.005304373800754894e-02 6.800000000000000000e+01
4.342365637421607971e-02 -1.815706610679626021e+00 -4.193087518215178888e-01 6.000000000000000000e+01
4.015937447547913292e-02 -1.679214715957642046e+00 8.802907913923263550e-02 8.000000000000000000e+01
4.282206296920775673e-02 -1.803722500801085982e+00 -3.507069349288939875e-01 5.300000000000000000e+01
3.896038606762886047e-02 -1.653224229812622070e+00 1.446785330772399902e-01 7.600000000000000000e+01
4.222198948264122009e-02 -1.805000543594359907e+00 -2.859621942043303888e-01 4.900000000000000000e+01
3.838095068931580284e-02 -1.653136372566222922e+00 2.030343264341354093e-01 8.200000000000000000e+01
4.083617404103279114e-02 -1.772217035293579102e+00 -2.176586538553237915e-01 5.200000000000000000e+01
3.639953210949897766e-02 -1.591737508773803933e+00 2.521723508834838867e-01 9.000000000000000000e+01
4.063028842210769653e-02 -1.776746869087219016e+00 -1.554858386516571045e-01 7.800000000000000000e+01
3.616729751229286194e-02 -1.593752264976501021e+00 3.098738193511962891e-01 9.600000000000000000e+01
3.916363045573235252e-02 -1.739171743392943892e+00 -9.116923809051513672e-02 6.000000000000000000e+01
3.578301891684532166e-02 -1.601464629173279031e+00 3.698195219039916992e-01 7.400000000000000000e+01
3.780579566955565712e-02 -1.705321192741394043e+00 -2.977380529046059002e-02 5.600000000000000000e+01
3.538601845502852700e-02 -1.608843326568603960e+00 4.311925172805786133e-01 9.500000000000000000e+01
1.460388023406266993e-02 -7.030423283576965332e-01 -1.884202659130095880e-01 1.500000000000000000e+01
3.525058180093765259e-02 -1.711376309394835982e+00 2.987851947546004902e-02 6.100000000000000000e+01
3.708539158105850220e-02 -1.815847158432007058e+00 -4.193087518215178888e-01 6.200000000000000000e+01
3.437913954257965088e-02 -1.683338403701782005e+00 8.823842555284500122e-02 8.200000000000000000e+01
3.660512343049048684e-02 -1.807786703109740989e+00 -3.514701724052429199e-01 6.500000000000000000e+01
3.298938646912574768e-02 -1.643390178680419922e+00 1.438069790601730069e-01 8.800000000000000000e+01
3.580320253968238831e-02 -1.799211978912353960e+00 -2.850235998630524237e-01 6.300000000000000000e+01
3.268848732113838196e-02 -1.657229661941528098e+00 2.035218030214309970e-01 8.200000000000000000e+01
3.457213193178176880e-02 -1.768379330635071023e+00 -2.171711772680282870e-01 5.300000000000000000e+01
3.096649236977100025e-02 -1.583949446678162065e+00 2.509208917617797852e-01 9.400000000000000000e+01
3.408066928386688232e-02 -1.758949756622314009e+00 -1.539170444011687955e-01 7.500000000000000000e+01
3.056615404784679066e-02 -1.591905832290648970e+00 3.094922006130219061e-01 9.100000000000000000e+01
3.324452415108680725e-02 -1.747285485267638938e+00 -9.158792346715927124e-02 6.400000000000000000e+01
3.044975921511650085e-02 -1.615218520164489968e+00 3.729688525199890137e-01 7.700000000000000000e+01
3.200225532054901123e-02 -1.713440060615539995e+00 -2.991342544555664062e-02 6.300000000000000000e+01
2.980562858283520092e-02 -1.610888600349426047e+00 4.317101538181304932e-01 1.000000000000000000e+02
1.265039015561342066e-02 -7.320624589920043945e-01 -1.961848288774490079e-01 7.000000000000000000e+00
2.907133847475051880e-02 -1.699492454528809038e+00 2.966909110546112061e-02 6.000000000000000000e+01
3.068069741129874836e-02 -1.812068581581115945e+00 -4.184089601039885919e-01 5.400000000000000000e+01
2.860441803932189941e-02 -1.689439058303833008e+00 8.855243772268295288e-02 7.200000000000000000e+01
3.026165440678596150e-02 -1.805940508842468040e+00 -3.510885536670684814e-01 7.800000000000000000e+01
2.725268155336380005e-02 -1.643495321273803933e+00 1.438069790601730069e-01 9.200000000000000000e+01
2.910127304494380951e-02 -1.773649573326111062e+00 -2.809562981128693182e-01 6.300000000000000000e+01
2.696791663765906941e-02 -1.661303400993346946e+00 2.040092796087265015e-01 8.500000000000000000e+01
2.846287004649639130e-02 -1.772458910942078081e+00 -2.176586538553237915e-01 5.300000000000000000e+01
2.565930970013141979e-02 -1.597873687744141069e+00 2.531109750270844061e-01 9.900000000000000000e+01
2.784565277397632946e-02 -1.753081560134887917e+00 -1.533941030502319058e-01 7.900000000000000000e+01
2.507085353136062969e-02 -1.595928907394408958e+00 3.102554380893707275e-01 1.000000000000000000e+02
2.699004299938679088e-02 -1.737405776977539062e+00 -9.106456488370895386e-02 6.300000000000000000e+01
2.502091415226459850e-02 -1.628954648971558061e+00 3.761181533336638849e-01 9.200000000000000000e+01
2.626394107937813152e-02 -1.729537129402161089e+00 -3.019266389310359955e-02 7.100000000000000000e+01
2.432737499475479126e-02 -1.620640993118285911e+00 4.342983663082122803e-01 1.000000000000000000e+02
9.828581474721431732e-03 -7.127854824066162109e-01 -1.910084486007689875e-01 7.000000000000000000e+00
2.305715903639793049e-02 -1.693585038185120073e+00 2.956437692046165119e-02 5.600000000000000000e+01
2.393619716167449951e-02 -1.780987620353698953e+00 -4.112105369567871094e-01 5.000000000000000000e+01
2.259963937103747975e-02 -1.681540250778198020e+00 8.813375234603881836e-02 7.100000000000000000e+01
2.382735721766949047e-02 -1.796219706535338911e+00 -3.491804599761962891e-01 8.500000000000000000e+01
2.172428369522095074e-02 -1.659518122673034890e+00 1.452014744281769076e-01 8.800000000000000000e+01
2.296092920005321850e-02 -1.777690768241882102e+00 -2.815820276737213135e-01 6.100000000000000000e+01
2.114343084394932140e-02 -1.659402489662169966e+00 2.037655413150787076e-01 8.700000000000000000e+01
2.205115742981433868e-02 -1.754683017730712891e+00 -2.154649943113327026e-01 5.900000000000000000e+01
2.015600167214870106e-02 -1.603879213333130105e+00 2.540495693683624268e-01 9.400000000000000000e+01
2.177546359598636974e-02 -1.757152557373047097e+00 -1.537427306175231934e-01 8.200000000000000000e+01
1.947588473558425903e-02 -1.594043612480164018e+00 3.098738193511962891e-01 1.000000000000000000e+02
2.070873230695724140e-02 -1.719515323638916016e+00 -9.012251347303390503e-02 6.600000000000000000e+01
1.933464966714382172e-02 -1.629032015800476074e+00 3.761181533336638849e-01 9.200000000000000000e+01
2.017980255186558117e-02 -1.725619077682494895e+00 -3.012285381555556904e-02 7.300000000000000000e+01
1.895300112664699901e-02 -1.620712757110595925e+00 4.342983663082122803e-01 1.000000000000000000e+02
7.539363577961921692e-03 -7.321329712867736816e-01 -1.961848288774490079e-01 7.000000000000000000e+00
1.712506264448165894e-02 -1.691655635833740012e+00 2.952947095036507000e-02 6.000000000000000000e+01
1.775801740586758007e-02 -1.784957647323607954e+00 -4.121103286743164062e-01 7.300000000000000000e+01
1.665035448968410145e-02 -1.673620223999022993e+00 8.771505951881408691e-02 6.900000000000000000e+01
1.748048327863216053e-02 -1.788439273834228960e+00 -3.476539850234984796e-01 8.500000000000000000e+01
1.596960239112377167e-02 -1.663568496704102007e+00 1.455500870943068903e-01 9.000000000000000000e+01
1.684857532382011067e-02 -1.787636518478393999e+00 -2.831463813781737726e-01 5.700000000000000000e+01
1.535090617835522045e-02 -1.659466147422790971e+00 2.037655413150787076e-01 8.700000000000000000e+01
1.579992659389973034e-02 -1.740854263305664062e+00 -2.137588262557983121e-01 6.400000000000000000e+01
1.448558457195758993e-02 -1.596038579940795898e+00 2.527981102466583252e-01 9.400000000000000000e+01
1.571266166865826000e-02 -1.765187025070189986e+00 -1.544399708509444913e-01 7.900000000000000000e+01
1.392864808440207915e-02 -1.596065044403075950e+00 3.102554380893707275e-01 1.000000000000000000e+02
1.472345832735300064e-02 -1.721574306488037109e+00 -9.022718667984008789e-02 6.900000000000000000e+01
1.348489243537187923e-02 -1.609602808952331987e+00 3.716191351413726807e-01 9.700000000000000000e+01
1.409053150564431971e-02 -1.717680573463439941e+00 -2.998323366045951843e-02 7.100000000000000000e+01
1.310572400689125061e-02 -1.632362008094788042e+00 4.374041855335236151e-01 9.500000000000000000e+01
5.009995773434638977e-03 -7.360184192657470703e-01 -1.972201168537139893e-01 7.000000000000000000e+00
1.118019036948681051e-02 -1.685706138610840066e+00 2.942475676536560059e-02 6.600000000000000000e+01
1.152724400162697012e-02 -1.785008788108825906e+00 -4.121103286743164062e-01 8.200000000000000000e+01
1.049101911485194986e-02 -1.669675588607788086e+00 8.750572055578231812e-02 6.700000000000000000e+01
1.120055187493563045e-02 -1.782599806785583052e+00 -3.465091288089752197e-01 8.800000000000000000e+01
1.013822481036186045e-02 -1.659629344940185991e+00 1.452014744281769076e-01 8.600000000000000000e+01
1.058501377701758991e-02 -1.783733725547790971e+00 -2.825206518173217773e-01 5.700000000000000000e+01
9.603927843272686005e-03 -1.667449831962585005e+00 2.047404944896697998e-01 9.000000000000000000e+01
9.723113849759101868e-03 -1.740898847579956055e+00 -2.137588262557983121e-01 6.100000000000000000e+01
8.892216719686985016e-03 -1.592128753662108931e+00 2.521723508834838867e-01 9.000000000000000000e+01
9.497013874351978302e-03 -1.755269408226012962e+00 -1.535684168338775912e-01 8.300000000000000000e+01
8.449772372841835022e-03 -1.613772988319396973e+00 3.136899769306182861e-01 1.000000000000000000e+02
8.734170347452163696e-03 -1.725609779357909934e+00 -9.043653309345245361e-02 7.000000000000000000e+01
7.866248488426208496e-03 -1.609640121459960938e+00 3.716191351413726807e-01 9.700000000000000000e+01
8.038081228733062744e-03 -1.705721259117126021e+00 -2.977380529046059002e-02 7.300000000000000000e+01
7.656130008399487409e-03 -1.624669194221497026e+00 4.353336393833159845e-01 1.000000000000000000e+02
2.338281599804759026e-03 -7.051219940185546875e-01 -1.889379024505614957e-01 7.000000000000000000e+00
5.277063231915236387e-03 -1.679735779762268066e+00 2.932004258036613117e-02 7.200000000000000000e+01
5.319458432495594025e-03 -1.792832970619202104e+00 -4.139099419116973877e-01 8.100000000000000000e+01
4.651545081287621584e-03 -1.665707588195801003e+00 8.729637414216995239e-02 7.100000000000000000e+01
4.989014472812414169e-03 -1.786554455757140891e+00 -3.472723662853240967e-01 8.800000000000000000e+01
4.303247202187777433e-03 -1.643715620040893999e+00 1.438069790601730069e-01 8.600000000000000000e+01
4.353729542344808578e-03 -1.781784415245055930e+00 -2.822077870368958075e-01 5.400000000000000000e+01
3.828423563390969796e-03 -1.687324166297913042e+00 2.071778774261474887e-01 8.700000000000000000e+01
3.658656729385257201e-03 -1.746877431869507058e+00 -2.144900411367416104e-01 5.400000000000000000e+01
3.064298536628485160e-03 -1.596101403236388938e+00 2.527981102466583252e-01 8.500000000000000000e+01
3.346971934661269188e-03 -1.743337512016295943e+00 -1.525225490331650058e-01 8.300000000000000000e+01
2.799469744786620140e-03 -1.603976368904113992e+00 3.117819130420684814e-01 1.000000000000000000e+02
2.716889604926108880e-03 -1.729624271392822044e+00 -9.064587950706481934e-02 7.200000000000000000e+01
2.258391585201025009e-03 -1.617452740669250044e+00 3.734187483787537176e-01 9.700000000000000000e+01
2.088840352371335030e-03 -1.709738254547118919e+00 -2.984361536800861012e-02 7.800000000000000000e+01
1.691253040917217948e-03 -1.615027070045470969e+00 4.327454566955565851e-01 1.000000000000000000e+02
-1.311598025495185906e-04 -7.514902949333190918e-01 -2.013612240552901944e-01 6.000000000000000000e+00
-5.863413098268210888e-04 -1.679744005203247070e+00 2.932004258036613117e-02 7.100000000000000000e+01
-9.377088863402605057e-04 -1.790891885757446067e+00 -4.134600460529326837e-01 7.700000000000000000e+01
-1.162887667305767970e-03 -1.665713667869568093e+00 8.729637414216995239e-02 7.200000000000000000e+01
-1.252737594768404961e-03 -1.794414043426513894e+00 -3.487988412380219061e-01 9.700000000000000000e+01
-1.441371976397932009e-03 -1.651690125465393066e+00 1.445042192935943881e-01 8.600000000000000000e+01
-1.851405249908566041e-03 -1.767961144447327104e+00 -2.800177037715911865e-01 4.900000000000000000e+01
-2.046908717602490945e-03 -1.675416707992553933e+00 2.057154476642608920e-01 9.000000000000000000e+01
-2.422475256025791168e-03 -1.734969019889831987e+00 -2.130276113748550137e-01 5.500000000000000000e+01
-2.239614026620984077e-03 -1.604004263877869096e+00 2.540495693683624268e-01 9.000000000000000000e+01
-2.744691446423531012e-03 -1.747323393821716087e+00 -1.528711766004562100e-01 8.500000000000000000e+01
-2.789190271869301796e-03 -1.598086595535278098e+00 3.106370568275452215e-01 1.000000000000000000e+02
-3.309138817712665038e-03 -1.723631381988524947e+00 -9.033185988664627075e-02 7.400000000000000000e+01
-3.395748790353537040e-03 -1.621348261833190918e+00 3.743185400962830145e-01 9.200000000000000000e+01
-3.874735441058874130e-03 -1.707735419273376021e+00 -2.980870939791202892e-02 8.000000000000000000e+01
-3.673145547509192987e-03 -1.618887543678283913e+00 4.337807297706604004e-01 1.000000000000000000e+02
-2.669382607564330101e-03 -7.283031940460205078e-01 -1.951495558023453036e-01 7.000000000000000000e+00
-6.442060228437185287e-03 -1.677732110023498979e+00 2.928513847291469921e-02 7.500000000000000000e+01
-7.142146117985249433e-03 -1.779185414314270020e+00 -4.107606112957000732e-01 7.500000000000000000e+01
-6.960574071854352951e-03 -1.661705017089843972e+00 8.708702772855758667e-02 7.200000000000000000e+01
-7.549298461526632309e-03 -1.802251696586609109e+00 -3.503253161907196045e-01 9.700000000000000000e+01
-7.206837646663188934e-03 -1.651675105094909890e+00 1.445042192935943881e-01 8.800000000000000000e+01
-8.022730238735675812e-03 -1.767943978309630904e+00 -2.800177037715911865e-01 5.100000000000000000e+01
-7.876482792198657990e-03 -1.671429157257080078e+00 2.052279710769653043e-01 8.700000000000000000e+01
-8.459230884909629822e-03 -1.730979800224303977e+00 -2.125401347875595093e-01 6.600000000000000000e+01
-8.218551054596900940e-03 -1.623738884925842063e+00 2.571782469749451239e-01 8.300000000000000000e+01
-8.823802694678306580e-03 -1.743318438529968040e+00 -1.525225490331650058e-01 8.300000000000000000e+01
-8.377815596759319305e-03 -1.600030422210692915e+00 3.110186755657196045e-01 1.000000000000000000e+02
-9.239265695214271545e-03 -1.707631468772887962e+00 -8.949448168277740479e-02 7.500000000000000000e+01
-9.055289439857006073e-03 -1.621326446533202903e+00 3.743185400962830145e-01 9.200000000000000000e+01
-9.916442446410655975e-03 -1.721709132194519043e+00 -3.005304373800754894e-02 8.200000000000000000e+01
-9.652495384216308594e-03 -1.626590490341186968e+00 4.358512759208679199e-01 9.700000000000000000e+01
-5.349858198314905167e-03 -7.476074695587158203e-01 -2.003259360790252963e-01 6.000000000000000000e+00
-1.231305766850709915e-02 -1.679698944091797097e+00 2.932004258036613117e-02 7.400000000000000000e+01
-1.342574413865805019e-02 -1.788893103599547896e+00 -4.130101501941680908e-01 7.900000000000000000e+01
-1.266893837600946079e-02 -1.649687290191649947e+00 8.645900338888168335e-02 7.100000000000000000e+01
-1.373474858701228922e-02 -1.788471937179564986e+00 -3.476539850234984796e-01 8.500000000000000000e+01
-1.303480844944714979e-02 -1.659609198570251021e+00 1.452014744281769076e-01 8.600000000000000000e+01
-1.419395767152309071e-02 -1.767905116081238015e+00 -2.800177037715911865e-01 5.200000000000000000e+01
-1.375966239720582962e-02 -1.677346587181091087e+00 2.059591859579086026e-01 8.200000000000000000e+01
-1.440164539963006973e-02 -1.719029664993285911e+00 -2.110777050256729126e-01 6.600000000000000000e+01
-1.360301766544579939e-02 -1.623702645301819070e+00 2.571782469749451239e-01 7.800000000000000000e+01
-1.499425992369651968e-02 -1.753238558769226074e+00 -1.533941030502319058e-01 8.200000000000000000e+01
-1.396291330456734051e-02 -1.599991440773010032e+00 3.110186755657196045e-01 1.000000000000000000e+02
-1.527106668800115932e-02 -1.715577602386475053e+00 -8.991317451000213623e-02 7.400000000000000000e+01
-1.469703391194343914e-02 -1.619336366653441939e+00 3.738686442375183105e-01 8.700000000000000000e+01
-1.575979217886925091e-02 -1.703667521476746050e+00 -2.973890118300915111e-02 8.000000000000000000e+01
-1.517149992287158966e-02 -1.640071868896483931e+00 4.394747316837310791e-01 9.200000000000000000e+01
-7.794925943017005920e-03 -7.321302890777587891e-01 -1.961848288774490079e-01 7.000000000000000000e+00
-1.828441768884659160e-02 -1.689643621444701926e+00 2.949456684291363109e-02 7.500000000000000000e+01
-1.967006362974644054e-02 -1.788835287094115989e+00 -4.130101501941680908e-01 7.900000000000000000e+01
-1.842734403908253063e-02 -1.649633049964905007e+00 8.645900338888168335e-02 7.100000000000000000e+01
-1.991180889308452953e-02 -1.782523751258850098e+00 -3.465091288089752197e-01 7.600000000000000000e+01
-1.887305080890655865e-02 -1.663538098335265891e+00 1.455500870943068903e-01 8.400000000000000000e+01
-2.045602723956108093e-02 -1.775745868682861106e+00 -2.812691628932952881e-01 6.300000000000000000e+01
-1.966103538870811115e-02 -1.681258201599121094e+00 2.064466625452041904e-01 8.500000000000000000e+01
-2.042564935982226978e-02 -1.720953822135925071e+00 -2.113214433193207065e-01 6.800000000000000000e+01
-1.945894025266170849e-02 -1.615740895271301047e+00 2.559267878532410223e-01 7.800000000000000000e+01
-2.087417989969253887e-02 -1.733253121376038042e+00 -1.516509950160979947e-01 7.800000000000000000e+01
-1.973972097039223064e-02 -1.615637779235840066e+00 3.140715956687927246e-01 1.000000000000000000e+02
-2.128420583903789867e-02 -1.717510938644408958e+00 -9.001784771680831909e-02 7.200000000000000000e+01
-2.039845846593379974e-02 -1.623172402381896973e+00 3.747684657573699951e-01 8.500000000000000000e+01
-2.168112806975841869e-02 -1.701602697372436968e+00 -2.970399521291255951e-02 8.200000000000000000e+01
-2.110771089792251934e-02 -1.634210228919982910e+00 4.379218220710753839e-01 1.000000000000000000e+02
-1.024124957621098085e-02 -7.243719696998596191e-01 -1.941142827272414884e-01 7.000000000000000000e+00
-2.418226376175880085e-02 -1.689569592475890891e+00 2.949456684291363109e-02 7.500000000000000000e+01
-2.608351781964302063e-02 -1.800446987152100053e+00 -4.157095551490784247e-01 8.100000000000000000e+01
-2.433192729949951172e-02 -1.659543871879578081e+00 8.698236197233200073e-02 7.700000000000000000e+01
-2.601872943341732025e-02 -1.774591207504272017e+00 -3.449826538562775213e-01 6.300000000000000000e+01
-2.444331347942351948e-02 -1.647524714469909890e+00 1.441555917263031006e-01 8.600000000000000000e+01
-2.650616876780987133e-02 -1.765787839889525923e+00 -2.797048091888427734e-01 7.700000000000000000e+01
-2.568030729889870037e-02 -1.691103696823119895e+00 2.076653540134429932e-01 8.700000000000000000e+01
-2.652423828840256084e-02 -1.726826667785644975e+00 -2.120526582002640048e-01 7.300000000000000000e+01
-2.484716102480888020e-02 -1.617642641067505105e+00 2.562396526336669922e-01 7.500000000000000000e+01
-2.689328789710998882e-02 -1.731177449226378950e+00 -1.514766812324523926e-01 7.300000000000000000e+01
-2.528671734035015106e-02 -1.609669923782349077e+00 3.129267394542694092e-01 1.000000000000000000e+02
-2.734274789690971028e-02 -1.721420168876647949e+00 -9.022718667984008789e-02 7.200000000000000000e+01
-2.618942223489284862e-02 -1.630885243415832964e+00 3.765680789947509766e-01 8.700000000000000000e+01
-2.768561244010924946e-02 -1.705515503883362038e+00 -2.977380529046059002e-02 8.200000000000000000e+01
-2.627598680555820118e-02 -1.618678450584412065e+00 4.337807297706604004e-01 1.000000000000000000e+02
-1.297403313219546925e-02 -7.359211444854736328e-01 -1.972201168537139893e-01 7.000000000000000000e+00
-2.993742562830448151e-02 -1.681477308273314986e+00 2.935494855046271931e-02 7.700000000000000000e+01
-3.229803219437599182e-02 -1.796448111534119096e+00 -4.148097336292266846e-01 8.100000000000000000e+01
-3.041467815637588848e-02 -1.675424337387084961e+00 8.781973272562026978e-02 7.700000000000000000e+01
-3.242685273289679787e-02 -1.786267161369323953e+00 -3.472723662853240967e-01 5.600000000000000000e+01
-3.034014068543910980e-02 -1.655397534370421919e+00 1.448528468608855924e-01 8.600000000000000000e+01
-3.237741068005561829e-02 -1.749884247779845969e+00 -2.772018611431121826e-01 8.600000000000000000e+01
-3.139785677194595337e-02 -1.681079983711242898e+00 2.064466625452041904e-01 8.500000000000000000e+01
-3.262665867805480957e-02 -1.730692982673645020e+00 -2.125401347875595093e-01 7.000000000000000000e+01
-3.100141696631908070e-02 -1.629390835762023926e+00 2.581168711185454767e-01 7.200000000000000000e+01
-3.263285383582115173e-02 -1.715136885643004927e+00 -1.500821858644484919e-01 7.300000000000000000e+01
-3.075460158288478851e-02 -1.601720333099365012e+00 3.114002943038939875e-01 9.600000000000000000e+01
-3.319669514894484780e-02 -1.713326692581176980e+00 -8.980850130319595337e-02 6.900000000000000000e+01
-3.203447908163070679e-02 -1.638577342033386008e+00 3.783676624298096258e-01 7.800000000000000000e+01
-3.363880142569541931e-02 -1.705408453941344993e+00 -2.977380529046059002e-02 8.600000000000000000e+01
-3.224699944257736206e-02 -1.620502710342407005e+00 4.342983663082122803e-01 9.500000000000000000e+01
-1.537961885333061045e-02 -7.281456589698791504e-01 -1.951495558023453036e-01 7.000000000000000000e+00
-3.580669313669204712e-02 -1.681362628936768022e+00 2.935494855046271931e-02 7.700000000000000000e+01
-3.831762075424194336e-02 -1.784634709358215110e+00 -4.121103286743164062e-01 6.900000000000000000e+01
-3.604670614004135132e-02 -1.665323972702025923e+00 8.729637414216995239e-02 7.500000000000000000e+01
-3.857692331075668335e-02 -1.782217502593993919e+00 -3.465091288089752197e-01 6.000000000000000000e+01
-3.611837327480316162e-02 -1.655281543731689009e+00 1.448528468608855924e-01 8.400000000000000000e+01
-3.848544880747795105e-02 -1.749760508537292036e+00 -2.772018611431121826e-01 8.600000000000000000e+01
-3.722173348069190979e-02 -1.678975582122802956e+00 2.062029242515563965e-01 9.000000000000000000e+01
-3.849032893776894310e-02 -1.722630143165587935e+00 -2.115651816129683893e-01 6.600000000000000000e+01
-3.671338781714438698e-02 -1.643103241920470969e+00 2.603069543838500977e-01 6.600000000000000000e+01
-3.852989152073860168e-02 -1.711028695106505904e+00 -1.497335731983185092e-01 7.500000000000000000e+01
-3.634546324610710144e-02 -1.601603269577025923e+00 3.114002943038939875e-01 9.600000000000000000e+01
-3.881183266639708779e-02 -1.697226524353026900e+00 -8.897112309932708740e-02 6.700000000000000000e+01
-3.757441788911818764e-02 -1.630662679672240989e+00 3.765680789947509766e-01 7.600000000000000000e+01
-3.977724164724349976e-02 -1.713277220726012962e+00 -2.991342544555664062e-02 8.200000000000000000e+01
-3.779996186494827271e-02 -1.628112196922302024e+00 4.363689124584197998e-01 9.200000000000000000e+01
-1.868181116878986012e-02 -7.589878439903259277e-01 -2.034317702054976862e-01 6.000000000000000000e+00
-4.177463427186012268e-02 -1.685225486755371094e+00 2.942475676536560059e-02 7.500000000000000000e+01
-4.474145174026489258e-02 -1.792282581329345925e+00 -4.139099419116973877e-01 6.000000000000000000e+01
-4.170897975564002991e-02 -1.659198164939879927e+00 8.698236197233200073e-02 7.700000000000000000e+01
-4.460043832659720681e-02 -1.774221420288085938e+00 -3.449826538562775213e-01 6.800000000000000000e+01
-4.219866171479225159e-02 -1.667095899581908958e+00 1.458987146615982056e-01 8.000000000000000000e+01
-4.479433968663216331e-02 -1.757514476776123047e+00 -2.784533500671387274e-01 8.200000000000000000e+01
-4.313315078616142273e-02 -1.680819869041443093e+00 2.064466625452041904e-01 8.500000000000000000e+01
-4.455446824431418679e-02 -1.724469780921936035e+00 -2.118089199066162109e-01 6.400000000000000000e+01
-4.239764437079430320e-02 -1.640990376472472922e+00 2.599940896034240723e-01 7.500000000000000000e+01
-4.470948874950408936e-02 -1.718850612640381081e+00 -1.504308134317398071e-01 8.800000000000000000e+01
-4.219283908605576255e-02 -1.611279487609863059e+00 3.133083581924437921e-01 9.300000000000000000e+01
-4.494654387235640786e-02 -1.705066919326782005e+00 -8.938981592655181885e-02 6.700000000000000000e+01
-4.300780221819878318e-02 -1.620781302452086958e+00 3.743185400962830145e-01 8.900000000000000000e+01
-4.543709754943847656e-02 -1.701134085655211958e+00 -2.970399521291255951e-02 8.200000000000000000e+01
-4.368922859430313110e-02 -1.635694980621337891e+00 4.384394586086273193e-01 9.200000000000000000e+01
-2.046261914074420929e-02 -7.280205488204956055e-01 -1.951495558023453036e-01 7.000000000000000000e+00
-4.805264249444007874e-02 -1.699061751365662065e+00 2.966909110546112061e-02 7.300000000000000000e+01
