-9.762825369834899902e-01 -1.315524697303771973e+00 -4.389570951461791992e-01 6.100000000000000000e+01
-9.829567074775695801e-01 -1.323552250862122026e+00 -3.806171715259552002e-01 5.400000000000000000e+01
-9.694357514381408691e-01 -1.304870486259460005e+00 -3.159796893596649170e-01 6.300000000000000000e+01
-9.829514622688293457e-01 -1.322098493576050027e+00 -2.609326839447020929e-01 4.900000000000000000e+01
-9.858798384666442871e-01 -1.325070977210998979e+00 -2.027905881404876987e-01 5.200000000000000000e+01
-9.790296554565429688e-01 -1.315384626388550027e+00 -1.434583514928818027e-01 5.500000000000000000e+01
-9.997785687446594238e-01 -1.342283487319946067e+00 -8.771505951881408691e-02 4.700000000000000000e+01
-1.110783576965332031e+00 -1.490773439407349077e+00 4.292066097259520929e-01 1.400000000000000000e+01
-1.014612913131714089e+00 -1.361207723617553933e+00 -2.963418699800968170e-02 1.100000000000000000e+01
-1.041379809379578081e+00 -1.397118210792541948e+00 4.669095575809478760e-01 6.200000000000000000e+01
-9.847982525825500488e-01 -1.316406965255737083e+00 -4.405100047588347834e-01 6.400000000000000000e+01
-1.022017002105712891e+00 -1.365661263465880904e+00 2.977380529046059002e-02 1.000000000000000000e+00
-9.880315065383911133e-01 -1.319768309593200906e+00 -3.806171715259552002e-01 5.400000000000000000e+01
-9.803232550621032715e-01 -1.308995723724365012e+00 -3.178877830505371094e-01 6.500000000000000000e+01
-9.820973277091979980e-01 -1.310410976409912109e+00 -2.593683302402495783e-01 5.000000000000000000e+01
-9.909604191780090332e-01 -1.321275711059570090e+00 -2.027905881404876987e-01 5.600000000000000000e+01
-9.792903065681457520e-01 -1.305240869522094949e+00 -1.427611112594603937e-01 6.000000000000000000e+01
-9.977300167083740234e-01 -1.328851580619812012e+00 -8.708702772855758667e-02 4.800000000000000000e+01
-1.122351169586182085e+00 -1.494288206100464089e+00 4.314561188220977783e-01 1.600000000000000000e+01
-1.035447955131530984e+00 -1.378085017204284890e+00 -3.008794784545898091e-02 4.600000000000000000e+01
-1.043255329132080078e+00 -1.388476014137268066e+00 4.653566479682921808e-01 6.500000000000000000e+01
-9.905499815940856934e-01 -1.314504265785217063e+00 -4.410276412963867188e-01 6.100000000000000000e+01
-1.020759224891663042e+00 -1.354101419448852983e+00 2.959928102791309010e-02 1.700000000000000000e+01
-9.867657423019409180e-01 -1.308531761169434038e+00 -3.783676624298096258e-01 5.200000000000000000e+01
-9.860688447952270508e-01 -1.307133078575134055e+00 -3.182694017887114923e-01 6.200000000000000000e+01
-9.819048047065734863e-01 -1.300668597221374956e+00 -2.581168711185454767e-01 5.100000000000000000e+01
-9.800108075141906738e-01 -1.297217726707458052e+00 -1.996219903230667114e-01 5.200000000000000000e+01
-9.886455535888671875e-01 -1.308172583580017090e+00 -1.434583514928818027e-01 6.200000000000000000e+01
-9.903149008750915527e-01 -1.309430956840514915e+00 -8.604031056165695190e-02 5.300000000000000000e+01
-1.136966586112976074e+00 -1.502794027328490989e+00 4.350553452968596857e-01 2.200000000000000000e+01
-1.028184175491333008e+00 -1.358517169952393022e+00 -2.973890118300915111e-02 5.200000000000000000e+01
-1.051835656166077104e+00 -1.389263510704040971e+00 4.669095575809478760e-01 6.100000000000000000e+01
-9.998043775558471680e-01 -1.317193627357482910e+00 -4.430982172489166260e-01 6.100000000000000000e+01
-1.023061037063599077e+00 -1.347344875335692915e+00 2.952947095036507000e-02 4.200000000000000000e+01
-9.877910614013671875e-01 -1.300423860549926980e+00 -3.770179748535156250e-01 5.000000000000000000e+01
-1.042587161064147949e+00 -1.372562646865844949e+00 9.033185988664627075e-02 8.000000000000000000e+00
-9.918134212493896484e-01 -1.305246233940124956e+00 -3.186510205268859863e-01 5.800000000000000000e+01
-1.116482377052306907e+00 -1.468780875205994096e+00 1.614124327898026068e-01 1.000000000000000000e+00
-9.936131238937377930e-01 -1.306667566299438032e+00 -2.599940896034240723e-01 5.000000000000000000e+01
-9.797244668006896973e-01 -1.287470102310181108e+00 -1.986470371484755915e-01 5.200000000000000000e+01
-9.895854592323303223e-01 -1.299957752227782981e+00 -1.429354250431061069e-01 6.600000000000000000e+01
-9.936692714691162109e-01 -1.304377436637877974e+00 -8.593563735485076904e-02 5.600000000000000000e+01
-1.132755875587462935e+00 -1.486416339874268022e+00 4.314561188220977783e-01 5.000000000000000000e+00
-1.015947103500365989e+00 -1.332655906677246094e+00 -2.925023250281811107e-02 5.100000000000000000e+01
-1.063464164733886941e+00 -1.394985795021056907e+00 4.700153768062592108e-01 6.800000000000000000e+01
-1.000876069068908913e+00 -1.309091567993164062e+00 -4.415452778339385986e-01 5.300000000000000000e+01
-1.019254088401793990e+00 -1.332646846771240012e+00 2.928513847291469921e-02 4.300000000000000000e+01
-9.982451796531677246e-01 -1.304706335067749023e+00 -3.792674839496613104e-01 5.200000000000000000e+01
-1.043730974197387917e+00 -1.364156246185302956e+00 9.001784771680831909e-02 4.200000000000000000e+01
-9.927837848663330078e-01 -1.297099113464355025e+00 -3.175061643123627264e-01 6.700000000000000000e+01
-1.080420613288878950e+00 -1.411088705062865989e+00 1.554858386516571045e-01 1.600000000000000000e+01
-9.957658052444458008e-01 -1.300054788589477983e+00 -2.593683302402495783e-01 5.100000000000000000e+01
-1.066088199615478960e+00 -1.391363263130187988e+00 2.152212560176849088e-01 1.000000000000000000e+00
-9.817973971366882324e-01 -1.280891418457031028e+00 -1.981595456600188931e-01 5.300000000000000000e+01
-9.819937944412231445e-01 -1.280684590339661089e+00 -1.411923021078110019e-01 6.700000000000000000e+01
-1.003079771995543990e+00 -1.307239055633544922e+00 -8.635433018207550049e-02 6.000000000000000000e+01
-1.014503359794616921e+00 -1.321171283721924050e+00 -2.907570824027061115e-02 5.200000000000000000e+01
-1.065973997116089089e+00 -1.388200759887695090e+00 4.689801037311553955e-01 6.100000000000000000e+01
-1.001903414726257102e+00 -1.300998091697693093e+00 -4.399923682212830145e-01 5.100000000000000000e+01
-1.012916207313538042e+00 -1.314823746681212935e+00 2.897099405527114868e-02 4.800000000000000000e+01
-1.009930729866028054e+00 -1.310475230216979980e+00 -3.819668889045714777e-01 6.100000000000000000e+01
-1.040187716484070046e+00 -1.349249243736267090e+00 8.928514271974563599e-02 4.000000000000000000e+01
-9.997028112411499023e-01 -1.296735405921936035e+00 -3.182694017887114923e-01 6.200000000000000000e+01
-1.067088484764098899e+00 -1.383643269538878950e+00 1.528711766004562100e-01 3.000000000000000000e+01
-9.930580258369445801e-01 -1.287186861038208008e+00 -2.574911415576934814e-01 5.000000000000000000e+01
-1.070938467979430930e+00 -1.387633442878722922e+00 2.152212560176849088e-01 1.100000000000000000e+01
-9.923281073570251465e-01 -1.285312891006469949e+00 -1.993782520294188898e-01 5.900000000000000000e+01
-9.840224981307983398e-01 -1.274095296859740989e+00 -1.408436745405196866e-01 7.000000000000000000e+01
-1.003972649574280007e+00 -1.298988819122314009e+00 -8.604031056165695190e-02 6.300000000000000000e+01
-1.019108891487122026e+00 -1.317621946334839089e+00 -2.907570824027061115e-02 5.200000000000000000e+01
-1.062779545783997026e+00 -1.373589038848876953e+00 4.653566479682921808e-01 6.000000000000000000e+01
-1.018279075622559038e+00 -1.312757492065429910e+00 -4.451687633991240900e-01 4.400000000000000000e+01
-1.008918285369873047e+00 -1.300220966339111106e+00 2.872666157782078136e-02 5.000000000000000000e+01
-1.012109041213989036e+00 -1.303863167762755904e+00 -3.810670971870421808e-01 5.300000000000000000e+01
-1.033634066581726074e+00 -1.331593036651611106e+00 8.834309130907058716e-02 4.500000000000000000e+01
-1.010243654251099077e+00 -1.300991177558898926e+00 -3.201774954795836847e-01 5.800000000000000000e+01
-1.047466754913330078e+00 -1.348441123962401900e+00 1.493849456310271939e-01 3.600000000000000000e+01
-9.951209425926208496e-01 -1.280593037605286089e+00 -2.568653821945189875e-01 5.100000000000000000e+01
-1.058719158172606978e+00 -1.361945152282715066e+00 2.118089199066162109e-01 2.300000000000000000e+01
-9.980272650718688965e-01 -1.283408284187316895e+00 -1.996219903230667114e-01 5.700000000000000000e+01
-1.097674965858459029e+00 -1.411041378974914995e+00 2.831463813781737726e-01 6.000000000000000000e+00
-9.921339750289916992e-01 -1.275370359420775923e+00 -1.413666158914566040e-01 7.200000000000000000e+01
-1.006047129631042036e+00 -1.292324423789978027e+00 -8.583097159862518311e-02 6.300000000000000000e+01
-1.023702025413512962e+00 -1.314056634902954102e+00 -2.907570824027061115e-02 5.200000000000000000e+01
-1.065192818641663042e+00 -1.366823315620421919e+00 4.643213748931884766e-01 5.700000000000000000e+01
-1.046642661094665971e+00 -1.339641451835632102e+00 -4.555215239524840753e-01 4.900000000000000000e+01
-1.015913605690001997e+00 -1.299842476844788042e+00 2.879646979272365917e-02 5.000000000000000000e+01
-1.013053297996520996e+00 -1.295716643333435059e+00 -3.797173798084259033e-01 5.500000000000000000e+01
-1.037045717239380105e+00 -1.326403379440308061e+00 8.823842555284500122e-02 5.400000000000000000e+01
-1.014778852462768999e+00 -1.297456860542296919e+00 -3.201774954795836847e-01 5.300000000000000000e+01
-1.055850505828856978e+00 -1.349484086036681907e+00 1.499078720808028897e-01 3.900000000000000000e+01
-9.971499443054199219e-01 -1.274000525474547896e+00 -2.562396526336669922e-01 5.100000000000000000e+01
-1.052452802658081055e+00 -1.344174265861511008e+00 2.096152752637862882e-01 3.500000000000000000e+01
-9.988289475440979004e-01 -1.275228261947632058e+00 -1.988907754421234131e-01 5.200000000000000000e+01
-1.107220292091370073e+00 -1.413614153861999956e+00 2.843978703022003174e-01 1.200000000000000000e+01
-1.003952741622925027e+00 -1.281309247016906960e+00 -1.424124836921691895e-01 7.700000000000000000e+01
-1.004390120506287065e+00 -1.280946135520935059e+00 -8.530760556459426880e-02 6.400000000000000000e+01
-1.028282761573791948e+00 -1.310475230216979980e+00 -2.907570824027061115e-02 5.900000000000000000e+01
-1.084271192550658958e+00 -1.381332159042357954e+00 4.705330133438109796e-01 5.700000000000000000e+01
-1.063259243965148926e+00 -1.351161479949950950e+00 -4.606978893280028742e-01 4.900000000000000000e+01
-1.015497088432312012e+00 -1.290003299713134988e+00 2.865685150027275085e-02 5.000000000000000000e+01
-1.021187067031859907e+00 -1.296765565872191939e+00 -3.810670971870421808e-01 4.900000000000000000e+01
-1.026841402053833008e+00 -1.303945899009705034e+00 8.698236197233200073e-02 5.300000000000000000e+01
-1.018086791038512962e+00 -1.292364478111267090e+00 -3.197958767414093018e-01 5.200000000000000000e+01
-1.054388642311095969e+00 -1.337965846061706987e+00 1.490363180637359897e-01 3.800000000000000000e+01
-1.004036784172058105e+00 -1.273614645004272017e+00 -2.568653821945189875e-01 5.100000000000000000e+01
-1.054679989814758079e+00 -1.337374925613403098e+00 2.091277986764908114e-01 3.700000000000000000e+01
-9.983562231063842773e-01 -1.265499949455261008e+00 -1.979158073663712103e-01 4.900000000000000000e+01
-1.084007859230041948e+00 -1.374070644378662109e+00 2.772018611431121826e-01 1.300000000000000000e+01
-1.013356447219849077e+00 -1.284053087234497070e+00 -1.431097239255904874e-01 7.700000000000000000e+01
-1.096079945564270020e+00 -1.388376116752624956e+00 3.438377976417542059e-01 4.000000000000000000e+00
-1.008855342864990012e+00 -1.277432441711426003e+00 -8.530760556459426880e-02 6.000000000000000000e+01
-1.022931575775146040e+00 -1.294326782226562944e+00 -2.879646979272365917e-02 5.500000000000000000e+01
-1.099869370460510032e+00 -1.391178011894226074e+00 4.751917719841002863e-01 6.900000000000000000e+01
-1.057903289794922097e+00 -1.335699319839477983e+00 -4.565567970275878906e-01 2.000000000000000000e+01
-1.033204913139343040e+00 -1.304047703742980957e+00 2.904080413281917919e-02 5.300000000000000000e+01
-1.033729076385498047e+00 -1.304241538047790971e+00 -3.842163980007172186e-01 4.700000000000000000e+01
-1.033414006233215110e+00 -1.303843975067138894e+00 8.719170093536376953e-02 5.400000000000000000e+01
-1.024581313133239968e+00 -1.292236447334289995e+00 -3.205591142177581787e-01 5.100000000000000000e+01
-1.051158070564270020e+00 -1.325280904769897017e+00 1.479904502630234042e-01 4.200000000000000000e+01
-1.016627669334412065e+00 -1.281286239624022993e+00 -2.590554654598236084e-01 4.900000000000000000e+01
-1.058876156806946023e+00 -1.334054946899414062e+00 2.091277986764908114e-01 4.100000000000000000e+01
-1.019608497619628906e+00 -1.284122109413146973e+00 -2.013281583786011020e-01 5.200000000000000000e+01
-1.068665623664855957e+00 -1.345906019210814986e+00 2.721959650516510010e-01 3.600000000000000000e+01
-1.014907002449036089e+00 -1.277742981910706010e+00 -1.427611112594603937e-01 7.700000000000000000e+01
-1.107764363288878950e+00 -1.394148468971251997e+00 3.461275100708007812e-01 2.000000000000000000e+01
-1.016591787338257058e+00 -1.278947234153748003e+00 -8.562162518501281738e-02 6.300000000000000000e+01
-1.216491580009460005e+00 -1.529887557029723899e+00 4.512518048286437988e-01 1.000000000000000000e+00
-1.019523620605468972e+00 -1.281716942787169966e+00 -2.858704142272472035e-02 5.700000000000000000e+01
-1.120828747749329057e+00 -1.409074783325195090e+00 4.824387133121489923e-01 6.900000000000000000e+01
-1.072196960449218972e+00 -1.344079971313477007e+00 -4.606978893280028742e-01 1.000000000000000000e+00
-1.027772188186645952e+00 -1.287928938865662065e+00 2.876156568527222027e-02 5.300000000000000000e+01
-1.049217462539673074e+00 -1.314332008361815962e+00 -3.882655203342437744e-01 2.600000000000000000e+01
-1.041697144508362038e+00 -1.304911494255065918e+00 8.750572055578231812e-02 5.700000000000000000e+01
-1.030310869216918945e+00 -1.290186285972594993e+00 -3.209407329559326172e-01 4.700000000000000000e+01
-1.047072887420654075e+00 -1.310706973075866921e+00 1.467702686786651889e-01 4.800000000000000000e+01
-1.026026844978332964e+00 -1.283902287483215110e+00 -2.603069543838500977e-01 4.300000000000000000e+01
-1.067245125770569070e+00 -1.335002303123473899e+00 2.098590135574341098e-01 4.600000000000000000e+01
-1.029043912887573020e+00 -1.286756396293639915e+00 -2.023031115531921109e-01 5.100000000000000000e+01
-1.073357224464416948e+00 -1.342167496681212935e+00 2.721959650516510010e-01 5.000000000000000000e+01
-1.014382362365723100e+00 -1.267969369888306108e+00 -1.420638561248779019e-01 7.600000000000000000e+01
-1.099130272865294966e+00 -1.373412013053894043e+00 3.419297337532042902e-01 4.000000000000000000e+01
-1.024794697761536089e+00 -1.280068278312683105e+00 -8.593563735485076904e-02 6.400000000000000000e+01
-1.153607010841370073e+00 -1.440452098846435991e+00 4.260573089122772217e-01 6.000000000000000000e+00
-1.026492118835448997e+00 -1.281271576881408913e+00 -2.865685150027275085e-02 5.600000000000000000e+01
-1.109071731567383035e+00 -1.383852839469909890e+00 4.751917719841002863e-01 3.700000000000000000e+01
-1.720965266227721946e+00 -2.141214370727539062e+00 -7.360813617706298828e-01 1.800000000000000000e+01
-1.027473688125609907e+00 -1.277919650077820046e+00 2.862194739282130848e-02 5.500000000000000000e+01
-1.047951936721801980e+00 -1.302458047866821067e+00 8.761039376258850098e-02 5.300000000000000000e+01
-1.041186332702636941e+00 -1.294049382209778054e+00 -3.228488266468048096e-01 4.100000000000000000e+01
-1.053119182586669922e+00 -1.308412551879883035e+00 1.469445824623107910e-01 5.600000000000000000e+01
-1.038158774375915971e+00 -1.289364814758301003e+00 -2.621841728687285822e-01 4.300000000000000000e+01
-1.068395376205443892e+00 -1.326443791389465110e+00 2.091277986764908114e-01 4.500000000000000000e+01
-1.041226148605346902e+00 -1.292250633239746094e+00 -2.037655413150787076e-01 5.200000000000000000e+01
-1.068354249000549094e+00 -1.325918912887573020e+00 2.696930170059204102e-01 5.200000000000000000e+01
-1.021523594856261985e+00 -1.267345309257507102e+00 -1.424124836921691895e-01 7.200000000000000000e+01
-1.096762895584106001e+00 -1.360204339027405007e+00 3.396400213241577148e-01 5.700000000000000000e+01
-1.028225541114806907e+00 -1.274749040603637917e+00 -8.583097159862518311e-02 6.700000000000000000e+01
-1.130732774734497070e+00 -1.401332497596740945e+00 4.157095551490784247e-01 1.700000000000000000e+01
-1.034949302673340066e+00 -1.282168745994568093e+00 -2.876156568527222027e-02 5.900000000000000000e+01
-1.118749141693115012e+00 -1.385985970497130904e+00 4.772623181343079168e-01 4.200000000000000000e+01
-1.738152980804442915e+00 -2.147206306457519975e+00 -7.402224540710449219e-01 1.800000000000000000e+01
-1.038220524787903054e+00 -1.282095551490783913e+00 2.879646979272365917e-02 5.700000000000000000e+01
-2.021512985229492188e+00 -2.495469808578491211e+00 -7.414386868476867676e-01 2.600000000000000000e+01
-1.047462224960326926e+00 -1.292585253715514915e+00 8.719170093536376953e-02 5.300000000000000000e+01
-1.041988849639893022e+00 -1.285831093788146973e+00 -3.217039704322814941e-01 8.000000000000000000e+00
-1.055170655250549094e+00 -1.301633119583130105e+00 1.465959548950195035e-01 5.800000000000000000e+01
-1.045141696929932085e+00 -1.288801670074462891e+00 -2.628099024295806885e-01 4.700000000000000000e+01
-1.063014149665832964e+00 -1.310373306274414062e+00 2.071778774261474887e-01 4.700000000000000000e+01
-1.049483180046081987e+00 -1.293232440948486106e+00 -2.044967561960220059e-01 5.200000000000000000e+01
-1.083166956901550071e+00 -1.334263443946837935e+00 2.721959650516510010e-01 5.100000000000000000e+01
-1.032220005989074929e+00 -1.271506071090698020e+00 -1.432840377092360895e-01 6.700000000000000000e+01
-1.099028825759887917e+00 -1.353319644927978960e+00 3.388767838478087824e-01 5.600000000000000000e+01
-1.023853540420532005e+00 -1.260300874710083008e+00 -8.509826660156250000e-02 6.400000000000000000e+01
-1.120869159698486106e+00 -1.379229307174683061e+00 4.103107154369354248e-01 2.900000000000000000e+01
-1.044464349746704102e+00 -1.284754872322082964e+00 -2.890118584036827087e-02 5.200000000000000000e+01
-1.110413670539855957e+00 -1.365389585494994895e+00 4.715682864189147949e-01 4.300000000000000000e+01
-1.741127252578734907e+00 -2.134832859039307085e+00 -7.381519079208374023e-01 1.700000000000000000e+01
-1.042912602424622026e+00 -1.278281688690185991e+00 2.879646979272365917e-02 5.700000000000000000e+01
-2.029413461685181108e+00 -2.486534118652344194e+00 -7.409887909889221191e-01 2.700000000000000000e+01
-1.042087554931641069e+00 -1.276360630989074929e+00 8.635433018207550049e-02 5.400000000000000000e+01
-2.432354688644409180e+00 -2.979175090789794922e+00 -7.475896477699279785e-01 1.400000000000000000e+01
-1.070016860961914062e+00 -1.310101866722106934e+00 1.479904502630234042e-01 5.800000000000000000e+01
-1.054857611656188965e+00 -1.291081309318542036e+00 -2.640613913536071777e-01 5.300000000000000000e+01
-1.060272216796875000e+00 -1.297246217727660911e+00 2.057154476642608920e-01 4.900000000000000000e+01
-1.052959561347960982e+00 -1.287840366363524947e+00 -2.042530179023742953e-01 5.400000000000000000e+01
-1.082816362380981001e+00 -1.324357151985168013e+00 2.709445059299468994e-01 5.200000000000000000e+01
-1.043180346488953081e+00 -1.275425434112549050e+00 -1.441555917263031006e-01 6.200000000000000000e+01
-1.107711315155029075e+00 -1.353840827941894975e+00 3.400216400623322088e-01 5.500000000000000000e+01
-1.034790992736815962e+00 -1.264267563819885032e+00 -8.562162518501281738e-02 6.300000000000000000e+01
-1.118509411811829057e+00 -1.366065025329590066e+00 4.076113104820250910e-01 4.200000000000000000e+01
-1.049166202545166016e+00 -1.280918121337891069e+00 -2.890118584036827087e-02 5.100000000000000000e+01
-1.116397142410278098e+00 -1.362999796867371050e+00 4.720859527587891180e-01 3.600000000000000000e+01
-1.738758921623229980e+00 -2.116799831390380859e+00 -7.340108156204223633e-01 1.800000000000000000e+01
-1.051176905632019043e+00 -1.279268503189086914e+00 2.890118584036827087e-02 6.000000000000000000e+01
-2.043030500411986861e+00 -2.485456705093383789e+00 -7.427883744239807129e-01 2.800000000000000000e+01
-1.045268058776855025e+00 -1.271172523498534934e+00 8.624965697526931763e-02 5.600000000000000000e+01
-2.441492080688477007e+00 -2.969150066375731978e+00 -7.472079992294311523e-01 1.600000000000000000e+01
-1.066989183425903098e+00 -1.297126531600951926e+00 1.469445824623107910e-01 5.600000000000000000e+01
-1.071909546852112038e+00 -1.302644729614258035e+00 -2.671900689601898193e-01 5.300000000000000000e+01
-1.069840431213378906e+00 -1.299667835235595925e+00 2.066904008388519010e-01 5.400000000000000000e+01
-1.067543506622314009e+00 -1.296416282653809038e+00 -2.062029242515563965e-01 5.400000000000000000e+01
-1.082639217376708984e+00 -1.314280867576598899e+00 2.696930170059204102e-01 5.100000000000000000e+01
-1.047626018524169922e+00 -1.271776199340820090e+00 -1.441555917263031006e-01 6.300000000000000000e+01
-1.113678932189940962e+00 -1.351481080055237038e+00 3.404032588005065918e-01 5.400000000000000000e+01
-1.049361109733581987e+00 -1.272976875305176003e+00 -8.645900338888168335e-02 6.300000000000000000e+01
-1.114592432975769043e+00 -1.351627945899962935e+00 4.044620096683502197e-01 4.500000000000000000e+01
-1.049813508987426980e+00 -1.272620320320128950e+00 -2.879646979272365917e-02 5.400000000000000000e+01
-1.111548542976378950e+00 -1.346978664398192915e+00 4.679448306560515802e-01 4.200000000000000000e+01
-1.748600244522094949e+00 -2.113694429397583008e+00 -7.350460886955261230e-01 1.800000000000000000e+01
-1.053086161613463911e+00 -1.272510290145874023e+00 2.883137576282024037e-02 5.900000000000000000e+01
-2.054179430007935014e+00 -2.481312274932860884e+00 -7.436881661415100098e-01 2.800000000000000000e+01
-1.053520679473876953e+00 -1.272130846977234109e+00 8.656366914510726929e-02 5.400000000000000000e+01
-2.453093767166138139e+00 -2.962121725082397017e+00 -7.475896477699279785e-01 1.500000000000000000e+01
-1.068968415260314941e+00 -1.290325641632080078e+00 1.465959548950195035e-01 5.600000000000000000e+01
-1.079438447952270952e+00 -1.302038311958312988e+00 2.076653540134429932e-01 5.700000000000000000e+01
-1.075863957405090110e+00 -1.297265887260437012e+00 -2.069341391324996948e-01 5.100000000000000000e+01
-1.086991548538208008e+00 -1.310683369636536089e+00 2.696930170059204102e-01 5.100000000000000000e+01
-1.044426202774048074e+00 -1.258911252021789995e+00 -1.431097239255904874e-01 6.300000000000000000e+01
-1.117135882377624956e+00 -1.346074581146240012e+00 3.400216400623322088e-01 5.200000000000000000e+01
-1.052522420883178933e+00 -1.267769455909729004e+00 -8.635433018207550049e-02 6.000000000000000000e+01
-1.119303703308105025e+00 -1.347729086875915971e+00 4.044620096683502197e-01 4.500000000000000000e+01
-1.060638785362244096e+00 -1.276638627052306907e+00 -2.897099405527114868e-02 5.600000000000000000e+01
-1.097491383552551047e+00 -1.320996165275573953e+00 4.601802527904509943e-01 5.100000000000000000e+01
-1.751021265983581987e+00 -2.101641178131103960e+00 -7.329755425453186035e-01 1.800000000000000000e+01
-1.051120162010193093e+00 -1.261145949363708052e+00 2.865685150027275085e-02 5.700000000000000000e+01
-2.061580419540404829e+00 -2.472630023956298828e+00 -7.432382702827453613e-01 2.600000000000000000e+01
-1.064351081848144975e+00 -1.276114583015441895e+00 8.708702772855758667e-02 5.200000000000000000e+01
-2.465933561325072798e+00 -2.956556081771851030e+00 -7.483528852462768555e-01 1.400000000000000000e+01
-1.072189569473267046e+00 -1.285056591033935991e+00 1.464216411113739014e-01 5.900000000000000000e+01
-3.094836235046387163e+00 -3.707953453063964844e+00 -7.649645209312438965e-01 1.200000000000000000e+01
-1.081432223320007102e+00 -1.295214891433716042e+00 2.071778774261474887e-01 6.900000000000000000e+01
-1.081658244132996050e+00 -1.295026183128356934e+00 -2.071778774261474887e-01 4.800000000000000000e+01
-1.095587849617003950e+00 -1.311238288879394975e+00 2.706316113471984863e-01 6.100000000000000000e+01
-1.064144015312195046e+00 -1.273605108261107954e+00 -1.452014744281769076e-01 6.300000000000000000e+01
-1.110496163368225098e+00 -1.328609585762023926e+00 3.365870714187622070e-01 5.600000000000000000e+01
-1.056941390037537065e+00 -1.264087677001952903e+00 -8.635433018207550049e-02 6.000000000000000000e+01
-1.125251650810241921e+00 -1.345308542251586914e+00 4.049119055271149237e-01 5.300000000000000000e+01
-1.066371798515320046e+00 -1.274462103843688965e+00 -2.900590002536774029e-02 5.600000000000000000e+01
-1.104805588722229004e+00 -1.319927573204040971e+00 4.612155258655548096e-01 5.000000000000000000e+01
-1.768280863761902078e+00 -2.107355117797852007e+00 -7.371166348457336426e-01 1.900000000000000000e+01
-1.061944246292114036e+00 -1.265127301216125044e+00 2.883137576282024037e-02 5.400000000000000000e+01
-2.060173749923706055e+00 -2.453479528427124023e+00 -7.396390438079833984e-01 2.300000000000000000e+01
-1.062376022338866965e+00 -1.264744997024535911e+00 8.656366914510726929e-02 5.400000000000000000e+01
-2.478764295578002930e+00 -2.950937032699584961e+00 -7.491161227226257324e-01 1.400000000000000000e+01
-1.077950477600098100e+00 -1.282831430435181108e+00 1.465959548950195035e-01 5.800000000000000000e+01
-3.101405143737792969e+00 -3.689567089080810991e+00 -7.634001970291137695e-01 1.200000000000000000e+01
-1.073171019554137962e+00 -1.276238799095154031e+00 2.047404944896697998e-01 7.700000000000000000e+01
-1.074671506881714089e+00 -1.277570605278014915e+00 -2.049842327833175937e-01 1.700000000000000000e+01
-1.106288075447082964e+00 -1.315156340599060059e+00 2.721959650516510010e-01 7.200000000000000000e+01
-1.074997305870055930e+00 -1.277505159378051980e+00 -1.460730284452438077e-01 5.500000000000000000e+01
-1.113862752914428933e+00 -1.323223233222960982e+00 3.362054526805878241e-01 6.500000000000000000e+01
-1.057487964630126953e+00 -1.255807399749756081e+00 -8.604031056165695190e-02 5.600000000000000000e+01
-1.122407793998718040e+00 -1.332430005073546919e+00 4.022124707698822021e-01 5.100000000000000000e+01
-1.077257037162780984e+00 -1.278377890586853027e+00 -2.918042428791522980e-02 5.300000000000000000e+01
-1.105441927909851074e+00 -1.311824798583983931e+00 4.596626162528992254e-01 4.900000000000000000e+01
-1.775626182556151900e+00 -2.101169824600220171e+00 -7.371166348457336426e-01 1.900000000000000000e+01
-1.065062880516052024e+00 -1.259885668754578081e+00 2.879646979272365917e-02 5.600000000000000000e+01
-2.063692092895507812e+00 -2.440321445465087891e+00 -7.378394603729248047e-01 1.700000000000000000e+01
-1.061624526977539062e+00 -1.254929661750793013e+00 8.614498376846313477e-02 5.400000000000000000e+01
-2.480174064636230025e+00 -2.931774377822875977e+00 -7.464447617530822754e-01 1.300000000000000000e+01
-1.082421779632567915e+00 -1.279060840606689009e+00 1.465959548950195035e-01 5.800000000000000000e+01
-3.118094444274901900e+00 -3.683241844177246094e+00 -7.643387913703918457e-01 1.100000000000000000e+01
-1.077619314193726030e+00 -1.272484898567199929e+00 2.047404944896697998e-01 7.700000000000000000e+01
-3.849433660507202148e+00 -4.543917179107666016e+00 -7.312160730361938477e-01 2.000000000000000000e+01
-1.105992436408997026e+00 -1.305064678192138894e+00 2.709445059299468994e-01 7.200000000000000000e+01
-1.092331409454345925e+00 -1.288944721221924050e+00 -1.478161364793776911e-01 5.100000000000000000e+01
-1.119744420051574929e+00 -1.320824623107909934e+00 3.365870714187622070e-01 6.900000000000000000e+01
-1.077366828918457031e+00 -1.270387411117553933e+00 -8.729637414216995239e-02 5.300000000000000000e+01
-1.113184452056884988e+00 -1.312157750129699929e+00 3.972635567188262939e-01 5.200000000000000000e+01
-1.079124927520751953e+00 -1.271560430526732954e+00 -2.911061421036719929e-02 5.400000000000000000e+01
-1.108992338180541992e+00 -1.306291699409485085e+00 4.591449797153472900e-01 5.200000000000000000e+01
-1.777576923370361106e+00 -2.089384555816649947e+00 -7.350460886955261230e-01 1.900000000000000000e+01
-1.078307271003722922e+00 -1.267006754875183105e+00 2.904080413281917919e-02 5.500000000000000000e+01
-2.079352617263793945e+00 -2.442367315292357954e+00 -7.405388951301574707e-01 1.900000000000000000e+01
-1.063190221786499023e+00 -1.248361110687256081e+00 8.593563735485076904e-02 5.400000000000000000e+01
-2.492428302764893022e+00 -2.926522970199584961e+00 -7.472079992294311523e-01 1.300000000000000000e+01
-1.085365295410156028e+00 -1.273947834968566895e+00 1.464216411113739014e-01 5.900000000000000000e+01
-3.140541791915893999e+00 -3.684909105300902876e+00 -7.668417692184448242e-01 1.200000000000000000e+01
-1.090848445892333984e+00 -1.279478669166564941e+00 2.064466625452041904e-01 8.200000000000000000e+01
-3.865768671035767046e+00 -4.532637596130371094e+00 -7.314597964286804199e-01 2.800000000000000000e+01
-1.102395772933959961e+00 -1.292565822601317915e+00 2.690672874450684149e-01 7.200000000000000000e+01
-1.096599698066710982e+00 -1.285315394401550071e+00 -1.478161364793776911e-01 4.900000000000000000e+01
-1.121569275856018066e+00 -1.314117431640625000e+00 3.358238339424132746e-01 6.500000000000000000e+01
-1.093245267868041992e+00 -1.280478239059448020e+00 -8.823842555284500122e-02 4.900000000000000000e+01
-1.118795275688170943e+00 -1.309940934181212935e+00 3.977134525775908869e-01 5.300000000000000000e+01
-1.082036733627318892e+00 -1.266454577445984109e+00 -2.907570824027061115e-02 5.000000000000000000e+01
-1.104306459426880105e+00 -1.292519807815551980e+00 4.555215239524840753e-01 4.900000000000000000e+01
-1.777317762374877930e+00 -2.074364662170410156e+00 -7.319402694702148438e-01 1.900000000000000000e+01
-1.087928771972656028e+00 -1.269308328628540039e+00 2.918042428791522980e-02 5.200000000000000000e+01
-2.091670751571654829e+00 -2.439532518386840820e+00 -7.418885827064514160e-01 1.900000000000000000e+01
-1.079244017601012962e+00 -1.258286356925963911e+00 8.687768876552581787e-02 5.000000000000000000e+01
-2.500072240829468218e+00 -2.914824724197388139e+00 -7.464447617530822754e-01 1.400000000000000000e+01
-1.080723881721497026e+00 -1.259566783905029075e+00 1.452014744281769076e-01 5.800000000000000000e+01
-3.139233112335205078e+00 -3.657435655593872070e+00 -7.634001970291137695e-01 1.200000000000000000e+01
-1.094014763832092063e+00 -1.274156928062438965e+00 2.062029242515563965e-01 7.700000000000000000e+01
-3.903555154800415039e+00 -4.544715404510498047e+00 -7.356033325195312500e-01 3.300000000000000000e+01
-1.104326725006103960e+00 -1.285712838172913042e+00 2.684415280818939209e-01 7.600000000000000000e+01
-1.106273293495178001e+00 -1.287524461746216042e+00 -1.485133916139602939e-01 2.000000000000000000e+01
-1.126149535179137962e+00 -1.310194492340087891e+00 3.358238339424132746e-01 6.500000000000000000e+01
-1.110729813575745073e+00 -1.291798472404479980e+00 -8.928514271974563599e-02 4.600000000000000000e+01
-1.124631762504578081e+00 -1.307505011558532937e+00 3.981633782386779785e-01 5.100000000000000000e+01
-1.099493503570557085e+00 -1.277827978134155051e+00 -2.942475676536560059e-02 5.200000000000000000e+01
-1.099991321563720925e+00 -1.278406500816344993e+00 4.518980383872985840e-01 5.000000000000000000e+01
-1.786710381507873979e+00 -2.071385145187377930e+00 -7.329755425453186035e-01 1.600000000000000000e+01
-1.090825557708740012e+00 -1.264179587364196999e+00 2.914551831781864166e-02 5.200000000000000000e+01
-2.097202539443970171e+00 -2.429632425308227983e+00 -7.409887909889221191e-01 2.100000000000000000e+01
-1.086021304130553977e+00 -1.257723927497863992e+00 8.708702772855758667e-02 5.700000000000000000e+01
-2.516139984130858931e+00 -2.913947820663452148e+00 -7.483528852462768555e-01 1.300000000000000000e+01
-1.087499499320984109e+00 -1.258991599082946999e+00 1.455500870943068903e-01 6.200000000000000000e+01
-3.148761272430419922e+00 -3.644016027450561968e+00 -7.627744674682617188e-01 1.200000000000000000e+01
-1.090445160865783913e+00 -1.261511325836182085e+00 2.047404944896697998e-01 7.400000000000000000e+01
-3.939379215240478960e+00 -4.555771350860595703e+00 -7.395032048225402832e-01 2.800000000000000000e+01
-1.111392617225646973e+00 -1.284838199615478960e+00 2.690672874450684149e-01 8.000000000000000000e+01
-4.748457431793212891e+00 -5.489508628845214844e+00 -6.350167393684387207e-01 1.100000000000000000e+01
-1.113787770271301047e+00 -1.287152886390686035e+00 3.308627903461455744e-01 6.600000000000000000e+01
-1.117621779441833052e+00 -1.291128277778625044e+00 -8.949448168277740479e-02 4.500000000000000000e+01
-1.127685785293579102e+00 -1.302295207977294922e+00 3.977134525775908869e-01 5.300000000000000000e+01
-1.108962059020996094e+00 -1.280220746994018999e+00 -2.956437692046165119e-02 5.200000000000000000e+01
-1.105489492416382058e+00 -1.276211977005005105e+00 4.524157047271729071e-01 5.800000000000000000e+01
-1.227625846862792969e+00 -1.413218021392822044e+00 -5.015913248062133789e-01 1.000000000000000000e+00
-1.100478410720824973e+00 -1.266401886940001997e+00 2.928513847291469921e-02 5.100000000000000000e+01
-2.105670690536499023e+00 -2.422297000885010210e+00 -7.409887909889221191e-01 2.600000000000000000e+01
-1.089094400405884011e+00 -1.252418279647826926e+00 8.698236197233200073e-02 5.800000000000000000e+01
-2.534025669097899947e+00 -2.914035797119141069e+00 -7.506425976753234863e-01 1.300000000000000000e+01
-1.098425865173340066e+00 -1.262704014778136985e+00 1.464216411113739014e-01 5.900000000000000000e+01
-3.162758827209473100e+00 -3.634492874145507812e+00 -7.630873322486877441e-01 1.100000000000000000e+01
-1.087021708488463911e+00 -1.248713731765747070e+00 2.032780647277832031e-01 7.400000000000000000e+01
-3.981330633163452148e+00 -4.571932792663574219e+00 -7.443779706954956055e-01 3.700000000000000000e+01
-1.118465900421143022e+00 -1.283929824829102007e+00 2.696930170059204102e-01 7.800000000000000000e+01
-4.770207881927490234e+00 -5.475904464721679688e+00 -6.353653669357299805e-01 1.100000000000000000e+01
-1.120853543281554954e+00 -1.286217451095581055e+00 3.316260278224945068e-01 7.700000000000000000e+01
-1.122121810913085938e+00 -1.287219166755676047e+00 -8.949448168277740479e-02 3.100000000000000000e+01
-1.124539971351623979e+00 -1.289538621902466042e+00 3.950140476226807196e-01 5.400000000000000000e+01
-1.119996786117553933e+00 -1.283876419067383035e+00 -2.973890118300915111e-02 4.800000000000000000e+01
-1.105078816413878950e+00 -1.266329407691956010e+00 4.503451287746428888e-01 6.100000000000000000e+01
-1.217287540435791016e+00 -1.391476154327393022e+00 -4.953796565532683771e-01 1.200000000000000000e+01
-1.110159873962401900e+00 -1.268572092056273970e+00 2.942475676536560059e-02 5.100000000000000000e+01
-2.110262393951416016e+00 -2.410533189773560014e+00 -7.396390438079833984e-01 1.800000000000000000e+01
-1.090827822685241921e+00 -1.245603919029236062e+00 8.677301555871963501e-02 5.800000000000000000e+01
-2.529954433441162109e+00 -2.888926267623900923e+00 -7.464447617530822754e-01 1.400000000000000000e+01
-1.106765508651732954e+00 -1.263357996940613015e+00 1.469445824623107910e-01 6.200000000000000000e+01
-3.176728248596190962e+00 -3.624916076660155806e+00 -7.634001970291137695e-01 1.200000000000000000e+01
-1.100534081459044966e+00 -1.255360603332519975e+00 2.049842327833175937e-01 8.200000000000000000e+01
-3.980250358581542969e+00 -4.538605690002441406e+00 -7.412093281745910645e-01 3.900000000000000000e+01
-1.120335340499877930e+00 -1.277047991752624956e+00 2.690672874450684149e-01 7.200000000000000000e+01
-4.820827484130859375e+00 -5.495165348052979404e+00 -6.395488381385803223e-01 1.100000000000000000e+01
-1.125336527824402078e+00 -1.282297134399414062e+00 3.316260278224945068e-01 7.700000000000000000e+01
-1.116175293922424094e+00 -1.270962953567505105e+00 3.905150294303894043e-01 5.300000000000000000e+01
-1.127111196517943892e+00 -1.282963752746582031e+00 -2.980870939791202892e-02 4.500000000000000000e+01
-1.110547065734863059e+00 -1.264109134674072044e+00 4.508627653121948242e-01 7.300000000000000000e+01
-1.227245569229125977e+00 -1.393016695976257102e+00 -4.974502027034760077e-01 4.800000000000000000e+01
-1.122514247894287109e+00 -1.273690581321716087e+00 2.963418699800968170e-02 5.000000000000000000e+01
-2.154748201370238814e+00 -2.444082021713256836e+00 -7.522363066673278809e-01 1.000000000000000000e+00
-1.097811341285706010e+00 -1.244784474372863992e+00 8.698236197233200073e-02 5.300000000000000000e+01
-2.538724660873413086e+00 -2.878604888916016069e+00 -7.460631728172302246e-01 1.300000000000000000e+01
-1.105896234512329102e+00 -1.253510713577270952e+00 1.462473422288894931e-01 6.200000000000000000e+01
-3.190669536590576172e+00 -3.615286350250244141e+00 -7.637130618095397949e-01 1.100000000000000000e+01
-1.106223225593566895e+00 -1.252999424934386985e+00 2.052279710769653043e-01 7.700000000000000000e+01
-3.994754552841186968e+00 -4.523196220397949219e+00 -7.409656047821044922e-01 2.000000000000000000e+01
-1.116938948631287065e+00 -1.264247179031372070e+00 2.671900689601898193e-01 7.000000000000000000e+01
-4.842618465423583984e+00 -5.481290340423583984e+00 -6.398974657058715820e-01 1.200000000000000000e+01
-1.131105780601501021e+00 -1.279832243919373003e+00 3.320076465606688898e-01 6.900000000000000000e+01
-1.124477982521056907e+00 -1.271438241004944070e+00 3.918647468090056818e-01 5.500000000000000000e+01
-1.135557770729064941e+00 -1.283514618873595969e+00 -2.991342544555664062e-02 4.100000000000000000e+01
-1.112392663955688032e+00 -1.257331252098083052e+00 4.498274922370911200e-01 7.200000000000000000e+01
-1.228254318237304910e+00 -1.384389162063599077e+00 -4.958972930908203125e-01 5.800000000000000000e+01
-1.126953363418579102e+00 -1.269764423370361106e+00 2.963418699800968170e-02 5.000000000000000000e+01
-1.252417445182800071e+00 -1.410631656646728960e+00 -4.355052411556243896e-01 6.000000000000000000e+00
-1.104585170745850053e+00 -1.244124293327331987e+00 8.719170093536376953e-02 5.400000000000000000e+01
-2.552668571472167969e+00 -2.874129295349121094e+00 -7.472079992294311523e-01 2.000000000000000000e+00
-1.104971766471863015e+00 -1.243685007095336914e+00 1.455500870943068903e-01 6.400000000000000000e+01
-3.184897899627685991e+00 -3.583455801010131836e+00 -7.593328952789306641e-01 1.000000000000000000e+00
-1.109271287918091042e+00 -1.247646808624268022e+00 2.049842327833175937e-01 8.200000000000000000e+01
-4.003922939300537109e+00 -4.501808166503906250e+00 -7.397469282150268555e-01 1.600000000000000000e+01
-1.117186784744262917e+00 -1.256108164787292036e+00 2.662514448165894110e-01 6.700000000000000000e+01
-4.869668006896972656e+00 -5.473284244537354404e+00 -6.409433484077453613e-01 9.000000000000000000e+00
-1.135566353797913042e+00 -1.275876164436340110e+00 3.320076465606688898e-01 6.900000000000000000e+01
-1.127613186836242898e+00 -1.266050100326538086e+00 3.914148211479187012e-01 7.400000000000000000e+01
-1.157324552536010964e+00 -1.298952579498291016e+00 -3.036718629300593983e-02 8.000000000000000000e+00
-1.103923559188842995e+00 -1.239016652107238992e+00 4.446511268615723211e-01 7.300000000000000000e+01
-1.236940622329711914e+00 -1.384415030479430930e+00 -4.974502027034760077e-01 6.400000000000000000e+01
-1.138041853904723899e+00 -1.273277759552001953e+00 2.980870939791202892e-02 4.700000000000000000e+01
-1.252138257026671919e+00 -1.400440335273742898e+00 -4.337056279182434082e-01 3.700000000000000000e+01
-1.121121168136596902e+00 -1.253465414047240989e+00 8.813375234603881836e-02 5.200000000000000000e+01
-1.113291859626770020e+00 -1.244274854660033958e+00 1.460730284452438077e-01 6.500000000000000000e+01
-1.109647154808043990e+00 -1.239330410957335982e+00 2.042530179023742953e-01 7.400000000000000000e+01
-4.056696414947509766e+00 -4.529207229614257812e+00 -7.465716004371643066e-01 5.000000000000000000e+00
-1.123101353645324929e+00 -1.253476262092590110e+00 2.665643393993378241e-01 5.900000000000000000e+01
-4.945914268493652344e+00 -5.520059585571289062e+00 -6.484387516975402832e-01 1.000000000000000000e+00
-1.124288797378540039e+00 -1.254361033439636008e+00 3.274282217025756836e-01 7.400000000000000000e+01
-1.137230396270751953e+00 -1.267909049987792969e+00 3.932144343852996826e-01 7.400000000000000000e+01
-1.113618969917296919e+00 -1.240712881088257058e+00 4.467216730117797852e-01 7.300000000000000000e+01
-1.230136156082153098e+00 -1.367164015769958052e+00 -4.927914738655089777e-01 5.000000000000000000e+01
-1.143817305564879927e+00 -1.270783782005310059e+00 2.984361536800861012e-02 4.500000000000000000e+01
-1.247891306877136008e+00 -1.385923743247986062e+00 -4.305563271045684814e-01 4.800000000000000000e+01
-1.127944588661194070e+00 -1.252709269523621050e+00 8.834309130907058716e-02 5.000000000000000000e+01
-1.253487467765808105e+00 -1.391650438308716042e+00 -3.640635609626770020e-01 6.000000000000000000e+00
-1.118962168693542036e+00 -1.241861343383789062e+00 1.462473422288894931e-01 6.200000000000000000e+01
-1.263038516044616921e+00 -1.401270270347594993e+00 -2.987898290157318115e-01 2.000000000000000000e+00
-1.113966464996337891e+00 -1.235449433326720969e+00 2.042530179023742953e-01 7.900000000000000000e+01
-1.126146674156188965e+00 -1.248081684112549050e+00 2.662514448165894110e-01 5.400000000000000000e+01
-1.122083187103271040e+00 -1.243142008781433105e+00 3.255201578140258789e-01 7.300000000000000000e+01
-1.139036774635314941e+00 -1.261039376258850098e+00 3.923146426677703857e-01 7.100000000000000000e+01
-1.122907876968384011e+00 -1.242746710777282937e+00 4.487922191619873047e-01 7.200000000000000000e+01
-1.240089654922484907e+00 -1.368588089942931907e+00 -4.948620200157166082e-01 5.000000000000000000e+01
-1.167047858238219993e+00 -1.287526011466979980e+00 3.033228218555450093e-02 2.200000000000000000e+01
-1.238322377204895020e+00 -1.365679264068603960e+00 -4.256073832511901855e-01 4.000000000000000000e+01
-1.129627227783202903e+00 -1.245805263519287109e+00 8.813375234603881836e-02 4.900000000000000000e+01
-1.245147466659545898e+00 -1.372724890708922896e+00 -3.602473735809326172e-01 2.700000000000000000e+01
-1.129984378814697044e+00 -1.245325326919556108e+00 1.471188962459563931e-01 6.100000000000000000e+01
-1.242696523666382058e+00 -1.369062066078186035e+00 -2.928453087806702215e-01 3.100000000000000000e+01
-1.118272185325623003e+00 -1.231553435325623003e+00 2.042530179023742953e-01 7.900000000000000000e+01
-1.118540525436400923e+00 -1.230985283851623979e+00 2.634356319904326837e-01 6.300000000000000000e+01
-1.134338974952697976e+00 -1.247934222221374956e+00 3.278098404407501221e-01 6.600000000000000000e+01
-1.131630301475524902e+00 -1.244081497192383035e+00 3.882655203342437744e-01 7.700000000000000000e+01
-1.124638676643372026e+00 -1.235961794853210005e+00 4.477569460868834894e-01 7.300000000000000000e+01
-1.234678268432616965e+00 -1.352619171142577903e+00 -4.907208979129791260e-01 5.000000000000000000e+01
-1.234119534492492898e+00 -1.351059675216675027e+00 -4.224580824375153143e-01 3.800000000000000000e+01
-1.145180583000183105e+00 -1.253253936767577903e+00 8.897112309932708740e-02 5.000000000000000000e+01
-1.235602736473083052e+00 -1.352209448814392090e+00 -3.560495972633361816e-01 4.100000000000000000e+01
-1.133196949958801047e+00 -1.239704847335814986e+00 1.469445824623107910e-01 6.400000000000000000e+01
-1.242373943328856978e+00 -1.358667016029357910e+00 -2.915938496589661200e-01 4.200000000000000000e+01
-1.128137826919556108e+00 -1.233305454254149947e+00 2.052279710769653043e-01 8.200000000000000000e+01
-1.259681582450866921e+00 -1.376629471778870073e+00 -2.291143685579299927e-01 1.000000000000000000e+00
-1.117496490478516069e+00 -1.221244096755981001e+00 2.621841728687285822e-01 7.200000000000000000e+01
-1.272624850273132102e+00 -1.390287160873413086e+00 -1.648986637592315951e-01 1.000000000000000000e+00
-1.140231013298034890e+00 -1.245216250419616921e+00 3.281914591789246161e-01 6.400000000000000000e+01
-1.264080166816710982e+00 -1.379984855651855025e+00 -9.807758033275604248e-02 2.000000000000000000e+00
-1.141448616981505904e+00 -1.245672583580017090e+00 3.900651335716248114e-01 7.200000000000000000e+01
-1.128070473670959029e+00 -1.230210542678833008e+00 4.472393095493317206e-01 7.700000000000000000e+01
-1.231547951698303001e+00 -1.339767575263977051e+00 -4.876150786876677912e-01 5.000000000000000000e+01
-1.246743917465209961e+00 -1.355348944664001021e+00 -4.251574873924254816e-01 4.800000000000000000e+01
-1.166908264160156028e+00 -1.268558740615844949e+00 9.033185988664627075e-02 5.400000000000000000e+01
-1.240315318107604980e+00 -1.347888231277466042e+00 -3.560495972633361816e-01 4.500000000000000000e+01
-1.129421234130858931e+00 -1.226946353912353960e+00 1.458987146615982056e-01 6.400000000000000000e+01
-1.248447179794311968e+00 -1.355775117874145952e+00 -2.919067144393920898e-01 5.000000000000000000e+01
-1.137815833091736062e+00 -1.235200166702270952e+00 2.062029242515563965e-01 7.200000000000000000e+01
-1.257753372192383035e+00 -1.364924907684325950e+00 -2.278956770896911899e-01 2.100000000000000000e+01
-1.125981688499450906e+00 -1.221497297286987083e+00 2.631227672100067139e-01 6.900000000000000000e+01
-1.241009593009948953e+00 -1.346282958984375000e+00 -1.601922512054443082e-01 1.200000000000000000e+01
-1.136585354804992898e+00 -1.232568740844727007e+00 3.259017765522003174e-01 8.500000000000000000e+01
-1.253993272781372070e+00 -1.359415411949157937e+00 -9.692618995904922485e-02 2.800000000000000000e+01
-1.145789861679076926e+00 -1.241680622100830078e+00 3.900651335716248114e-01 7.700000000000000000e+01
-1.243790626525878906e+00 -1.347411036491394043e+00 -3.200771287083625793e-02 7.000000000000000000e+00
-1.125804901123047097e+00 -1.219168901443481001e+00 4.446511268615723211e-01 7.300000000000000000e+01
-1.235983967781066895e+00 -1.335676193237304910e+00 -4.876150786876677912e-01 5.200000000000000000e+01
-1.242953896522521973e+00 -1.342738151550292969e+00 3.193790465593338013e-02 1.200000000000000000e+01
-1.228722572326659934e+00 -1.326899766921997070e+00 -4.175091683864594061e-01 5.200000000000000000e+01
-1.186035752296447976e+00 -1.280802130699157937e+00 9.148325026035308838e-02 5.700000000000000000e+01
-1.236773252487183061e+00 -1.335126161575316939e+00 -3.537598848342896063e-01 5.100000000000000000e+01
-1.136192083358765093e+00 -1.226117134094238059e+00 1.462473422288894931e-01 6.400000000000000000e+01
-1.238164186477660911e+00 -1.335692048072814941e+00 -2.884651422500609796e-01 4.900000000000000000e+01
-1.133806943893433061e+00 -1.222686767578125000e+00 2.047404944896697998e-01 8.200000000000000000e+01
-1.264972686767577903e+00 -1.363657236099242942e+00 -2.283831536769866943e-01 4.200000000000000000e+01
-1.132500410079956055e+00 -1.220850348472594993e+00 2.637484967708588202e-01 9.600000000000000000e+01
-1.241401433944701926e+00 -1.337778806686400923e+00 -1.596693247556686124e-01 5.200000000000000000e+01
-1.137995123863219993e+00 -1.225915193557739036e+00 3.251385390758513849e-01 8.200000000000000000e+01
-1.247621774673461914e+00 -1.343541145324707031e+00 -9.608881920576095581e-02 3.800000000000000000e+01
-1.149901151657104048e+00 -1.237874150276184082e+00 3.900651335716248114e-01 8.000000000000000000e+01
-1.253696918487549050e+00 -1.349138498306273970e+00 -3.214733302593231201e-02 4.300000000000000000e+01
-1.135102748870850053e+00 -1.221088647842407005e+00 4.467216730117797852e-01 7.200000000000000000e+01
-1.236687779426574929e+00 -1.327113747596740945e+00 -4.860621690750122070e-01 5.600000000000000000e+01
-1.238088607788085938e+00 -1.328152179718018022e+00 3.169357031583786011e-02 3.000000000000000000e+01
-1.229359745979309082e+00 -1.318326950073241965e+00 -4.161594510078430176e-01 5.000000000000000000e+01
-1.213655471801758035e+00 -1.301486253738403098e+00 9.326267242431640625e-02 4.400000000000000000e+01
-1.242765426635741965e+00 -1.332236409187316895e+00 -3.541415035724639893e-01 5.700000000000000000e+01
-1.144543051719665971e+00 -1.226513624191283958e+00 1.467702686786651889e-01 6.100000000000000000e+01
