-3.137784957885742188e+00 -4.859570503234863281e+00 -7.102545499801635742e-01 2.200000000000000000e+01
-3.819338560104370117e+00 -5.912846088409423828e+00 -6.158424615859985352e-01 1.000000000000000000e+01
-1.901907157897948863e+01 -2.939900970458984020e+01 -6.111832857131958008e-01 7.000000000000000000e+00
-1.032821655273437944e+00 -1.595888495445251021e+00 5.093559026718139648e-01 3.100000000000000000e+01
-1.497473001480102983e+00 -2.307669401168822798e+00 -7.371166348457336426e-01 3.000000000000000000e+00
-1.746998429298401101e+00 -2.690141677856444868e+00 -7.405388951301574707e-01 1.100000000000000000e+01
-2.110226631164550781e+00 -3.248222827911376953e+00 -7.529323101043701172e-01 1.300000000000000000e+01
-2.657380819320679155e+00 -4.087320804595947266e+00 -7.721605300903320312e-01 1.000000000000000000e+01
-3.157976865768433061e+00 -4.853579998016357422e+00 -7.109857201576232910e-01 2.400000000000000000e+01
-3.872561454772949219e+00 -5.949572563171386719e+00 -6.210718154907226562e-01 1.300000000000000000e+01
-1.918491554260253906e+01 -2.942960166931151988e+01 -6.132077574729919434e-01 7.000000000000000000e+00
-1.044717669486999956e+00 -1.601982474327086958e+00 5.124617218971252441e-01 5.500000000000000000e+01
-9.287579655647277832e-01 -1.419291019439697044e+00 -4.544862508773804266e-01 4.000000000000000000e+00
-1.784005641937256081e+00 -2.724170446395874023e+00 -7.517864108085632324e-01 1.000000000000000000e+00
-2.119455814361571822e+00 -3.235169649124145952e+00 -7.517874240875244141e-01 1.100000000000000000e+01
-2.675221681594849077e+00 -4.080390930175781250e+00 -7.727862596511840820e-01 1.000000000000000000e+01
-3.163522005081177202e+00 -4.821501731872558594e+00 -7.080608606338500977e-01 2.200000000000000000e+01
-3.899750709533690962e+00 -5.941321849822998047e+00 -6.217690706253051758e-01 1.200000000000000000e+01
-1.920770263671875000e+01 -2.921870040893555043e+01 -6.103455424308776855e-01 7.000000000000000000e+00
-1.048459887504578081e+00 -1.594914078712462935e+00 5.114264488220214844e-01 5.100000000000000000e+01
-9.305162429809570312e-01 -1.411201953887939009e+00 -4.529333412647246759e-01 2.700000000000000000e+01
-9.541741609573364258e-01 -1.445982456207274947e+00 -3.999629616737365723e-01 1.000000000000000000e+00
-2.124246120452880859e+00 -3.217921018600463867e+00 -7.494977116584777832e-01 2.000000000000000000e+00
-2.691626310348511186e+00 -4.074324131011962891e+00 -7.734119892120361328e-01 1.000000000000000000e+01
-3.201133728027344194e+00 -4.841891765594482422e+00 -7.126919031143188477e-01 2.600000000000000000e+01
-3.916069746017456055e+00 -5.921025753021240234e+00 -6.210718154907226562e-01 1.300000000000000000e+01
-1.928086662292480113e+01 -2.910812950134276988e+01 -6.094380617141723633e-01 7.000000000000000000e+00
-1.045761585235595925e+00 -1.578177452087401900e+00 5.072853565216064453e-01 3.700000000000000000e+01
-9.279530644416809082e-01 -1.396681666374206987e+00 -4.493098556995391846e-01 4.200000000000000000e+01
-9.484258890151977539e-01 -1.426415324211121050e+00 -3.954639434814453125e-01 2.400000000000000000e+01
-2.697075128555297852e+00 -4.051748752593994141e+00 -7.709090709686279297e-01 1.200000000000000000e+01
-3.189401149749755859e+00 -4.787734031677246094e+00 -7.063547372817993164e-01 2.600000000000000000e+01
-3.910196781158446822e+00 -5.867528915405273438e+00 -6.168883442878723145e-01 1.100000000000000000e+01
-1.083693623542786089e+00 -1.624315738677978960e+00 4.508019089698792059e-01 6.000000000000000000e+00
-1.941121673583984020e+01 -2.908389472961426137e+01 -6.103455424308776855e-01 7.000000000000000000e+00
-1.033830285072327104e+00 -1.548991560935973899e+00 4.990031123161315918e-01 4.200000000000000000e+01
-9.360467791557312012e-01 -1.398249983787537065e+00 -4.508627653121948242e-01 5.100000000000000000e+01
-9.436374902725219727e-01 -1.408524990081787109e+00 -3.914148211479187012e-01 4.400000000000000000e+01
-9.596573710441589355e-01 -1.431896686553955078e+00 -3.350605964660645086e-01 5.000000000000000000e+00
-2.707901000976562944e+00 -4.037387847900390625e+00 -7.699704170227050781e-01 4.000000000000000000e+00
-3.210519313812255859e+00 -4.783164978027343750e+00 -7.073296904563903809e-01 3.000000000000000000e+01
-3.966195821762084961e+00 -5.906774997711181641e+00 -6.224663257598876953e-01 1.500000000000000000e+01
-1.572579383850098012e+01 -2.340245056152344105e+01 -1.477653384208678977e+00 1.300000000000000000e+01
-1.077397942543030007e+00 -1.602732896804810014e+00 4.458529949188231867e-01 1.600000000000000000e+01
-1.967554283142089844e+01 -2.925822830200194957e+01 -6.154416799545288086e-01 7.000000000000000000e+00
-1.043813943862915039e+00 -1.551603555679321067e+00 5.010736584663391113e-01 3.800000000000000000e+01
-9.425943493843078613e-01 -1.398506402969359907e+00 -4.518980383872985840e-01 5.900000000000000000e+01
-9.469681382179260254e-01 -1.403937935829163042e+00 -3.909649252891541082e-01 4.900000000000000000e+01
-9.509736299514770508e-01 -1.409345746040344016e+00 -3.304811716079711914e-01 2.700000000000000000e+01
-3.223307371139525923e+00 -4.769765853881835938e+00 -7.068421840667724609e-01 3.000000000000000000e+01
-4.012629508972167969e+00 -5.935550689697265625e+00 -6.268240809440612793e-01 1.400000000000000000e+01
-1.574551773071289062e+01 -2.327352714538573863e+01 -1.472629189491271973e+00 1.300000000000000000e+01
-1.059490323066710982e+00 -1.565449118614196999e+00 4.364050328731536865e-01 1.100000000000000000e+01
-1.993777084350585938e+01 -2.944796371459960938e+01 -6.207472085952758789e-01 7.000000000000000000e+00
-1.039748549461364968e+00 -1.535702109336853027e+00 4.969325661659240723e-01 3.900000000000000000e+01
-9.420437812805175781e-01 -1.387216687202454057e+00 -4.493098556995391846e-01 5.900000000000000000e+01
-9.540536999702453613e-01 -1.403847455978393999e+00 -3.918647468090056818e-01 5.800000000000000000e+01
-9.459531903266906738e-01 -1.391405463218688965e+00 -3.270466327667235773e-01 4.100000000000000000e+01
-3.256695508956909180e+00 -4.783098220825195312e+00 -7.104982733726501465e-01 1.600000000000000000e+01
-4.014256477355957031e+00 -5.893514156341552734e+00 -6.238608360290527344e-01 1.300000000000000000e+01
-1.057263135910033958e+00 -1.550470948219299094e+00 4.332557320594788153e-01 2.000000000000000000e+01
-2.005171012878417969e+01 -2.939470863342285156e+01 -6.210962533950805664e-01 7.000000000000000000e+00
-1.032302975654602051e+00 -1.512732386589050071e+00 4.907208979129791260e-01 4.300000000000000000e+01
-9.403350949287414551e-01 -1.374353647232056108e+00 -4.462040364742279053e-01 5.900000000000000000e+01
-9.567462801933288574e-01 -1.397292733192444070e+00 -3.909649252891541082e-01 5.800000000000000000e+01
-9.519137740135192871e-01 -1.389714717864990012e+00 -3.274282217025756836e-01 5.100000000000000000e+01
-9.850845336914062500e-01 -1.437065005302428977e+00 -2.759504020214080811e-01 5.000000000000000000e+00
-3.241929531097412109e+00 -4.725866317749023438e+00 -7.036736011505126953e-01 5.000000000000000000e+00
-4.066370010375976562e+00 -5.925463199615479404e+00 -6.287415027618408203e-01 1.300000000000000000e+01
-1.052737355232238992e+00 -1.532315135002136008e+00 4.292066097259520929e-01 2.100000000000000000e+01
-2.017231750488280895e+01 -2.935090446472167969e+01 -6.216546893119812012e-01 7.000000000000000000e+00
-1.019806385040282981e+00 -1.483827471733093040e+00 4.824387133121489923e-01 6.200000000000000000e+01
-9.517053365707397461e-01 -1.380606293678283913e+00 -4.493098556995391846e-01 5.900000000000000000e+01
-9.605113267898559570e-01 -1.392340421676635964e+00 -3.905150294303894043e-01 6.000000000000000000e+01
-9.634496569633483887e-01 -1.396078348159790039e+00 -3.297179341316223145e-01 5.300000000000000000e+01
-9.732564687728881836e-01 -1.409236431121825950e+00 -2.712573707103729248e-01 4.100000000000000000e+01
-4.050770282745361328e+00 -5.858790397644042969e+00 -6.231635808944702148e-01 1.000000000000000000e+01
-1.566335201263427912e+01 -2.263763236999512074e+01 -1.442692995071410911e+00 1.300000000000000000e+01
-1.058079719543457031e+00 -1.528631091117859109e+00 4.292066097259520929e-01 2.200000000000000000e+01
-2.021772956848144887e+01 -2.919810867309569957e+01 -6.199094653129577637e-01 7.000000000000000000e+00
-1.024137973785399947e+00 -1.478491663932800071e+00 4.819210767745972235e-01 5.700000000000000000e+01
-9.512478709220886230e-01 -1.369176149368285911e+00 -4.467216730117797852e-01 5.700000000000000000e+01
-9.611582756042480469e-01 -1.382410645484924094e+00 -3.887154161930084229e-01 6.200000000000000000e+01
-9.674390554428100586e-01 -1.390926003456115945e+00 -3.293363153934478760e-01 5.100000000000000000e+01
-9.739010334014892578e-01 -1.399174571037292036e+00 -2.700058817863463800e-01 5.900000000000000000e+01
-4.120058059692382812e+00 -5.912559986114501953e+00 -6.304846405982971191e-01 9.000000000000000000e+00
-1.061445355415344016e+00 -1.521546244621277078e+00 4.283068180084229071e-01 2.200000000000000000e+01
-2.029485511779785156e+01 -2.908117485046387074e+01 -6.190019249916076660e-01 7.000000000000000000e+00
-1.030398249626159890e+00 -1.476491928100585938e+00 4.824387133121489923e-01 6.800000000000000000e+01
-9.593447446823120117e-01 -1.370595335960387962e+00 -4.482745826244354248e-01 5.500000000000000000e+01
-9.637418985366821289e-01 -1.375854849815369096e+00 -3.878156244754791260e-01 6.000000000000000000e+01
-9.700350761413574219e-01 -1.384325027465820090e+00 -3.285730779170989990e-01 5.000000000000000000e+01
-9.833157658576965332e-01 -1.402235865592956987e+00 -2.712573707103729248e-01 5.700000000000000000e+01
-9.749602675437927246e-01 -1.389288783073425071e+00 -2.083965837955475131e-01 1.000000000000000000e+00
-4.102893829345703125e+00 -5.844329833984375000e+00 -6.247323751449584961e-01 1.000000000000000000e+00
-1.057785749435425027e+00 -1.505077004432678001e+00 4.247075915336608887e-01 2.200000000000000000e+01
-2.036864089965819957e+01 -2.897089385986328125e+01 -6.181642413139343262e-01 7.000000000000000000e+00
-1.038025617599487083e+00 -1.475865721702575906e+00 4.834739863872528076e-01 6.900000000000000000e+01
-9.641231298446655273e-01 -1.367238283157349077e+00 -4.482745826244354248e-01 5.900000000000000000e+01
-9.752802252769470215e-01 -1.382035613059998003e+00 -3.905150294303894043e-01 6.000000000000000000e+01
-9.680679440498352051e-01 -1.371307253837585005e+00 -3.262833952903748114e-01 5.100000000000000000e+01
-9.870647192001342773e-01 -1.397181630134582964e+00 -2.709445059299468994e-01 5.400000000000000000e+01
-9.901175498962402344e-01 -1.400465250015259011e+00 -2.105902284383774081e-01 1.200000000000000000e+01
-1.061906933784485085e+00 -1.499784946441649947e+00 4.242576956748961847e-01 2.400000000000000000e+01
-2.041185188293457031e+01 -2.881802749633789062e+01 -6.164190173149108887e-01 7.000000000000000000e+00
-1.038447618484497070e+00 -1.466109514236449973e+00 4.814034104347229004e-01 7.000000000000000000e+01
-9.632957577705383301e-01 -1.355990052223206010e+00 -4.456863999366760254e-01 5.900000000000000000e+01
-9.800984859466552734e-01 -1.378622889518738015e+00 -3.905150294303894043e-01 6.000000000000000000e+01
-9.739866256713867188e-01 -1.369519591331481934e+00 -3.266650140285491943e-01 5.300000000000000000e+01
-9.919357895851135254e-01 -1.393727540969849077e+00 -2.709445059299468994e-01 5.200000000000000000e+01
-9.984549283981323242e-01 -1.401851296424865945e+00 -2.113214433193207065e-01 3.800000000000000000e+01
-1.063740849494934082e+00 -1.491309642791748047e+00 4.229079782962799072e-01 2.800000000000000000e+01
-1.041314721107482910e+00 -1.459330677986145020e+00 4.803681373596190851e-01 6.800000000000000000e+01
-9.727575778961181641e-01 -1.358733415603637917e+00 -4.477569460868834894e-01 5.900000000000000000e+01
-9.851447939872741699e-01 -1.375021338462830034e+00 -3.905150294303894043e-01 6.200000000000000000e+01
-9.789996147155761719e-01 -1.365940570831299050e+00 -3.266650140285491943e-01 5.300000000000000000e+01
-9.820702672004699707e-01 -1.369215250015259011e+00 -2.668772041797637939e-01 5.000000000000000000e+01
-1.004743814468384011e+00 -1.399795055389404075e+00 -2.115651816129683893e-01 3.600000000000000000e+01
-1.085064649581908958e+00 -1.510027289390563965e+00 -9.744954854249954224e-02 1.000000000000000000e+00
-1.074886798858643022e+00 -1.495312452316283958e+00 4.251574873924254816e-01 2.800000000000000000e+01
-1.045528650283813032e+00 -1.453935861587523970e+00 4.798505008220673163e-01 6.600000000000000000e+01
-9.752343893051147461e-01 -1.352195858955383079e+00 -4.467216730117797852e-01 5.900000000000000000e+01
-9.842360615730285645e-01 -1.363673448562622070e+00 -3.882655203342437744e-01 6.200000000000000000e+01
-9.803138971328735352e-01 -1.357739806175231934e+00 -3.255201578140258789e-01 5.800000000000000000e+01
-9.868437647819519043e-01 -1.365778923034667969e+00 -2.668772041797637939e-01 5.000000000000000000e+01
-9.979922771453857422e-01 -1.380193114280700906e+00 -2.091277986764908114e-01 4.000000000000000000e+01
-1.001902580261230025e+00 -1.385091781616210938e+00 -1.495592594146729071e-01 6.000000000000000000e+00
-1.017718553543091042e+00 -1.405923008918761985e+00 -9.095989167690277100e-02 1.100000000000000000e+01
-1.073242068290710005e+00 -1.482081174850464089e+00 4.224580824375153143e-01 3.400000000000000000e+01
-1.051984190940856934e+00 -1.451658248901366965e+00 4.803681373596190851e-01 6.400000000000000000e+01
-9.874224066734313965e-01 -1.360068440437316895e+00 -4.503451287746428888e-01 6.400000000000000000e+01
-9.862244725227355957e-01 -1.357421517372130904e+00 -3.873657286167144775e-01 5.600000000000000000e+01
-9.845745563507080078e-01 -1.354653358459473100e+00 -3.255201578140258789e-01 5.800000000000000000e+01
-9.946154356002807617e-01 -1.367464423179626021e+00 -2.678157985210419256e-01 4.800000000000000000e+01
-9.929776787757873535e-01 -1.364211440086364968e+00 -2.071778774261474887e-01 4.500000000000000000e+01
-1.013285756111145020e+00 -1.391601324081420898e+00 -1.506051272153854093e-01 4.500000000000000000e+01
-1.010368108749390093e+00 -1.386577010154723899e+00 -8.991317451000213623e-02 4.600000000000000000e+01
-1.067561626434325950e+00 -1.464529275894165039e+00 4.184089601039885919e-01 3.500000000000000000e+01
-1.033521890640259011e+00 -1.417312264442444070e+00 4.700153768062592108e-01 4.600000000000000000e+01
-9.864618182182312012e-01 -1.348816752433777078e+00 -4.477569460868834894e-01 6.100000000000000000e+01
-9.944095611572265625e-01 -1.358688354492187944e+00 -3.887154161930084229e-01 5.800000000000000000e+01
-9.904569387435913086e-01 -1.352792382240294966e+00 -3.259017765522003174e-01 6.200000000000000000e+01
-1.000550150871277078e+00 -1.365577697753906028e+00 -2.681286633014678955e-01 4.600000000000000000e+01
-9.942122101783752441e-01 -1.355934381484984907e+00 -2.064466625452041904e-01 5.400000000000000000e+01
-1.008709907531738059e+00 -1.375203371047974077e+00 -1.492106318473815918e-01 5.500000000000000000e+01
-1.010474681854248047e+00 -1.376601457595824973e+00 -8.949448168277740479e-02 4.100000000000000000e+01
-1.072667360305785911e+00 -1.460793852806091087e+00 4.184089601039885919e-01 3.500000000000000000e+01
-1.031129837036133035e+00 -1.403713226318358931e+00 -3.040209226310253143e-02 1.100000000000000000e+01
-1.039606571197509988e+00 -1.415252923965454102e+00 4.705330133438109796e-01 5.100000000000000000e+01
-9.888723492622375488e-01 -1.342254519462585005e+00 -4.467216730117797852e-01 5.500000000000000000e+01
-1.004928231239319070e+00 -1.363051533699036089e+00 -3.909649252891541082e-01 5.600000000000000000e+01
-9.905117750167846680e-01 -1.343006730079651101e+00 -3.243753015995026190e-01 6.000000000000000000e+01
-1.000618577003479004e+00 -1.355719327926635964e+00 -2.668772041797637939e-01 4.500000000000000000e+01
-1.001297950744628906e+00 -1.355649113655090110e+00 -2.069341391324996948e-01 5.400000000000000000e+01
-9.981121420860290527e-01 -1.350842475891113059e+00 -1.469445824623107910e-01 5.700000000000000000e+01
-1.009336471557616965e+00 -1.365036249160767046e+00 -8.897112309932708740e-02 4.700000000000000000e+01
-1.088189840316772017e+00 -1.471141099929810014e+00 4.224580824375153143e-01 3.100000000000000000e+01
-1.036023497581481934e+00 -1.400105357170104980e+00 -3.040209226310253143e-02 4.300000000000000000e+01
-1.039943933486938032e+00 -1.405403614044189009e+00 4.684624671936035156e-01 5.100000000000000000e+01
-9.935516715049743652e-01 -1.338794589042664018e+00 -4.467216730117797852e-01 5.400000000000000000e+01
-1.035837531089782937e+00 -1.395265102386475053e+00 3.033228218555450093e-02 3.000000000000000000e+00
-1.005032539367676003e+00 -1.353277444839477983e+00 -3.891653120517731268e-01 5.600000000000000000e+01
-1.004560232162476030e+00 -1.352148413658142090e+00 -3.274282217025756836e-01 6.000000000000000000e+01
-9.982732534408569336e-01 -1.342706799507140891e+00 -2.649999856948853094e-01 4.600000000000000000e+01
-9.977293014526367188e-01 -1.340997219085692915e+00 -2.052279710769653043e-01 5.500000000000000000e+01
-1.000442266464232954e+00 -1.344153642654418945e+00 -1.465959548950195035e-01 5.900000000000000000e+01
-1.011709094047545943e+00 -1.358301162719727007e+00 -8.876178413629531860e-02 5.200000000000000000e+01
-1.092154145240783913e+00 -1.465770959854125977e+00 4.220081865787506104e-01 3.500000000000000000e+01
-1.045684695243835005e+00 -1.402893662452697976e+00 -3.054171055555343975e-02 5.100000000000000000e+01
-1.050862073898314986e+00 -1.409326195716857910e+00 4.710506498813629150e-01 5.800000000000000000e+01
-1.003079771995543990e+00 -1.341332435607909934e+00 -4.487922191619873047e-01 4.900000000000000000e+01
-1.027767896652221902e+00 -1.373845815658568892e+00 2.994832955300807953e-02 2.500000000000000000e+01
-1.005315303802490012e+00 -1.343343853950500044e+00 -3.873657286167144775e-01 6.000000000000000000e+01
-1.011862516403198020e+00 -1.351600766181946023e+00 -3.281914591789246161e-01 6.000000000000000000e+01
-1.000819087028502974e+00 -1.335877060890197976e+00 -2.643742561340332031e-01 4.600000000000000000e+01
-1.000256061553955078e+00 -1.334154844284058061e+00 -2.047404944896697998e-01 5.400000000000000000e+01
-1.006557464599608931e+00 -1.342071652412414995e+00 -1.467702686786651889e-01 6.000000000000000000e+01
-1.003492712974547896e+00 -1.337012648582458052e+00 -8.761039376258850098e-02 5.600000000000000000e+01
-1.098689198493957964e+00 -1.463316559791564941e+00 4.224580824375153143e-01 3.100000000000000000e+01
-1.042412996292114036e+00 -1.387859225273132102e+00 -3.029737807810306896e-02 5.100000000000000000e+01
-1.054614901542664018e+00 -1.404104709625243919e+00 4.705330133438109796e-01 5.300000000000000000e+01
-1.027515649795532005e+00 -1.364054679870605025e+00 -4.575920701026917059e-01 4.400000000000000000e+01
-1.027743458747863992e+00 -1.363861680030822976e+00 2.980870939791202892e-02 4.400000000000000000e+01
-1.009998321533202903e+00 -1.339826464653014915e+00 -3.873657286167144775e-01 5.600000000000000000e+01
-1.045965194702147993e+00 -1.387538790702820046e+00 9.106456488370895386e-02 7.000000000000000000e+00
-1.011846065521240012e+00 -1.341790437698364036e+00 -3.266650140285491943e-01 5.500000000000000000e+01
-1.078694701194762962e+00 -1.429917812347412109e+00 1.567060202360152921e-01 1.000000000000000000e+00
-1.011425614356995073e+00 -1.340259313583374023e+00 -2.659385800361632746e-01 4.500000000000000000e+01
-1.000121712684630904e+00 -1.324318766593933105e+00 -2.037655413150787076e-01 5.200000000000000000e+01
-1.012437105178833008e+00 -1.340139746665955034e+00 -1.469445824623107910e-01 6.500000000000000000e+01
-1.010562539100646973e+00 -1.336688041687011941e+00 -8.781973272562026978e-02 5.500000000000000000e+01
-1.112018823623657005e+00 -1.470352530479430930e+00 4.256073832511901855e-01 2.400000000000000000e+01
-1.036392569541930930e+00 -1.369859576225280984e+00 -2.998323366045951843e-02 5.200000000000000000e+01
-1.059509754180907981e+00 -1.400414824485779031e+00 4.705330133438109796e-01 5.200000000000000000e+01
-1.039277195930480957e+00 -1.369693517684936968e+00 -4.606978893280028742e-01 4.400000000000000000e+01
-1.033707022666930930e+00 -1.361858725547790971e+00 2.984361536800861012e-02 5.300000000000000000e+01
-1.019382953643799050e+00 -1.342500925064086914e+00 -3.891653120517731268e-01 5.500000000000000000e+01
-1.055876135826111062e+00 -1.390057682991028054e+00 9.148325026035308838e-02 3.100000000000000000e+01
-1.016523718833922896e+00 -1.338250160217284934e+00 -3.266650140285491943e-01 5.600000000000000000e+01
-1.080063223838805930e+00 -1.421384692192078081e+00 1.561830937862395963e-01 2.100000000000000000e+01
-1.014902353286742942e+00 -1.335147976875304954e+00 -2.656257152557373047e-01 4.200000000000000000e+01
-1.009545803070067915e+00 -1.327139258384705034e+00 -2.047404944896697998e-01 5.200000000000000000e+01
-1.009869694709778054e+00 -1.327084302902221902e+00 -1.458987146615982056e-01 7.200000000000000000e+01
-1.017642378807068093e+00 -1.336330413818358931e+00 -8.802907913923263550e-02 5.500000000000000000e+01
-1.130134582519531028e+00 -1.483513712882996050e+00 4.305563271045684814e-01 1.400000000000000000e+01
-1.032683491706847922e+00 -1.355100154876708984e+00 -2.973890118300915111e-02 5.000000000000000000e+01
-1.063464164733886941e+00 -1.394985795021056907e+00 4.700153768062592108e-01 4.800000000000000000e+01
-1.041705846786499023e+00 -1.362987637519835982e+00 -4.596626162528992254e-01 5.200000000000000000e+01
-1.032381653785706010e+00 -1.350299119949341042e+00 2.966909110546112061e-02 5.200000000000000000e+01
-1.025246858596801980e+00 -1.340482354164123979e+00 -3.896152377128601074e-01 5.300000000000000000e+01
-1.051986455917357954e+00 -1.375443577766418013e+00 9.075054526329040527e-02 4.600000000000000000e+01
-1.019995808601378950e+00 -1.333134531974792036e+00 -3.262833952903748114e-01 5.300000000000000000e+01
-1.076541423797606978e+00 -1.406530857086182085e+00 1.549629122018814087e-01 3.100000000000000000e+01
-1.014753222465514915e+00 -1.325323462486267090e+00 -2.643742561340332031e-01 5.000000000000000000e+01
-1.075501918792725053e+00 -1.404156804084778054e+00 2.171711772680282870e-01 6.000000000000000000e+00
-1.016586899757385032e+00 -1.326758623123168945e+00 -2.052279710769653043e-01 5.000000000000000000e+01
-1.012071728706360085e+00 -1.320388555526732954e+00 -1.455500870943068903e-01 6.700000000000000000e+01
-1.024731993675231934e+00 -1.335939526557921919e+00 -8.823842555284500122e-02 5.500000000000000000e+01
-1.149541974067687988e+00 -1.498112320899962935e+00 4.359551370143889826e-01 6.000000000000000000e+00
-1.032536864280700906e+00 -1.345142126083374023e+00 -2.959928102791309010e-02 5.000000000000000000e+01
-1.062444210052490012e+00 -1.383604049682616965e+00 4.674271941184998114e-01 4.600000000000000000e+01
-1.052110791206360085e+00 -1.367180705070496050e+00 -4.622508287429810125e-01 5.100000000000000000e+01
-1.029534816741942915e+00 -1.337360978126526101e+00 2.945966273546218872e-02 5.400000000000000000e+01
-1.034442543983459029e+00 -1.343250989913939986e+00 -3.914148211479187012e-01 4.800000000000000000e+01
-1.051667332649230957e+00 -1.365617871284485085e+00 9.033185988664627075e-02 5.200000000000000000e+01
-1.032798051834106001e+00 -1.340631484985352007e+00 -3.289546966552733820e-01 5.200000000000000000e+01
-1.060524344444274902e+00 -1.376125097274780051e+00 1.519996225833893100e-01 4.000000000000000000e+01
-1.015524268150330034e+00 -1.317257761955261008e+00 -2.634356319904326837e-01 4.900000000000000000e+01
-1.063180208206176980e+00 -1.378575682640075906e+00 2.137588262557983121e-01 1.700000000000000000e+01
-1.039169549942017046e+00 -1.346955895423888938e+00 -2.088840603828429898e-01 5.100000000000000000e+01
-1.018879413604736106e+00 -1.320179700851439986e+00 -1.458987146615982056e-01 6.700000000000000000e+01
-1.026714801788330078e+00 -1.329372644424438032e+00 -8.802907913923263550e-02 5.500000000000000000e+01
-1.040660500526428001e+00 -1.346457362174988015e+00 -2.970399521291255951e-02 5.200000000000000000e+01
-1.072934865951538086e+00 -1.387714862823486106e+00 4.700153768062592108e-01 5.800000000000000000e+01
-1.062794327735901101e+00 -1.371134161949157937e+00 -4.648390114307404120e-01 3.400000000000000000e+01
-1.031746029853821023e+00 -1.330598473548888938e+00 2.938985265791416168e-02 5.400000000000000000e+01
-1.042708158493041992e+00 -1.344251275062561035e+00 -3.927645385265349787e-01 5.000000000000000000e+01
-1.049082994461060014e+00 -1.352469682693481001e+00 8.970382809638977051e-02 5.700000000000000000e+01
-1.042285680770874023e+00 -1.343222498893738015e+00 -3.304811716079711914e-01 5.200000000000000000e+01
-1.059213042259216087e+00 -1.364545345306396040e+00 1.511280536651611051e-01 4.400000000000000000e+01
-1.024962306022644043e+00 -1.319945812225342019e+00 -2.646871209144591730e-01 4.700000000000000000e+01
-1.055808186531066895e+00 -1.359179258346558061e+00 2.113214433193207065e-01 3.200000000000000000e+01
-1.043864965438842995e+00 -1.343320369720458984e+00 -2.088840603828429898e-01 5.100000000000000000e+01
-1.110268950462341087e+00 -1.428773760795593040e+00 2.865879535675048828e-01 7.000000000000000000e+00
-1.025927066802978960e+00 -1.319761157035828081e+00 -1.462473422288894931e-01 7.300000000000000000e+01
-1.026443600654602051e+00 -1.319474816322327104e+00 -8.761039376258850098e-02 5.600000000000000000e+01
-1.046582579612731934e+00 -1.344394445419311968e+00 -2.973890118300915111e-02 6.400000000000000000e+01
-1.074211359024048074e+00 -1.379388570785522017e+00 4.684624671936035156e-01 6.500000000000000000e+01
-1.039078235626220925e+00 -1.329959511756896973e+00 2.945966273546218872e-02 5.400000000000000000e+01
-1.056028366088866965e+00 -1.351168513298034890e+00 -3.959138691425322931e-01 4.600000000000000000e+01
-1.035584330558777078e+00 -1.325010776519774947e+00 8.813375234603881836e-02 5.400000000000000000e+01
-1.044783353805541992e+00 -1.336300015449523926e+00 -3.297179341316223145e-01 5.100000000000000000e+01
-1.066662073135375977e+00 -1.363792777061461958e+00 1.514766812324523926e-01 4.400000000000000000e+01
-1.040748476982116921e+00 -1.330182194709778054e+00 -2.675029337406157892e-01 4.500000000000000000e+01
-1.062006235122681108e+00 -1.356863617897033913e+00 2.115651816129683893e-01 4.500000000000000000e+01
-1.043886303901671919e+00 -1.333233356475830078e+00 -2.079091072082520086e-01 5.200000000000000000e+01
-1.081399917602539062e+00 -1.381145119667053001e+00 2.778276205062866211e-01 2.100000000000000000e+01
-1.035671591758728027e+00 -1.322266101837157981e+00 -1.469445824623107910e-01 7.200000000000000000e+01
-1.160002946853637917e+00 -1.480470538139343040e+00 3.655900359153748114e-01 1.000000000000000000e+00
-1.031272888183593972e+00 -1.315703868865967019e+00 -8.761039376258850098e-02 5.600000000000000000e+01
-1.037927269935607910e+00 -1.323241949081420898e+00 -2.935494855046271931e-02 6.500000000000000000e+01
-1.083788990974426047e+00 -1.381710648536681907e+00 4.705330133438109796e-01 5.700000000000000000e+01
-1.697254180908202903e+00 -2.157600164413452148e+00 -7.355637550354003906e-01 1.700000000000000000e+01
-1.043714404106139915e+00 -1.326324343681335005e+00 2.945966273546218872e-02 5.400000000000000000e+01
-1.060738325119018999e+00 -1.347474098205565962e+00 -3.959138691425322931e-01 2.200000000000000000e+01
-1.050086379051208052e+00 -1.333942532539367898e+00 8.897112309932708740e-02 5.800000000000000000e+01
-1.049441576004028098e+00 -1.332644939422606978e+00 -3.297179341316223145e-01 4.900000000000000000e+01
-1.056620955467223899e+00 -1.341280102729796919e+00 1.493849456310271939e-01 4.400000000000000000e+01
-1.057612180709839089e+00 -1.342056274414062944e+00 -2.706316113471984863e-01 4.600000000000000000e+01
-1.069193959236145020e+00 -1.356266140937804954e+00 2.120526582002640048e-01 4.500000000000000000e+01
-1.053450703620911089e+00 -1.335816264152527078e+00 -2.088840603828429898e-01 5.200000000000000000e+01
-1.075205564498900923e+00 -1.363402247428894043e+00 2.750117778778076172e-01 4.400000000000000000e+01
-1.037812709808350053e+00 -1.315514445304871050e+00 -1.465959548950195035e-01 6.900000000000000000e+01
-1.104351401329040971e+00 -1.399355411529541016e+00 3.465091288089752197e-01 9.000000000000000000e+00
-1.038334369659424050e+00 -1.315231323242187944e+00 -8.781973272562026978e-02 5.600000000000000000e+01
-1.037581324577331987e+00 -1.313334465026855025e+00 -2.921532839536666870e-02 6.300000000000000000e+01
-1.102022290229796919e+00 -1.394401192665100098e+00 4.762270450592041016e-01 6.100000000000000000e+01
-1.699602007865905984e+00 -2.145902395248413086e+00 -7.334931492805480957e-01 1.700000000000000000e+01
-1.041897773742676003e+00 -1.315019249916077104e+00 2.928513847291469921e-02 5.600000000000000000e+01
-1.997251749038696067e+00 -2.519904613494873047e+00 -7.423384785652160645e-01 1.500000000000000000e+01
-1.052254557609558105e+00 -1.327138900756835938e+00 8.876178413629531860e-02 5.300000000000000000e+01
-1.062393188476562944e+00 -1.339926123619080034e+00 -3.323892652988433838e-01 3.900000000000000000e+01
-1.051158070564270020e+00 -1.325280904769897017e+00 1.479904502630234042e-01 4.800000000000000000e+01
-1.066967964172363059e+00 -1.344731569290160911e+00 -2.718831002712249756e-01 5.200000000000000000e+01
-1.071217417716979980e+00 -1.349603414535522017e+00 2.115651816129683893e-01 4.700000000000000000e+01
-1.062812209129333052e+00 -1.338533997535706010e+00 -2.098590135574341098e-01 5.200000000000000000e+01
-1.079720854759216087e+00 -1.359829187393188032e+00 2.750117778778076172e-01 5.100000000000000000e+01
-1.040930271148682085e+00 -1.310505628585814986e+00 -1.464216411113739014e-01 6.000000000000000000e+01
-1.101657629013061968e+00 -1.386462926864624023e+00 3.442194163799285889e-01 4.000000000000000000e+01
-1.042690157890320046e+00 -1.311780810356139915e+00 -8.781973272562026978e-02 5.600000000000000000e+01
-1.046910166740417036e+00 -1.316146492958069070e+00 -2.935494855046271931e-02 6.300000000000000000e+01
-1.112410426139831987e+00 -1.398491621017456055e+00 4.788152277469635010e-01 6.000000000000000000e+01
-1.709491610527039018e+00 -2.142976999282836914e+00 -7.345284223556518555e-01 1.800000000000000000e+01
-1.042739748954772949e+00 -1.306685209274291992e+00 2.918042428791522980e-02 5.500000000000000000e+01
-2.009683132171630859e+00 -2.517486333847045898e+00 -7.436881661415100098e-01 1.900000000000000000e+01
-1.059373378753662109e+00 -1.326579093933105025e+00 8.897112309932708740e-02 5.300000000000000000e+01
-1.074414610862731934e+00 -1.345414161682128906e+00 -3.346789777278900146e-01 1.500000000000000000e+01
-1.058264970779418945e+00 -1.324716925621032937e+00 1.483390778303146085e-01 5.500000000000000000e+01
-1.066722631454467995e+00 -1.334826350212096946e+00 -2.706316113471984863e-01 5.500000000000000000e+01
-1.067245125770569070e+00 -1.335002303123473899e+00 2.098590135574341098e-01 5.100000000000000000e+01
-1.072437286376952903e+00 -1.341017246246337891e+00 -2.108339667320250910e-01 5.200000000000000000e+01
-1.082229614257812944e+00 -1.352777719497681108e+00 2.743860483169556219e-01 5.200000000000000000e+01
-1.046743035316467063e+00 -1.308419823646544966e+00 -1.465959548950195035e-01 5.900000000000000000e+01
-1.097903609275818093e+00 -1.371879220008850098e+00 3.415481150150299072e-01 5.900000000000000000e+01
-1.042269825935363992e+00 -1.301896572113037109e+00 -8.740104734897613525e-02 5.600000000000000000e+01
-1.141425251960753950e+00 -1.425241351127624956e+00 4.215582907199860174e-01 8.000000000000000000e+00
-1.051497936248779075e+00 -1.312484025955199973e+00 -2.935494855046271931e-02 5.700000000000000000e+01
-1.116320610046386941e+00 -1.392897605895996094e+00 4.782975912094116211e-01 3.900000000000000000e+01
-1.719381570816040039e+00 -2.140008687973022017e+00 -7.355637550354003906e-01 1.800000000000000000e+01
-1.046041846275330034e+00 -1.301478743553162065e+00 2.914551831781864166e-02 5.700000000000000000e+01
-2.009910821914672852e+00 -2.499825000762939009e+00 -7.405388951301574707e-01 2.500000000000000000e+01
-1.058990478515625000e+00 -1.316647887229918990e+00 8.855243772268295288e-02 5.300000000000000000e+01
-2.422755479812622070e+00 -3.012223243713378906e+00 -7.514058351516723633e-01 1.400000000000000000e+01
-1.064131617546081987e+00 -1.322567105293273926e+00 1.485133916139602939e-01 5.800000000000000000e+01
-1.076329946517943892e+00 -1.337249994277954102e+00 -2.718831002712249756e-01 5.700000000000000000e+01
-1.064428925514220969e+00 -1.321991682052612083e+00 2.083965837955475131e-01 5.100000000000000000e+01
-1.078357100486754927e+00 -1.338811516761780007e+00 -2.110777050256729126e-01 5.400000000000000000e+01
-1.089187860488892046e+00 -1.352258205413817915e+00 2.750117778778076172e-01 5.200000000000000000e+01
-1.053804039955138938e+00 -1.307860970497130904e+00 -1.469445824623107910e-01 5.900000000000000000e+01
-1.102685689926147017e+00 -1.368038415908813032e+00 3.415481150150299072e-01 5.700000000000000000e+01
-1.046808004379272017e+00 -1.298250436782836914e+00 -8.740104734897613525e-02 5.600000000000000000e+01
-1.118253469467163086e+00 -1.386361837387084961e+00 4.112105369567871094e-01 1.900000000000000000e+01
-1.061095952987670898e+00 -1.315030574798583984e+00 -2.949456684291363109e-02 5.800000000000000000e+01
-1.113654732704163042e+00 -1.380167365074157937e+00 4.751917719841002863e-01 3.700000000000000000e+01
-1.734132528305053933e+00 -2.143004417419434038e+00 -7.386695742607116699e-01 1.800000000000000000e+01
-1.050578474998473899e+00 -1.297819495201111062e+00 2.914551831781864166e-02 5.600000000000000000e+01
-2.021077394485474077e+00 -2.495822668075561968e+00 -7.414386868476867676e-01 2.500000000000000000e+01
-1.062322854995727983e+00 -1.311391353607177956e+00 8.844776451587677002e-02 5.600000000000000000e+01
-2.430783748626708984e+00 -3.000696897506713867e+00 -7.506425976753234863e-01 1.400000000000000000e+01
-1.068741679191588911e+00 -1.318844556808471902e+00 1.485133916139602939e-01 5.600000000000000000e+01
-1.082235217094420943e+00 -1.335019230842590110e+00 -2.721959650516510010e-01 5.300000000000000000e+01
-1.074038386344909890e+00 -1.324435353279113992e+00 2.093715369701384943e-01 5.600000000000000000e+01
-1.081773161888123003e+00 -1.333497524261475053e+00 -2.108339667320250910e-01 5.200000000000000000e+01
-1.091647267341613992e+00 -1.345189332962035911e+00 2.743860483169556219e-01 5.200000000000000000e+01
-1.069662213325500044e+00 -1.318098068237304910e+00 -1.485133916139602939e-01 6.000000000000000000e+01
-1.111166477203368919e+00 -1.368753671646117942e+00 3.426929414272307794e-01 5.800000000000000000e+01
-1.058887839317321999e+00 -1.303890824317931907e+00 -8.802907913923263550e-02 5.500000000000000000e+01
-1.114484667778014915e+00 -1.371862173080443892e+00 4.080612063407897949e-01 3.000000000000000000e+01
-1.064418673515320046e+00 -1.309766769409179910e+00 -2.945966273546218872e-02 6.100000000000000000e+01
-1.107738018035888894e+00 -1.362585425376892090e+00 4.705330133438109796e-01 2.700000000000000000e+01
-1.735871672630310059e+00 -2.129147529602050781e+00 -7.360813617706298828e-01 1.900000000000000000e+01
-1.060383677482604980e+00 -1.300158858299254927e+00 2.928513847291469921e-02 5.700000000000000000e+01
-2.035139083862305132e+00 -2.494438171386719194e+00 -7.432382702827453613e-01 2.500000000000000000e+01
-1.063333511352539062e+00 -1.302846908569335938e+00 8.813375234603881836e-02 5.400000000000000000e+01
-2.428110599517821822e+00 -2.975036621093750000e+00 -7.464447617530822754e-01 1.600000000000000000e+01
-1.072308301925658958e+00 -1.313375234603882058e+00 1.483390778303146085e-01 5.900000000000000000e+01
-1.077629566192626953e+00 -1.318952679634094016e+00 2.091277986764908114e-01 5.400000000000000000e+01
-1.086653470993041992e+00 -1.329523682594299094e+00 -2.108339667320250910e-01 5.200000000000000000e+01
-1.086335420608520952e+00 -1.329134583473206010e+00 2.718831002712249756e-01 5.200000000000000000e+01
-1.071963787078856978e+00 -1.311083793640136941e+00 -1.481647640466690063e-01 6.300000000000000000e+01
-1.114932775497436968e+00 -1.363152146339416948e+00 3.423113524913787842e-01 5.000000000000000000e+01
-1.066189289093018022e+00 -1.303092718124390093e+00 -8.823842555284500122e-02 5.400000000000000000e+01
-1.114568114280700906e+00 -1.361736178398132102e+00 4.062615931034088135e-01 3.900000000000000000e+01
-1.064144611358643022e+00 -1.299667835235595925e+00 -2.932004258036613117e-02 5.900000000000000000e+01
-1.103920578956604004e+00 -1.348247289657592995e+00 4.669095575809478760e-01 4.600000000000000000e+01
-1.737163543701172097e+00 -2.115610122680664062e+00 -7.334931492805480957e-01 1.700000000000000000e+01
-1.062377095222472922e+00 -1.293359041213989036e+00 2.921532839536666870e-02 5.600000000000000000e+01
-2.048782825469971147e+00 -2.493341445922852007e+00 -7.450379133224487305e-01 2.800000000000000000e+01
-1.072947859764098899e+00 -1.305298924446105957e+00 8.855243772268295288e-02 6.000000000000000000e+01
-2.445960521697998047e+00 -2.975642681121826172e+00 -7.487344741821289062e-01 1.600000000000000000e+01
-1.066762804985045943e+00 -1.297312736511230025e+00 1.469445824623107910e-01 5.900000000000000000e+01
-3.075752973556518999e+00 -3.739157676696776900e+00 -7.668417692184448242e-01 1.200000000000000000e+01
-1.086010932922363059e+00 -1.319781541824341042e+00 2.098590135574341098e-01 6.300000000000000000e+01
-1.098857402801513894e+00 -1.334918260574341042e+00 -2.122963964939116877e-01 5.100000000000000000e+01
-1.092455387115478960e+00 -1.326668977737426980e+00 2.721959650516510010e-01 6.300000000000000000e+01
-1.074000835418700950e+00 -1.304257869720458984e+00 -1.478161364793776911e-01 6.300000000000000000e+01
-1.117187738418579102e+00 -1.356221318244934082e+00 3.415481150150299072e-01 5.000000000000000000e+01
-1.074541807174683061e+00 -1.303987145423888938e+00 -8.855243772268295288e-02 5.300000000000000000e+01
-1.118075132369994895e+00 -1.356333613395690918e+00 4.058116972446442206e-01 4.700000000000000000e+01
-1.072491526603698953e+00 -1.300573706626892090e+00 -2.942475676536560059e-02 5.700000000000000000e+01
-1.089185476303101030e+00 -1.320348381996155007e+00 4.586273431777954102e-01 4.500000000000000000e+01
-1.741707801818848100e+00 -2.106860160827637163e+00 -7.324578762054443359e-01 1.700000000000000000e+01
-1.062837004661560059e+00 -1.285205841064452903e+00 2.911061421036719929e-02 5.300000000000000000e+01
-2.049586534500122070e+00 -2.477524518966674805e+00 -7.423384785652160645e-01 2.700000000000000000e+01
-1.081090688705443892e+00 -1.306349754333496094e+00 8.886645734310150146e-02 5.700000000000000000e+01
-2.449556112289429155e+00 -2.959952831268310991e+00 -7.468264102935791016e-01 1.500000000000000000e+01
-1.077411651611327903e+00 -1.301441669464111106e+00 1.478161364793776911e-01 5.800000000000000000e+01
-3.078056097030640093e+00 -3.716766595840454102e+00 -7.643387913703918457e-01 1.100000000000000000e+01
-1.085315942764282005e+00 -1.310058355331420898e+00 2.088840603828429898e-01 6.500000000000000000e+01
-1.107078075408935991e+00 -1.335852265357970969e+00 -2.130276113748550137e-01 4.500000000000000000e+01
-1.099138736724853960e+00 -1.326272368431091087e+00 2.728216946125031073e-01 7.600000000000000000e+01
-1.083406329154968040e+00 -1.306824564933777078e+00 -1.485133916139602939e-01 6.000000000000000000e+01
-1.110399603843688965e+00 -1.338908553123473899e+00 3.381135463714600164e-01 5.600000000000000000e+01
-1.078860044479369895e+00 -1.300416588783263938e+00 -8.855243772268295288e-02 5.300000000000000000e+01
-1.118833184242248979e+00 -1.348119735717772993e+00 4.044620096683502197e-01 5.200000000000000000e+01
-1.076798558235168013e+00 -1.297010064125061035e+00 -2.942475676536560059e-02 5.600000000000000000e+01
-1.090860128402709961e+00 -1.313947319984436035e+00 4.575920701026917059e-01 4.400000000000000000e+01
-1.757704138755797896e+00 -2.111160039901732954e+00 -7.360813617706298828e-01 1.900000000000000000e+01
-1.069876194000243919e+00 -1.284561157226562944e+00 2.918042428791522980e-02 5.300000000000000000e+01
-2.051985263824462891e+00 -2.462869167327880859e+00 -7.400889396667480469e-01 2.600000000000000000e+01
-1.079250454902648926e+00 -1.294896960258484109e+00 8.834309130907058716e-02 6.000000000000000000e+01
-2.464901208877563032e+00 -2.957416772842406782e+00 -7.483528852462768555e-01 1.400000000000000000e+01
-1.080672025680541992e+00 -1.296142697334289995e+00 1.476418226957320889e-01 5.900000000000000000e+01
-3.091011285781859907e+00 -3.705999374389647993e+00 -7.643387913703918457e-01 1.100000000000000000e+01
-1.077164888381958008e+00 -1.291019678115844949e+00 2.064466625452041904e-01 6.500000000000000000e+01
-1.101558327674865945e+00 -1.319787740707397017e+00 -2.110777050256729126e-01 9.000000000000000000e+00
-1.103992462158202903e+00 -1.322234869003295898e+00 2.728216946125031073e-01 7.600000000000000000e+01
-1.099454045295715110e+00 -1.316799283027648926e+00 -1.500821858644484919e-01 5.600000000000000000e+01
-1.112549304962157981e+00 -1.332010746002197044e+00 3.373503088951110840e-01 5.800000000000000000e+01
-1.083392858505249023e+00 -1.296642780303955078e+00 -8.855243772268295288e-02 5.300000000000000000e+01
-1.118533134460448997e+00 -1.338225126266479048e+00 4.026623964309691828e-01 5.100000000000000000e+01
-1.092863678932189941e+00 -1.307050347328186035e+00 -2.973890118300915111e-02 5.300000000000000000e+01
-1.091950297355652078e+00 -1.305494785308837891e+00 4.560391604900360107e-01 4.200000000000000000e+01
-1.764188528060913086e+00 -2.103223323822021040e+00 -7.355637550354003906e-01 1.900000000000000000e+01
-1.086145639419556108e+00 -1.294417977333069070e+00 2.949456684291363109e-02 5.200000000000000000e+01
-2.062251329421997070e+00 -2.456824302673339844e+00 -7.405388951301574707e-01 2.200000000000000000e+01
-1.072430014610290971e+00 -1.277166724205017090e+00 8.740104734897613525e-02 6.300000000000000000e+01
-2.475724220275878906e+00 -2.948362588882445845e+00 -7.483528852462768555e-01 1.500000000000000000e+01
-1.086696863174438032e+00 -1.293698668479918990e+00 1.478161364793776911e-01 5.800000000000000000e+01
-3.112198352813721147e+00 -3.703719377517700195e+00 -7.662159800529479980e-01 1.200000000000000000e+01
-1.081889390945435014e+00 -1.287063002586364968e+00 2.064466625452041904e-01 7.000000000000000000e+01
-3.881301641464232954e+00 -4.615730285644531250e+00 -7.404781579971313477e-01 1.600000000000000000e+01
-1.103515863418579102e+00 -1.312325596809386985e+00 2.715702354907990057e-01 7.600000000000000000e+01
-1.113250732421875000e+00 -1.323433518409729004e+00 -1.513023674488067905e-01 5.400000000000000000e+01
-1.119952082633971946e+00 -1.330928444862365945e+00 3.381135463714600164e-01 5.400000000000000000e+01
-1.094569087028502974e+00 -1.300303101539612038e+00 -8.907579630613327026e-02 5.000000000000000000e+01
-1.105857253074645996e+00 -1.313247680664062944e+00 3.963637650012969971e-01 5.100000000000000000e+01
-1.098935246467590110e+00 -1.304565429687500000e+00 -2.977380529046059002e-02 5.700000000000000000e+01
-1.101479172706604004e+00 -1.307585239410399947e+00 4.581097066402434748e-01 4.600000000000000000e+01
-1.771519422531127930e+00 -2.097052335739136186e+00 -7.355637550354003906e-01 1.900000000000000000e+01
-1.094529509544373003e+00 -1.295200824737549050e+00 2.959928102791309010e-02 5.200000000000000000e+01
-2.077105045318603960e+00 -2.457051992416381836e+00 -7.427883744239807129e-01 1.700000000000000000e+01
-1.080750703811645952e+00 -1.277990579605102983e+00 8.771505951881408691e-02 6.000000000000000000e+01
-2.477126836776732954e+00 -2.929208993911743164e+00 -7.456815242767333984e-01 1.300000000000000000e+01
-1.089919328689574973e+00 -1.288376450538635032e+00 1.476418226957320889e-01 5.900000000000000000e+01
-3.122555732727050781e+00 -3.689817428588867188e+00 -7.655902504920959473e-01 1.200000000000000000e+01
-1.083810329437256081e+00 -1.280248403549193892e+00 2.059591859579086026e-01 6.600000000000000000e+01
-3.855054855346680132e+00 -4.552163600921630859e+00 -7.324347496032714844e-01 2.000000000000000000e+01
-1.102983593940735085e+00 -1.302435755729675071e+00 2.703187465667725164e-01 7.400000000000000000e+01
-1.120439291000365989e+00 -1.322579979896544966e+00 -1.516509950160979947e-01 5.000000000000000000e+01
-1.115705966949462891e+00 -1.316526770591736062e+00 3.354422152042388916e-01 6.000000000000000000e+01
-1.113308191299438032e+00 -1.313232541084289995e+00 -9.022718667984008789e-02 4.700000000000000000e+01
-1.110434651374816895e+00 -1.309379577636718972e+00 3.963637650012969971e-01 5.100000000000000000e+01
-1.099601387977600098e+00 -1.296146750450134055e+00 -2.966909110546112061e-02 5.400000000000000000e+01
-1.096038699150085005e+00 -1.291947245597838911e+00 4.539686143398284912e-01 5.200000000000000000e+01
-1.771317839622498003e+00 -2.082027435302733931e+00 -7.324578762054443359e-01 1.900000000000000000e+01
-1.097747921943664995e+00 -1.289849400520324929e+00 2.956437692046165119e-02 5.100000000000000000e+01
-2.088195562362670898e+00 -2.452754020690917969e+00 -7.436881661415100098e-01 2.000000000000000000e+01
-1.087795138359070046e+00 -1.277251362800597922e+00 8.792440593242645264e-02 6.000000000000000000e+01
-2.493701219558715820e+00 -2.928017616271973100e+00 -7.475896477699279785e-01 1.400000000000000000e+01
-1.089241504669189009e+00 -1.278497576713562012e+00 1.469445824623107910e-01 5.900000000000000000e+01
-3.132853984832764116e+00 -3.675888299942017046e+00 -7.649645209312438965e-01 1.200000000000000000e+01
-1.097287893295288086e+00 -1.287031650543212891e+00 2.076653540134429932e-01 6.700000000000000000e+01
-3.873497724533081055e+00 -4.541699886322020596e+00 -7.329222559928894043e-01 2.800000000000000000e+01
-1.106467723846435991e+00 -1.296881675720215066e+00 2.700058817863463800e-01 6.400000000000000000e+01
-1.118583321571350098e+00 -1.311082363128662109e+00 -1.507794409990310947e-01 1.000000000000000000e+01
-1.120294809341431108e+00 -1.312624216079711914e+00 3.354422152042388916e-01 6.500000000000000000e+01
-1.128260254859924094e+00 -1.321490049362183061e+00 -9.106456488370895386e-02 4.700000000000000000e+01
-1.120060801506042036e+00 -1.311422705650330034e+00 3.981633782386779785e-01 5.100000000000000000e+01
-1.117108702659606934e+00 -1.307504057884216087e+00 -3.001813963055611004e-02 5.100000000000000000e+01
-1.087992787361145020e+00 -1.273425817489624023e+00 4.487922191619873047e-01 5.900000000000000000e+01
-1.776060819625854048e+00 -2.072897672653197798e+00 -7.314226031303405762e-01 1.900000000000000000e+01
-1.100942254066467063e+00 -1.284491419792175071e+00 2.952947095036507000e-02 5.200000000000000000e+01
-2.087865591049193892e+00 -2.435094118118286133e+00 -7.405388951301574707e-01 2.100000000000000000e+01
-1.102649331092834029e+00 -1.285574555397033913e+00 8.876178413629531860e-02 6.000000000000000000e+01
-2.506463050842285156e+00 -2.922275543212891069e+00 -7.483528852462768555e-01 1.400000000000000000e+01
-1.096292495727539062e+00 -1.277711868286133035e+00 1.472932100296021063e-01 5.900000000000000000e+01
-3.127654075622559038e+00 -3.643944978713988814e+00 -7.605843544006347656e-01 1.200000000000000000e+01
-1.097894310951232910e+00 -1.278675198554992898e+00 2.069341391324996948e-01 6.500000000000000000e+01
-3.904848575592041016e+00 -4.546221256256104404e+00 -7.358471155166625977e-01 3.100000000000000000e+01
-1.116137385368346946e+00 -1.299004554748534934e+00 2.712573707103729248e-01 6.400000000000000000e+01
-4.699064731597900391e+00 -5.468956470489501953e+00 -6.308332681655883789e-01 1.000000000000000000e+01
-1.114632129669189009e+00 -1.296794772148132102e+00 3.323892652988433838e-01 7.200000000000000000e+01
-1.136772751808166948e+00 -1.322086930274962935e+00 -9.137857705354690552e-02 4.500000000000000000e+01
-1.119548678398132102e+00 -1.301595449447632058e+00 3.963637650012969971e-01 5.200000000000000000e+01
-1.130795836448668990e+00 -1.314207434654236062e+00 -3.026247210800648083e-02 5.400000000000000000e+01
-1.101474761962891069e+00 -1.279678702354430930e+00 4.524157047271729071e-01 6.400000000000000000e+01
