7.489234924316406250e+00 -2.836566162109375000e+01 3.602214097976685014e+00 1.400000000000000000e+01
1.735478878021240012e+00 -6.577819824218750000e+00 -8.352924585342407227e-01 3.000000000000000000e+00
2.368010520935059038e+00 -8.981598854064941406e+00 -8.126401305198669434e-01 1.000000000000000000e+00
6.645665645599365234e+00 -2.524200630187987926e+01 -1.367957234382628950e+00 1.200000000000000000e+01
6.864715218544006348e-01 -2.626008033752440962e+00 -7.272815108299255371e-01 1.100000000000000000e+01
8.018019795417785645e-01 -3.071571111679077148e+00 -7.328905463218688965e-01 9.000000000000000000e+00
9.638241529464721680e-01 -3.694890022277832031e+00 -7.422469854354858398e-01 9.000000000000000000e+00
1.208480834960937944e+00 -4.639429092407226562e+00 -7.593328952789306641e-01 8.000000000000000000e+00
7.385174274444580078e+00 -2.837242126464844105e+01 3.599776744842528853e+00 1.400000000000000000e+01
1.720502734184264915e+00 -6.614576339721679688e+00 -8.391922712326049805e-01 1.000000000000000000e+00
7.314762592315673828e+00 -2.812204551696776988e+01 4.602302074432373047e+00 1.200000000000000000e+01
2.312586307525635210e+00 -8.897251129150390625e+00 -8.042731881141662598e-01 4.000000000000000000e+00
6.567549228668212891e+00 -2.530371475219726918e+01 -1.370050668716431108e+00 1.200000000000000000e+01
1.522551155090332031e+01 -5.874577713012695312e+01 -1.059291243553162065e+00 1.700000000000000000e+01
6.801932454109191895e-01 -2.639612674713135210e+00 -7.303873300552368164e-01 1.200000000000000000e+01
7.891328334808349609e-01 -3.066802263259888139e+00 -7.310909032821655273e-01 9.000000000000000000e+00
9.499428868293762207e-01 -3.694429159164429155e+00 -7.414837479591369629e-01 1.000000000000000000e+01
1.195226311683655007e+00 -4.655099391937255859e+00 -7.612100839614868164e-01 8.000000000000000000e+00
7.295958042144775391e+00 -2.843648338317871094e+01 3.604651451110839844e+00 1.400000000000000000e+01
1.694445133209228960e+00 -6.609004497528076172e+00 -8.377298712730407715e-01 1.000000000000000000e+00
7.276405811309813565e+00 -2.838085365295410156e+01 4.640471935272216797e+00 1.200000000000000000e+01
2.281514883041381836e+00 -8.905268669128417969e+00 -8.042731881141662598e-01 5.000000000000000000e+00
6.494032859802246094e+00 -2.538453292846680043e+01 -1.373190760612488015e+00 1.200000000000000000e+01
6.681219339370727539e-01 -2.630736589431763139e+00 -7.272815108299255371e-01 1.200000000000000000e+01
7.822551131248474121e-01 -3.084649562835692915e+00 -7.346901297569274902e-01 9.000000000000000000e+00
9.351121187210083008e-01 -3.690110206604003906e+00 -7.399572730064392090e-01 1.000000000000000000e+01
1.183815479278564009e+00 -4.678393363952636719e+00 -7.643387913703918457e-01 8.000000000000000000e+00
7.149935722351074219e+00 -2.827702331542969105e+01 3.581252574920653853e+00 1.400000000000000000e+01
1.674282789230346902e+00 -6.626426696777343750e+00 -8.391922712326049805e-01 1.000000000000000000e+00
7.158795833587645596e+00 -2.835370445251464844e+01 4.631711483001708984e+00 1.200000000000000000e+01
2.260170698165893999e+00 -8.951814651489257812e+00 -8.077594041824340820e-01 6.000000000000000000e+00
6.418079376220703125e+00 -2.545739936828612926e+01 -1.375912308692931907e+00 1.200000000000000000e+01
6.561209559440612793e-01 -2.621808290481566939e+00 -7.241756916046142578e-01 1.100000000000000000e+01
7.743175029754638672e-01 -3.098705053329468218e+00 -7.373895645141601562e-01 9.000000000000000000e+00
9.236523509025573730e-01 -3.699066162109375000e+00 -7.411021590232849121e-01 9.000000000000000000e+00
1.166521906852721946e+00 -4.678663730621337891e+00 -7.637130618095397949e-01 8.000000000000000000e+00
1.651142001152039018e+00 -6.632230758666992188e+00 -8.391922712326049805e-01 3.000000000000000000e+00
7.066640853881835938e+00 -2.838495635986328125e+01 4.632963180541992188e+00 1.200000000000000000e+01
2.251034736633300781e+00 -9.048587799072265625e+00 -8.157777786254882812e-01 4.000000000000000000e+00
6.329177379608154297e+00 -2.547964859008789062e+01 -1.375912308692931907e+00 1.200000000000000000e+01
6.478900313377380371e-01 -2.627834081649779829e+00 -7.252109646797180176e-01 1.100000000000000000e+01
7.630304694175720215e-01 -3.099496841430664062e+00 -7.369396686553955078e-01 1.000000000000000000e+01
9.126104712486267090e-01 -3.709893465042113814e+00 -7.426286339759826660e-01 1.000000000000000000e+01
6.979271888732910156e+00 -2.839311218261719105e+01 2.558021068572998047e+00 2.600000000000000000e+01
1.149240732192992942e+00 -4.678870201110839844e+00 -7.630873322486877441e-01 8.000000000000000000e+00
1.636492252349853960e+00 -6.672657012939453125e+00 -8.435795903205871582e-01 3.000000000000000000e+00
2.227023363113402876e+00 -9.087352752685546875e+00 -8.185667395591735840e-01 4.000000000000000000e+00
6.242097377777099609e+00 -2.550934600830078125e+01 -1.376330971717834029e+00 1.200000000000000000e+01
6.405368447303771973e-01 -2.637588739395142046e+00 -7.272815108299255371e-01 1.200000000000000000e+01
7.471551299095153809e-01 -3.081308841705321822e+00 -7.319907546043395996e-01 9.000000000000000000e+00
8.982680439949035645e-01 -3.707332134246826172e+00 -7.414837479591369629e-01 1.100000000000000000e+01
1.131972432136536089e+00 -4.679013252258300781e+00 -7.624616026878356934e-01 8.000000000000000000e+00
1.608063220977782981e+00 -6.657103061676025391e+00 -8.408984541893005371e-01 3.000000000000000000e+00
6.925820350646972656e+00 -2.867169570922851918e+01 4.671758651733398438e+00 1.200000000000000000e+01
2.276630640029906782e+00 -9.432068824768066406e+00 -8.488969206809997559e-01 1.000000000000000000e+00
6.144591808319091797e+00 -2.549602890014648082e+01 -1.374446868896483931e+00 1.200000000000000000e+01
6.335727572441101074e-01 -2.649202823638916016e+00 -7.298697233200073242e-01 1.300000000000000000e+01
7.404682636260986328e-01 -3.100957393646239790e+00 -7.360398769378662109e-01 1.000000000000000000e+01
8.871441483497619629e-01 -3.718083858489989790e+00 -7.430102229118347168e-01 1.000000000000000000e+01
1.122957468032836914e+00 -4.713681697845458984e+00 -7.674674987792968750e-01 9.000000000000000000e+00
1.588031291961669922e+00 -6.676194190979003906e+00 -8.426046371459960938e-01 1.000000000000000000e+00
6.837131023406982422e+00 -2.876607513427734020e+01 4.683022022247313565e+00 1.200000000000000000e+01
2.282392978668212891e+00 -9.602783203125000000e+00 -8.635390996932983398e-01 5.000000000000000000e+00
6.050022602081298828e+00 -2.549400329589844105e+01 -1.373190760612488015e+00 1.200000000000000000e+01
6.230117082595825195e-01 -2.643767833709716797e+00 -7.277991771697998047e-01 1.300000000000000000e+01
7.292883992195129395e-01 -3.099601745605469194e+00 -7.351400256156921387e-01 1.000000000000000000e+01
8.748096227645874023e-01 -3.721005201339722124e+00 -7.430102229118347168e-01 1.000000000000000000e+01
1.104611635208130105e+00 -4.705841064453125000e+00 -7.655902504920959473e-01 9.000000000000000000e+00
1.564071655273437944e+00 -6.673692703247070312e+00 -8.416296839714050293e-01 1.000000000000000000e+00
2.268253564834595171e+00 -9.685956001281738281e+00 -8.703372478485107422e-01 7.000000000000000000e+00
5.958172798156738281e+00 -2.548280906677246094e+01 -1.371516108512877974e+00 1.200000000000000000e+01
6.137794852256774902e-01 -2.645926475524901900e+00 -7.277991771697998047e-01 1.300000000000000000e+01
7.219818830490112305e-01 -3.117316484451293945e+00 -7.387392520904541016e-01 1.000000000000000000e+01
8.618155717849731445e-01 -3.724036216735839844e+00 -7.430102229118347168e-01 1.000000000000000000e+01
1.089067816734313965e+00 -4.713517665863037109e+00 -7.662159800529479980e-01 9.000000000000000000e+00
1.544336318969727007e+00 -6.694586277008056641e+00 -8.435795903205871582e-01 3.000000000000000000e+00
2.250092506408690962e+00 -9.761766433715820312e+00 -8.764381408691406250e-01 7.000000000000000000e+00
5.864705562591552734e+00 -2.548398780822753906e+01 -1.370469331741333008e+00 1.200000000000000000e+01
6.049696803092956543e-01 -2.649936199188231978e+00 -7.283167839050292969e-01 1.400000000000000000e+01
7.097968459129333496e-01 -3.114117622375487837e+00 -7.373895645141601562e-01 9.000000000000000000e+00
8.501188755035400391e-01 -3.732764482498168945e+00 -7.441551089286804199e-01 9.000000000000000000e+00
1.072607994079590066e+00 -4.717290401458740234e+00 -7.662159800529479980e-01 9.000000000000000000e+00
1.527110815048217995e+00 -6.727037906646729404e+00 -8.469919562339782715e-01 1.000000000000000000e+00
2.233633041381835938e+00 -9.847282409667968750e+00 -8.834106326103210449e-01 7.000000000000000000e+00
5.769538402557373047e+00 -2.547703361511230113e+01 -1.369003891944885032e+00 1.200000000000000000e+01
5.944458246231079102e-01 -2.646377325057982954e+00 -7.267639040946960449e-01 1.300000000000000000e+01
6.984958052635192871e-01 -3.114674806594849077e+00 -7.369396686553955078e-01 1.100000000000000000e+01
8.396595716476440430e-01 -3.747203826904296875e+00 -7.464447617530822754e-01 9.000000000000000000e+00
1.057860016822814941e+00 -4.728716850280761719e+00 -7.674674987792968750e-01 9.000000000000000000e+00
1.501023650169373003e+00 -6.720703125000000000e+00 -8.455294966697692871e-01 1.000000000000000000e+00
2.225282907485961914e+00 -9.971692085266113281e+00 -8.938692808151245117e-01 4.000000000000000000e+00
5.638876438140869141e+00 -2.530986976623535156e+01 -1.358955383300781028e+00 1.200000000000000000e+01
4.051846861839293878e-01 -1.821650624275207964e+00 5.000383853912353516e-01 7.000000000000000000e+00
5.881223082542419434e-01 -2.661640644073485884e+00 -7.303873300552368164e-01 1.400000000000000000e+01
6.867796778678894043e-01 -3.113288164138793945e+00 -7.360398769378662109e-01 1.000000000000000000e+01
8.253065347671508789e-01 -3.744360208511352983e+00 -7.452999353408813477e-01 1.000000000000000000e+01
1.040498256683350053e+00 -4.728522300720214844e+00 -7.668417692184448242e-01 9.000000000000000000e+00
1.476702928543091042e+00 -6.722023963928222656e+00 -8.450420498847961426e-01 1.000000000000000000e+00
2.234885931015015093e+00 -1.018178939819335938e+01 -9.119976758956909180e-01 2.000000000000000000e+00
5.531683444976806641e+00 -2.524355506896973012e+01 -1.354349851608275923e+00 1.200000000000000000e+01
3.905662596225739081e-01 -1.785309433937072976e+00 4.896856248378754217e-01 1.300000000000000000e+01
5.780074000358581543e-01 -2.659901618957519975e+00 -7.293520569801330566e-01 1.400000000000000000e+01
6.783869862556457520e-01 -3.127093076705933061e+00 -7.387392520904541016e-01 1.100000000000000000e+01
8.109835982322692871e-01 -3.741462230682373047e+00 -7.441551089286804199e-01 9.000000000000000000e+00
1.028164029121398926e+00 -4.751432418823242188e+00 -7.699704170227050781e-01 9.000000000000000000e+00
1.453229784965514915e+00 -6.727138042449951172e+00 -8.450420498847961426e-01 1.000000000000000000e+00
2.178313255310059038e+00 -1.009215164184569957e+01 -9.032821059226989746e-01 2.000000000000000000e+00
5.447740077972412109e+00 -2.528223609924316051e+01 -1.355396628379821999e+00 1.200000000000000000e+01
9.763215065002441406e+00 -4.538671112060546875e+01 -8.103501200675964355e-01 1.200000000000000000e+01
3.754953742027283270e-01 -1.747065901756287065e+00 4.788152277469635010e-01 2.400000000000000000e+01
5.662972927093505859e-01 -2.650567770004272017e+00 -7.262462377548217773e-01 1.400000000000000000e+01
6.682802438735961914e-01 -3.133253812789916992e+00 -7.396390438079833984e-01 1.100000000000000000e+01
7.991460561752319336e-01 -3.750030517578125000e+00 -7.452999353408813477e-01 1.000000000000000000e+01
1.010750174522399902e+00 -4.751127719879150391e+00 -7.693446874618530273e-01 9.000000000000000000e+00
1.433862686157227007e+00 -6.751587390899658203e+00 -8.474794030189514160e-01 1.000000000000000000e+00
2.159614324569702148e+00 -1.017765426635742010e+01 -9.102545976638793945e-01 2.000000000000000000e+00
5.357800006866455078e+00 -2.529328155517578125e+01 -1.354977965354918990e+00 1.200000000000000000e+01
3.669021129608153742e-01 -1.735071063041687012e+00 4.751917719841002863e-01 3.800000000000000000e+01
5.582327246665954590e-01 -2.658200263977050781e+00 -7.277991771697998047e-01 1.300000000000000000e+01
6.557397246360778809e-01 -3.127938270568848100e+00 -7.378394603729248047e-01 1.000000000000000000e+01
7.864536046981811523e-01 -3.754718780517578125e+00 -7.456815242767333984e-01 1.000000000000000000e+01
9.905208349227905273e-01 -4.737225055694580078e+00 -7.665289044380187988e-01 7.000000000000000000e+00
1.415964961051940918e+00 -6.783756256103515625e+00 -8.508917689323425293e-01 1.000000000000000000e+00
2.163122892379761186e+00 -1.037237167358398082e+01 -9.269884824752807617e-01 2.000000000000000000e+00
5.269477367401123047e+00 -2.531183052062987926e+01 -1.354977965354918990e+00 1.200000000000000000e+01
3.600572049617766779e-01 -1.732558369636536089e+00 4.741564989089965820e-01 6.200000000000000000e+01
5.493409633636474609e-01 -2.662024736404418945e+00 -7.283167839050292969e-01 1.200000000000000000e+01
6.432444453239440918e-01 -3.122573614120482954e+00 -7.360398769378662109e-01 1.200000000000000000e+01
7.769044041633605957e-01 -3.774747848510742188e+00 -7.491161227226257324e-01 1.000000000000000000e+01
9.759665131568908691e-01 -4.750328540802001953e+00 -7.680932283401489258e-01 9.000000000000000000e+00
1.385895490646362083e+00 -6.757544040679931641e+00 -8.469919562339782715e-01 1.000000000000000000e+00
5.187494277954101562e+00 -2.536137771606444957e+01 -1.356652617454529031e+00 1.200000000000000000e+01
3.493695855140686035e-01 -1.711091041564940962e+00 4.679448306560515802e-01 4.500000000000000000e+01
5.431160330772399902e-01 -2.679072618484497070e+00 -7.324578762054443359e-01 1.100000000000000000e+01
6.362059116363525391e-01 -3.143900156021118164e+00 -7.405388951301574707e-01 1.200000000000000000e+01
7.621670961380004883e-01 -3.769739389419556108e+00 -7.475896477699279785e-01 1.000000000000000000e+01
9.609419703483581543e-01 -4.761451721191406250e+00 -7.693446874618530273e-01 9.000000000000000000e+00
1.364650964736938032e+00 -6.774016380310058594e+00 -8.484543561935424805e-01 1.000000000000000000e+00
5.113884449005126953e+00 -2.545373916625976918e+01 -1.360630154609679954e+00 1.200000000000000000e+01
9.104187011718750000e+00 -4.539704132080078125e+01 -8.081860542297363281e-01 1.200000000000000000e+01
3.438548445701599121e-01 -1.716148495674133079e+00 4.689801037311553955e-01 4.500000000000000000e+01
5.330962538719177246e-01 -2.675175189971923828e+00 -7.309049963951110840e-01 1.200000000000000000e+01
6.246362924575805664e-01 -3.140258789062500000e+00 -7.391891479492187500e-01 1.200000000000000000e+01
7.492793202400207520e-01 -3.770320415496826172e+00 -7.472079992294311523e-01 1.000000000000000000e+01
9.470689296722412109e-01 -4.774300098419188565e+00 -7.709090709686279297e-01 9.000000000000000000e+00
1.339095473289489968e+00 -6.762926101684570312e+00 -8.465044498443603516e-01 1.000000000000000000e+00
5.066591739654541016e+00 -2.565866279602051137e+01 -1.370678663253783958e+00 1.200000000000000000e+01
8.931166648864746094e+00 -4.531319046020507812e+01 -8.061615824699401855e-01 1.200000000000000000e+01
3.362202644348145086e-01 -1.705847859382628950e+00 4.658742845058441162e-01 3.800000000000000000e+01
5.219002366065979004e-01 -2.667540311813354048e+00 -7.283167839050292969e-01 1.100000000000000000e+01
6.162855029106140137e-01 -3.155808210372924805e+00 -7.423384785652160645e-01 1.100000000000000000e+01
7.353619933128356934e-01 -3.769059181213378906e+00 -7.464447617530822754e-01 9.000000000000000000e+00
9.307753443717956543e-01 -4.779516220092773438e+00 -7.712219357490539551e-01 9.000000000000000000e+00
1.315480232238769975e+00 -6.767559051513671875e+00 -8.465044498443603516e-01 1.000000000000000000e+00
3.375269472599030096e-01 -1.742920994758605957e+00 4.098608195781707764e-01 1.000000000000000000e+00
3.243923187255858820e-01 -1.676664233207703081e+00 4.575920701026917059e-01 4.200000000000000000e+01
5.132116675376892090e-01 -2.675127029418944868e+00 -7.298697233200073242e-01 1.300000000000000000e+01
8.688139915466308594e+00 -4.532987213134766336e+01 8.056380152702331543e-01 5.200000000000000000e+01
6.032487750053405762e-01 -3.150389909744263139e+00 -7.405388951301574707e-01 1.000000000000000000e+01
7.248627543449401855e-01 -3.789083719253540039e+00 -7.498793601989746094e-01 1.000000000000000000e+01
9.099168777465820312e-01 -4.765432357788085938e+00 -7.684060931205749512e-01 7.000000000000000000e+00
1.296613097190856934e+00 -6.803534984588623047e+00 -8.504042625427246094e-01 1.000000000000000000e+00
4.830651283264160156e+00 -2.541956138610839844e+01 -1.356024622917175071e+00 1.200000000000000000e+01
3.293191194534301758e-01 -1.734573721885680930e+00 4.076113104820250910e-01 7.000000000000000000e+00
3.168730139732360840e-01 -1.672203302383423074e+00 4.560391604900360107e-01 4.200000000000000000e+01
5.053000450134277344e-01 -2.684496164321898970e+00 -7.319402694702148438e-01 1.400000000000000000e+01
5.915285348892211914e-01 -3.148646116256713867e+00 -7.396390438079833984e-01 1.200000000000000000e+01
7.109076380729675293e-01 -3.787731647491455078e+00 -7.491161227226257324e-01 1.000000000000000000e+01
8.965502977371215820e-01 -4.786054134368895596e+00 -7.712219357490539551e-01 9.000000000000000000e+00
1.275045394897460938e+00 -6.819727420806884766e+00 -8.518667221069335938e-01 3.000000000000000000e+00
4.714072704315186435e+00 -2.528704833984375000e+01 -1.348069548606873003e+00 1.100000000000000000e+01
3.211215138435363770e-01 -1.724217891693115012e+00 4.049119055271149237e-01 1.200000000000000000e+01
3.106809556484221857e-01 -1.671399831771851030e+00 4.555215239524840753e-01 4.500000000000000000e+01
4.956930279731749933e-01 -2.682357549667357954e+00 -7.309049963951110840e-01 1.300000000000000000e+01
5.803771018981933594e-01 -3.146757602691649947e+00 -7.387392520904541016e-01 1.000000000000000000e+01
6.969201564788818359e-01 -3.782345294952393022e+00 -7.475896477699279785e-01 1.000000000000000000e+01
8.799597024917602539e-01 -4.785115242004395419e+00 -7.705961465835571289e-01 9.000000000000000000e+00
1.249556541442871094e+00 -6.808298110961914062e+00 -8.499168157577514648e-01 1.000000000000000000e+00
4.644572734832763672e+00 -2.538112640380859020e+01 -1.352256417274475098e+00 1.200000000000000000e+01
3.104957640171051025e-01 -1.698435664176940918e+00 3.986132740974426270e-01 3.000000000000000000e+01
3.034029603004456122e-01 -1.662918567657470925e+00 4.529333412647246759e-01 5.000000000000000000e+01
4.859823882579802912e-01 -2.682170629501343218e+00 -7.303873300552368164e-01 1.300000000000000000e+01
5.697360634803771973e-01 -3.150681972503662109e+00 -7.391891479492187500e-01 9.000000000000000000e+00
6.847600936889648438e-01 -3.790550947189331055e+00 -7.487344741821289062e-01 1.000000000000000000e+01
8.646531105041503906e-01 -4.795933723449707031e+00 -7.718476653099060059e-01 9.000000000000000000e+00
1.228595852851867898e+00 -6.828248500823974609e+00 -8.518667221069335938e-01 1.000000000000000000e+00
4.555947780609130859e+00 -2.539718437194823863e+01 -1.352256417274475098e+00 1.200000000000000000e+01
3.028464615345001221e-01 -1.689918279647826926e+00 3.963637650012969971e-01 4.900000000000000000e+01
2.955557703971862793e-01 -1.652557373046875000e+00 4.498274922370911200e-01 6.600000000000000000e+01
4.754735827445983887e-01 -2.680129528045653853e+00 -7.293520569801330566e-01 1.100000000000000000e+01
5.595433712005615234e-01 -3.160424470901488814e+00 -7.409887909889221191e-01 9.000000000000000000e+00
6.708624362945556641e-01 -3.793035268783568892e+00 -7.487344741821289062e-01 9.000000000000000000e+00
8.487861156463623047e-01 -4.808797359466552734e+00 -7.734119892120361328e-01 7.000000000000000000e+00
1.204249501228332964e+00 -6.836615562438964844e+00 -8.523541688919067383e-01 1.000000000000000000e+00
4.469740867614746094e+00 -2.545305633544921875e+01 -1.354349851608275923e+00 1.200000000000000000e+01
2.979974448680878241e-01 -1.698694586753844993e+00 3.981633782386779785e-01 6.200000000000000000e+01
2.874511778354644775e-01 -1.640259027481079102e+00 4.462040364742279053e-01 8.500000000000000000e+01
4.677693545818328857e-01 -2.691289424896239790e+00 -7.319402694702148438e-01 6.000000000000000000e+00
5.491740703582763672e-01 -3.166198492050170898e+00 -7.418885827064514160e-01 1.000000000000000000e+01
6.592940688133239746e-01 -3.805026054382324219e+00 -7.506425976753234863e-01 9.000000000000000000e+00
8.313220143318176270e-01 -4.807837963104248047e+00 -7.727862596511840820e-01 7.000000000000000000e+00
1.179027795791625977e+00 -6.832952499389648438e+00 -8.513792157173156738e-01 1.000000000000000000e+00
4.367322444915770596e+00 -2.538976860046387074e+01 -1.350162982940674050e+00 1.200000000000000000e+01
2.914060354232788086e-01 -1.695883274078368919e+00 3.972635567188262939e-01 8.000000000000000000e+01
2.827433645725250244e-01 -1.648917794227600098e+00 4.482745826244354248e-01 1.000000000000000000e+02
4.762013256549835205e-01 -2.797651290893555132e+00 -7.604103684425354004e-01 1.000000000000000000e+00
5.342026948928833008e-01 -3.145041465759276900e+00 -7.364897727966308594e-01 1.000000000000000000e+01
6.466648578643798828e-01 -3.811175346374512163e+00 -7.514058351516723633e-01 1.000000000000000000e+01
8.145344257354736328e-01 -4.810710430145263672e+00 -7.727862596511840820e-01 7.000000000000000000e+00
1.159799098968506081e+00 -6.864429473876953125e+00 -8.547915816307067871e-01 1.000000000000000000e+00
2.841912806034088135e-01 -1.689203262329102007e+00 3.954639434814453125e-01 6.400000000000000000e+01
2.785545289516448975e-01 -1.657466888427733931e+00 4.503451287746428888e-01 8.400000000000000000e+01
5.248193144798278809e-01 -3.156498908996582031e+00 -7.387392520904541016e-01 1.000000000000000000e+01
6.317490935325622559e-01 -3.803725719451903853e+00 -7.494977116584777832e-01 9.000000000000000000e+00
2.925072312355042059e-01 -1.763073444366455078e+00 1.563574075698853094e-01 1.000000000000000000e+00
7.970910072326660156e-01 -4.809626579284667969e+00 -7.721605300903320312e-01 7.000000000000000000e+00
1.131296396255492942e+00 -6.841017246246337891e+00 -8.513792157173156738e-01 1.000000000000000000e+00
2.955501079559326172e-01 -1.789149045944214089e+00 2.872136831283568781e-01 1.000000000000000000e+00
2.748105227947235107e-01 -1.669033646583556907e+00 3.905150294303894043e-01 5.000000000000000000e+01
2.712249457836151123e-01 -1.650851607322693093e+00 4.482745826244354248e-01 5.300000000000000000e+01
2.953998446464539129e-01 -1.813822984695435014e+00 3.207752481102942727e-02 1.000000000000000000e+00
5.144236683845520020e-01 -3.162158489227294922e+00 -7.396390438079833984e-01 1.000000000000000000e+01
2.851172089576721191e-01 -1.754545450210571067e+00 9.315799921751022339e-02 1.000000000000000000e+00
6.175230741500854492e-01 -3.800094366073607954e+00 -7.483528852462768555e-01 1.000000000000000000e+01
2.834781110286713202e-01 -1.746383905410767046e+00 1.547885984182358066e-01 2.400000000000000000e+01
7.840914130210876465e-01 -4.835778713226318359e+00 -7.759149670600891113e-01 7.000000000000000000e+00
2.853236496448516846e-01 -1.761641383171081987e+00 2.191210836172103882e-01 1.000000000000000000e+00
1.105507731437683105e+00 -6.833167076110839844e+00 -8.499168157577514648e-01 1.000000000000000000e+00
2.785734534263610840e-01 -1.721868634223937988e+00 2.762632668018341064e-01 9.000000000000000000e+00
2.686729431152343750e-01 -1.668058753013611062e+00 3.900651335716248114e-01 5.900000000000000000e+01
2.852464318275452215e-01 -1.772926449775696023e+00 -3.134452179074286721e-02 2.000000000000000000e+00
2.623734772205352783e-01 -1.630761384963989036e+00 4.425805807113646906e-01 5.900000000000000000e+01
2.774284482002257746e-01 -1.741775393486022949e+00 3.078604489564895977e-02 1.200000000000000000e+01
5.055259466171264648e-01 -3.177406549453734907e+00 -7.427883744239807129e-01 4.000000000000000000e+00
2.758562266826630194e-01 -1.735804915428162065e+00 9.211128205060958862e-02 1.500000000000000000e+01
6.070277094841003418e-01 -3.819677114486693892e+00 -7.517874240875244141e-01 7.000000000000000000e+00
2.714454233646392822e-01 -1.709975481033324973e+00 1.514766812324523926e-01 4.000000000000000000e+01
2.748251259326934814e-01 -1.735177516937256081e+00 2.157087326049804965e-01 1.200000000000000000e+01
1.087852597236633079e+00 -6.876198291778563565e+00 -8.547915816307067871e-01 1.000000000000000000e+00
2.734939754009246826e-01 -1.730682730674744096e+00 2.775147557258605957e-01 2.600000000000000000e+01
2.721276283264160156e-01 -1.723987936973571999e+00 3.392584025859832764e-01 2.000000000000000000e+00
2.625455260276793878e-01 -1.667061448097229004e+00 3.896152377128601074e-01 4.900000000000000000e+01
2.775022685527802069e-01 -1.764034271240233931e+00 -3.116999752819538116e-02 3.000000000000000000e+01
2.566945552825927734e-01 -1.633620500564574973e+00 4.430982172489166260e-01 6.100000000000000000e+01
2.694884240627288818e-01 -1.726832151412964089e+00 3.050680644810200084e-02 3.800000000000000000e+01
2.866396009922028143e-01 -1.838840126991271973e+00 -4.296565055847167969e-01 1.000000000000000000e+00
2.682507634162902832e-01 -1.722848653793334961e+00 9.137857705354690552e-02 3.900000000000000000e+01
2.642349600791931152e-01 -1.699007511138916016e+00 1.504308134317398071e-01 4.500000000000000000e+01
2.672419250011444092e-01 -1.722301006317138894e+00 2.140025645494461060e-01 3.300000000000000000e+01
2.665424644947052002e-01 -1.719774127006530984e+00 2.756375372409821112e-01 4.200000000000000000e+01
2.637101113796234131e-01 -1.705432295799254927e+00 3.354422152042388916e-01 1.800000000000000000e+01
2.801694273948668878e-01 -1.813972353935241921e+00 -9.619348496198654175e-02 7.000000000000000000e+00
2.555242776870728094e-01 -1.656322240829467995e+00 3.869158029556273859e-01 5.800000000000000000e+01
2.722635567188262939e-01 -1.766873717308043990e+00 -3.120490349829196930e-02 5.400000000000000000e+01
2.515521645545958918e-01 -1.632465600967407005e+00 4.425805807113646906e-01 6.600000000000000000e+01
2.619518339633942206e-01 -1.717878103256226030e+00 3.033228218555450093e-02 5.000000000000000000e+01
2.705361247062683105e-01 -1.776254177093506081e+00 -4.148097336292266846e-01 1.400000000000000000e+01
2.616344988346099854e-01 -1.719825387001038042e+00 9.116923809051513672e-02 5.100000000000000000e+01
2.769630849361420233e-01 -1.820586085319519043e+00 -3.579576611518859863e-01 1.000000000000000000e+00
2.568061649799346924e-01 -1.690070629119873047e+00 1.495592594146729071e-01 4.700000000000000000e+01
2.682521939277648926e-01 -1.767475247383117898e+00 -2.831463813781737726e-01 1.000000000000000000e+00
2.579555511474608820e-01 -1.701633930206299050e+00 2.113214433193207065e-01 4.800000000000000000e+01
2.602373957633972168e-01 -1.720739483833312988e+00 2.756375372409821112e-01 4.700000000000000000e+01
2.559959888458251953e-01 -1.694695115089416948e+00 3.331525027751923163e-01 3.700000000000000000e+01
2.705580890178679865e-01 -1.793215394020081010e+00 -9.504209458827972412e-02 4.100000000000000000e+01
2.474178969860076904e-01 -1.641788244247436968e+00 3.833166062831879217e-01 6.500000000000000000e+01
2.643085122108458918e-01 -1.755948781967163086e+00 -3.099547326564789165e-02 4.600000000000000000e+01
2.467160373926162997e-01 -1.641018152236938032e+00 4.446511268615723211e-01 7.200000000000000000e+01
2.544721961021422785e-01 -1.712937355041503906e+00 3.022756800055503845e-02 4.900000000000000000e+01
2.628557682037354071e-01 -1.771497011184691939e+00 -4.134600460529326837e-01 4.600000000000000000e+01
2.521009445190430243e-01 -1.701060533523560014e+00 9.012251347303390503e-02 5.500000000000000000e+01
2.639263868331909180e-01 -1.780853271484375000e+00 -3.499436974525452215e-01 2.000000000000000000e+01
2.506066262722014826e-01 -1.693015098571776900e+00 1.497335731983185092e-01 5.500000000000000000e+01
2.617525160312653143e-01 -1.770446419715880904e+00 -2.834592461585999090e-01 3.100000000000000000e+01
2.517098486423491877e-01 -1.704575657844543013e+00 2.115651816129683893e-01 5.700000000000000000e+01
2.519112229347229004e-01 -1.708002090454102007e+00 2.734474539756774902e-01 5.000000000000000000e+01
2.572644948959351141e-01 -1.746409773826598899e+00 -1.544399708509444913e-01 1.000000000000000000e+00
2.489154040813446045e-01 -1.691780805587768999e+00 3.323892652988433838e-01 4.800000000000000000e+01
2.627995014190673828e-01 -1.788312911987304910e+00 -9.472808241844177246e-02 4.800000000000000000e+01
2.396970987319946012e-01 -1.633085727691649947e+00 3.810670971870421808e-01 6.200000000000000000e+01
2.569841146469116211e-01 -1.752993702888488992e+00 -3.092566505074501038e-02 4.800000000000000000e+01
2.406997531652451117e-01 -1.641911387443542036e+00 4.446511268615723211e-01 7.200000000000000000e+01
2.473435997962951938e-01 -1.705899119377136008e+00 3.008794784545898091e-02 4.800000000000000000e+01
2.572290599346160889e-01 -1.776260972023010032e+00 -4.143598377704619806e-01 5.600000000000000000e+01
2.438743710517883023e-01 -1.686116695404052956e+00 8.928514271974563599e-02 6.000000000000000000e+01
2.554601728916168213e-01 -1.766219377517699973e+00 -3.468907475471497137e-01 4.100000000000000000e+01
2.424164712429046908e-01 -1.678104162216186968e+00 1.483390778303146085e-01 6.100000000000000000e+01
2.541604936122893732e-01 -1.761573672294616921e+00 -2.818948924541472834e-01 5.900000000000000000e+01
2.457582205533981046e-01 -1.705443978309630904e+00 2.115651816129683893e-01 5.900000000000000000e+01
2.431198060512543002e-01 -1.691316485404968040e+00 2.706316113471984863e-01 5.400000000000000000e+01
2.426622956991195956e-01 -1.688133597373961958e+00 -1.492106318473815918e-01 4.000000000000000000e+00
2.410554736852645874e-01 -1.679036140441894975e+00 3.297179341316223145e-01 5.100000000000000000e+01
2.534371614456176758e-01 -1.767471909523010032e+00 -9.357669204473495483e-02 4.800000000000000000e+01
2.331663221120834073e-01 -1.628125309944153054e+00 3.797173798084259033e-01 6.500000000000000000e+01
2.463331967592239102e-01 -1.722207188606261985e+00 -3.036718629300593983e-02 4.300000000000000000e+01
2.335874289274215976e-01 -1.635132789611815962e+00 4.425805807113646906e-01 7.300000000000000000e+01
1.053664758801459989e-01 -7.440668940544128418e-01 -2.013612240552901944e-01 6.000000000000000000e+00
2.391471415758132935e-01 -1.690912246704102007e+00 2.980870939791202892e-02 4.900000000000000000e+01
2.502095103263854980e-01 -1.771359324455261008e+00 -4.130101501941680908e-01 6.300000000000000000e+01
2.382662445306777954e-01 -1.688935399055480957e+00 8.938981592655181885e-02 6.300000000000000000e+01
2.490191012620925903e-01 -1.765156388282776101e+00 -3.465091288089752197e-01 4.600000000000000000e+01
2.354454249143599909e-01 -1.671048521995543990e+00 1.476418226957320889e-01 6.500000000000000000e+01
2.466335892677307129e-01 -1.752669572830199973e+00 -2.803305685520172119e-01 7.700000000000000000e+01
2.392510771751404086e-01 -1.702359914779663086e+00 2.110777050256729126e-01 6.100000000000000000e+01
2.408854514360428134e-01 -1.716162323951720969e+00 -2.127838730812073031e-01 9.000000000000000000e+00
2.375098615884780884e-01 -1.692113399505615012e+00 2.706316113471984863e-01 5.900000000000000000e+01
2.370447367429732999e-01 -1.690943479537964089e+00 -1.493849456310271939e-01 4.000000000000000000e+01
2.354652881622313898e-01 -1.681811690330504927e+00 3.300995528697968084e-01 5.700000000000000000e+01
2.392450720071792880e-01 -1.710983395576477051e+00 -9.054120630025863647e-02 4.500000000000000000e+01
2.282902598381041925e-01 -1.634719371795654075e+00 3.810670971870421808e-01 6.900000000000000000e+01
2.386626899242401123e-01 -1.711173415184020996e+00 -3.015775792300701141e-02 4.200000000000000000e+01
2.278969883918761929e-01 -1.633985161781311035e+00 4.420629143714904785e-01 6.800000000000000000e+01
9.827738255262374878e-02 -7.118972539901733398e-01 -1.925613731145859042e-01 3.000000000000000000e+01
2.305121123790740967e-01 -1.671927094459533913e+00 2.945966273546218872e-02 5.100000000000000000e+01
2.429614961147308072e-01 -1.764499783515929954e+00 -4.112105369567871094e-01 6.000000000000000000e+01
2.315530180931091031e-01 -1.683820843696594016e+00 8.907579630613327026e-02 6.800000000000000000e+01
2.415187209844588956e-01 -1.756290078163146973e+00 -3.446010351181030273e-01 5.000000000000000000e+01
2.279844135046004971e-01 -1.660017132759094016e+00 1.465959548950195035e-01 6.700000000000000000e+01
2.383666783571243009e-01 -1.737863421440124956e+00 -2.778276205062866211e-01 8.600000000000000000e+01
2.314214259386062900e-01 -1.689417600631714089e+00 2.093715369701384943e-01 6.500000000000000000e+01
2.338172048330307007e-01 -1.709125638008117898e+00 -2.118089199066162109e-01 5.100000000000000000e+01
2.299953550100327093e-01 -1.681189179420470969e+00 2.687544226646422785e-01 6.600000000000000000e+01
2.330287545919418057e-01 -1.705579042434691939e+00 -1.506051272153854093e-01 7.300000000000000000e+01
2.269389778375625888e-01 -1.663171052932739036e+00 3.262833952903748114e-01 7.200000000000000000e+01
2.276079356670379916e-01 -1.670249700546265093e+00 -8.834309130907058716e-02 5.800000000000000000e+01
2.220570594072341919e-01 -1.631644368171691895e+00 3.801672756671906073e-01 6.800000000000000000e+01
2.313415408134459894e-01 -1.702088713645935059e+00 -2.998323366045951843e-02 5.200000000000000000e+01
2.203706800937652865e-01 -1.621370911598206010e+00 4.384394586086273193e-01 7.300000000000000000e+01
2.241668999195098877e-01 -1.666736721992492898e+00 2.935494855046271931e-02 5.600000000000000000e+01
2.350335121154784879e-01 -1.749844670295715110e+00 -4.076113104820250910e-01 6.700000000000000000e+01
2.241092771291733066e-01 -1.670722723007201926e+00 8.834309130907058716e-02 7.300000000000000000e+01
2.349102944135665894e-01 -1.751243829727173074e+00 -3.434561789035797119e-01 6.300000000000000000e+01
2.232719659805298129e-01 -1.666688203811645952e+00 1.471188962459563931e-01 7.600000000000000000e+01
2.333882302045821866e-01 -1.744518041610717995e+00 -2.787662148475646973e-01 9.500000000000000000e+01
2.229261100292206088e-01 -1.668532013893126997e+00 2.066904008388519010e-01 7.400000000000000000e+01
2.281482517719269076e-01 -1.709891676902770996e+00 -2.118089199066162109e-01 6.000000000000000000e+01
2.249082475900650024e-01 -1.687856078147887962e+00 2.696930170059204102e-01 5.900000000000000000e+01
2.268452495336532870e-01 -1.702392458915710005e+00 -1.502564996480942050e-01 8.300000000000000000e+01
2.175378501415252963e-01 -1.634722948074341042e+00 3.205591142177581787e-01 6.700000000000000000e+01
2.225941568613052091e-01 -1.674955010414123979e+00 -8.855243772268295288e-02 7.200000000000000000e+01
2.156195789575577060e-01 -1.624644637107848899e+00 3.783676624298096258e-01 6.900000000000000000e+01
2.251704633235931119e-01 -1.698881864547729048e+00 -2.991342544555664062e-02 7.400000000000000000e+01
2.152466326951980868e-01 -1.624007821083069070e+00 4.389570951461791992e-01 8.000000000000000000e+01
2.183475345373153964e-01 -1.667509078979491965e+00 2.935494855046271931e-02 6.600000000000000000e+01
2.291766703128814975e-01 -1.752586722373961958e+00 -4.080612063407897949e-01 7.100000000000000000e+01
2.167242765426636020e-01 -1.659612178802490012e+00 8.771505951881408691e-02 7.300000000000000000e+01
2.275248020887374878e-01 -1.742319583892822044e+00 -3.415481150150299072e-01 7.200000000000000000e+01
2.184833586215972900e-01 -1.675360083580017090e+00 1.478161364793776911e-01 7.600000000000000000e+01
2.265319973230361938e-01 -1.739445567131042036e+00 -2.778276205062866211e-01 8.800000000000000000e+01
2.188925892114639005e-01 -1.683079600334167036e+00 2.083965837955475131e-01 7.900000000000000000e+01
2.211555391550064087e-01 -1.702803373336791992e+00 -2.108339667320250910e-01 6.800000000000000000e+01
2.182529270648956021e-01 -1.682753920555114968e+00 2.687544226646422785e-01 5.900000000000000000e+01
2.201326042413712103e-01 -1.697246432304382102e+00 -1.497335731983185092e-01 8.800000000000000000e+01
2.115781009197235107e-01 -1.633525371551513894e+00 3.201774954795836847e-01 7.600000000000000000e+01
2.164899110794067105e-01 -1.673741102218627930e+00 -8.844776451587677002e-02 7.400000000000000000e+01
2.081997096538543979e-01 -1.611858606338500977e+00 3.752183616161345880e-01 7.200000000000000000e+01
2.184714227914809903e-01 -1.693707704544066939e+00 -2.980870939791202892e-02 8.300000000000000000e+01
2.107737511396408081e-01 -1.636281967163085938e+00 4.420629143714904785e-01 6.900000000000000000e+01
2.124866992235183993e-01 -1.670281887054442915e+00 2.938985265791416168e-02 7.200000000000000000e+01
2.229971587657927912e-01 -1.755348086357116921e+00 -4.085111021995543878e-01 6.900000000000000000e+01
2.111427485942841131e-01 -1.664358139038085938e+00 8.792440593242645264e-02 8.000000000000000000e+01
2.201490253210068027e-01 -1.735351204872130904e+00 -3.400216400623322088e-01 7.000000000000000000e+01
2.110893726348876953e-01 -1.666266679763793945e+00 1.469445824623107910e-01 8.400000000000000000e+01
2.216426134109497070e-01 -1.752022743225098100e+00 -2.797048091888427734e-01 8.800000000000000000e+01
2.122247219085693082e-01 -1.679931640625000000e+00 2.079091072082520086e-01 8.200000000000000000e+01
2.164036929607391080e-01 -1.715419411659240945e+00 -2.122963964939116877e-01 6.400000000000000000e+01
2.103555947542191107e-01 -1.669823288917541948e+00 2.665643393993378241e-01 6.300000000000000000e+01
2.134123742580414096e-01 -1.694088339805603027e+00 -1.493849456310271939e-01 9.600000000000000000e+01
2.063246369361876886e-01 -1.640133619308471902e+00 3.213223516941071112e-01 8.200000000000000000e+01
2.103538960218430121e-01 -1.674523234367371050e+00 -8.844776451587677002e-02 7.500000000000000000e+01
2.015628963708878119e-01 -1.606810092926024947e+00 3.738686442375183105e-01 7.700000000000000000e+01
2.095281481742858887e-01 -1.672670960426331010e+00 -2.942475676536560059e-02 8.200000000000000000e+01
2.031398266553879062e-01 -1.621672749519347922e+00 4.379218220710753839e-01 7.700000000000000000e+01
2.064096033573150912e-01 -1.669028878211975098e+00 2.935494855046271931e-02 7.800000000000000000e+01
2.173461765050888062e-01 -1.759983897209167036e+00 -4.094109237194060724e-01 6.900000000000000000e+01
2.058206498622894010e-01 -1.669049501419066939e+00 8.813375234603881836e-02 8.200000000000000000e+01
2.152915745973587036e-01 -1.745851516723633035e+00 -3.419297337532042902e-01 7.500000000000000000e+01
2.033237218856812079e-01 -1.651173710823059082e+00 1.455500870943068903e-01 8.200000000000000000e+01
2.145612537860870084e-01 -1.744943380355834961e+00 -2.784533500671387274e-01 7.700000000000000000e+01
2.068432271480560025e-01 -1.684602856636046919e+00 2.083965837955475131e-01 8.200000000000000000e+01
2.104144543409348089e-01 -1.716164350509643999e+00 -2.122963964939116877e-01 6.100000000000000000e+01
2.035653293132781982e-01 -1.662704467773437944e+00 2.653128504753112793e-01 6.300000000000000000e+01
2.062869966030121127e-01 -1.684934854507446067e+00 -1.485133916139602939e-01 9.300000000000000000e+01
2.005982398986816129e-01 -1.640843749046325906e+00 3.213223516941071112e-01 8.800000000000000000e+01
2.049914747476578036e-01 -1.679212450981139915e+00 -8.865711092948913574e-02 7.500000000000000000e+01
1.987824887037276944e-01 -1.630716919898987038e+00 3.792674839496613104e-01 7.800000000000000000e+01
2.041714042425155917e-01 -1.677362203598022017e+00 -2.949456684291363109e-02 8.400000000000000000e+01
1.956104934215545932e-01 -1.607030391693115012e+00 4.337807297706604004e-01 8.600000000000000000e+01
1.997299939393996915e-01 -1.657757043838500977e+00 2.914551831781864166e-02 7.800000000000000000e+01
2.108849138021469116e-01 -1.752918839454651101e+00 -4.076113104820250910e-01 6.900000000000000000e+01
2.008675932884216031e-01 -1.669652819633484109e+00 8.813375234603881836e-02 8.500000000000000000e+01
2.095716148614882868e-01 -1.744570016860961914e+00 -3.415481150150299072e-01 7.800000000000000000e+01
1.981354057788848877e-01 -1.651804327964782937e+00 1.455500870943068903e-01 8.400000000000000000e+01
2.076687812805176059e-01 -1.733840584754944070e+00 -2.765761315822600763e-01 6.700000000000000000e+01
2.001354843378067017e-01 -1.673418045043945090e+00 2.069341391324996948e-01 8.200000000000000000e+01
2.071404159069061002e-01 -1.734556674957274947e+00 -2.144900411367416104e-01 5.900000000000000000e+01
1.983968615531921109e-01 -1.661339759826659934e+00 2.649999856948853094e-01 6.600000000000000000e+01
2.017003297805786133e-01 -1.691509723663330078e+00 -1.490363180637359897e-01 8.600000000000000000e+01
1.942818164825438898e-01 -1.631718397140502930e+00 3.194142580032349188e-01 9.300000000000000000e+01
1.999508589506149014e-01 -1.681831479072571023e+00 -8.876178413629531860e-02 7.200000000000000000e+01
1.936584711074829102e-01 -1.631333351135253906e+00 3.792674839496613104e-01 8.000000000000000000e+01
1.993715912103652954e-01 -1.681967020034790039e+00 -2.956437692046165119e-02 8.400000000000000000e+01
1.923801004886626920e-01 -1.622984409332274947e+00 4.379218220710753839e-01 8.600000000000000000e+01
1.944066584110260010e-01 -1.662416458129883035e+00 2.921532839536666870e-02 7.800000000000000000e+01
2.034087330102921087e-01 -1.742030739784240945e+00 -4.049119055271149237e-01 6.900000000000000000e+01
1.933589130640029907e-01 -1.658474922180176003e+00 8.750572055578231812e-02 8.500000000000000000e+01
2.043900638818741122e-01 -1.753091096878051980e+00 -3.430745601654052734e-01 7.800000000000000000e+01
1.928290873765944879e-01 -1.656443953514098899e+00 1.458987146615982056e-01 8.600000000000000000e+01
2.020714282989501953e-01 -1.738479256629944070e+00 -2.772018611431121826e-01 7.400000000000000000e+01
1.924621611833572110e-01 -1.658331632614135964e+00 2.049842327833175937e-01 8.200000000000000000e+01
2.008559107780457098e-01 -1.733297228813170943e+00 -2.142463028430938998e-01 6.100000000000000000e+01
1.927604973316192905e-01 -1.665980339050292969e+00 2.656257152557373047e-01 6.400000000000000000e+01
1.971686184406281073e-01 -1.704078555107116921e+00 -1.500821858644484919e-01 8.800000000000000000e+01
1.870076954364776889e-01 -1.618734717369080034e+00 3.167429268360137939e-01 8.800000000000000000e+01
1.933923661708832065e-01 -1.676566839218140093e+00 -8.844776451587677002e-02 7.400000000000000000e+01
1.870709955692290982e-01 -1.624255657196044922e+00 3.774678707122802734e-01 8.500000000000000000e+01
1.939561218023299893e-01 -1.686625838279723899e+00 -2.963418699800968170e-02 8.400000000000000000e+01
1.864302754402160922e-01 -1.623678565025330034e+00 4.379218220710753839e-01 8.800000000000000000e+01
1.883122920989989957e-01 -1.663117885589600053e+00 2.921532839536666870e-02 7.800000000000000000e+01
1.976792514324187955e-01 -1.748573780059814009e+00 -4.062615931034088135e-01 7.400000000000000000e+01
1.871198415756225863e-01 -1.655170559883117898e+00 8.729637414216995239e-02 7.700000000000000000e+01
1.966420710086823065e-01 -1.742123246192931907e+00 -3.407848775386809748e-01 7.800000000000000000e+01
1.867566257715224942e-01 -1.657139539718627930e+00 1.458987146615982056e-01 8.800000000000000000e+01
1.952564716339111051e-01 -1.735282301902770996e+00 -2.765761315822600763e-01 7.500000000000000000e+01
1.868260204792022983e-01 -1.662971258163451926e+00 2.054717093706130981e-01 8.200000000000000000e+01
1.931740492582320889e-01 -1.722185492515563965e+00 -2.127838730812073031e-01 6.400000000000000000e+01
1.859935224056243896e-01 -1.660786271095276101e+00 2.646871209144591730e-01 6.000000000000000000e+01
1.909215301275253018e-01 -1.704789757728577104e+00 -1.500821858644484919e-01 8.500000000000000000e+01
1.817279607057571134e-01 -1.625262498855591042e+00 3.178877830505371094e-01 9.100000000000000000e+01
1.881325095891953070e-01 -1.685204148292541948e+00 -8.886645734310150146e-02 7.500000000000000000e+01
1.798213124275208075e-01 -1.613309979438781960e+00 3.747684657573699951e-01 8.300000000000000000e+01
1.868883371353149137e-01 -1.679375767707824929e+00 -2.949456684291363109e-02 8.400000000000000000e+01
1.807614415884017944e-01 -1.624319434165955034e+00 4.379218220710753839e-01 8.800000000000000000e+01
1.838140636682510098e-01 -1.675691723823546919e+00 2.942475676536560059e-02 7.800000000000000000e+01
1.919986903667449951e-01 -1.753127574920654075e+00 -4.071614146232604980e-01 7.400000000000000000e+01
1.813410818576813022e-01 -1.655813574790955034e+00 8.729637414216995239e-02 8.500000000000000000e+01
1.909865140914916992e-01 -1.746702313423156960e+00 -3.415481150150299072e-01 8.000000000000000000e+01
1.818358451128005981e-01 -1.665703892707824929e+00 1.465959548950195035e-01 8.800000000000000000e+01
1.904821544885635098e-01 -1.747735738754272017e+00 -2.784533500671387274e-01 7.700000000000000000e+01
1.825231611728667935e-01 -1.677427411079406960e+00 2.071778774261474887e-01 8.700000000000000000e+01
1.882332712411879938e-01 -1.732716679573059082e+00 -2.140025645494461060e-01 6.600000000000000000e+01
1.789171844720839899e-01 -1.649642229080199973e+00 2.628099024295806885e-01 6.300000000000000000e+01
1.845398843288421908e-01 -1.701484322547913042e+00 -1.497335731983185092e-01 8.600000000000000000e+01
1.764763295650481900e-01 -1.629790663719177024e+00 3.186510205268859863e-01 9.300000000000000000e+01
1.828928887844085971e-01 -1.691807627677917036e+00 -8.918046951293945312e-02 7.200000000000000000e+01
1.739796102046967108e-01 -1.611990332603455034e+00 3.743185400962830145e-01 8.900000000000000000e+01
1.814535558223724088e-01 -1.683994174003601074e+00 -2.956437692046165119e-02 8.200000000000000000e+01
1.740555912256241122e-01 -1.615336894989013894e+00 4.353336393833159845e-01 9.500000000000000000e+01
7.537954300642013550e-02 -7.088565826416015625e-01 -1.910084486007689875e-01 7.000000000000000000e+00
1.775414645671843927e-01 -1.672345995903014915e+00 2.935494855046271931e-02 7.700000000000000000e+01
1.866995245218276978e-01 -1.761538624763488992e+00 -4.089610278606414795e-01 7.400000000000000000e+01
1.756913214921951016e-01 -1.660439491271973100e+00 8.750572055578231812e-02 8.200000000000000000e+01
1.840618997812271118e-01 -1.739548921585083008e+00 -3.400216400623322088e-01 8.000000000000000000e+01
1.747645586729049960e-01 -1.654440283775330034e+00 1.455500870943068903e-01 8.600000000000000000e+01
1.839659214019775113e-01 -1.744461059570312944e+00 -2.778276205062866211e-01 8.100000000000000000e+01
1.762510389089584073e-01 -1.674105882644653098e+00 2.066904008388519010e-01 9.000000000000000000e+01
1.819763183593750000e-01 -1.731388926506042036e+00 -2.137588262557983121e-01 6.800000000000000000e+01
1.736522763967514038e-01 -1.652191042900085005e+00 2.631227672100067139e-01 6.900000000000000000e+01
1.785994768142699918e-01 -1.702118158340454102e+00 -1.497335731983185092e-01 8.300000000000000000e+01
1.705816835165024081e-01 -1.628444194793700950e+00 3.182694017887114923e-01 9.800000000000000000e+01
1.776094585657120029e-01 -1.698395013809204102e+00 -8.949448168277740479e-02 7.400000000000000000e+01
1.689586937427521030e-01 -1.618402361869812012e+00 3.756682574748992920e-01 8.300000000000000000e+01
1.755742132663727084e-01 -1.684617400169373003e+00 -2.956437692046165119e-02 8.400000000000000000e+01
1.671343147754668912e-01 -1.606356620788573997e+00 4.327454566955565851e-01 9.000000000000000000e+01
1.708861589431762973e-01 -1.664998650550842063e+00 2.921532839536666870e-02 8.000000000000000000e+01
1.797549724578856867e-01 -1.754425168037414995e+00 -4.071614146232604980e-01 7.400000000000000000e+01
1.709984093904494962e-01 -1.668960452079772949e+00 8.792440593242645264e-02 8.000000000000000000e+01
1.789874285459517878e-01 -1.749946117401123047e+00 -3.419297337532042902e-01 7.200000000000000000e+01
1.685836613178252896e-01 -1.651076078414916992e+00 1.452014744281769076e-01 8.800000000000000000e+01
1.766736358404160101e-01 -1.733301401138306108e+00 -2.759504020214080811e-01 8.600000000000000000e+01
1.704062521457672119e-01 -1.674710988998413086e+00 2.066904008388519010e-01 9.300000000000000000e+01
1.769345551729201993e-01 -1.741888284683227983e+00 -2.149775177240371982e-01 7.000000000000000000e+01
