2.821036100387572798e+00 2.151388883590697798e+00 -5.619125962257385254e-01 9.000000000000000000e+00
3.484584331512451172e+00 2.655503273010253906e+00 -5.379312634468078613e-01 9.000000000000000000e+00
4.567661285400390625e+00 3.479625463485718218e+00 -5.023657083511352539e-01 9.000000000000000000e+00
6.568118095397949219e+00 4.999942779541015625e+00 -4.326090216636658270e-01 2.000000000000000000e+00
1.075569629669188920e+01 8.181784629821777344e+00 -2.358867228031157892e-01 2.000000000000000000e+00
1.793150782585144043e+00 1.360089302062988059e+00 -6.030483841896057129e-01 1.900000000000000000e+01
2.046922445297241211e+00 1.551447629928589089e+00 -5.929709672927856445e-01 1.100000000000000000e+01
2.362887382507324219e+00 1.790281295776366965e+00 -5.762431621551513672e-01 1.100000000000000000e+01
2.837978124618529829e+00 2.148682832717895952e+00 -5.637897849082946777e-01 9.000000000000000000e+00
3.500164985656737837e+00 2.648114442825316939e+00 -5.389062166213989258e-01 9.000000000000000000e+00
4.551176071166992188e+00 3.442027330398560014e+00 -4.992280900478363037e-01 9.000000000000000000e+00
6.595091819763183594e+00 4.984210491180419922e+00 -4.332370460033416748e-01 2.000000000000000000e+00
1.073950958251952947e+01 8.110446929931640625e+00 -2.349093854427337924e-01 2.000000000000000000e+00
1.783998250961303933e+00 1.343363046646117942e+00 -5.983896255493164062e-01 1.900000000000000000e+01
2.052325487136840820e+00 1.544293045997620073e+00 -5.929709672927856445e-01 1.100000000000000000e+01
2.376966953277587891e+00 1.787923097610474077e+00 -5.781512856483459473e-01 1.000000000000000000e+01
2.839144945144652876e+00 2.134015798568726030e+00 -5.625383257865905762e-01 9.000000000000000000e+00
3.509387254714965820e+00 2.635880470275878906e+00 -5.389062166213989258e-01 9.000000000000000000e+00
4.593435764312744141e+00 3.448848962783813032e+00 -5.025399923324584961e-01 9.000000000000000000e+00
6.625230312347412109e+00 4.970748424530029297e+00 -4.340744316577910822e-01 2.000000000000000000e+00
1.079335403442382990e+01 8.092103004455566406e+00 -2.354678660631180087e-01 2.000000000000000000e+00
1.801054954528809038e+00 1.346380949020385964e+00 -6.025307178497314453e-01 1.900000000000000000e+01
2.054581165313721147e+00 1.534787178039551003e+00 -5.920711755752563477e-01 1.100000000000000000e+01
2.386339664459228960e+00 1.781964302062988059e+00 -5.789144635200500488e-01 1.000000000000000000e+01
2.833911180496215820e+00 2.114641427993773970e+00 -5.600354075431823730e-01 9.000000000000000000e+00
3.521749496459960938e+00 2.625987529754639116e+00 -5.393937230110168457e-01 9.000000000000000000e+00
4.605446338653563565e+00 3.432793855667113814e+00 -5.025399923324584961e-01 8.000000000000000000e+00
6.642540931701660156e+00 4.947591781616210938e+00 -4.340744316577910822e-01 1.000000000000000000e+00
1.082153511047362926e+01 8.054377555847167969e+00 -2.354678660631180087e-01 2.000000000000000000e+00
3.222125625610352273e+01 2.397327232360839844e+01 1.076117801666259943e+01 9.000000000000000000e+00
1.805743694305419922e+00 1.340085864067078081e+00 -6.025307178497314453e-01 1.900000000000000000e+01
2.059926033020019975e+00 1.527606010437011941e+00 -5.920711755752563477e-01 1.000000000000000000e+01
2.395699739456177202e+00 1.775961995124816895e+00 -5.796777009963989258e-01 1.100000000000000000e+01
2.847624540328979048e+00 2.109439611434936968e+00 -5.612868666648864746e-01 1.000000000000000000e+01
3.516534805297852007e+00 2.603048801422119141e+00 -5.372000932693481445e-01 7.000000000000000000e+00
4.599783420562744141e+00 3.403660774230957031e+00 -5.006225705146789551e-01 9.000000000000000000e+00
6.650135517120361328e+00 4.917250156402587891e+00 -4.334463775157927912e-01 2.000000000000000000e+00
3.150684356689453125e+01 2.328831863403319957e+01 9.045282363891601562e+00 1.200000000000000000e+01
1.087210083007813033e+01 8.033190727233886719e+00 -2.359565347433089932e-01 2.000000000000000000e+00
3.224464416503906250e+01 2.382496261596680043e+01 1.074254322052001953e+01 9.000000000000000000e+00
1.810410499572753906e+00 1.333774566650391069e+00 -6.025307178497314453e-01 1.900000000000000000e+01
2.060537815093994141e+00 1.516940236091613992e+00 -5.907214879989624023e-01 1.100000000000000000e+01
2.400303125381470171e+00 1.766424894332885964e+00 -5.792961120605468750e-01 1.100000000000000000e+01
2.867701768875122070e+00 2.108849048614501953e+00 -5.637897849082946777e-01 1.100000000000000000e+01
3.533597946166992188e+00 2.596635341644287109e+00 -5.384187698364257812e-01 9.000000000000000000e+00
4.653385162353515625e+00 3.418251276016234907e+00 -5.051546692848205566e-01 9.000000000000000000e+00
6.676919460296630859e+00 4.901097774505615234e+00 -4.340744316577910822e-01 2.000000000000000000e+00
3.152824020385741832e+01 2.313438796997069957e+01 9.028185844421386719e+00 1.200000000000000000e+01
1.089685058593750000e+01 7.992825984954833984e+00 -2.358867228031157892e-01 2.000000000000000000e+00
3.234732818603516336e+01 2.371804237365723012e+01 1.074771976470947088e+01 9.000000000000000000e+00
1.808586955070496050e+00 1.323200941085814986e+00 -6.004601716995239258e-01 1.600000000000000000e+01
2.074995756149291992e+00 1.516999602317810059e+00 -5.934208631515502930e-01 1.100000000000000000e+01
2.406147480010985884e+00 1.758455514907836914e+00 -5.792961120605468750e-01 1.100000000000000000e+01
2.881060123443603960e+00 2.103987693786621094e+00 -5.650413036346435547e-01 1.100000000000000000e+01
3.535775184631348100e+00 2.580222606658935991e+00 -5.374438166618347168e-01 9.000000000000000000e+00
4.584213733673095703e+00 3.344091653823852983e+00 -4.964390993118286133e-01 9.000000000000000000e+00
6.683451652526854581e+00 4.871870517730712891e+00 -4.334463775157927912e-01 2.000000000000000000e+00
3.163313293457030895e+01 2.305036735534667969e+01 9.036283493041992188e+00 1.200000000000000000e+01
1.092329597473145064e+01 7.956646919250488281e+00 -2.358867228031157892e-01 2.000000000000000000e+00
3.225616073608397727e+01 2.349573707580566051e+01 1.069285011291504084e+01 9.000000000000000000e+00
1.808505535125731978e+00 1.313473939895630105e+00 -5.989072918891906738e-01 2.000000000000000000e+01
2.083432912826538086e+00 1.512036442756653054e+00 -5.943207144737243652e-01 1.100000000000000000e+01
2.402736425399779829e+00 1.743128657341002974e+00 -5.770063996315002441e-01 1.200000000000000000e+01
2.880390405654906782e+00 2.088120937347412109e+00 -5.634769201278686523e-01 1.300000000000000000e+01
3.564051389694213867e+00 2.581839561462401900e+00 -5.403686761856079102e-01 1.000000000000000000e+01
4.673316955566406250e+00 3.384160518646239790e+00 -5.048060417175292969e-01 9.000000000000000000e+00
6.710125446319580078e+00 4.855535984039306641e+00 -4.340744316577910822e-01 2.000000000000000000e+00
3.174497985839844105e+01 2.296264839172362926e+01 9.045282363891601562e+00 1.200000000000000000e+01
1.095100307464599965e+01 7.918468952178955078e+00 -2.358867228031157892e-01 2.000000000000000000e+00
3.185670280456542969e+01 2.302652931213378906e+01 1.053238201141357067e+01 9.000000000000000000e+00
1.821143746376038042e+00 1.312484145164489968e+00 -6.014954447746276855e-01 1.900000000000000000e+01
2.092123508453369141e+00 1.506667852401732954e+00 -5.952205061912536621e-01 1.100000000000000000e+01
2.415482521057128906e+00 1.738898515701293945e+00 -5.785328745841979980e-01 1.100000000000000000e+01
2.883213520050048828e+00 2.074089050292969194e+00 -5.625383257865905762e-01 1.400000000000000000e+01
3.571878671646118164e+00 2.567600488662720171e+00 -5.401249527931213379e-01 1.000000000000000000e+01
3.162065696716308949e+01 2.273011779785155895e+01 6.167898178100585938e+00 1.400000000000000000e+01
4.708341121673583984e+00 3.383286237716674805e+00 -5.072464346885681152e-01 9.000000000000000000e+00
6.718142509460449219e+00 4.823920249938964844e+00 -4.334463775157927912e-01 1.000000000000000000e+00
3.200940704345703125e+01 2.297568702697753906e+01 9.096570968627929688e+00 1.200000000000000000e+01
1.099944877624512074e+01 7.892267704010009766e+00 -2.363055795431137085e-01 2.000000000000000000e+00
3.188351821899414062e+01 2.287689781188964844e+01 1.051478290557860973e+01 9.000000000000000000e+00
1.827285289764404075e+00 1.307243227958678977e+00 -6.020131111145019531e-01 1.800000000000000000e+01
2.084687471389770952e+00 1.490289330482482910e+00 -5.916212797164916992e-01 1.100000000000000000e+01
2.431121587753295898e+00 1.737305164337157981e+00 -5.808225870132446289e-01 1.200000000000000000e+01
2.895258665084838867e+00 2.067456007003784180e+00 -5.634769201278686523e-01 1.300000000000000000e+01
3.577587604522705078e+00 2.552810668945312944e+00 -5.396374464035034180e-01 1.000000000000000000e+01
3.154293632507323863e+01 2.249935913085937855e+01 6.136610984802246094e+00 1.400000000000000000e+01
4.720122337341308594e+00 3.366830348968505859e+00 -5.072464346885681152e-01 9.000000000000000000e+00
6.738193035125732422e+00 4.802758693695068359e+00 -4.336557388305664062e-01 1.000000000000000000e+00
1.102693080902099965e+01 7.853824138641357422e+00 -2.363055795431137085e-01 2.000000000000000000e+00
1.844209432601928933e+00 1.310127019882201926e+00 -6.061542034149169922e-01 1.900000000000000000e+01
2.089617967605590820e+00 1.483368158340454102e+00 -5.916212797164916992e-01 1.400000000000000000e+01
2.428863763809204102e+00 1.723552942276000977e+00 -5.789144635200500488e-01 1.200000000000000000e+01
2.905321598052978960e+00 2.060128927230834961e+00 -5.641027092933654785e-01 1.400000000000000000e+01
3.571455955505371094e+00 2.530603885650635210e+00 -5.374438166618347168e-01 9.000000000000000000e+00
3.165214729309082031e+01 2.242756080627441051e+01 6.144120216369628906e+00 1.400000000000000000e+01
4.754023075103759766e+00 3.367281913757324219e+00 -5.096867680549621582e-01 9.000000000000000000e+00
6.767124652862548828e+00 4.789618492126464844e+00 -4.344930946826934814e-01 2.000000000000000000e+00
1.105291461944580078e+01 7.817214488983154297e+00 -2.363055795431137085e-01 2.000000000000000000e+00
3.200695419311522727e+01 2.263703536987305043e+01 1.050442981719971058e+01 9.000000000000000000e+00
1.836140990257262962e+00 1.294775128364562988e+00 -6.020131111145019531e-01 1.800000000000000000e+01
2.102748155593872070e+00 1.481677412986754927e+00 -5.938707590103149414e-01 1.300000000000000000e+01
2.436470508575439009e+00 1.716194629669189009e+00 -5.792961120605468750e-01 1.200000000000000000e+01
2.910879611968994141e+00 2.048837900161743164e+00 -5.637897849082946777e-01 1.200000000000000000e+01
3.252367401123046875e+01 2.288347053527832031e+01 4.882817268371582031e+00 2.100000000000000000e+01
3.591633558273314986e+00 2.526115894317626953e+00 -5.391499996185302734e-01 1.000000000000000000e+01
4.777157306671142578e+00 3.358688116073607954e+00 -5.109069347381591797e-01 9.000000000000000000e+00
6.790339469909667969e+00 4.770560264587402344e+00 -4.349117875099182129e-01 2.000000000000000000e+00
3.141821289062500000e+01 2.206471061706542969e+01 8.863521575927734375e+00 1.200000000000000000e+01
1.109977436065674006e+01 7.792372703552246094e+00 -2.367244362831116000e-01 2.000000000000000000e+00
1.840649366378783958e+00 1.288357853889465110e+00 -6.020131111145019531e-01 1.900000000000000000e+01
2.112698078155518022e+00 1.477679133415221946e+00 -5.952205061912536621e-01 1.400000000000000000e+01
2.436010122299193892e+00 1.703179478645324929e+00 -5.777696371078491211e-01 1.200000000000000000e+01
2.918013572692871094e+00 2.038664579391479048e+00 -5.637897849082946777e-01 1.100000000000000000e+01
3.603684902191162109e+00 2.515836000442504883e+00 -5.396374464035034180e-01 1.000000000000000000e+01
3.185394096374512074e+01 2.222988319396973012e+01 6.152254581451416016e+00 1.400000000000000000e+01
4.774147510528563565e+00 3.331730365753173828e+00 -5.093381404876708984e-01 9.000000000000000000e+00
6.800397396087645596e+00 4.742258548736572266e+00 -4.344930946826934814e-01 2.000000000000000000e+00
3.024809455871582031e+01 2.108566856384276988e+01 8.512598037719726562e+00 1.100000000000000000e+01
1.113346958160400035e+01 7.758152484893798828e+00 -2.368640601634978970e-01 2.000000000000000000e+00
3.245901489257813211e+01 2.261846542358398082e+01 1.060071086883544922e+01 9.000000000000000000e+00
1.849895000457763894e+00 1.285231709480286089e+00 -6.035659909248352051e-01 1.900000000000000000e+01
2.116242408752440962e+00 1.469184041023253950e+00 -5.947706103324890137e-01 1.300000000000000000e+01
2.451617956161499023e+00 1.701381802558898926e+00 -5.800593495368957520e-01 1.100000000000000000e+01
2.918619155883789062e+00 2.023963689804077148e+00 -5.625383257865905762e-01 1.200000000000000000e+01
3.612444877624512163e+00 2.503241539001464844e+00 -5.396374464035034180e-01 1.000000000000000000e+01
4.785748481750488281e+00 3.315045118331909180e+00 -5.093381404876708984e-01 9.000000000000000000e+00
3.161978530883789062e+01 2.189457702636719105e+01 7.475896358489990234e+00 6.300000000000000000e+01
6.826762676239013672e+00 4.725312232971191406e+00 -4.351211488246917725e-01 2.000000000000000000e+00
3.038561439514160156e+01 2.102430725097655895e+01 8.530593872070312500e+00 1.100000000000000000e+01
1.117364025115966975e+01 7.728342533111572266e+00 -2.371432930231094083e-01 2.000000000000000000e+00
3.259572601318358664e+01 2.253669929504394887e+01 1.061830997467041016e+01 9.000000000000000000e+00
1.857550740242003950e+00 1.280959963798522949e+00 -6.046012639999389648e-01 1.900000000000000000e+01
2.110125303268433061e+00 1.454047918319701926e+00 -5.916212797164916992e-01 1.300000000000000000e+01
2.460775613784790039e+00 1.695041060447693093e+00 -5.808225870132446289e-01 1.100000000000000000e+01
2.924039125442504883e+00 2.012643575668334961e+00 -5.622254610061645508e-01 1.100000000000000000e+01
3.241154861450195312e+01 2.230083656311035156e+01 4.830657005310058594e+00 2.000000000000000000e+01
3.622796297073363814e+00 2.491741418838500977e+00 -5.398811697959899902e-01 9.000000000000000000e+00
4.816992282867431641e+00 3.311865091323852983e+00 -5.114299058914184570e-01 9.000000000000000000e+00
6.813584327697753906e+00 4.681096076965332031e+00 -4.332370460033416748e-01 2.000000000000000000e+00
3.044917869567871094e+01 2.091149520874023082e+01 8.527894020080566406e+00 1.100000000000000000e+01
1.120384597778319957e+01 7.691555976867675781e+00 -2.372131049633026123e-01 2.000000000000000000e+00
3.240908432006835938e+01 2.224917030334473012e+01 1.053341770172118963e+01 9.000000000000000000e+00
1.866793394088744895e+00 1.277741551399230957e+00 -6.061542034149169922e-01 1.800000000000000000e+01
2.118405103683472124e+00 1.448873639106750044e+00 -5.925210714340209961e-01 1.400000000000000000e+01
2.460194826126099077e+00 1.682008862495421919e+00 -5.792961120605468750e-01 1.100000000000000000e+01
2.947357416152954102e+00 2.013567447662353960e+00 -5.653541684150695801e-01 1.300000000000000000e+01
3.262033843994141336e+01 2.227712440490723012e+01 4.850156307220458984e+00 2.000000000000000000e+01
3.621635198593140093e+00 2.472364902496337891e+00 -5.384187698364257812e-01 9.000000000000000000e+00
4.838397502899169922e+00 3.301768779754639116e+00 -5.124757885932922363e-01 9.000000000000000000e+00
6.839783668518066406e+00 4.664034843444824219e+00 -4.338650703430175781e-01 2.000000000000000000e+00
3.058639717102051137e+01 2.084898376464844105e+01 8.545890808105468750e+00 1.100000000000000000e+01
1.122071075439452947e+01 7.645644187927246094e+00 -2.370036840438843051e-01 2.000000000000000000e+00
3.258872604370117188e+01 2.220552635192871094e+01 1.056654644012450994e+01 9.000000000000000000e+00
1.868046164512634055e+00 1.269046306610106978e+00 -6.051189303398132324e-01 1.800000000000000000e+01
2.126674413681029829e+00 1.443659186363219993e+00 -5.934208631515502930e-01 1.400000000000000000e+01
2.466051101684569868e+00 1.673411011695862038e+00 -5.792961120605468750e-01 1.100000000000000000e+01
2.952733278274536133e+00 2.002158403396606001e+00 -5.650413036346435547e-01 1.100000000000000000e+01
3.636816740036011186e+00 2.464161872863769975e+00 -5.393937230110168457e-01 9.000000000000000000e+00
3.174857521057128906e+01 2.151156806945801137e+01 6.074037551879882812e+00 1.400000000000000000e+01
4.841645240783691406e+00 3.279272794723511186e+00 -5.116041898727416992e-01 9.000000000000000000e+00
6.869254589080811435e+00 4.649086952209472656e+00 -4.347024559974669855e-01 2.000000000000000000e+00
3.064284706115723012e+01 2.073117065429687855e+01 8.541391372680664062e+00 1.100000000000000000e+01
1.124733066558838068e+01 7.606430053710938388e+00 -2.370036840438843051e-01 2.000000000000000000e+00
3.090895652770996094e+01 2.090334320068359020e+01 9.998179435729980469e+00 8.000000000000000000e+00
1.866057515144347922e+00 1.258197903633117898e+00 -6.030483841896057129e-01 2.000000000000000000e+01
3.231027603149414062e+01 2.177715110778808949e+01 6.801202893257141113e-01 3.300000000000000000e+01
2.138165235519409180e+00 1.440582394599914995e+00 -5.952205061912536621e-01 1.300000000000000000e+01
2.468620538711547852e+00 1.662599205970763938e+00 -5.785328745841979980e-01 1.100000000000000000e+01
2.948232412338256836e+00 1.984119057655334029e+00 -5.628511905670166016e-01 1.100000000000000000e+01
3.650337934494018999e+00 2.454775333404541016e+00 -5.401249527931213379e-01 1.000000000000000000e+01
4.843141555786132812e+00 3.255683183670043945e+00 -5.105583667755126953e-01 9.000000000000000000e+00
3.232978057861328125e+01 2.172471046447753906e+01 7.571300983428955078e+00 6.300000000000000000e+01
6.882125377655029297e+00 4.622852802276611328e+00 -4.344930946826934814e-01 2.000000000000000000e+00
3.217109680175781250e+01 2.160178375244140980e+01 8.946303367614746094e+00 1.200000000000000000e+01
1.128709697723389027e+01 7.576038837432861328e+00 -2.372829169034957886e-01 2.000000000000000000e+00
1.873649120330810991e+00 1.253825306892395020e+00 -6.040836572647094727e-01 1.700000000000000000e+01
2.146420717239379883e+00 1.435276508331299050e+00 -5.961202979087829590e-01 1.200000000000000000e+01
2.480937957763671875e+00 1.658336043357848899e+00 -5.800593495368957520e-01 1.100000000000000000e+01
2.951854944229125977e+00 1.971621274948119895e+00 -5.622254610061645508e-01 1.000000000000000000e+01
3.662186622619628906e+00 2.444222211837768999e+00 -5.406123995780944824e-01 1.000000000000000000e+01
3.198385620117187855e+01 2.133864784240723012e+01 6.089680671691895419e+00 1.400000000000000000e+01
4.876022338867188388e+00 3.253132581710814986e+00 -5.128244161605834961e-01 9.000000000000000000e+00
6.898220062255859375e+00 4.598801612854003906e+00 -4.344930946826934814e-01 2.000000000000000000e+00
3.205819702148438211e+01 2.136399459838866832e+01 8.894114494323730469e+00 1.200000000000000000e+01
1.132678699493408025e+01 7.545462608337402344e+00 -2.375621497631072998e-01 2.000000000000000000e+00
1.878014445304871050e+00 1.247277379035949929e+00 -6.040836572647094727e-01 1.800000000000000000e+01
3.246152114868164062e+01 2.155105400085448863e+01 6.801202893257141113e-01 3.300000000000000000e+01
2.138427972793579102e+00 1.419154763221740945e+00 -5.925210714340209961e-01 1.100000000000000000e+01
2.485075473785399947e+00 1.648580551147460938e+00 -5.796777009963989258e-01 1.200000000000000000e+01
2.962012290954589844e+00 1.963488221168518066e+00 -5.628511905670166016e-01 1.000000000000000000e+01
3.674006223678588867e+00 2.433616399765015093e+00 -5.410999059677124023e-01 1.000000000000000000e+01
4.890670776367188388e+00 3.238292217254639116e+00 -5.131729841232299805e-01 9.000000000000000000e+00
3.166209411621094105e+01 2.095668220520019887e+01 7.380491733551025391e+00 6.200000000000000000e+01
6.917562484741210938e+00 4.576898574829101562e+00 -4.347024559974669855e-01 1.000000000000000000e+00
1.136306476593017933e+01 7.512495517730712891e+00 -2.377715855836868009e-01 2.000000000000000000e+00
3.292459106445313211e+01 2.176752853393555043e+01 1.057586383819580078e+01 9.000000000000000000e+00
1.885582804679871050e+00 1.242840647697448953e+00 -6.051189303398132324e-01 1.800000000000000000e+01
2.149878501892089844e+00 1.415969252586364968e+00 -5.943207144737243652e-01 1.100000000000000000e+01
2.503933191299438032e+00 1.648532748222351074e+00 -5.827306509017944336e-01 1.400000000000000000e+01
2.980399847030640093e+00 1.960736751556396040e+00 -5.650413036346435547e-01 1.100000000000000000e+01
3.508402633666992188e+01 2.307220268249512074e+01 5.155804634094238281e+00 2.800000000000000000e+01
3.670867443084716797e+00 2.413143873214722124e+00 -5.393937230110168457e-01 1.000000000000000000e+01
4.900279998779296875e+00 3.220106601715087891e+00 -5.129987001419067383e-01 9.000000000000000000e+00
6.946852684020996094e+00 4.561493873596191406e+00 -4.355398416519165039e-01 2.000000000000000000e+00
3.243138504028320312e+01 2.128723526000976918e+01 8.956201553344726562e+00 1.200000000000000000e+01
1.138253211975098012e+01 7.468397140502929688e+00 -2.376319617033005038e-01 2.000000000000000000e+00
3.316892242431641336e+01 2.175477790832519887e+01 1.062866306304931996e+01 9.000000000000000000e+00
1.893142938613892046e+00 1.238366246223449929e+00 -6.061542034149169922e-01 1.800000000000000000e+01
2.156439304351807085e+00 1.409522294998168945e+00 -5.947706103324890137e-01 1.100000000000000000e+01
2.491593360900878906e+00 1.627969861030579057e+00 -5.785328745841979980e-01 1.300000000000000000e+01
2.988880157470703125e+00 1.951401114463805930e+00 -5.653541684150695801e-01 1.000000000000000000e+01
3.687581300735474077e+00 2.405738592147827148e+00 -5.406123995780944824e-01 1.000000000000000000e+01
4.918165683746337891e+00 3.207335233688354048e+00 -5.136959552764892578e-01 8.000000000000000000e+00
3.180762672424316051e+01 2.073513031005859020e+01 7.380491733551025391e+00 6.200000000000000000e+01
6.962732791900634766e+00 4.537217140197753906e+00 -4.355398416519165039e-01 2.000000000000000000e+00
1.139512634277343928e+01 7.419889926910400391e+00 -2.373527288436889926e-01 2.000000000000000000e+00
3.256788253784179688e+01 2.119835090637207031e+01 1.041229057312012074e+01 8.000000000000000000e+00
1.892593026161194070e+00 1.228594660758971946e+00 -6.046012639999389648e-01 1.900000000000000000e+01
2.167886018753052202e+00 1.406228423118591087e+00 -5.965701937675476074e-01 1.100000000000000000e+01
2.512086391448975053e+00 1.628875732421875000e+00 -5.819674134254455566e-01 1.300000000000000000e+01
2.987384557723999023e+00 1.935585498809814009e+00 -5.637897849082946777e-01 1.000000000000000000e+01
3.694290161132812944e+00 2.391772985458374023e+00 -5.403686761856079102e-01 9.000000000000000000e+00
3.304442596435546875e+01 2.139376449584960938e+01 6.234851837158203125e+00 1.400000000000000000e+01
4.915950298309326172e+00 3.181488037109375000e+00 -5.123014450073242188e-01 9.000000000000000000e+00
3.089077949523926137e+01 1.998414039611816051e+01 7.151521205902099609e+00 6.100000000000000000e+01
6.991945266723632812e+00 4.521561622619628906e+00 -4.363771975040435791e-01 2.000000000000000000e+00
1.145454788208007990e+01 7.401774406433104581e+00 -2.380508184432983121e-01 2.000000000000000000e+00
3.263194274902343750e+01 2.107825088500976918e+01 1.040918445587158025e+01 8.000000000000000000e+00
1.895246028900146040e+00 1.220934629440308061e+00 -6.040836572647094727e-01 1.800000000000000000e+01
2.166227102279663086e+00 1.394433259963989036e+00 -5.947706103324890137e-01 1.100000000000000000e+01
2.522709846496582031e+00 1.623283982276916948e+00 -5.831122994422912598e-01 1.400000000000000000e+01
2.995784282684326172e+00 1.926214098930359109e+00 -5.641027092933654785e-01 8.000000000000000000e+00
3.715977191925048828e+00 2.387447118759154829e+00 -5.423185825347900391e-01 9.000000000000000000e+00
3.317873382568358664e+01 2.131672668457030895e+01 6.246115207672119141e+00 1.400000000000000000e+01
4.930378437042236328e+00 3.166461944580078125e+00 -5.126500725746154785e-01 9.000000000000000000e+00
6.984153270721436435e+00 4.482025623321533203e+00 -4.349117875099182129e-01 2.000000000000000000e+00
1.151734828948974965e+01 7.385493278503417969e+00 -2.388187348842621127e-01 2.000000000000000000e+00
3.385030746459960938e+01 2.169815444946289062e+01 1.077360153198242010e+01 9.000000000000000000e+00
1.902751684188842995e+00 1.216392636299133079e+00 -6.051189303398132324e-01 1.800000000000000000e+01
2.161227703094481978e+00 1.380568861961364968e+00 -5.920711755752563477e-01 1.000000000000000000e+01
2.528360843658446822e+00 1.614468216896056907e+00 -5.831122994422912598e-01 1.400000000000000000e+01
2.997493982315063032e+00 1.912557482719420943e+00 -5.631640553474426270e-01 7.000000000000000000e+00
3.710897684097290039e+00 2.365924119949340820e+00 -5.403686761856079102e-01 1.000000000000000000e+01
3.142073059082030895e+01 2.003263664245605113e+01 5.901959419250488281e+00 1.300000000000000000e+01
4.941401481628417969e+00 3.149232625961304155e+00 -5.126500725746154785e-01 9.000000000000000000e+00
7.003125190734863281e+00 4.459764480590820312e+00 -4.351211488246917725e-01 2.000000000000000000e+00
1.154305839538574041e+01 7.345244884490966797e+00 -2.388187348842621127e-01 2.000000000000000000e+00
3.267035293579102273e+01 2.078926849365234020e+01 1.037605571746825994e+01 8.000000000000000000e+00
1.913511276245116965e+00 1.213882803916930930e+00 -6.071894764900207520e-01 1.700000000000000000e+01
2.169325590133666992e+00 1.375102996826172097e+00 -5.929709672927856445e-01 1.100000000000000000e+01
2.524030685424805132e+00 1.599327921867371050e+00 -5.808225870132446289e-01 1.300000000000000000e+01
2.995806932449340820e+00 1.896799087524414062e+00 -5.615997314453125000e-01 6.000000000000000000e+00
3.598120117187500000e+01 2.277274894714355113e+01 5.228438377380371094e+00 3.000000000000000000e+01
3.725843906402587891e+00 2.357201337814331055e+00 -5.413436293601989746e-01 9.000000000000000000e+00
4.947312355041503906e+00 3.128769874572753906e+00 -5.121271610260009766e-01 9.000000000000000000e+00
7.025403499603270596e+00 4.439559936523438388e+00 -4.355398416519165039e-01 2.000000000000000000e+00
3.118005561828612926e+01 1.969598197937012074e+01 8.514397621154785156e+00 1.100000000000000000e+01
1.155848312377930043e+01 7.298501491546630859e+00 -2.386092990636826117e-01 2.000000000000000000e+00
3.263197326660156250e+01 2.059720611572265980e+01 1.033982086181640980e+01 8.000000000000000000e+00
1.904448390007019043e+00 1.199295163154602051e+00 -6.030483841896057129e-01 1.800000000000000000e+01
2.177172422409058061e+00 1.369977474212646040e+00 -5.938707590103149414e-01 1.100000000000000000e+01
2.525996685028076172e+00 1.588858604431151900e+00 -5.800593495368957520e-01 1.300000000000000000e+01
3.010442733764647993e+00 1.892110109329224077e+00 -5.631640553474426270e-01 9.000000000000000000e+00
3.146436119079589844e+01 1.976818084716796875e+01 4.562544345855712891e+00 1.900000000000000000e+01
3.730278015136719194e+00 2.342721700668334961e+00 -5.408561229705810547e-01 9.000000000000000000e+00
4.967785358428955078e+00 3.118702888488769975e+00 -5.131729841232299805e-01 8.000000000000000000e+00
7.040087223052979404e+00 4.416238307952880859e+00 -4.355398416519165039e-01 2.000000000000000000e+00
3.106688880920410156e+01 1.948066711425780895e+01 8.465807914733886719e+00 1.100000000000000000e+01
1.161989784240723012e+01 7.283497333526611328e+00 -2.393772006034851074e-01 2.000000000000000000e+00
3.249354934692382812e+01 2.036736297607421875e+01 1.027563381195068004e+01 8.000000000000000000e+00
1.913538098335265891e+00 1.195711255073546919e+00 -6.046012639999389648e-01 1.900000000000000000e+01
2.185247182846068892e+00 1.364433526992798074e+00 -5.947706103324890137e-01 1.100000000000000000e+01
2.538189411163330078e+00 1.584189534187316895e+00 -5.815858244895935059e-01 1.300000000000000000e+01
3.025409698486328125e+00 1.886816740036010964e+00 -5.647284388542175293e-01 1.200000000000000000e+01
3.163761711120605113e+01 1.972333908081055043e+01 4.577656269073486328e+00 1.900000000000000000e+01
3.751910924911499023e+00 2.338085412979125977e+00 -5.428060293197631836e-01 1.000000000000000000e+01
3.129345130920410156e+01 1.949361610412598012e+01 5.839385509490966797e+00 1.300000000000000000e+01
4.963421344757080078e+00 3.091861963272095171e+00 -5.116041898727416992e-01 9.000000000000000000e+00
3.089813804626464844e+01 1.923987960815430043e+01 7.075197696685791016e+00 6.100000000000000000e+01
7.065633773803710938e+00 4.397969722747802734e+00 -4.361678659915924072e-01 2.000000000000000000e+00
3.128030586242676137e+01 1.946270179748535156e+01 8.505399703979492188e+00 1.100000000000000000e+01
1.163845920562743963e+01 7.238667488098145419e+00 -2.392375916242598932e-01 2.000000000000000000e+00
3.277470016479492188e+01 2.037665176391601918e+01 1.034085655212401988e+01 8.000000000000000000e+00
1.912774562835692915e+00 1.185970544815063032e+00 -6.030483841896057129e-01 2.000000000000000000e+01
2.193309783935546875e+00 1.358850002288817915e+00 -5.956704020500183105e-01 1.000000000000000000e+01
2.543703794479370117e+00 1.575319886207581010e+00 -5.815858244895935059e-01 1.400000000000000000e+01
3.020219087600708008e+00 1.868968367576598899e+00 -5.625383257865905762e-01 1.200000000000000000e+01
3.168601226806640980e+01 1.960025215148926137e+01 4.574731349945068359e+00 1.900000000000000000e+01
3.763426065444945845e+00 2.327062368392943892e+00 -5.432935357093811035e-01 9.000000000000000000e+00
4.977573394775390625e+00 3.076612710952758789e+00 -5.119528174400329590e-01 9.000000000000000000e+00
7.074145317077636719e+00 4.369081020355224609e+00 -4.357491731643676758e-01 2.000000000000000000e+00
3.125519371032714844e+01 1.929606628417969105e+01 8.480204582214355469e+00 1.100000000000000000e+01
1.169088363647460938e+01 7.214800357818604404e+00 -2.397960573434829989e-01 2.000000000000000000e+00
3.263494491577147727e+01 2.014002037048339844e+01 1.027563381195068004e+01 8.000000000000000000e+00
1.933356881141663042e+00 1.189409017562865989e+00 -6.082247495651245117e-01 2.000000000000000000e+01
2.188078641891479048e+00 1.345062375068664995e+00 -5.929709672927856445e-01 1.100000000000000000e+01
2.554205417633057085e+00 1.569514632225037065e+00 -5.827306509017944336e-01 1.300000000000000000e+01
3.036824941635131836e+00 1.864616036415100098e+00 -5.644155740737915039e-01 1.100000000000000000e+01
3.190312004089355113e+01 1.958090591430664062e+01 4.596180438995361328e+00 1.900000000000000000e+01
3.774910211563109907e+00 2.315987586975098100e+00 -5.437809824943542480e-01 1.000000000000000000e+01
3.146245765686035156e+01 1.929532814025878906e+01 5.845643043518066406e+00 1.300000000000000000e+01
4.988282203674316406e+00 3.059218883514403853e+00 -5.119528174400329590e-01 8.000000000000000000e+00
7.092758655548095703e+00 4.346448421478270596e+00 -4.359585046768187921e-01 2.000000000000000000e+00
3.150515174865723012e+01 1.929881858825683949e+01 8.529693603515625000e+00 1.100000000000000000e+01
1.175692558288574041e+01 7.199009418487548828e+00 -2.406337857246398926e-01 2.000000000000000000e+00
3.149583435058594105e+01 1.927799606323241832e+01 9.894652366638183594e+00 7.000000000000000000e+00
1.934198975563049094e+00 1.180640101432800071e+00 -6.071894764900207520e-01 2.000000000000000000e+01
2.192760467529296875e+00 1.337416410446166992e+00 -5.929709672927856445e-01 1.200000000000000000e+01
2.561344623565673828e+00 1.561611175537108931e+00 -5.831122994422912598e-01 1.300000000000000000e+01
3.046689271926879883e+00 1.856059551239013894e+00 -5.650413036346435547e-01 1.100000000000000000e+01
3.767710924148560014e+00 2.293507099151610884e+00 -5.415873527526855469e-01 1.000000000000000000e+01
5.015951156616210938e+00 3.052144765853881836e+00 -5.136959552764892578e-01 9.000000000000000000e+00
7.104474544525145596e+00 4.319588184356688565e+00 -4.357491731643676758e-01 2.000000000000000000e+00
3.178881454467773082e+01 1.932030296325683949e+01 8.588181495666503906e+00 1.100000000000000000e+01
1.178881931304931996e+01 7.162079334259033203e+00 -2.407733947038651068e-01 2.000000000000000000e+00
1.936655998229980025e+00 1.172880530357361062e+00 -6.066718697547912598e-01 2.100000000000000000e+01
2.204084634780883789e+00 1.333789706230164018e+00 -5.947706103324890137e-01 1.200000000000000000e+01
2.551661729812622070e+00 1.543515682220458984e+00 -5.796777009963989258e-01 1.300000000000000000e+01
3.059911727905272993e+00 1.849500656127929910e+00 -5.662927627563476562e-01 1.100000000000000000e+01
3.408470153808593750e+01 2.059367561340332031e+01 4.889641761779785156e+00 2.100000000000000000e+01
3.789287567138671875e+00 2.288551330566405806e+00 -5.435372591018676758e-01 1.000000000000000000e+01
5.018046379089354581e+00 3.029468536376953125e+00 -5.128244161605834961e-01 9.000000000000000000e+00
7.133190631866455078e+00 4.303015708923339844e+00 -4.365865588188170832e-01 3.000000000000000000e+00
3.182935905456542969e+01 1.919312095642089844e+01 8.580983161926269531e+00 1.100000000000000000e+01
1.179319667816161932e+01 7.108497619628906250e+00 -2.403545379638671875e-01 2.000000000000000000e+00
3.352925109863281250e+01 2.020220184326171875e+01 1.048890018463134943e+01 9.000000000000000000e+00
1.939082384109497070e+00 1.165118217468261941e+00 -6.061542034149169922e-01 1.900000000000000000e+01
2.217080593109130859e+00 1.331103324890136941e+00 -5.970200896263122559e-01 1.200000000000000000e+01
2.562083959579468218e+00 1.537630200386046919e+00 -5.808225870132446289e-01 1.200000000000000000e+01
3.061266660690308061e+00 1.835760593414307085e+00 -5.653541684150695801e-01 1.300000000000000000e+01
3.408486938476563211e+01 2.043170547485351918e+01 4.879404544830322266e+00 2.100000000000000000e+01
3.795550107955933061e+00 2.274289846420288086e+00 -5.432935357093811035e-01 1.000000000000000000e+01
3.162558746337890980e+01 1.895002174377441051e+01 5.839385509490966797e+00 1.300000000000000000e+01
5.018334865570068359e+00 3.005791187286376953e+00 -5.117785334587097168e-01 9.000000000000000000e+00
7.158450126647949219e+00 4.284244060516357422e+00 -4.372145831584929865e-01 2.000000000000000000e+00
3.216707992553710938e+01 1.924397468566894887e+01 8.653866767883300781e+00 1.100000000000000000e+01
1.183166790008544922e+01 7.075498580932617188e+00 -2.406337857246398926e-01 2.000000000000000000e+00
3.252167510986328125e+01 1.944840621948241832e+01 1.015347099304199041e+01 8.000000000000000000e+00
1.944797039031981978e+00 1.159331679344177024e+00 -6.066718697547912598e-01 2.200000000000000000e+01
2.221713542938231978e+00 1.323356270790100098e+00 -5.970200896263122559e-01 1.200000000000000000e+01
2.579243898391724077e+00 1.535708189010619895e+00 -5.834938883781433105e-01 1.300000000000000000e+01
3.065958499908446822e+00 1.824053525924683061e+00 -5.650413036346435547e-01 1.200000000000000000e+01
3.398536300659179688e+01 2.021113586425780895e+01 4.855031013488770419e+00 2.000000000000000000e+01
3.808584928512572798e+00 2.264070272445679155e+00 -5.440247654914855957e-01 1.000000000000000000e+01
3.186464881896973012e+01 1.893489074707030895e+01 5.870672702789306641e+00 1.300000000000000000e+01
5.035647869110107422e+00 2.992326736450194868e+00 -5.124757885932922363e-01 9.000000000000000000e+00
7.183665752410888672e+00 4.265348434448242188e+00 -4.378426074981688898e-01 2.000000000000000000e+00
3.235806655883789062e+01 1.920517539978026988e+01 8.687159538269042969e+00 1.100000000000000000e+01
1.186661243438721058e+01 7.040277481079101562e+00 -2.408432066440581998e-01 2.000000000000000000e+00
3.377581405639647727e+01 2.003069877624512074e+01 1.052202987670898082e+01 9.000000000000000000e+00
1.950494766235352007e+00 1.153519392013550027e+00 -6.071894764900207520e-01 2.000000000000000000e+01
2.207864761352539062e+00 1.304687500000000000e+00 -5.920711755752563477e-01 1.200000000000000000e+01
2.587969541549683061e+00 1.528692483901977983e+00 -5.842571258544921875e-01 1.300000000000000000e+01
3.079111576080321822e+00 1.817356467247009055e+00 -5.662927627563476562e-01 1.100000000000000000e+01
3.200405502319335938e+01 1.888193702697753906e+01 4.562544345855712891e+00 1.900000000000000000e+01
3.819884538650513139e+00 2.252778768539429155e+00 -5.445122122764587402e-01 1.000000000000000000e+01
3.187621879577637074e+01 1.879901695251464844e+01 5.861286640167236328e+00 1.300000000000000000e+01
5.046062469482421875e+00 2.974730968475341797e+00 -5.124757885932922363e-01 9.000000000000000000e+00
3.328551864624022727e+01 1.961449432373046875e+01 7.509860515594482422e+00 6.300000000000000000e+01
7.188185214996337891e+00 4.234164714813232422e+00 -4.372145831584929865e-01 2.000000000000000000e+00
1.189800834655762074e+01 7.002869606018066406e+00 -2.409828305244446078e-01 2.000000000000000000e+00
3.731166839599608664e+01 2.196071243286133168e+01 1.160078716278075994e+01 1.100000000000000000e+01
1.959508180618285911e+00 1.149636626243591087e+00 -6.087424159049987793e-01 2.100000000000000000e+01
2.224173545837401900e+00 1.303871393203734907e+00 -5.952205061912536621e-01 1.300000000000000000e+01
2.583126783370972124e+00 1.513694047927856001e+00 -5.819674134254455566e-01 1.200000000000000000e+01
3.085436582565308061e+00 1.806597352027893066e+00 -5.662927627563476562e-01 1.100000000000000000e+01
3.194641876220703125e+01 1.869791030883789062e+01 4.544995307922363281e+00 1.900000000000000000e+01
3.822584629058837891e+00 2.236423969268798828e+00 -5.437809824943542480e-01 1.000000000000000000e+01
3.171999359130859020e+01 1.855795478820801137e+01 5.820613384246826172e+00 1.300000000000000000e+01
5.051255702972412109e+00 2.954081296920775923e+00 -5.119528174400329590e-01 9.000000000000000000e+00
7.182228565216063565e+00 4.196955204010009766e+00 -4.359585046768187921e-01 2.000000000000000000e+00
3.362886047363281250e+01 1.964324760437012074e+01 8.991293907165527344e+00 1.200000000000000000e+01
1.192928791046142933e+01 6.965328216552734375e+00 -2.411224544048309049e-01 2.000000000000000000e+00
1.970187783241271973e+00 1.146676659584044966e+00 -6.108129620552062988e-01 2.100000000000000000e+01
2.230396032333374023e+00 1.297079324722290039e+00 -5.956704020500183105e-01 1.400000000000000000e+01
2.585000276565552202e+00 1.502694606781006081e+00 -5.812041759490966797e-01 1.200000000000000000e+01
3.098556518554687944e+00 1.799784779548645020e+00 -5.675442218780517578e-01 1.100000000000000000e+01
3.243380355834960938e+01 1.883148193359375000e+01 4.604955196380615234e+00 1.900000000000000000e+01
3.832084894180297852e+00 2.224063396453856978e+00 -5.440247654914855957e-01 1.000000000000000000e+01
5.071877002716063565e+00 2.942430019378662109e+00 -5.129987001419067383e-01 9.000000000000000000e+00
7.245216846466063565e+00 4.199905395507813388e+00 -4.388893246650695801e-01 1.000000000000000000e+00
3.279346084594727273e+01 1.900205802917480113e+01 8.750145912170410156e+00 1.100000000000000000e+01
1.195006847381591975e+01 6.921640396118164062e+00 -2.410526424646378119e-01 2.000000000000000000e+00
3.733033752441406250e+01 2.162223434448241832e+01 1.155937576293944957e+01 1.100000000000000000e+01
1.954102039337157981e+00 1.128201365470886008e+00 -6.046012639999389648e-01 2.100000000000000000e+01
2.241662025451660156e+00 1.293181061744689941e+00 -5.974699854850769043e-01 1.200000000000000000e+01
2.590229988098144975e+00 1.493662118911742942e+00 -5.812041759490966797e-01 1.200000000000000000e+01
3.096261978149414062e+00 1.784026861190795898e+00 -5.659798979759216309e-01 1.100000000000000000e+01
3.228603744506835938e+01 1.859529876708984020e+01 4.574731349945068359e+00 1.900000000000000000e+01
3.834663867950439009e+00 2.207702159881591797e+00 -5.432935357093811035e-01 1.000000000000000000e+01
5.078663349151611328e+00 2.922720193862915039e+00 -5.126500725746154785e-01 9.000000000000000000e+00
7.242518901824951172e+00 4.164633274078369141e+00 -4.378426074981688898e-01 2.000000000000000000e+00
3.286634826660156250e+01 1.889135742187500000e+01 8.751945495605468750e+00 1.100000000000000000e+01
1.199843120574950994e+01 6.893831729888916016e+00 -2.415413111448287964e-01 5.000000000000000000e+00
1.967693090438842995e+00 1.127820849418639915e+00 -6.077071428298950195e-01 2.200000000000000000e+01
2.245713472366333008e+00 1.286132335662842019e+00 -5.974699854850769043e-01 1.300000000000000000e+01
2.598317146301269975e+00 1.487468123435973899e+00 -5.819674134254455566e-01 1.100000000000000000e+01
3.108710289001464844e+00 1.778214216232300027e+00 -5.672313570976257324e-01 1.000000000000000000e+01
3.229259872436522727e+01 1.846421813964844105e+01 4.567419052124023438e+00 1.900000000000000000e+01
3.855368375778197798e+00 2.203524589538574219e+00 -5.452434420585632324e-01 9.000000000000000000e+00
5.091279983520507812e+00 2.908727645874022993e+00 -5.129987001419067383e-01 9.000000000000000000e+00
7.272912025451660156e+00 4.151761054992675781e+00 -4.388893246650695801e-01 1.000000000000000000e+00
3.359579467773438211e+01 1.917047500610351918e+01 8.930107116699218750e+00 1.200000000000000000e+01
1.198181533813476918e+01 6.834306716918945312e+00 -2.407733947038651068e-01 2.000000000000000000e+00
3.706011581420897727e+01 2.113871574401855113e+01 1.143203735351563033e+01 1.100000000000000000e+01
1.978335618972778098e+00 1.124764680862426980e+00 -6.097776889801025391e-01 2.100000000000000000e+01
2.236634016036986861e+00 1.270584940910338911e+00 -5.938707590103149414e-01 1.100000000000000000e+01
2.622272968292235884e+00 1.489053010940551980e+00 -5.861652493476867676e-01 1.100000000000000000e+01
3.113180160522460938e+00 1.766377091407776101e+00 -5.669184923171997070e-01 9.000000000000000000e+00
3.863036632537841797e+00 2.190053462982178178e+00 -5.452434420585632324e-01 1.000000000000000000e+01
5.118736267089843750e+00 2.900761127471923828e+00 -5.147418379783630371e-01 8.000000000000000000e+00
7.259552478790283203e+00 4.110602855682373047e+00 -4.372145831584929865e-01 2.000000000000000000e+00
3.374730300903320312e+01 1.910108184814453125e+01 8.952602386474609375e+00 1.200000000000000000e+01
1.201952171325683949e+01 6.800318241119384766e+00 -2.410526424646378119e-01 5.000000000000000000e+00
3.728163909912108664e+01 2.109293746948241832e+01 1.147758960723876953e+01 1.100000000000000000e+01
1.985810518264770952e+00 1.119403362274169922e+00 -6.108129620552062988e-01 2.100000000000000000e+01
2.244671821594237837e+00 1.264291405677794966e+00 -5.947706103324890137e-01 1.100000000000000000e+01
2.612316131591796875e+00 1.470763444900512917e+00 -5.827306509017944336e-01 1.200000000000000000e+01
3.116190195083618164e+00 1.753017783164978027e+00 -5.662927627563476562e-01 9.000000000000000000e+00
3.862385272979735884e+00 2.171016454696654829e+00 -5.440247654914855957e-01 1.000000000000000000e+01
5.127596855163574219e+00 2.881004571914672852e+00 -5.145674943923950195e-01 9.000000000000000000e+00
7.274569988250732422e+00 4.083967685699462891e+00 -4.372145831584929865e-01 2.000000000000000000e+00
1.207924652099609020e+01 6.775784969329833984e+00 -2.417507320642471036e-01 2.000000000000000000e+00
3.259050750732421875e+01 1.828146171569823863e+01 1.001267337799072088e+01 8.000000000000000000e+00
1.981274962425231934e+00 1.107751011848449929e+00 -6.082247495651245117e-01 1.800000000000000000e+01
2.250772476196289062e+00 1.257398724555969016e+00 -5.952205061912536621e-01 1.200000000000000000e+01
2.614006042480469194e+00 1.459721326828002930e+00 -5.819674134254455566e-01 1.200000000000000000e+01
3.139540672302246094e+00 1.751754641532897949e+00 -5.694214701652526855e-01 9.000000000000000000e+00
3.875141620635985884e+00 2.160420894622803178e+00 -5.447559356689453125e-01 9.000000000000000000e+00
3.241228103637695312e+01 1.806267929077148082e+01 5.876929759979248047e+00 1.300000000000000000e+01
5.137622356414794922e+00 2.863088369369506836e+00 -5.145674943923950195e-01 9.000000000000000000e+00
7.306231021881104404e+00 4.068266391754150391e+00 -4.382613003253936768e-01 2.000000000000000000e+00
3.368900680541992188e+01 1.875106048583984020e+01 8.901312828063964844e+00 1.200000000000000000e+01
1.209234046936034979e+01 6.727746009826660156e+00 -2.415413111448287964e-01 2.000000000000000000e+00
3.261677169799804688e+01 1.813935279846191051e+01 1.000024986267090021e+01 8.000000000000000000e+00
1.981558918952941895e+00 1.099300384521483931e+00 -6.071894764900207520e-01 1.900000000000000000e+01
2.270269393920897993e+00 1.258430957794189009e+00 -5.992696285247802734e-01 1.200000000000000000e+01
2.623984098434447798e+00 1.453899502754210982e+00 -5.831122994422912598e-01 1.300000000000000000e+01
3.148788690567017046e+00 1.743247389793395996e+00 -5.700471997261047363e-01 9.000000000000000000e+00
3.285988616943358664e+01 1.818455505371094105e+01 4.611292362213134766e+00 1.900000000000000000e+01
3.885758638381958008e+00 2.149480342864989790e+00 -5.452434420585632324e-01 1.000000000000000000e+01
5.152318954467773438e+00 2.848927974700928178e+00 -5.150904655456542969e-01 8.000000000000000000e+00
7.312688827514648438e+00 4.040152072906494141e+00 -4.378426074981688898e-01 2.000000000000000000e+00
3.358041381835938211e+01 1.854503250122069957e+01 8.856323242187500000e+00 1.200000000000000000e+01
1.211458396911620916e+01 6.687609672546386719e+00 -2.415413111448287964e-01 2.000000000000000000e+00
3.269727706909179688e+01 1.804986572265625000e+01 1.000749683380126953e+01 8.000000000000000000e+00
1.985384106636046919e+00 1.092376828193664995e+00 -6.071894764900207520e-01 1.900000000000000000e+01
2.271233081817626953e+00 1.248620867729187012e+00 -5.983697772026062012e-01 1.100000000000000000e+01
2.625602006912231001e+00 1.442840218544005904e+00 -5.823490619659423828e-01 1.300000000000000000e+01
3.137539386749268022e+00 1.722738146781920943e+00 -5.669184923171997070e-01 9.000000000000000000e+00
3.292316436767578125e+01 1.806974220275878906e+01 4.611292362213134766e+00 1.900000000000000000e+01
3.903680324554442915e+00 2.141632318496704102e+00 -5.467059016227722168e-01 9.000000000000000000e+00
5.174460887908936435e+00 2.837631702423096147e+00 -5.163106322288513184e-01 9.000000000000000000e+00
3.278036117553710938e+01 1.796903800964355113e+01 7.266387939453125000e+00 6.200000000000000000e+01
7.340759754180908203e+00 4.022279739379882812e+00 -4.386799931526184082e-01 2.000000000000000000e+00
3.354923248291016336e+01 1.837527847290039062e+01 8.831128120422363281e+00 1.200000000000000000e+01
1.219047451019286932e+01 6.674089908599854404e+00 -2.425884455442428866e-01 2.000000000000000000e+00
3.288886642456054688e+01 1.800612831115723012e+01 1.004683780670166016e+01 1.600000000000000000e+01
1.997854351997375044e+00 1.089717984199523926e+00 -6.097776889801025391e-01 1.900000000000000000e+01
2.270660877227783203e+00 1.237490415573119895e+00 -5.970200896263122559e-01 1.200000000000000000e+01
2.644664764404296875e+00 1.440720796585083008e+00 -5.854020118713378906e-01 1.300000000000000000e+01
3.143832445144652876e+00 1.711226940155029075e+00 -5.669184923171997070e-01 1.100000000000000000e+01
3.897552490234375000e+00 2.119722843170166016e+00 -5.447559356689453125e-01 9.000000000000000000e+00
5.183076381683349609e+00 2.817695617675780806e+00 -5.161362886428833008e-01 9.000000000000000000e+00
7.341412067413330078e+00 3.987720727920531782e+00 -4.378426074981688898e-01 2.000000000000000000e+00
3.467473220825195312e+01 1.882684326171875000e+01 9.109168052673339844e+00 1.200000000000000000e+01
1.221485424041748047e+01 6.629364967346191406e+00 -2.425884455442428866e-01 2.000000000000000000e+00
3.279814529418945312e+01 1.779311752319335938e+01 9.998179435729980469e+00 8.000000000000000000e+00
2.005044460296630859e+00 1.084575772285460982e+00 -6.108129620552062988e-01 1.900000000000000000e+01
2.274966716766356978e+00 1.229556798934936968e+00 -5.970200896263122559e-01 1.200000000000000000e+01
2.641041278839110884e+00 1.426814556121825950e+00 -5.834938883781433105e-01 1.300000000000000000e+01
3.165431261062622070e+00 1.708687305450439009e+00 -5.697343349456787109e-01 1.000000000000000000e+01
3.598310089111328125e+01 1.941542816162109020e+01 5.020285606384277344e+00 2.400000000000000000e+01
3.904927968978881836e+00 2.106104850769042969e+00 -5.447559356689453125e-01 9.000000000000000000e+00
3.471308135986328125e+01 1.871451950073241832e+01 6.246115207672119141e+00 1.400000000000000000e+01
