-2.241705179214477983e+00 9.682149887084960938e-01 -6.542945504188537598e-01 1.900000000000000000e+01
-2.586511373519897017e+00 1.118211627006530984e+00 -6.505584716796875000e-01 1.500000000000000000e+01
-3.047049760818481001e+00 1.317944884300231934e+00 -6.453160047531127930e-01 1.100000000000000000e+01
-3.727063655853271040e+00 1.613616824150085005e+00 -6.432585120201110840e-01 1.000000000000000000e+01
-4.855891227722167969e+00 2.104351282119750977e+00 -6.498073339462280273e-01 1.100000000000000000e+01
-6.697688579559326172e+00 2.903901815414429155e+00 -6.386772990226745605e-01 2.000000000000000000e+00
-1.122199249267577947e+01 4.870148658752441406e+00 -6.411154866218566895e-01 3.000000000000000000e+00
-3.276103591918945312e+01 1.423130702972411932e+01 -6.234697699546813965e-01 1.400000000000000000e+01
-2.231228590011597124e+00 9.729453921318054199e-01 -6.522240042686462402e-01 1.600000000000000000e+01
-2.570090055465697798e+00 1.121776580810547097e+00 -6.474091410636901855e-01 1.400000000000000000e+01
-3.051426649093627930e+00 1.332501411437988059e+00 -6.472241282463073730e-01 1.100000000000000000e+01
-3.726838350296020952e+00 1.628990292549133079e+00 -6.441971063613891602e-01 1.000000000000000000e+01
-6.093846130371093750e+01 2.664869499206542969e+01 8.166464805603027344e+00 6.300000000000000000e+01
-4.828511238098145419e+00 2.112535953521728960e+00 -6.471261978149414062e-01 1.100000000000000000e+01
-6.694811820983886719e+00 2.930459022521973100e+00 -6.393745541572570801e-01 2.000000000000000000e+00
-1.120492458343506037e+01 4.909290790557861328e+00 -6.411154866218566895e-01 3.000000000000000000e+00
-3.275877380371093750e+01 1.436645984649658025e+01 -6.243773102760314941e-01 7.000000000000000000e+00
-2.247267961502075195e+00 9.892898201942443848e-01 -6.579180359840393066e-01 1.800000000000000000e+01
-6.088802337646483664e+01 2.681674385070801137e+01 1.161318063735961914e+00 4.300000000000000000e+01
-2.573291778564453125e+00 1.133884072303771973e+00 -6.492087244987487793e-01 1.300000000000000000e+01
-3.039571046829224077e+00 1.339976906776428001e+00 -6.456976532936096191e-01 1.100000000000000000e+01
-3.726551294326781782e+00 1.644381880760193093e+00 -6.451357603073120117e-01 9.000000000000000000e+00
-6.096129226684570312e+01 2.691255569458008168e+01 8.182064056396484375e+00 6.300000000000000000e+01
-4.813844203948974609e+00 2.126169681549071822e+00 -6.461512446403503418e-01 1.100000000000000000e+01
-6.684541702270507812e+00 2.953810453414916992e+00 -6.393745541572570801e-01 2.000000000000000000e+00
-1.112196350097656072e+01 4.919289112091063565e+00 -6.373472809791564941e-01 3.000000000000000000e+00
-3.272305297851563211e+01 1.448719787597656072e+01 -6.246565580368041992e-01 7.000000000000000000e+00
-2.233208894729613814e+00 9.924210906028747559e-01 -6.548121571540832520e-01 1.800000000000000000e+01
-2.569318056106566939e+00 1.142859697341918945e+00 -6.492087244987487793e-01 1.400000000000000000e+01
-3.031287908554077148e+00 1.348982453346251997e+00 -6.449344158172607422e-01 1.100000000000000000e+01
-3.718984127044678178e+00 1.656576156616210938e+00 -6.448228359222412109e-01 9.000000000000000000e+00
-4.791888713836669922e+00 2.136493444442749023e+00 -6.442013382911682129e-01 9.000000000000000000e+00
-6.670551300048828125e+00 2.975502490997314009e+00 -6.390259265899658203e-01 2.000000000000000000e+00
-1.107919120788574041e+01 4.946682453155517578e+00 -6.358818411827087402e-01 3.000000000000000000e+00
-3.275261306762695312e+01 1.463723373413085938e+01 -6.261923313140869141e-01 7.000000000000000000e+00
-2.219155073165893999e+00 9.954662919044494629e-01 -6.517063379287719727e-01 1.800000000000000000e+01
-6.088176345825195312e+01 2.732304191589355113e+01 1.164808511734009011e+00 4.200000000000000000e+01
-2.581313133239746094e+00 1.159005165100098100e+00 -6.532578468322753906e-01 1.500000000000000000e+01
-3.030142307281494141e+00 1.361164331436157005e+00 -6.456976532936096191e-01 1.100000000000000000e+01
-3.711377382278441939e+00 1.668737769126892090e+00 -6.445099711418151855e-01 9.000000000000000000e+00
-4.773540496826171875e+00 2.148319005966186968e+00 -6.427389383316040039e-01 1.300000000000000000e+01
-6.631056785583496094e+00 2.985681056976317915e+00 -6.362369060516357422e-01 2.000000000000000000e+00
-1.097081279754639027e+01 4.944294452667236328e+00 -6.306482553482055664e-01 3.000000000000000000e+00
-3.273777770996093750e+01 1.476791763305664062e+01 -6.268904209136962891e-01 7.000000000000000000e+00
-2.219186544418334961e+00 1.004800200462341087e+00 -6.527416110038757324e-01 1.800000000000000000e+01
-2.559501886367797852e+00 1.159964442253113015e+00 -6.487588286399841309e-01 1.500000000000000000e+01
-3.028948545455933061e+00 1.373354673385619895e+00 -6.464608907699584961e-01 1.100000000000000000e+01
-3.687541723251343218e+00 1.673519134521483931e+00 -6.413813233375549316e-01 9.000000000000000000e+00
-4.787700653076171875e+00 2.174820661544799805e+00 -6.456637978553771973e-01 9.000000000000000000e+00
-6.627849578857421875e+00 3.012106895446776900e+00 -6.369341611862182617e-01 2.000000000000000000e+00
-1.095348739624023082e+01 4.982559680938720703e+00 -6.306482553482055664e-01 3.000000000000000000e+00
-3.272242736816406250e+01 1.489867687225341975e+01 -6.275885105133056641e-01 7.000000000000000000e+00
-2.212151527404785156e+00 1.010934472084044966e+00 -6.517063379287719727e-01 1.800000000000000000e+01
-2.555437326431273970e+00 1.168891787528991921e+00 -6.487588286399841309e-01 1.300000000000000000e+01
-3.027706623077393022e+00 1.385553121566772017e+00 -6.472241282463073730e-01 1.100000000000000000e+01
-3.683473587036132812e+00 1.687203526496886985e+00 -6.416941881179809570e-01 1.000000000000000000e+01
-4.747599124908447266e+00 2.176628351211547852e+00 -6.412764787673950195e-01 9.000000000000000000e+00
-6.602807044982910156e+00 3.028578758239746094e+00 -6.355396509170532227e-01 2.000000000000000000e+00
-1.093602848052979049e+01 5.020763874053955078e+00 -6.306482553482055664e-01 3.000000000000000000e+00
-3.276470565795897727e+01 1.505622673034667969e+01 -6.294035911560058594e-01 7.000000000000000000e+00
-2.215626239776610884e+00 1.021886587142943892e+00 -6.537768840789794922e-01 1.900000000000000000e+01
-2.542495012283325195e+00 1.173720836639404075e+00 -6.465093493461608887e-01 1.400000000000000000e+01
-3.015722274780272993e+00 1.392820715904236062e+00 -6.456976532936096191e-01 1.100000000000000000e+01
-3.682940721511840820e+00 1.702537655830383079e+00 -6.426327824592590332e-01 9.000000000000000000e+00
-4.743575572967529297e+00 2.194854259490966797e+00 -6.417639851570129395e-01 9.000000000000000000e+00
-6.599427700042724609e+00 3.054956436157227007e+00 -6.362369060516357422e-01 2.000000000000000000e+00
-1.091843605041504084e+01 5.058907032012938565e+00 -6.306482553482055664e-01 3.000000000000000000e+00
-3.276274490356445312e+01 1.519406223297118963e+01 -6.303809285163879395e-01 7.000000000000000000e+00
-2.210473775863647017e+00 1.028413295745850053e+00 -6.532592773437500000e-01 1.900000000000000000e+01
-6.086184310913085938e+01 2.832863044738769887e+01 1.171789526939392090e+00 4.100000000000000000e+01
-2.547421932220458984e+00 1.186258792877197044e+00 -6.487588286399841309e-01 1.500000000000000000e+01
-3.000409364700316939e+00 1.397838950157165971e+00 -6.434079408645629883e-01 1.100000000000000000e+01
-3.677274703979492188e+00 1.714741349220276101e+00 -6.426327824592590332e-01 9.000000000000000000e+00
-4.727276802062988281e+00 2.206374645233153853e+00 -6.405452489852905273e-01 1.100000000000000000e+01
-6.567597389221191406e+00 3.066708564758300781e+00 -6.341452002525329590e-01 2.000000000000000000e+00
-1.090159988403319957e+01 5.095086097717285156e+00 -6.306482553482055664e-01 3.000000000000000000e+00
-3.271218109130858664e+01 1.530262374877930043e+01 -6.303809285163879395e-01 7.000000000000000000e+00
-2.199875593185424805e+00 1.032839059829711914e+00 -6.511887311935424805e-01 1.900000000000000000e+01
-2.543265581130981001e+00 1.195143818855286089e+00 -6.487588286399841309e-01 1.500000000000000000e+01
-2.995511770248413086e+00 1.408303856849669966e+00 -6.434079408645629883e-01 1.100000000000000000e+01
-3.667691946029663086e+00 1.725884795188904031e+00 -6.420070528984069824e-01 9.000000000000000000e+00
-4.715954780578613281e+00 2.221170902252196822e+00 -6.400578022003173828e-01 1.100000000000000000e+01
-6.535224437713623047e+00 3.079423904418944868e+00 -6.320534348487854004e-01 2.000000000000000000e+00
-1.088374805450438920e+01 5.133109092712402344e+00 -6.306482553482055664e-01 3.000000000000000000e+00
-2.199748516082764116e+00 1.042165994644165039e+00 -6.522240042686462402e-01 1.900000000000000000e+01
-2.533795833587646040e+00 1.201509237289428933e+00 -6.474091410636901855e-01 1.400000000000000000e+01
-2.994125127792357954e+00 1.420434594154357910e+00 -6.441711783409118652e-01 1.100000000000000000e+01
-3.643800973892211914e+00 1.730203866958617942e+00 -6.388783454895019531e-01 9.000000000000000000e+00
-4.722516059875488281e+00 2.244436025619506836e+00 -6.420077085494995117e-01 1.100000000000000000e+01
-6.517238140106201172e+00 3.098795175552368164e+00 -6.313561797142028809e-01 2.000000000000000000e+00
-2.201326131820679155e+00 1.052337765693664995e+00 -6.537768840789794922e-01 1.800000000000000000e+01
-2.519038915634154829e+00 1.205299973487854004e+00 -6.447097063064575195e-01 1.400000000000000000e+01
-2.989148616790771040e+00 1.430877327919005904e+00 -6.441711783409118652e-01 1.100000000000000000e+01
-3.639520645141602007e+00 1.743766069412231001e+00 -6.391912102699279785e-01 1.000000000000000000e+01
-4.700333118438720703e+00 2.254040002822875977e+00 -6.400578022003173828e-01 1.100000000000000000e+01
-6.513566970825195312e+00 3.124972820281981978e+00 -6.320534348487854004e-01 2.000000000000000000e+00
-2.195899486541748047e+00 1.059176087379456010e+00 -6.532592773437500000e-01 1.900000000000000000e+01
-2.527100801467895952e+00 1.220016360282897949e+00 -6.478590369224548340e-01 1.500000000000000000e+01
-2.978832244873046875e+00 1.438741087913512962e+00 -6.430262923240661621e-01 1.200000000000000000e+01
-3.628076076507567915e+00 1.753880500793457031e+00 -6.382526159286499023e-01 9.000000000000000000e+00
-4.670993804931640625e+00 2.260058403015137163e+00 -6.371329426765441895e-01 1.000000000000000000e+01
-6.484685897827148438e+00 3.139009475708007812e+00 -6.303103566169738770e-01 3.000000000000000000e+00
-1.073952770233153942e+01 5.203258037567138672e+00 -6.254146695137023926e-01 3.000000000000000000e+00
-2.188714742660522017e+00 1.065144062042236106e+00 -6.522240042686462402e-01 1.900000000000000000e+01
-2.517570972442626953e+00 1.226270079612731934e+00 -6.465093493461608887e-01 1.400000000000000000e+01
-2.966732501983643022e+00 1.445690393447875977e+00 -6.414998173713684082e-01 1.100000000000000000e+01
-3.630809068679810014e+00 1.770863890647887962e+00 -6.398169398307800293e-01 1.000000000000000000e+01
-4.680914878845214844e+00 2.285057783126831055e+00 -6.395702958106994629e-01 1.000000000000000000e+01
-6.484430789947509766e+00 3.166872262954711914e+00 -6.313561797142028809e-01 2.000000000000000000e+00
-1.063158226013183949e+01 5.196858882904052734e+00 -6.201810836791992188e-01 3.000000000000000000e+00
-2.172844409942626953e+00 1.066817760467529075e+00 -6.486005187034606934e-01 1.900000000000000000e+01
-2.520271062850952148e+00 1.238488435745239036e+00 -6.483089327812194824e-01 1.400000000000000000e+01
-2.958144187927246094e+00 1.454305052757262962e+00 -6.407365798950195312e-01 1.200000000000000000e+01
-3.621060609817504883e+00 1.781782746315001997e+00 -6.391912102699279785e-01 1.000000000000000000e+01
-4.649759292602539062e+00 2.289981603622436968e+00 -6.364017128944396973e-01 9.000000000000000000e+00
-6.455464839935302734e+00 3.180681943893433061e+00 -6.296131014823913574e-01 3.000000000000000000e+00
-1.061337661743164062e+01 5.233938217163085938e+00 -6.201810836791992188e-01 3.000000000000000000e+00
-2.170838594436645952e+00 1.075253367424011008e+00 -6.491181850433349609e-01 1.900000000000000000e+01
-2.505456686019897017e+00 1.242084860801696999e+00 -6.456094980239868164e-01 1.400000000000000000e+01
-2.954808473587036133e+00 1.465494394302367942e+00 -6.411182284355163574e-01 1.100000000000000000e+01
-3.595355987548828125e+00 1.784750223159790039e+00 -6.357496380805969238e-01 1.000000000000000000e+01
-4.663070678710938388e+00 2.316797494888306108e+00 -6.393265724182128906e-01 9.000000000000000000e+00
-6.455027580261229581e+00 3.208517313003540039e+00 -6.306589841842651367e-01 2.000000000000000000e+00
-1.059504222869873047e+01 5.270954132080078125e+00 -6.201810836791992188e-01 3.000000000000000000e+00
-2.177440643310546875e+00 1.088005423545836958e+00 -6.522240042686462402e-01 1.900000000000000000e+01
-6.094145965576171875e+01 3.046401596069335938e+01 1.189241886138916016e+00 3.800000000000000000e+01
-2.501105785369873047e+00 1.250822901725769043e+00 -6.456094980239868164e-01 1.400000000000000000e+01
-2.960209608078002930e+00 1.481070399284363015e+00 -6.434079408645629883e-01 1.100000000000000000e+01
-3.596169233322143999e+00 1.800827503204345925e+00 -6.370011568069458008e-01 1.000000000000000000e+01
-4.633658885955811435e+00 2.322386980056763139e+00 -6.364017128944396973e-01 1.000000000000000000e+01
-6.450912475585938388e+00 3.234602212905883789e+00 -6.313561797142028809e-01 2.000000000000000000e+00
-1.050874614715575994e+01 5.273863315582275391e+00 -6.162035465240478516e-01 3.000000000000000000e+00
-2.170179367065430132e+00 1.093860507011414018e+00 -6.511887311935424805e-01 1.900000000000000000e+01
-2.493244647979735884e+00 1.257790327072143999e+00 -6.447097063064575195e-01 1.400000000000000000e+01
-2.944505453109741211e+00 1.486086964607238992e+00 -6.411182284355163574e-01 1.200000000000000000e+01
-3.584571838378905806e+00 1.810697555541991965e+00 -6.360625624656677246e-01 1.000000000000000000e+01
-4.621981143951416016e+00 2.336755990982056108e+00 -6.359142065048217773e-01 9.000000000000000000e+00
-6.439582347869873047e+00 3.257100343704224077e+00 -6.313561797142028809e-01 2.000000000000000000e+00
-1.045106983184813920e+01 5.290667533874511719e+00 -6.139007806777954102e-01 3.000000000000000000e+00
-2.161373376846313032e+00 1.098425269126892090e+00 -6.496357917785644531e-01 1.800000000000000000e+01
-2.492533922195435014e+00 1.267818331718445046e+00 -6.456094980239868164e-01 1.400000000000000000e+01
-2.932562351226807085e+00 1.492281556129456010e+00 -6.395917534828186035e-01 1.200000000000000000e+01
-3.585588455200194868e+00 1.826160430908202903e+00 -6.373140215873718262e-01 1.000000000000000000e+01
-4.603595256805419922e+00 2.346661090850830078e+00 -6.344518065452575684e-01 6.000000000000000000e+00
-6.407447338104248047e+00 3.267575263977050781e+00 -6.292644739151000977e-01 2.000000000000000000e+00
-1.047260475158691051e+01 5.345271110534667969e+00 -6.162035465240478516e-01 3.000000000000000000e+00
-2.154087781906127930e+00 1.104200720787047896e+00 -6.486005187034606934e-01 1.900000000000000000e+01
-2.491560935974121094e+00 1.278290271759032981e+00 -6.465093493461608887e-01 1.400000000000000000e+01
-2.932575225830078125e+00 1.505198478698730025e+00 -6.407365798950195312e-01 1.200000000000000000e+01
-3.566892623901367188e+00 1.832346916198730025e+00 -6.351239085197448730e-01 9.000000000000000000e+00
-4.591845035552979404e+00 2.360900878906250000e+00 -6.339643001556396484e-01 6.000000000000000000e+00
-6.387143611907958984e+00 3.285364627838135210e+00 -6.283929347991943359e-01 3.000000000000000000e+00
-1.037219715118408025e+01 5.339742183685302734e+00 -6.113886237144470215e-01 3.000000000000000000e+00
-2.157084465026855025e+00 1.115262150764465110e+00 -6.506710648536682129e-01 1.900000000000000000e+01
-6.087087249755858664e+01 3.148510169982910156e+01 1.196222901344299094e+00 3.700000000000000000e+01
-2.483622074127196822e+00 1.285188436508178933e+00 -6.456094980239868164e-01 1.400000000000000000e+01
-2.923816442489624023e+00 1.513620734214782937e+00 -6.399733424186706543e-01 1.300000000000000000e+01
-3.551705121994018999e+00 1.840242624282836914e+00 -6.335595846176147461e-01 8.000000000000000000e+00
-4.594149112701416016e+00 2.382398128509521040e+00 -6.354267597198486328e-01 9.000000000000000000e+00
-6.391553401947020596e+00 3.315897703170775923e+00 -6.299617290496826172e-01 2.000000000000000000e+00
-1.035349464416504084e+01 5.375915527343750000e+00 -6.113886237144470215e-01 3.000000000000000000e+00
-2.151465415954589844e+00 1.121891736984252930e+00 -6.501534581184387207e-01 1.900000000000000000e+01
-2.475665569305419922e+00 1.292046785354614036e+00 -6.447097063064575195e-01 1.400000000000000000e+01
-2.916774749755858931e+00 1.522908926010132058e+00 -6.395917534828186035e-01 1.300000000000000000e+01
-3.543509006500244141e+00 1.851714372634887917e+00 -6.332467198371887207e-01 5.000000000000000000e+00
-6.104937362670897727e+01 3.191584205627441051e+01 8.458463668823242188e+00 6.300000000000000000e+01
-4.582287311553955078e+00 2.396580219268798828e+00 -6.349392533302307129e-01 9.000000000000000000e+00
-6.365817070007324219e+00 3.330798625946044922e+00 -6.285672187805175781e-01 2.000000000000000000e+00
-1.030989551544188920e+01 5.399051666259765625e+00 -6.099232435226440430e-01 3.000000000000000000e+00
-2.147536277770996094e+00 1.129394888877869096e+00 -6.501534581184387207e-01 1.900000000000000000e+01
-2.467691659927368164e+00 1.298865318298340066e+00 -6.438099145889282227e-01 1.400000000000000000e+01
-2.902755260467528853e+00 1.528507471084594949e+00 -6.376836895942687988e-01 1.300000000000000000e+01
-3.557994365692139116e+00 1.875124096870421919e+00 -6.370011568069458008e-01 5.000000000000000000e+00
-6.098676300048828125e+01 3.215467453002929688e+01 8.465288162231445312e+00 6.300000000000000000e+01
-4.556335449218750000e+00 2.403299570083618164e+00 -6.325019001960754395e-01 1.000000000000000000e+01
-6.368248462677001953e+00 3.360437870025635210e+00 -6.299617290496826172e-01 2.000000000000000000e+00
-1.029098701477050959e+01 5.435006618499755859e+00 -6.099232435226440430e-01 3.000000000000000000e+00
-2.141874074935913086e+00 1.135979175567626953e+00 -6.496357917785644531e-01 1.900000000000000000e+01
-2.464864015579224077e+00 1.308384895324707031e+00 -6.442598104476928711e-01 1.500000000000000000e+01
-2.893934249877930132e+00 1.536789059638977051e+00 -6.369204521179199219e-01 1.300000000000000000e+01
-3.554915904998778853e+00 1.889386534690856934e+00 -6.376268863677978516e-01 7.000000000000000000e+00
-4.563691616058349609e+00 2.427579641342163086e+00 -6.346955299377441406e-01 1.000000000000000000e+01
-6.310749530792236328e+00 3.358311176300048828e+00 -6.254296302795410156e-01 3.000000000000000000e+00
-1.027195262908936080e+01 5.470895767211914062e+00 -6.099232435226440430e-01 3.000000000000000000e+00
-2.126169681549071822e+00 1.136699914932250977e+00 -6.460123658180236816e-01 1.900000000000000000e+01
-2.465666294097899947e+00 1.319309592247009055e+00 -6.456094980239868164e-01 1.300000000000000000e+01
-2.894014835357666016e+00 1.549156785011291948e+00 -6.380652785301208496e-01 1.300000000000000000e+01
-3.541666030883789062e+00 1.897433161735534890e+00 -6.363754272460937500e-01 9.000000000000000000e+00
-4.552117347717285156e+00 2.440824031829833984e+00 -6.342080831527709961e-01 1.200000000000000000e+01
-6.296066761016845703e+00 3.377336263656616211e+00 -6.250810027122497559e-01 2.000000000000000000e+00
-1.025375366210938033e+01 5.504929065704345703e+00 -6.099232435226440430e-01 3.000000000000000000e+00
-2.120488405227661133e+00 1.143197894096374956e+00 -6.454946994781494141e-01 1.900000000000000000e+01
-6.084227752685546875e+01 3.281500244140625000e+01 1.206624507904052956e+00 3.500000000000000000e+01
-2.454185962677001953e+00 1.324206948280334029e+00 -6.438099145889282227e-01 1.300000000000000000e+01
-2.885134458541870117e+00 1.557384252548217995e+00 -6.373020410537719727e-01 1.300000000000000000e+01
-3.521117448806763139e+00 1.902272939682007058e+00 -6.338724493980407715e-01 9.000000000000000000e+00
-4.543569564819335938e+00 2.456698894500731978e+00 -6.342080831527709961e-01 1.000000000000000000e+01
-6.273724555969238281e+00 3.393605470657349077e+00 -6.240351200103759766e-01 2.000000000000000000e+00
-1.023447513580322088e+01 5.540687561035156250e+00 -6.099232435226440430e-01 3.000000000000000000e+00
-2.121375322341918945e+00 1.153731226921081987e+00 -6.470476388931274414e-01 1.900000000000000000e+01
-6.089724731445313211e+01 3.313335037231445312e+01 1.210114955902100053e+00 3.400000000000000000e+01
-2.442469596862792969e+00 1.329466462135314941e+00 -6.420103311538696289e-01 1.400000000000000000e+01
-2.882855176925659180e+00 1.569826126098633035e+00 -6.380652785301208496e-01 1.300000000000000000e+01
-3.514121532440185991e+00 1.915165662765502930e+00 -6.338724493980407715e-01 9.000000000000000000e+00
-4.520593166351318359e+00 2.465731143951416016e+00 -6.322581768035888672e-01 1.000000000000000000e+01
-6.282231807708740234e+00 3.428029298782349077e+00 -6.261268854141235352e-01 3.000000000000000000e+00
-1.021409893035889027e+01 5.578161716461181641e+00 -6.099232435226440430e-01 3.000000000000000000e+00
-2.125804662704468218e+00 1.165773630142211914e+00 -6.496357917785644531e-01 2.000000000000000000e+01
-2.436105728149414062e+00 1.337046504020690918e+00 -6.415604352951049805e-01 1.300000000000000000e+01
-2.861869812011719194e+00 1.571375489234924094e+00 -6.346307396888732910e-01 1.400000000000000000e+01
-3.507415056228638139e+00 1.927420616149901900e+00 -6.338724493980407715e-01 9.000000000000000000e+00
-4.508480072021484375e+00 2.479582548141479048e+00 -6.317706704139709473e-01 1.000000000000000000e+01
-6.263245105743408203e+00 3.446095705032349077e+00 -6.254296302795410156e-01 2.000000000000000000e+00
-2.121927022933959961e+00 1.172816634178162065e+00 -6.496357917785644531e-01 2.000000000000000000e+01
-2.440184593200684038e+00 1.349833965301513894e+00 -6.438099145889282227e-01 1.300000000000000000e+01
-2.863514184951781782e+00 1.584659576416016069e+00 -6.361572146415710449e-01 1.500000000000000000e+01
-3.504460096359252930e+00 1.940955162048340066e+00 -6.344981789588928223e-01 9.000000000000000000e+00
-4.507177352905273438e+00 2.498369216918944868e+00 -6.327456235885620117e-01 1.000000000000000000e+01
-6.216934680938720703e+00 3.447521686553955078e+00 -6.219433546066284180e-01 2.000000000000000000e+00
-1.008857631683349965e+01 5.599096775054931641e+00 -6.046896576881408691e-01 3.000000000000000000e+00
-2.097570180892943892e+00 1.168931484222412109e+00 -6.434241533279418945e-01 2.000000000000000000e+01
-2.438861846923828125e+00 1.360242128372191939e+00 -6.447097063064575195e-01 1.400000000000000000e+01
-2.849393129348754883e+00 1.589862465858459029e+00 -6.342490911483764648e-01 1.700000000000000000e+01
-3.494214296340941939e+00 1.951249957084655984e+00 -6.338724493980407715e-01 9.000000000000000000e+00
-4.488031864166259766e+00 2.508276224136352983e+00 -6.312832236289978027e-01 1.000000000000000000e+01
-6.187472343444824219e+00 3.459478855133057085e+00 -6.202002763748168945e-01 2.000000000000000000e+00
-1.006897068023681996e+01 5.634278297424316406e+00 -6.046896576881408691e-01 3.000000000000000000e+00
-2.096639871597290039e+00 1.178504824638366921e+00 -6.444594264030456543e-01 2.000000000000000000e+01
-2.421970844268798828e+00 1.362483620643615945e+00 -6.415604352951049805e-01 1.200000000000000000e+01
-2.855523347854613814e+00 1.607035398483275923e+00 -6.369204521179199219e-01 1.300000000000000000e+01
-3.480154514312744141e+00 1.960166096687316895e+00 -6.326209902763366699e-01 9.000000000000000000e+00
-4.485725879669188565e+00 2.528608083724976030e+00 -6.322581768035888672e-01 1.000000000000000000e+01
-6.200782775878906250e+00 3.496814012527465820e+00 -6.228149533271789551e-01 3.000000000000000000e+00
-9.996071815490722656e+00 5.641695022583007812e+00 -6.015495061874389648e-01 3.000000000000000000e+00
-2.094193935394287109e+00 1.186768770217895952e+00 -6.449770331382751465e-01 1.900000000000000000e+01
-2.412114858627318892e+00 1.368045449256896973e+00 -6.402106881141662598e-01 1.100000000000000000e+01
-2.851603984832764116e+00 1.617962121963500977e+00 -6.373020410537719727e-01 1.200000000000000000e+01
-3.475008726119995117e+00 1.973277568817138894e+00 -6.329338550567626953e-01 1.000000000000000000e+01
-4.463065147399902344e+00 2.536404132843018022e+00 -6.303082704544067383e-01 1.000000000000000000e+01
-6.183342933654785156e+00 3.515483140945435014e+00 -6.222919821739196777e-01 2.000000000000000000e+00
-9.941599845886230469e+00 5.656798362731933594e+00 -5.994560718536376953e-01 3.000000000000000000e+00
-2.108910322189331055e+00 1.203877091407776101e+00 -6.506710648536682129e-01 2.000000000000000000e+01
-2.409497261047362837e+00 1.376583218574523926e+00 -6.406605839729309082e-01 1.200000000000000000e+01
-2.839688777923583984e+00 1.623015880584717019e+00 -6.357755661010742188e-01 1.300000000000000000e+01
-3.468792438507080078e+00 1.984184861183166948e+00 -6.329338550567626953e-01 1.000000000000000000e+01
-4.446460723876953125e+00 2.545481681823730025e+00 -6.290895342826843262e-01 9.000000000000000000e+00
-6.168810367584229404e+00 3.532911062240601030e+00 -6.219433546066284180e-01 3.000000000000000000e+00
-2.086277008056641069e+00 1.200631737709044966e+00 -6.449770331382751465e-01 1.900000000000000000e+01
-2.402988672256470171e+00 1.384012937545775923e+00 -6.402106881141662598e-01 1.400000000000000000e+01
-2.825500726699829102e+00 1.628017663955688032e+00 -6.338675022125244141e-01 1.200000000000000000e+01
-3.466979026794434038e+00 1.999241590499877930e+00 -6.338724493980407715e-01 1.100000000000000000e+01
-4.439267635345458984e+00 2.561979293823242188e+00 -6.293333172798156738e-01 1.000000000000000000e+01
-6.128833293914794922e+00 3.538483619689940962e+00 -6.191543936729431152e-01 3.000000000000000000e+00
-9.903863906860351562e+00 5.722608566284179688e+00 -5.994560718536376953e-01 3.000000000000000000e+00
-2.082073450088500977e+00 1.207906961441040039e+00 -6.449770331382751465e-01 1.900000000000000000e+01
-2.409939765930175781e+00 1.399241924285888894e+00 -6.433600187301635742e-01 1.500000000000000000e+01
-2.821498394012451172e+00 1.638856649398803933e+00 -6.342490911483764648e-01 1.200000000000000000e+01
-3.451440334320067915e+00 2.006367683410644975e+00 -6.323081254959106445e-01 1.100000000000000000e+01
-4.418286800384520596e+00 2.570472002029418945e+00 -6.276271343231201172e-01 1.000000000000000000e+01
-6.085448741912841797e+00 3.541815757751464844e+00 -6.160168051719665527e-01 2.000000000000000000e+00
-9.797535896301269531e+00 5.706881523132324219e+00 -5.942224264144897461e-01 3.000000000000000000e+00
-2.077844381332397017e+00 1.215167284011841042e+00 -6.449770331382751465e-01 1.900000000000000000e+01
-2.403358936309814009e+00 1.406661272048949973e+00 -6.429101228713989258e-01 1.300000000000000000e+01
-2.815760374069213867e+00 1.648695588111876997e+00 -6.342490911483764648e-01 1.200000000000000000e+01
-3.430781126022338867e+00 2.010413408279418945e+00 -6.298051476478576660e-01 1.000000000000000000e+01
-3.607765579223632812e+01 2.114970970153808949e+01 5.134842872619628906e+00 2.700000000000000000e+01
-4.410999774932861328e+00 2.586883306503295898e+00 -6.278708577156066895e-01 1.000000000000000000e+01
-6.073048591613770419e+00 3.563036441802978960e+00 -6.160168051719665527e-01 2.000000000000000000e+00
-9.777555465698242188e+00 5.741046905517578125e+00 -5.942224264144897461e-01 3.000000000000000000e+00
-2.074826955795288086e+00 1.224118351936340110e+00 -6.454946994781494141e-01 1.900000000000000000e+01
-6.090929031372070312e+01 3.594994735717772727e+01 1.234548330307007058e+00 3.000000000000000000e+01
-2.377803564071654829e+00 1.403989315032958984e+00 -6.375113129615783691e-01 1.300000000000000000e+01
-2.807718753814696822e+00 1.658496618270874023e+00 -6.338675022125244141e-01 1.200000000000000000e+01
-3.421335935592650923e+00 2.022566556930541992e+00 -6.294922828674316406e-01 1.100000000000000000e+01
-4.378823757171630859e+00 2.590660810470581055e+00 -6.247022747993469238e-01 9.000000000000000000e+00
-6.052464485168457031e+00 3.582269668579102007e+00 -6.153195500373840332e-01 2.000000000000000000e+00
-9.703886985778808594e+00 5.748010635375976562e+00 -5.910822749137878418e-01 3.000000000000000000e+00
-2.072201728820800781e+00 1.232340812683105025e+00 -6.460123658180236816e-01 1.900000000000000000e+01
-6.095528793334960938e+01 3.626458358764647727e+01 1.238038778305053933e+00 2.900000000000000000e+01
-2.377911806106566939e+00 1.415270924568176047e+00 -6.388610005378723145e-01 1.200000000000000000e+01
-2.803599357604980025e+00 1.669291615486145020e+00 -6.342490911483764648e-01 1.200000000000000000e+01
-3.417649030685424805e+00 2.036519289016724077e+00 -6.301180124282836914e-01 1.100000000000000000e+01
-4.364639282226563388e+00 2.602879762649536133e+00 -6.239710450172424316e-01 1.000000000000000000e+01
-6.063877582550048828e+00 3.617666006088256836e+00 -6.177598834037780762e-01 3.000000000000000000e+00
-9.649466514587402344e+00 5.761371135711669922e+00 -5.889888405799865723e-01 3.000000000000000000e+00
-2.062916517257689986e+00 1.236586928367614968e+00 -6.444594264030456543e-01 2.000000000000000000e+01
-2.374628305435181108e+00 1.424565196037292036e+00 -6.393108963966369629e-01 1.400000000000000000e+01
-2.789338588714600053e+00 1.674016475677490012e+00 -6.323410272598266602e-01 1.200000000000000000e+01
-3.412212848663330078e+00 2.049453735351562944e+00 -6.304308772087097168e-01 1.000000000000000000e+01
-3.378439712524414062e+01 2.029971504211426137e+01 4.839431762695313388e+00 2.000000000000000000e+01
-4.362332344055175781e+00 2.622190237045288086e+00 -6.249459981918334961e-01 1.000000000000000000e+01
-6.027307987213134766e+00 3.624436140060424805e+00 -6.153195500373840332e-01 2.000000000000000000e+00
-9.663522720336914062e+00 5.815616130828857422e+00 -5.910822749137878418e-01 3.000000000000000000e+00
-2.058587551116942915e+00 1.243780374526977983e+00 -6.444594264030456543e-01 1.900000000000000000e+01
-2.369641065597534180e+00 1.432845592498779075e+00 -6.393108963966369629e-01 1.400000000000000000e+01
-2.788517713546752930e+00 1.686791300773621050e+00 -6.334858536720275879e-01 1.200000000000000000e+01
-3.398278713226317915e+00 2.057260036468505859e+00 -6.291794180870056152e-01 1.000000000000000000e+01
-3.348241043090820312e+01 2.027766799926758168e+01 4.806282997131347656e+00 2.000000000000000000e+01
-4.342966079711914062e+00 2.631229877471923828e+00 -6.234835386276245117e-01 1.000000000000000000e+01
-6.028250694274902344e+00 3.653715133666992188e+00 -6.167140603065490723e-01 3.000000000000000000e+00
-9.550950050354003906e+00 5.793377876281738281e+00 -5.854300260543823242e-01 3.000000000000000000e+00
-2.054233312606811968e+00 1.250958561897278054e+00 -6.444594264030456543e-01 1.900000000000000000e+01
-2.371281385421752930e+00 1.445165038108825906e+00 -6.411104798316955566e-01 1.300000000000000000e+01
-2.785965204238892046e+00 1.698558807373047097e+00 -6.342490911483764648e-01 1.200000000000000000e+01
-3.377586603164672852e+00 2.060878753662108931e+00 -6.266764402389526367e-01 1.100000000000000000e+01
-3.341142272949218750e+01 2.039441871643066051e+01 4.806282997131347656e+00 2.000000000000000000e+01
-4.343920230865479404e+00 2.652580976486206055e+00 -6.249459981918334961e-01 1.000000000000000000e+01
-5.978054523468017578e+00 3.651885032653809038e+00 -6.128791570663452148e-01 3.000000000000000000e+00
-9.554525375366210938e+00 5.841266632080078125e+00 -5.868954062461853027e-01 3.000000000000000000e+00
-2.049854278564453125e+00 1.258121609687804954e+00 -6.444594264030456543e-01 2.000000000000000000e+01
-2.352938413619995117e+00 1.445273876190185991e+00 -6.375113129615783691e-01 1.400000000000000000e+01
-2.780019044876099077e+00 1.708273291587830034e+00 -6.342490911483764648e-01 1.200000000000000000e+01
-3.368689537048339844e+00 2.071621417999268022e+00 -6.263635754585266113e-01 1.100000000000000000e+01
-4.324491024017333984e+00 2.661485195159912109e+00 -6.234835386276245117e-01 1.000000000000000000e+01
-5.989023208618164062e+00 3.687354087829589844e+00 -6.153195500373840332e-01 3.000000000000000000e+00
-9.534077644348144531e+00 5.874582767486572266e+00 -5.868954062461853027e-01 3.000000000000000000e+00
-2.045449972152709961e+00 1.265269279479980025e+00 -6.444594264030456543e-01 1.900000000000000000e+01
-2.349535942077637163e+00 1.454504132270812988e+00 -6.379612088203430176e-01 1.300000000000000000e+01
-2.760686397552489790e+00 1.709697604179382102e+00 -6.311961412429809570e-01 1.300000000000000000e+01
-3.366474866867064986e+00 2.086489439010620117e+00 -6.273022294044494629e-01 1.100000000000000000e+01
-3.398694229125977273e+01 2.107279586791991832e+01 4.910115718841552734e+00 2.200000000000000000e+01
-4.294930934906005859e+00 2.664007902145386186e+00 -6.205586791038513184e-01 1.000000000000000000e+01
-5.976115703582763672e+00 3.708237409591674805e+00 -6.153195500373840332e-01 3.000000000000000000e+00
-9.462611198425292969e+00 5.876217365264892578e+00 -5.837552547454833984e-01 3.000000000000000000e+00
-2.037742137908935991e+00 1.270357489585876021e+00 -6.434241533279418945e-01 2.000000000000000000e+01
-2.347751140594481978e+00 1.464759707450866921e+00 -6.388610005378723145e-01 1.300000000000000000e+01
-2.761363506317139116e+00 1.723481774330138938e+00 -6.327226161956787109e-01 1.200000000000000000e+01
-3.352469682693481001e+00 2.094042062759398970e+00 -6.260507106781005859e-01 1.100000000000000000e+01
-4.299071788787841797e+00 2.687401771545410156e+00 -6.225085854530334473e-01 1.000000000000000000e+01
-3.443824386596679688e+01 2.153612136840819957e+01 6.433210849761962891e+00 1.400000000000000000e+01
-5.963135242462158203e+00 3.729075193405150923e+00 -6.153195500373840332e-01 3.000000000000000000e+00
-9.421725273132324219e+00 5.896497249603270596e+00 -5.824992060661315918e-01 3.000000000000000000e+00
-2.023924350738524947e+00 1.270590066909790039e+00 -6.403183341026306152e-01 2.000000000000000000e+01
-2.346438169479370117e+00 1.474201560020446999e+00 -6.397607922554016113e-01 1.200000000000000000e+01
-3.358316421508789062e+01 2.110754013061523082e+01 2.078784227371215820e+00 2.200000000000000000e+01
-2.757597684860229048e+00 1.733193039894104004e+00 -6.331042647361755371e-01 1.200000000000000000e+01
-3.357579231262207031e+00 2.111926078796387163e+00 -6.282408237457275391e-01 1.100000000000000000e+01
-4.290607929229736328e+00 2.700894355773925781e+00 -6.225085854530334473e-01 1.000000000000000000e+01
-3.440093994140625000e+01 2.165504455566405895e+01 6.438216686248779297e+00 1.400000000000000000e+01
-5.927787303924561435e+00 3.732926845550537109e+00 -6.128791570663452148e-01 3.000000000000000000e+00
-9.382878303527832031e+00 5.913289070129395419e+00 -5.812431573867797852e-01 3.000000000000000000e+00
-2.026006937026977983e+00 1.281778573989867942e+00 -6.423888802528381348e-01 2.000000000000000000e+01
-2.334692001342772993e+00 1.478213310241698997e+00 -6.379612088203430176e-01 1.200000000000000000e+01
-2.749872446060181108e+00 1.741757750511168990e+00 -6.327226161956787109e-01 1.200000000000000000e+01
-3.328497171401977983e+00 2.109884738922119141e+00 -6.241735219955444336e-01 1.000000000000000000e+01
-6.102744674682617188e+01 3.869932174682617188e+01 8.872818946838378906e+00 6.300000000000000000e+01
-4.281154155731201172e+00 2.715854883193970171e+00 -6.225085854530334473e-01 1.000000000000000000e+01
-3.462822723388671875e+01 2.197574234008789062e+01 6.495784759521484375e+00 1.400000000000000000e+01
-5.901262760162354404e+00 3.745055198669434038e+00 -6.114847064018249512e-01 2.000000000000000000e+00
-9.352064132690429688e+00 5.939580440521240234e+00 -5.806151032447814941e-01 3.000000000000000000e+00
-2.029439210891724077e+00 1.294389724731445090e+00 -6.449770331382751465e-01 1.900000000000000000e+01
-2.322687864303588867e+00 1.482566475868225098e+00 -6.361615657806396484e-01 1.300000000000000000e+01
-2.746779441833496094e+00 1.753937959671020952e+00 -6.334858536720275879e-01 1.200000000000000000e+01
-3.320741891860961914e+00 2.122070074081420898e+00 -6.241735219955444336e-01 1.000000000000000000e+01
-4.247758388519287109e+00 2.716554641723632812e+00 -6.190962791442871094e-01 1.000000000000000000e+01
-3.443148803710938211e+01 2.201985549926758168e+01 6.473258018493652344e+00 1.400000000000000000e+01
-5.880783557891845703e+00 3.762364387512207031e+00 -6.107874512672424316e-01 2.000000000000000000e+00
-9.296590805053710938e+00 5.952278614044188565e+00 -5.785216689109802246e-01 3.000000000000000000e+00
-3.272293090820313211e+01 2.095938873291015980e+01 8.971497535705566406e+00 1.200000000000000000e+01
-2.020033359527587891e+00 1.298332452774048074e+00 -6.434241533279418945e-01 2.000000000000000000e+01
-2.320776462554932085e+00 1.492773652076720969e+00 -6.370613574981689453e-01 1.300000000000000000e+01
-2.740640401840209961e+00 1.763515353202820046e+00 -6.334858536720275879e-01 1.300000000000000000e+01
-3.319957494735718218e+00 2.137926816940308061e+00 -6.254249811172485352e-01 1.000000000000000000e+01
-4.238249778747558594e+00 2.731365680694580078e+00 -6.190962791442871094e-01 1.000000000000000000e+01
-3.430792236328125000e+01 2.210994720458984020e+01 6.464498043060302734e+00 1.400000000000000000e+01
-5.897756576538085938e+00 3.802301883697510210e+00 -6.139250397682189941e-01 3.000000000000000000e+00
-9.275756835937500000e+00 5.984693527221679688e+00 -5.785216689109802246e-01 3.000000000000000000e+00
-3.268231582641602273e+01 2.109462165832519887e+01 8.980496406555175781e+00 1.200000000000000000e+01
-2.012245893478393999e+00 1.303275346755981001e+00 -6.423888802528381348e-01 1.800000000000000000e+01
-2.318822145462036133e+00 1.502985477447509988e+00 -6.379612088203430176e-01 1.500000000000000000e+01
-2.727878808975220171e+00 1.768798828125000000e+00 -6.319593787193298340e-01 1.200000000000000000e+01
-3.307503223419189009e+00 2.146276712417602983e+00 -6.244863867759704590e-01 9.000000000000000000e+00
-4.222030639648438388e+00 2.741818666458129883e+00 -6.181213259696960449e-01 1.000000000000000000e+01
-3.400522613525391336e+01 2.208325195312500000e+01 6.421947479248046875e+00 1.400000000000000000e+01
-5.854374408721923828e+00 3.803328037261962891e+00 -6.107874512672424316e-01 2.000000000000000000e+00
-9.254810333251953125e+00 6.017035484313964844e+00 -5.785216689109802246e-01 3.000000000000000000e+00
-2.001213312149047852e+00 1.306068181991576926e+00 -6.403183341026306152e-01 1.700000000000000000e+01
-2.318456411361693892e+00 1.514267325401305930e+00 -6.393108963966369629e-01 1.300000000000000000e+01
-2.720044374465941939e+00 1.777236223220824973e+00 -6.315777897834777832e-01 1.300000000000000000e+01
-3.293377876281737837e+00 2.153484582901000977e+00 -6.232349276542663574e-01 9.000000000000000000e+00
-3.474824142456054688e+01 2.272995185852051137e+01 5.098282337188720703e+00 2.600000000000000000e+01
-4.219078063964843750e+00 2.760887384414672852e+00 -6.190962791442871094e-01 1.000000000000000000e+01
-5.857732295989990234e+00 3.834652900695800781e+00 -6.125305891036987305e-01 2.000000000000000000e+00
-3.291381454467772727e+01 2.155460929870605113e+01 7.647624492645263672e+00 6.300000000000000000e+01
-3.270375823974608664e+01 2.143336486816405895e+01 9.027285575866699219e+00 1.200000000000000000e+01
-1.999870181083678977e+00 1.315168619155884011e+00 -6.413536071777343750e-01 1.900000000000000000e+01
-2.306645154953002930e+00 1.518065810203552024e+00 -6.375113129615783691e-01 1.400000000000000000e+01
-3.296313095092772727e+01 2.170217704772948863e+01 2.068316936492919922e+00 2.200000000000000000e+01
-2.715463876724243164e+00 1.787799715995789018e+00 -6.319593787193298340e-01 1.300000000000000000e+01
-3.277593135833739790e+00 2.159533500671387163e+00 -6.216705441474914551e-01 1.000000000000000000e+01
-4.206100463867188388e+00 2.773412466049193892e+00 -6.186087727546691895e-01 1.000000000000000000e+01
-5.814374446868895596e+00 3.835329771041870117e+00 -6.093929409980773926e-01 2.000000000000000000e+00
-9.212577819824218750e+00 6.081499099731445312e+00 -5.785216689109802246e-01 3.000000000000000000e+00
-3.236856079101563211e+01 2.137557029724121094e+01 8.955301284790039062e+00 1.200000000000000000e+01
-1.998488068580626997e+00 1.324275732040405051e+00 -6.423888802528381348e-01 1.700000000000000000e+01
-2.296459674835205078e+00 1.522877216339111106e+00 -6.361615657806396484e-01 1.500000000000000000e+01
-2.710842609405518022e+00 1.798352837562561035e+00 -6.323410272598266602e-01 1.200000000000000000e+01
-3.274972200393677202e+00 2.174238920211791992e+00 -6.226091980934143066e-01 9.000000000000000000e+00
-4.186473369598388672e+00 2.781486272811890093e+00 -6.171463727951049805e-01 1.000000000000000000e+01
-5.804269790649414062e+00 3.857808113098144975e+00 -6.097415685653686523e-01 2.000000000000000000e+00
-9.191293716430664062e+00 6.113620281219482422e+00 -5.785216689109802246e-01 3.000000000000000000e+00
-1.993853211402893066e+00 1.331243634223937988e+00 -6.423888802528381348e-01 1.800000000000000000e+01
-2.287889242172241211e+00 1.528718709945678933e+00 -6.352617740631103516e-01 1.500000000000000000e+01
-2.706180810928345171e+00 1.808895587921143022e+00 -6.327226161956787109e-01 1.300000000000000000e+01
-3.264078855514525923e+00 2.183460712432860884e+00 -6.219834089279174805e-01 9.000000000000000000e+00
-4.173439502716063565e+00 2.793874263763428178e+00 -6.166588664054870605e-01 1.000000000000000000e+01
-5.794079303741455078e+00 3.880262613296508789e+00 -6.100901961326599121e-01 2.000000000000000000e+00
-9.169897079467773438e+00 6.145666599273681641e+00 -5.785216689109802246e-01 3.000000000000000000e+00
-3.347782516479492188e+01 2.244531250000000000e+01 9.305325508117675781e+00 1.200000000000000000e+01
-1.984385490417480025e+00 1.334960460662842019e+00 -6.408359408378601074e-01 1.900000000000000000e+01
-2.285772085189818892e+00 1.538872241973876953e+00 -6.361615657806396484e-01 1.500000000000000000e+01
-2.686823129653931108e+00 1.809557199478148970e+00 -6.296696662902832031e-01 1.200000000000000000e+01
-3.269541740417480025e+00 2.203673601150513139e+00 -6.244863867759704590e-01 9.000000000000000000e+00
-4.173535823822020596e+00 2.815085649490356001e+00 -6.181213259696960449e-01 1.000000000000000000e+01
-5.767286777496337891e+00 3.891548633575439009e+00 -6.086956858634948730e-01 5.000000000000000000e+00
-9.065628051757812500e+00 6.121751785278320312e+00 -5.732880830764770508e-01 3.000000000000000000e+00
-1.980181813240051047e+00 1.341187953948975053e+00 -6.408359408378601074e-01 1.900000000000000000e+01
-2.284152507781981978e+00 1.548232436180114968e+00 -6.370613574981689453e-01 1.500000000000000000e+01
-2.684374809265137163e+00 1.820192813873291016e+00 -6.304329037666320801e-01 1.300000000000000000e+01
-3.256064414978026900e+00 2.209497451782227007e+00 -6.232349276542663574e-01 9.000000000000000000e+00
-3.327040481567382812e+01 2.258508872985839844e+01 4.937414646148681641e+00 2.200000000000000000e+01
-4.164671421051025391e+00 2.828183174133300781e+00 -6.181213259696960449e-01 1.000000000000000000e+01
-3.306933212280272727e+01 2.245702362060546875e+01 6.331215858459472656e+00 1.400000000000000000e+01
-5.735255718231201172e+00 3.896212577819824219e+00 -6.066039800643920898e-01 3.000000000000000000e+00
-9.128935813903808594e+00 6.206347942352294922e+00 -5.785216689109802246e-01 3.000000000000000000e+00
-1.967509627342223899e+00 1.342647314071655051e+00 -6.382477879524230957e-01 1.900000000000000000e+01
-2.278734445571898970e+00 1.556196212768554910e+00 -6.370613574981689453e-01 1.300000000000000000e+01
-2.684489011764525923e+00 1.833981871604918990e+00 -6.319593787193298340e-01 1.300000000000000000e+01
-3.225502252578734907e+00 2.205241441726685014e+00 -6.188547611236572266e-01 9.000000000000000000e+00
-3.308322525024414062e+01 2.262712287902832031e+01 4.921327590942382812e+00 2.200000000000000000e+01
-4.148220539093017578e+00 2.838219642639160156e+00 -6.171463727951049805e-01 1.000000000000000000e+01
-3.299005889892578125e+01 2.258030891418457031e+01 6.331841468811035156e+00 1.400000000000000000e+01
-5.738061904907226562e+00 3.927462100982666016e+00 -6.083470582962036133e-01 2.000000000000000000e+00
-8.991872787475585938e+00 6.159169197082520419e+00 -5.711946487426757812e-01 3.000000000000000000e+00
-3.235510635375977273e+01 2.217059707641601918e+01 9.055179595947265625e+00 1.200000000000000000e+01
-1.972125530242919922e+00 1.356418132781981978e+00 -6.413536071777343750e-01 1.900000000000000000e+01
-2.260173320770264116e+00 1.555698513984679954e+00 -6.334621906280517578e-01 1.500000000000000000e+01
-2.680983304977416992e+00 1.846035480499268022e+00 -6.327226161956787109e-01 1.300000000000000000e+01
-3.223904371261597124e+00 2.221532106399536133e+00 -6.201062202453613281e-01 9.000000000000000000e+00
-3.297718811035156250e+01 2.273245429992676137e+01 4.917915344238281250e+00 2.200000000000000000e+01
-4.127985000610351562e+00 2.846642971038817915e+00 -6.156839132308959961e-01 1.000000000000000000e+01
-3.298584365844727273e+01 2.274691390991210938e+01 6.346233367919921875e+00 1.400000000000000000e+01
-5.707228660583496094e+00 3.937153100967406782e+00 -6.066039800643920898e-01 3.000000000000000000e+00
-3.334753036499022727e+01 2.301351165771484020e+01 7.875832080841063565e+00 6.300000000000000000e+01
-9.002109527587890625e+00 6.214778423309326172e+00 -5.732880830764770508e-01 3.000000000000000000e+00
-3.242756652832031250e+01 2.239534759521484020e+01 9.098370552062988281e+00 1.200000000000000000e+01
-1.965790867805480957e+00 1.362193584442138894e+00 -6.408359408378601074e-01 2.100000000000000000e+01
-2.256330728530883789e+00 1.564689040184020996e+00 -6.339120864868164062e-01 1.400000000000000000e+01
-2.664844512939453125e+00 1.848668336868285911e+00 -6.304329037666320801e-01 1.200000000000000000e+01
-3.220998048782349077e+00 2.236151695251464844e+00 -6.210448145866394043e-01 9.000000000000000000e+00
-3.302807235717772727e+01 2.293801498413085938e+01 4.937414646148681641e+00 2.200000000000000000e+01
-4.096829891204833984e+00 2.846310853958129883e+00 -6.125153303146362305e-01 1.000000000000000000e+01
-3.361596679687500000e+01 2.336370468139648082e+01 6.483895778656005859e+00 1.400000000000000000e+01
-5.691814422607421875e+00 3.955914020538330078e+00 -6.064296364784240723e-01 3.000000000000000000e+00
-8.898379325866699219e+00 6.189142227172851562e+00 -5.680544972419738770e-01 2.000000000000000000e+00
-3.216683578491210938e+01 2.238152122497558949e+01 9.047081947326660156e+00 1.200000000000000000e+01
-1.956271886825561968e+00 1.365729570388793945e+00 -6.392830610275268555e-01 2.000000000000000000e+01
-2.254050016403197798e+00 1.574787735939026101e+00 -6.348118782043457031e-01 1.400000000000000000e+01
-2.642283201217650923e+00 1.846712350845336914e+00 -6.266167163848876953e-01 1.300000000000000000e+01
-3.213172912597655806e+00 2.247381448745727983e+00 -6.210448145866394043e-01 9.000000000000000000e+00
-4.108011245727539062e+00 2.875392198562622070e+00 -6.156839132308959961e-01 1.000000000000000000e+01
-3.376163482666016336e+01 2.363137054443359020e+01 6.527071475982666016e+00 1.400000000000000000e+01
-5.686131477355957031e+00 3.981472015380858931e+00 -6.073012351989746094e-01 3.000000000000000000e+00
-8.876720428466796875e+00 6.220165729522705078e+00 -5.680544972419738770e-01 2.000000000000000000e+00
-3.220978927612304688e+01 2.257868003845214844e+01 9.081274032592773438e+00 1.200000000000000000e+01
-1.949912548065185991e+00 1.371438622474669966e+00 -6.387653946876525879e-01 1.900000000000000000e+01
-2.250132799148560014e+00 1.583767890930176003e+00 -6.352617740631103516e-01 1.500000000000000000e+01
-2.642241954803466797e+00 1.860445618629456010e+00 -6.281431913375854492e-01 1.200000000000000000e+01
-3.202078819274901900e+00 2.256308317184447798e+00 -6.204190850257873535e-01 9.000000000000000000e+00
-4.097949504852294922e+00 2.889714241027832031e+00 -6.156839132308959961e-01 1.000000000000000000e+01
-3.299121856689453125e+01 2.326412200927734020e+01 6.393789291381835938e+00 1.400000000000000000e+01
