3.462511539459228960e+00 -2.520281553268433061e+00 -6.782998442649841309e-01 1.000000000000000000e+01
4.476685047149658203e+00 -3.260865926742554155e+00 -6.800309419631958008e-01 1.500000000000000000e+01
6.056113243103027344e+00 -4.412956237792968750e+00 -6.555854678153991699e-01 1.000000000000000000e+01
2.048430919647216797e+00 -1.499224781990051047e+00 -6.801764369010925293e-01 2.200000000000000000e+01
2.377096891403197798e+00 -1.741046547889709029e+00 -6.802520155906677246e-01 1.200000000000000000e+01
2.809414625167847124e+00 -2.058440446853638139e+00 -6.769903302192687988e-01 1.200000000000000000e+01
3.453693151473999023e+00 -2.532352447509766069e+00 -6.782998442649841309e-01 1.000000000000000000e+01
4.489282131195068359e+00 -3.294088125228881836e+00 -6.836870312690734863e-01 1.400000000000000000e+01
6.008549690246582031e+00 -4.410490036010742188e+00 -6.520992517471313477e-01 1.200000000000000000e+01
2.047849893569945845e+00 -1.509805202484131081e+00 -6.817293763160705566e-01 1.800000000000000000e+01
2.367868900299071822e+00 -1.747019648551940918e+00 -6.793521642684936523e-01 1.100000000000000000e+01
2.802212238311768022e+00 -2.068234682083129883e+00 -6.769903302192687988e-01 1.100000000000000000e+01
3.438476800918579102e+00 -2.539698362350463867e+00 -6.770483851432800293e-01 1.000000000000000000e+01
4.474563598632813388e+00 -3.307378768920897993e+00 -6.831995248794555664e-01 1.400000000000000000e+01
6.012341499328613281e+00 -4.445651531219482422e+00 -6.541910171508789062e-01 1.000000000000000000e+01
2.044118165969849077e+00 -1.518096089363097922e+00 -6.822469830513000488e-01 2.200000000000000000e+01
2.361756324768065962e+00 -1.755274415016174094e+00 -6.793521642684936523e-01 1.100000000000000000e+01
2.798126697540283203e+00 -2.080346345901488814e+00 -6.777535676956176758e-01 1.100000000000000000e+01
3.442269325256348100e+00 -2.561118602752685991e+00 -6.795513033866882324e-01 1.000000000000000000e+01
4.451846122741699219e+00 -3.314679145812987837e+00 -6.814933419227600098e-01 1.500000000000000000e+01
6.089462757110595703e+00 -4.535639762878417969e+00 -6.643010973930358887e-01 9.000000000000000000e+00
2.041900396347045898e+00 -1.527536630630492942e+00 -6.832822561264038086e-01 2.200000000000000000e+01
2.358734846115111861e+00 -1.765843510627747026e+00 -6.802520155906677246e-01 1.200000000000000000e+01
2.784562110900878906e+00 -2.085393428802489790e+00 -6.762270927429199219e-01 1.200000000000000000e+01
3.436469793319702148e+00 -2.575488090515137163e+00 -6.801770329475402832e-01 1.000000000000000000e+01
4.454541206359863281e+00 -3.340918302536011186e+00 -6.836870312690734863e-01 1.400000000000000000e+01
6.025782585144042969e+00 -4.520997047424316406e+00 -6.590717434883117676e-01 6.000000000000000000e+00
2.027831792831420898e+00 -1.526971459388732910e+00 -6.801764369010925293e-01 1.600000000000000000e+01
2.356288194656372070e+00 -1.775590538978577104e+00 -6.811518073081970215e-01 1.100000000000000000e+01
2.784267902374268022e+00 -2.098858356475830078e+00 -6.777535676956176758e-01 1.100000000000000000e+01
3.434669494628905806e+00 -2.591029882431029829e+00 -6.814285516738891602e-01 1.000000000000000000e+01
4.455113410949707031e+00 -3.363268375396728960e+00 -6.853932142257690430e-01 1.200000000000000000e+01
5.954311847686767578e+00 -4.496679782867431641e+00 -6.527965068817138672e-01 7.000000000000000000e+00
2.022489309310913086e+00 -1.534040570259094016e+00 -6.801764369010925293e-01 1.600000000000000000e+01
2.356284856796265093e+00 -1.788517594337462935e+00 -6.829513907432556152e-01 1.100000000000000000e+01
2.776924610137939009e+00 -2.108564376831055132e+00 -6.777535676956176758e-01 1.100000000000000000e+01
3.406730413436890093e+00 -2.588661670684814009e+00 -6.776741147041320801e-01 1.000000000000000000e+01
4.446506977081298828e+00 -3.381202220916748047e+00 -6.858806610107421875e-01 1.200000000000000000e+01
5.933822154998779297e+00 -4.513817787170410156e+00 -6.522735953330993652e-01 7.000000000000000000e+00
2.019653558731079102e+00 -1.544141769409179910e+00 -6.812117099761962891e-01 1.400000000000000000e+01
2.343209266662598100e+00 -1.792815208435059038e+00 -6.811518073081970215e-01 1.100000000000000000e+01
2.775043964385985884e+00 -2.123984575271606001e+00 -6.792800426483154297e-01 1.100000000000000000e+01
3.403038501739501953e+00 -2.606528282165526900e+00 -6.789255738258361816e-01 1.000000000000000000e+01
4.439793109893798828e+00 -3.403081178665161133e+00 -6.868556141853332520e-01 1.200000000000000000e+01
5.911703109741210938e+00 -4.532931804656982422e+00 -6.517506241798400879e-01 7.000000000000000000e+00
2.021904230117797852e+00 -1.557075858116149902e+00 -6.837999224662780762e-01 1.500000000000000000e+01
2.340023994445800781e+00 -1.803362727165221946e+00 -6.820515990257263184e-01 1.100000000000000000e+01
2.761393547058105025e+00 -2.128863573074340820e+00 -6.777535676956176758e-01 1.100000000000000000e+01
3.406431436538695845e+00 -2.628044128417969194e+00 -6.814285516738891602e-01 1.000000000000000000e+01
4.421602249145507812e+00 -3.413705825805664062e+00 -6.858806610107421875e-01 1.200000000000000000e+01
5.884806156158447266e+00 -4.545014858245849609e+00 -6.505304574966430664e-01 6.000000000000000000e+00
2.013948678970336914e+00 -1.561053156852721946e+00 -6.827646493911743164e-01 1.300000000000000000e+01
2.340506315231322798e+00 -1.815482735633850098e+00 -6.838511824607849121e-01 1.200000000000000000e+01
2.750038623809814009e+00 -2.133917570114136186e+00 -6.766086816787719727e-01 1.200000000000000000e+01
3.404399156570435014e+00 -2.643579006195067915e+00 -6.826800107955932617e-01 1.000000000000000000e+01
4.423395633697509766e+00 -3.437324047088623047e+00 -6.878305673599243164e-01 1.200000000000000000e+01
5.900385856628417969e+00 -4.586713314056395596e+00 -6.538423895835876465e-01 6.000000000000000000e+00
2.005441904067993164e+00 -1.565695881843566895e+00 -6.817293763160705566e-01 1.500000000000000000e+01
2.328012228012084961e+00 -1.818842530250549094e+00 -6.820515990257263184e-01 1.200000000000000000e+01
2.756494760513306108e+00 -2.154384613037108931e+00 -6.800432801246643066e-01 1.100000000000000000e+01
3.382702827453612837e+00 -2.645710706710814986e+00 -6.801770329475402832e-01 1.000000000000000000e+01
4.422312736511229581e+00 -3.461308240890502930e+00 -6.895367503166198730e-01 1.000000000000000000e+01
5.831002235412597656e+00 -4.565519809722900391e+00 -6.479157805442810059e-01 6.000000000000000000e+00
1.998445868492126021e+00 -1.571492552757262962e+00 -6.812117099761962891e-01 1.400000000000000000e+01
2.327775001525878906e+00 -1.831778287887573020e+00 -6.838511824607849121e-01 1.100000000000000000e+01
2.756670951843262163e+00 -2.170065402984619141e+00 -6.819513440132141113e-01 1.100000000000000000e+01
3.382757425308227983e+00 -2.664836645126343218e+00 -6.820542812347412109e-01 1.000000000000000000e+01
4.411762237548828125e+00 -3.477952957153319868e+00 -6.897804737091064453e-01 1.200000000000000000e+01
5.714905738830566406e+00 -4.506886005401611328e+00 -6.367598772048950195e-01 1.300000000000000000e+01
2.003548860549927202e+00 -1.586854934692383035e+00 -6.848351955413818359e-01 1.500000000000000000e+01
2.309149026870727983e+00 -1.830208897590636985e+00 -6.802520155906677246e-01 1.200000000000000000e+01
2.749079227447510210e+00 -2.179674625396728960e+00 -6.819513440132141113e-01 1.000000000000000000e+01
3.373434782028197798e+00 -2.676628589630126953e+00 -6.820542812347412109e-01 1.000000000000000000e+01
4.398040294647216797e+00 -3.492097377777100053e+00 -6.895367503166198730e-01 1.400000000000000000e+01
5.841110706329345703e+00 -4.639575004577636719e+00 -6.526222229003906250e-01 8.000000000000000000e+00
1.999229311943053977e+00 -1.595392584800719993e+00 -6.853528022766113281e-01 1.400000000000000000e+01
2.310039281845093218e+00 -1.844740271568297896e+00 -6.825014948844909668e-01 1.300000000000000000e+01
2.733402490615845171e+00 -2.183609008789062944e+00 -6.800432801246643066e-01 1.100000000000000000e+01
3.363601684570312944e+00 -2.688974857330321822e+00 -6.820542812347412109e-01 1.000000000000000000e+01
4.371261119842529297e+00 -3.497032642364501953e+00 -6.873431205749511719e-01 1.200000000000000000e+01
5.827177524566650391e+00 -4.663442134857177734e+00 -6.529708504676818848e-01 6.000000000000000000e+00
1.987625122070312944e+00 -1.597520470619202104e+00 -6.832822561264038086e-01 1.400000000000000000e+01
2.308141231536864790e+00 -1.856456637382507102e+00 -6.838511824607849121e-01 1.100000000000000000e+01
2.727293014526367188e+00 -2.194367885589600053e+00 -6.804248690605163574e-01 1.000000000000000000e+01
3.369581222534180132e+00 -2.713088035583496094e+00 -6.851829290390014648e-01 1.000000000000000000e+01
4.368301868438720703e+00 -3.519742965698242188e+00 -6.888055205345153809e-01 1.200000000000000000e+01
5.824824810028076172e+00 -4.695007324218750000e+00 -6.545396447181701660e-01 9.000000000000000000e+00
1.981094598770142046e+00 -1.602541923522948997e+00 -6.827646493911743164e-01 1.400000000000000000e+01
2.305326938629149947e+00 -1.866150975227355957e+00 -6.847510337829589844e-01 1.200000000000000000e+01
2.726488828659058061e+00 -2.207867145538330078e+00 -6.819513440132141113e-01 1.100000000000000000e+01
3.351832866668701172e+00 -2.716198444366455078e+00 -6.833057403564453125e-01 1.000000000000000000e+01
4.369557380676270419e+00 -3.543451547622681108e+00 -6.907554268836975098e-01 1.400000000000000000e+01
5.806951522827148438e+00 -4.710772991180419922e+00 -6.541910171508789062e-01 7.000000000000000000e+00
1.973990917205810991e+00 -1.608227372169495073e+00 -6.822469830513000488e-01 1.500000000000000000e+01
2.301819562911986861e+00 -1.876649498939513938e+00 -6.856508255004882812e-01 1.300000000000000000e+01
2.721808195114136186e+00 -2.219852447509766069e+00 -6.827145814895629883e-01 1.000000000000000000e+01
3.342331171035767046e+00 -2.727881908416748047e+00 -6.833057403564453125e-01 1.000000000000000000e+01
4.372536659240722656e+00 -3.571239709854125977e+00 -6.931928396224975586e-01 1.200000000000000000e+01
5.821330547332763672e+00 -4.756226539611816406e+00 -6.576772332191467285e-01 7.000000000000000000e+00
1.971351981163024902e+00 -1.617558836936950906e+00 -6.832822561264038086e-01 1.300000000000000000e+01
2.287724494934082031e+00 -1.878489494323730025e+00 -6.834012866020202637e-01 1.200000000000000000e+01
2.712525844573975053e+00 -2.228093862533568892e+00 -6.823329925537109375e-01 1.100000000000000000e+01
3.335840702056885210e+00 -2.742041110992432085e+00 -6.839314699172973633e-01 1.000000000000000000e+01
4.363110065460205078e+00 -3.589003086090087891e+00 -6.936802864074707031e-01 1.200000000000000000e+01
5.832385063171386719e+00 -4.799304962158203125e+00 -6.608148217201232910e-01 7.000000000000000000e+00
1.971650242805480957e+00 -1.629352807998657005e+00 -6.853528022766113281e-01 1.500000000000000000e+01
2.284157037734984907e+00 -1.888947606086730957e+00 -6.843010783195495605e-01 1.200000000000000000e+01
2.707757234573363814e+00 -2.240051507949829102e+00 -6.830962300300598145e-01 1.100000000000000000e+01
3.330813646316527876e+00 -2.757447719573975053e+00 -6.848700642585754395e-01 1.100000000000000000e+01
4.335268974304199219e+00 -3.591547250747681108e+00 -6.912429332733154297e-01 1.200000000000000000e+01
5.843209743499755859e+00 -4.842518806457520419e+00 -6.639524698257446289e-01 7.000000000000000000e+00
1.966863870620727983e+00 -1.638147711753844993e+00 -6.858704686164855957e-01 1.400000000000000000e+01
2.278383970260620117e+00 -1.898951888084412065e+00 -6.847510337829589844e-01 1.200000000000000000e+01
2.693104505538939986e+00 -2.245403051376343218e+00 -6.815697550773620605e-01 1.000000000000000000e+01
3.323234796524047852e+00 -2.772747755050659180e+00 -6.854958534240722656e-01 1.100000000000000000e+01
4.327541351318359375e+00 -3.613255977630614790e+00 -6.922178864479064941e-01 1.200000000000000000e+01
5.657894611358642578e+00 -4.725702762603759766e+00 -6.449524760246276855e-01 6.000000000000000000e+00
1.956693410873413086e+00 -1.641278862953186035e+00 -6.843175292015075684e-01 1.400000000000000000e+01
2.273234128952025923e+00 -1.908146142959594949e+00 -6.852009296417236328e-01 1.300000000000000000e+01
2.694271087646483931e+00 -2.262365102767943892e+00 -6.838594675064086914e-01 1.100000000000000000e+01
3.304461717605590820e+00 -2.776706218719481978e+00 -6.836186051368713379e-01 1.100000000000000000e+01
4.320980072021484375e+00 -3.633450269699097124e+00 -6.931928396224975586e-01 1.200000000000000000e+01
5.738944530487061435e+00 -4.827506542205811435e+00 -6.561084389686584473e-01 7.000000000000000000e+00
1.958619832992553933e+00 -1.653990507125854048e+00 -6.869057416915893555e-01 1.500000000000000000e+01
2.265405654907227007e+00 -1.914416193962096946e+00 -6.847510337829589844e-01 1.100000000000000000e+01
2.683755397796630859e+00 -2.268752098083496094e+00 -6.830962300300598145e-01 1.000000000000000000e+01
3.298252105712891069e+00 -2.790200710296630859e+00 -6.842443346977233887e-01 1.100000000000000000e+01
2.847420310974121094e+01 -2.409666252136230113e+01 4.580093860626220703e+00 1.900000000000000000e+01
4.330118179321289062e+00 -3.665715694427489790e+00 -6.966051459312438965e-01 1.400000000000000000e+01
5.694016456604003906e+00 -4.822046756744384766e+00 -6.527965068817138672e-01 7.000000000000000000e+00
1.948419570922852007e+00 -1.657062649726867898e+00 -6.853528022766113281e-01 1.400000000000000000e+01
2.249804973602294922e+00 -1.914734125137329102e+00 -6.820515990257263184e-01 1.200000000000000000e+01
2.675819635391234907e+00 -2.278106451034545898e+00 -6.830962300300598145e-01 1.100000000000000000e+01
3.296010494232178178e+00 -2.808101892471313032e+00 -6.858087182044982910e-01 1.000000000000000000e+01
4.317296028137207031e+00 -3.680808305740356001e+00 -6.966051459312438965e-01 1.200000000000000000e+01
5.373963832855224609e+00 -4.583314418792724609e+00 -6.179342269897460938e-01 7.000000000000000000e+00
1.951426863670348899e+00 -1.671393871307373047e+00 -6.884586811065673828e-01 1.500000000000000000e+01
2.256424188613892046e+00 -1.933989524841309038e+00 -6.861007213592529297e-01 1.300000000000000000e+01
2.661889553070067915e+00 -2.282321214675902876e+00 -6.815697550773620605e-01 1.000000000000000000e+01
3.289186716079711914e+00 -2.822162628173828125e+00 -6.864344477653503418e-01 1.100000000000000000e+01
4.301409244537354404e+00 -3.693269729614257812e+00 -6.961176991462707520e-01 1.200000000000000000e+01
5.524187088012695312e+00 -4.744844436645507812e+00 -6.371085047721862793e-01 6.000000000000000000e+00
1.947043657302856001e+00 -1.679457306861876997e+00 -6.889762878417968750e-01 1.600000000000000000e+01
2.245234012603760210e+00 -1.938034057617187944e+00 -6.847510337829589844e-01 1.100000000000000000e+01
2.664308309555054155e+00 -2.300580739974976030e+00 -6.842410564422607422e-01 1.000000000000000000e+01
3.285294294357299805e+00 -2.838793039321898970e+00 -6.876859068870544434e-01 1.000000000000000000e+01
4.300503730773925781e+00 -3.718649387359619141e+00 -6.980676054954528809e-01 1.200000000000000000e+01
5.466905593872070312e+00 -4.728905677795410156e+00 -6.324020624160766602e-01 6.000000000000000000e+00
1.937087655067444070e+00 -1.682104706764220969e+00 -6.874234080314636230e-01 1.600000000000000000e+01
2.246149778366088867e+00 -1.951860070228577104e+00 -6.870005130767822266e-01 1.300000000000000000e+01
2.653701305389403853e+00 -2.306827306747436968e+00 -6.834778189659118652e-01 1.000000000000000000e+01
3.275862455368041992e+00 -2.849671840667725053e+00 -6.876859068870544434e-01 1.000000000000000000e+01
4.291142940521240234e+00 -3.735496520996094194e+00 -6.985550522804260254e-01 1.200000000000000000e+01
5.611964702606201172e+00 -4.887011528015136719e+00 -6.510533690452575684e-01 8.000000000000000000e+00
1.923933148384094016e+00 -1.682497501373291016e+00 -6.848351955413818359e-01 1.500000000000000000e+01
2.245188713073730025e+00 -1.964822053909301980e+00 -6.888001561164855957e-01 1.300000000000000000e+01
2.653018712997436968e+00 -2.322542190551757812e+00 -6.853858828544616699e-01 1.100000000000000000e+01
3.254008293151855025e+00 -2.850676059722899947e+00 -6.851829290390014648e-01 1.000000000000000000e+01
4.287034034729003906e+00 -3.758304357528686968e+00 -7.000175118446350098e-01 1.200000000000000000e+01
5.618839263916015625e+00 -4.927589893341063565e+00 -6.538423895835876465e-01 9.000000000000000000e+00
1.925297260284424050e+00 -1.695587038993835005e+00 -6.874234080314636230e-01 1.500000000000000000e+01
2.223696708679199219e+00 -1.959762573242187944e+00 -6.843010783195495605e-01 1.300000000000000000e+01
2.649313211441040039e+00 -2.335683822631835938e+00 -6.865307688713073730e-01 1.100000000000000000e+01
3.252925634384154829e+00 -2.869858264923096147e+00 -6.870601773262023926e-01 1.000000000000000000e+01
4.273889064788818359e+00 -3.773246049880981001e+00 -7.000175118446350098e-01 1.200000000000000000e+01
5.583683967590332031e+00 -4.931346416473388672e+00 -6.517506241798400879e-01 8.000000000000000000e+00
1.920812129974365012e+00 -1.703579187393188032e+00 -6.879410147666931152e-01 1.400000000000000000e+01
2.225587129592895952e+00 -1.975274205207824929e+00 -6.870005130767822266e-01 1.200000000000000000e+01
2.636739730834960938e+00 -2.341006994247436968e+00 -6.853858828544616699e-01 1.100000000000000000e+01
3.253225326538085938e+00 -2.890379905700684038e+00 -6.892502307891845703e-01 1.000000000000000000e+01
2.836796760559082031e+01 -2.521283531188964844e+01 4.660039901733398438e+00 2.000000000000000000e+01
4.257724761962890625e+00 -3.785503625869750977e+00 -6.995300054550170898e-01 1.200000000000000000e+01
5.564947605133056641e+00 -4.949482917785645419e+00 -6.515763401985168457e-01 8.000000000000000000e+00
1.914853811264038086e+00 -1.710273623466491921e+00 -6.879410147666931152e-01 1.500000000000000000e+01
2.223037481307982954e+00 -1.986926794052124023e+00 -6.883502006530761719e-01 1.400000000000000000e+01
2.628551959991455078e+00 -2.350196599960327148e+00 -6.853858828544616699e-01 1.100000000000000000e+01
3.241643905639647993e+00 -2.900400876998900923e+00 -6.889373660087585449e-01 1.000000000000000000e+01
4.250400543212890625e+00 -3.805639505386352983e+00 -7.005049586296081543e-01 1.200000000000000000e+01
5.540216445922851562e+00 -4.962231636047363281e+00 -6.507048010826110840e-01 1.100000000000000000e+01
1.905999541282654031e+00 -1.714363455772399902e+00 -6.869057416915893555e-01 1.600000000000000000e+01
2.216088294982910156e+00 -1.994674563407897949e+00 -6.883502006530761719e-01 1.400000000000000000e+01
2.623250246047974077e+00 -2.361985206604003906e+00 -6.861491203308105469e-01 1.200000000000000000e+01
3.237370014190673828e+00 -2.916987895965576172e+00 -6.901888847351074219e-01 1.000000000000000000e+01
4.253307819366455078e+00 -3.835075378417969194e+00 -7.031860947608947754e-01 1.100000000000000000e+01
5.487353801727294922e+00 -4.949513435363770419e+00 -6.465212702751159668e-01 1.300000000000000000e+01
1.902036547660828081e+00 -1.721639275550842063e+00 -6.874234080314636230e-01 1.600000000000000000e+01
2.215588092803955078e+00 -2.006859779357910156e+00 -6.901498436927795410e-01 1.300000000000000000e+01
2.618726491928101030e+00 -2.372851133346558061e+00 -6.869123578071594238e-01 1.100000000000000000e+01
3.225263357162476030e+00 -2.924490213394165039e+00 -6.895630955696105957e-01 1.000000000000000000e+01
4.250059127807617188e+00 -3.856422424316405806e+00 -7.046485543251037598e-01 1.100000000000000000e+01
5.474728107452392578e+00 -4.969406127929688388e+00 -6.468698978424072266e-01 2.100000000000000000e+01
3.739010620117188211e+01 -3.398660659790039062e+01 -8.819748163223266602e-01 1.300000000000000000e+01
1.900298476219177024e+00 -1.732172369956969993e+00 -6.889762878417968750e-01 1.500000000000000000e+01
2.199930906295775923e+00 -2.006701707839965820e+00 -6.874504089355468750e-01 1.400000000000000000e+01
2.619129180908203125e+00 -2.389917612075806108e+00 -6.892020702362060547e-01 1.100000000000000000e+01
3.213576555252075195e+00 -2.934398651123046875e+00 -6.892502307891845703e-01 9.000000000000000000e+00
4.227778911590576172e+00 -3.863199949264525923e+00 -7.031860947608947754e-01 1.100000000000000000e+01
5.461760044097900391e+00 -4.992518901824951172e+00 -6.473928689956665039e-01 1.600000000000000000e+01
1.908166408538817915e+00 -1.752192020416259988e+00 -6.941526532173156738e-01 1.700000000000000000e+01
2.193996191024779829e+00 -2.016069889068603960e+00 -6.879003047943115234e-01 1.500000000000000000e+01
2.598789215087891069e+00 -2.388872146606444868e+00 -6.861491203308105469e-01 1.000000000000000000e+01
3.211522817611693892e+00 -2.954181432723999023e+00 -6.911274790763854980e-01 9.000000000000000000e+00
4.219433307647705078e+00 -3.884047269821166992e+00 -7.041610479354858398e-01 1.100000000000000000e+01
5.453684329986572266e+00 -5.021951198577880859e+00 -6.486130356788635254e-01 1.200000000000000000e+01
1.890691518783568892e+00 -1.748349308967590110e+00 -6.900115609169006348e-01 1.600000000000000000e+01
2.194097042083739790e+00 -2.030333995819091797e+00 -6.901498436927795410e-01 1.300000000000000000e+01
2.590434551239014116e+00 -2.397929191589355025e+00 -6.861491203308105469e-01 1.000000000000000000e+01
3.201191425323485884e+00 -2.965373754501343218e+00 -6.911274790763854980e-01 9.000000000000000000e+00
4.208761692047119141e+00 -3.901451110839844194e+00 -7.046485543251037598e-01 1.100000000000000000e+01
5.491636753082275391e+00 -5.092437267303466797e+00 -6.552368998527526855e-01 8.000000000000000000e+00
1.878921985626220925e+00 -1.749672293663024902e+00 -6.879410147666931152e-01 1.700000000000000000e+01
2.189847707748413086e+00 -2.040637493133544922e+00 -6.910496354103088379e-01 1.200000000000000000e+01
2.584920644760131836e+00 -2.409634113311768022e+00 -6.869123578071594238e-01 9.000000000000000000e+00
3.189376354217528853e+00 -2.975182294845581055e+00 -6.908146142959594727e-01 1.000000000000000000e+01
4.203823566436767578e+00 -3.924246311187744141e+00 -7.061109542846679688e-01 1.100000000000000000e+01
5.479651927947998047e+00 -5.117014884948729581e+00 -6.559340953826904297e-01 9.000000000000000000e+00
1.877030611038208008e+00 -1.760184645652770996e+00 -6.894939541816711426e-01 1.600000000000000000e+01
2.182711362838745117e+00 -2.048269033432006836e+00 -6.910496354103088379e-01 1.300000000000000000e+01
2.580787897109984907e+00 -2.422673702239989790e+00 -6.880572438240051270e-01 1.000000000000000000e+01
3.178971529006958008e+00 -2.986297130584716797e+00 -6.908146142959594727e-01 1.000000000000000000e+01
4.198778152465820312e+00 -3.947054386138916016e+00 -7.075734138488769531e-01 1.100000000000000000e+01
5.435630798339843750e+00 -5.111543178558349609e+00 -6.527965068817138672e-01 1.100000000000000000e+01
1.871183276176453081e+00 -1.766399502754210982e+00 -6.894939541816711426e-01 1.500000000000000000e+01
2.154657840728760210e+00 -2.035422563552856001e+00 -6.843010783195495605e-01 1.500000000000000000e+01
2.584155082702637163e+00 -2.442005872726439986e+00 -6.911101937294006348e-01 1.000000000000000000e+01
3.174792051315308061e+00 -3.002251625061035156e+00 -6.920660734176635742e-01 1.000000000000000000e+01
4.182782649993895596e+00 -3.958227396011352983e+00 -7.070859074592590332e-01 1.100000000000000000e+01
2.774128532409667969e+01 -2.626115798950194957e+01 6.050259590148925781e+00 1.400000000000000000e+01
5.441801071166992188e+00 -5.151455402374267578e+00 -6.555854678153991699e-01 9.000000000000000000e+00
1.872006773948668990e+00 -1.779575467109679954e+00 -6.920821070671081543e-01 1.500000000000000000e+01
2.161659002304077148e+00 -2.056362867355347124e+00 -6.888001561164855957e-01 1.800000000000000000e+01
2.565659761428833008e+00 -2.441537618637084961e+00 -6.884388327598571777e-01 1.100000000000000000e+01
3.165723562240601030e+00 -3.014677762985229048e+00 -6.923789381980895996e-01 1.000000000000000000e+01
2.704871940612792969e+01 -2.576715087890625000e+01 4.586918354034423828e+00 1.900000000000000000e+01
4.157443523406982422e+00 -3.961848258972167969e+00 -7.051360011100769043e-01 1.100000000000000000e+01
5.433880805969238281e+00 -5.180042743682861328e+00 -6.568056941032409668e-01 7.000000000000000000e+00
1.862681269645690918e+00 -1.783752441406250000e+00 -6.910468339920043945e-01 2.000000000000000000e+01
2.151293516159058061e+00 -2.061575412750244141e+00 -6.879003047943115234e-01 1.500000000000000000e+01
2.555276632308959961e+00 -2.449566125869750977e+00 -6.880572438240051270e-01 1.100000000000000000e+01
3.157503843307495117e+00 -3.028995513916016069e+00 -6.930046677589416504e-01 9.000000000000000000e+00
4.155783176422119141e+00 -3.989431858062744141e+00 -7.073296904563903809e-01 9.000000000000000000e+00
5.437851428985595703e+00 -5.222004413604736328e+00 -6.595946550369262695e-01 7.000000000000000000e+00
1.855052828788757102e+00 -1.788902521133423074e+00 -6.905292272567749023e-01 1.600000000000000000e+01
2.162313938140869141e+00 -2.086663961410522017e+00 -6.937490701675415039e-01 1.900000000000000000e+01
2.553772926330565962e+00 -2.465288639068603960e+00 -6.899653077125549316e-01 1.200000000000000000e+01
3.151173591613769975e+00 -3.044116020202637163e+00 -6.939432621002197266e-01 1.000000000000000000e+01
4.140404701232910156e+00 -4.002534389495849609e+00 -7.070859074592590332e-01 1.100000000000000000e+01
5.368029594421386719e+00 -5.191092967987061435e+00 -6.533194184303283691e-01 7.000000000000000000e+00
1.852954745292664018e+00 -1.799404621124268022e+00 -6.920821070671081543e-01 1.700000000000000000e+01
2.780453681945801137e+01 -2.701041984558105113e+01 6.766297817230224609e-01 3.200000000000000000e+01
2.145234107971190962e+00 -2.084692478179932085e+00 -6.905997395515441895e-01 1.900000000000000000e+01
2.556413650512694868e+00 -2.485135555267333984e+00 -6.930182576179504395e-01 1.100000000000000000e+01
3.137696743011475053e+00 -3.052342414855957031e+00 -6.933175325393676758e-01 1.000000000000000000e+01
2.776871681213378906e+01 -2.702276229858398082e+01 4.757535457611083984e+00 2.000000000000000000e+01
4.136364936828613281e+00 -4.026655197143554688e+00 -7.087920904159545898e-01 9.000000000000000000e+00
5.319901466369628906e+00 -5.180609226226806641e+00 -6.496589183807373047e-01 1.000000000000000000e+01
1.845281243324280007e+00 -1.804510951042175071e+00 -6.915645003318786621e-01 1.600000000000000000e+01
2.135158538818358931e+00 -2.089442014694213867e+00 -6.896999478340148926e-01 1.800000000000000000e+01
2.544917345046997070e+00 -2.491297245025635210e+00 -6.922550201416015625e-01 1.100000000000000000e+01
3.127022981643677202e+00 -3.063276529312133789e+00 -6.933175325393676758e-01 1.000000000000000000e+01
2.682353401184082031e+01 -2.628589439392089844e+01 4.611292362213134766e+00 1.900000000000000000e+01
4.126536846160888672e+00 -4.045238494873046875e+00 -7.095233201980590820e-01 1.100000000000000000e+01
5.293250083923339844e+00 -5.190777301788330078e+00 -6.486130356788635254e-01 7.000000000000000000e+00
2.777355957031250000e+01 -2.727395057678223012e+01 -6.794570684432983398e-01 9.000000000000000000e+00
1.847547411918639915e+00 -1.818751692771912065e+00 -6.946703195571899414e-01 1.600000000000000000e+01
2.719259643554687855e+01 -2.677812194824219105e+01 6.661583781242370605e-01 3.100000000000000000e+01
2.132382631301879883e+00 -2.100613832473754883e+00 -6.910496354103088379e-01 1.900000000000000000e+01
2.529650211334228960e+00 -2.492832660675048828e+00 -6.903469562530517578e-01 1.100000000000000000e+01
3.132319211959838867e+00 -3.088886260986328125e+00 -6.967591047286987305e-01 1.100000000000000000e+01
2.701885795593262074e+01 -2.665351676940917969e+01 4.660039901733398438e+00 2.000000000000000000e+01
4.110273838043212891e+00 -4.056111335754395419e+00 -7.090358138084411621e-01 1.100000000000000000e+01
2.799978828430176137e+01 -2.763082695007323863e+01 6.230472087860107422e+00 1.400000000000000000e+01
5.280261516571044922e+00 -5.212501049041748047e+00 -6.491359472274780273e-01 7.000000000000000000e+00
2.754928398132323863e+01 -2.723375320434569957e+01 -6.761760115623474121e-01 8.000000000000000000e+00
1.831583619117737038e+00 -1.815669417381287065e+00 -6.910468339920043945e-01 1.600000000000000000e+01
2.127804279327393022e+00 -2.110789299011230025e+00 -6.919494271278381348e-01 1.900000000000000000e+01
2.730939483642578125e+01 -2.709101676940917969e+01 2.015980958938599077e+00 2.200000000000000000e+01
2.520933151245117188e+00 -2.501647710800170898e+00 -6.903469562530517578e-01 1.100000000000000000e+01
3.114509582519530806e+00 -3.092841863632202148e+00 -6.951947808265686035e-01 1.000000000000000000e+01
2.690312194824219105e+01 -2.672528266906737926e+01 4.656140327453613281e+00 2.000000000000000000e+01
4.090457916259765625e+00 -4.064837455749511719e+00 -7.080608606338500977e-01 1.100000000000000000e+01
5.153232574462890625e+00 -5.122743129730224609e+00 -6.357139945030212402e-01 6.000000000000000000e+00
1.825234651565551980e+00 -1.822051763534545898e+00 -6.910468339920043945e-01 1.600000000000000000e+01
2.128695249557495117e+00 -2.126467227935791016e+00 -6.946488618850708008e-01 2.300000000000000000e+01
2.519129037857056108e+00 -2.517370939254761186e+00 -6.922550201416015625e-01 1.100000000000000000e+01
3.106488227844237837e+00 -3.106488227844237837e+00 -6.958205103874206543e-01 1.100000000000000000e+01
2.660196304321289062e+01 -2.661124992370605113e+01 4.620066642761229581e+00 1.900000000000000000e+01
4.090276241302490234e+00 -4.093132495880126953e+00 -7.104982733726501465e-01 1.100000000000000000e+01
5.090260505676270419e+00 -5.095593929290770596e+00 -6.301360130310058594e-01 1.200000000000000000e+01
1.813413619995116965e+00 -1.822933554649353027e+00 -6.889762878417968750e-01 1.600000000000000000e+01
2.115764141082764116e+00 -2.128356695175170898e+00 -6.928492188453674316e-01 1.900000000000000000e+01
2.510326385498046875e+00 -2.526149034500122070e+00 -6.922550201416015625e-01 1.100000000000000000e+01
3.095625638961791992e+00 -3.117312908172606978e+00 -6.958205103874206543e-01 1.100000000000000000e+01
2.659841537475585938e+01 -2.679410934448241832e+01 4.635665893554688388e+00 1.900000000000000000e+01
4.078760147094726562e+00 -4.110203266143798828e+00 -7.109857201576232910e-01 1.100000000000000000e+01
2.624329185485839844e+01 -2.645483779907226918e+01 5.901959419250488281e+00 1.300000000000000000e+01
5.111731052398681641e+00 -5.152936458587645596e+00 -6.350167393684387207e-01 1.000000000000000000e+01
1.819579601287842019e+00 -1.841303944587707964e+00 -6.936350464820861816e-01 1.600000000000000000e+01
2.103217363357543945e+00 -2.129814624786376953e+00 -6.910496354103088379e-01 2.000000000000000000e+01
2.508831739425659180e+00 -2.541445493698120117e+00 -6.941631436347961426e-01 1.200000000000000000e+01
3.078334808349608931e+00 -3.120529890060424805e+00 -6.942561268806457520e-01 1.000000000000000000e+01
2.637003326416015980e+01 -2.674082183837890980e+01 4.611292362213134766e+00 1.900000000000000000e+01
4.079043388366699219e+00 -4.137843132019042969e+00 -7.134231328964233398e-01 1.300000000000000000e+01
5.080630779266357422e+00 -5.155667781829833984e+00 -6.332736015319824219e-01 1.200000000000000000e+01
1.814494252204895020e+00 -1.849023103713989036e+00 -6.941526532173156738e-01 1.700000000000000000e+01
2.098499059677124023e+00 -2.139926195144652876e+00 -6.919494271278381348e-01 1.900000000000000000e+01
2.498570680618286133e+00 -2.548785448074340820e+00 -6.937814950942993164e-01 1.100000000000000000e+01
3.086776256561278853e+00 -3.151011705398560014e+00 -6.986362934112548828e-01 1.100000000000000000e+01
4.042356491088867188e+00 -4.129360198974609375e+00 -7.095233201980590820e-01 1.100000000000000000e+01
5.058422565460205078e+00 -5.169099330902099609e+00 -6.327506899833679199e-01 1.400000000000000000e+01
1.802635908126831055e+00 -1.849811434745789018e+00 -6.920821070671081543e-01 1.700000000000000000e+01
2.091016530990601030e+00 -2.147238254547119141e+00 -6.919494271278381348e-01 2.000000000000000000e+01
2.489658594131470171e+00 -2.557491540908813032e+00 -6.937814950942993164e-01 1.100000000000000000e+01
3.071626186370850053e+00 -3.157519578933715820e+00 -6.976976990699768066e-01 1.100000000000000000e+01
4.041754722595214844e+00 -4.157679080963134766e+00 -7.119607329368591309e-01 1.100000000000000000e+01
2.593835258483887074e+01 -2.668231010437012074e+01 5.893825054168701172e+00 1.300000000000000000e+01
5.036182880401611328e+00 -5.182438373565673828e+00 -6.322277784347534180e-01 1.100000000000000000e+01
1.797511219978332964e+00 -1.857480764389038086e+00 -6.925997734069824219e-01 1.600000000000000000e+01
2.088927268981934038e+00 -2.160127639770507812e+00 -6.937490701675415039e-01 1.900000000000000000e+01
2.729132080078125000e+01 -2.823139190673828125e+01 2.057849884033203125e+00 2.200000000000000000e+01
2.482080698013306108e+00 -2.567578077316284180e+00 -6.941631436347961426e-01 1.200000000000000000e+01
3.071565389633179155e+00 -3.179588317871094194e+00 -7.002006769180297852e-01 1.100000000000000000e+01
2.691593933105469105e+01 -2.787227058410644887e+01 4.757535457611083984e+00 2.000000000000000000e+01
4.036868095397949219e+00 -4.181759357452392578e+00 -7.136668562889099121e-01 1.300000000000000000e+01
5.134278297424316406e+00 -5.320416450500488281e+00 -6.468698978424072266e-01 1.200000000000000000e+01
1.796370744705199973e+00 -1.869315624237060991e+00 -6.946703195571899414e-01 1.900000000000000000e+01
2.081374406814575195e+00 -2.167406082153319868e+00 -6.937490701675415039e-01 2.000000000000000000e+01
2.479901075363159180e+00 -2.583307981491088867e+00 -6.960712075233459473e-01 1.100000000000000000e+01
3.052242755889893022e+00 -3.181737661361693892e+00 -6.983234286308288574e-01 1.100000000000000000e+01
4.027740955352783203e+00 -4.201557159423828125e+00 -7.146418094635009766e-01 1.300000000000000000e+01
2.571863746643066051e+01 -2.682851791381835938e+01 5.886315822601318359e+00 1.300000000000000000e+01
5.079833984375000000e+00 -5.300904750823974609e+00 -6.423377990722656250e-01 1.300000000000000000e+01
1.796503305435181108e+00 -1.882562756538390891e+00 -6.972585320472717285e-01 1.700000000000000000e+01
2.073796033859252930e+00 -2.174658298492432085e+00 -6.937490701675415039e-01 1.900000000000000000e+01
2.470868587493896040e+00 -2.591948747634888139e+00 -6.960712075233459473e-01 1.300000000000000000e+01
3.041117906570435014e+00 -3.192372560501099077e+00 -6.983234286308288574e-01 1.100000000000000000e+01
4.010313034057617188e+00 -4.212715625762938565e+00 -7.141543626785278320e-01 1.300000000000000000e+01
5.053058624267578125e+00 -5.309944152832031250e+00 -6.412919759750366211e-01 7.000000000000000000e+00
1.795236229896544966e+00 -1.894431233406066895e+00 -6.993290781974792480e-01 1.900000000000000000e+01
2.060832500457764116e+00 -2.176223993301392046e+00 -6.919494271278381348e-01 2.000000000000000000e+01
2.461805820465087891e+00 -2.600557804107666016e+00 -6.960712075233459473e-01 1.100000000000000000e+01
3.043530941009521040e+00 -3.217318773269652876e+00 -7.014521360397338867e-01 1.100000000000000000e+01
3.992856025695800781e+00 -4.223803520202636719e+00 -7.136668562889099121e-01 1.300000000000000000e+01
5.048176765441895419e+00 -5.342031478881835938e+00 -6.430350542068481445e-01 9.000000000000000000e+00
1.775373339653014915e+00 -1.886617541313170943e+00 -6.941526532173156738e-01 1.700000000000000000e+01
2.059898614883422852e+00 -2.190502643585205078e+00 -6.941989660263061523e-01 2.100000000000000000e+01
2.447334527969359907e+00 -2.603413581848144975e+00 -6.945447325706481934e-01 1.100000000000000000e+01
3.029577016830443892e+00 -3.225043535232543945e+00 -7.008264064788818359e-01 1.100000000000000000e+01
2.652415847778319957e+01 -2.824535942077637074e+01 4.757535457611083984e+00 2.000000000000000000e+01
3.983522653579711914e+00 -4.243504524230957031e+00 -7.146418094635009766e-01 1.500000000000000000e+01
5.029499053955078125e+00 -5.359620094299316406e+00 -6.430350542068481445e-01 7.000000000000000000e+00
1.764819979667664018e+00 -1.888568758964539018e+00 -6.925997734069824219e-01 1.900000000000000000e+01
2.062880039215087891e+00 -2.209074020385742188e+00 -6.977981925010681152e-01 2.100000000000000000e+01
2.438231945037841797e+00 -2.611940383911132812e+00 -6.945447325706481934e-01 1.100000000000000000e+01
3.026385784149169922e+00 -3.244265794754027876e+00 -7.027035951614379883e-01 1.100000000000000000e+01
3.978160619735718218e+00 -4.267548084259033203e+00 -7.163479924201965332e-01 1.500000000000000000e+01
5.018909454345703125e+00 -5.385889530181884766e+00 -6.440809369087219238e-01 7.000000000000000000e+00
1.762159109115601030e+00 -1.898965835571289062e+00 -6.941526532173156738e-01 1.900000000000000000e+01
2.049856185913085938e+00 -2.210545539855957031e+00 -6.959985494613647461e-01 1.900000000000000000e+01
2.628676414489746094e+01 -2.835732650756835938e+01 2.026448249816894975e+00 2.200000000000000000e+01
2.446450471878052202e+00 -2.639153003692626953e+00 -6.995058059692382812e-01 1.200000000000000000e+01
3.008330583572388139e+00 -3.247564315795897993e+00 -7.011392712593078613e-01 1.000000000000000000e+01
3.969982385635375977e+00 -4.288692474365234375e+00 -7.175666689872741699e-01 1.300000000000000000e+01
4.991959571838378906e+00 -5.394601821899414062e+00 -6.430350542068481445e-01 1.000000000000000000e+01
1.757804870605468972e+00 -1.908253550529479980e+00 -6.951879262924194336e-01 1.800000000000000000e+01
2.039100646972655806e+00 -2.215176343917847124e+00 -6.950987577438354492e-01 1.600000000000000000e+01
2.436760902404785156e+00 -2.648101806640625000e+00 -6.995058059692382812e-01 1.200000000000000000e+01
3.001755952835083008e+00 -3.264384984970093218e+00 -7.023907303810119629e-01 1.000000000000000000e+01
3.951550722122191939e+00 -4.300290584564208984e+00 -7.170792222023010254e-01 1.300000000000000000e+01
4.969458103179931641e+00 -5.409927368164063388e+00 -6.426864266395568848e-01 1.100000000000000000e+01
1.758956551551819070e+00 -1.922930479049683061e+00 -6.982938051223754883e-01 1.900000000000000000e+01
2.031355857849121094e+00 -2.222280502319335938e+00 -6.950987577438354492e-01 1.500000000000000000e+01
2.424853801727294922e+00 -2.653692960739136186e+00 -6.987425684928894043e-01 1.300000000000000000e+01
2.995670795440673828e+00 -3.280678033828734907e+00 -7.036422491073608398e-01 1.100000000000000000e+01
3.936515808105469194e+00 -4.314058303833007812e+00 -7.170792222023010254e-01 1.500000000000000000e+01
4.961285114288330078e+00 -5.439017295837402344e+00 -6.440809369087219238e-01 9.000000000000000000e+00
1.749971866607666016e+00 -1.925893306732177956e+00 -6.972585320472717285e-01 1.700000000000000000e+01
2.029215335845946822e+00 -2.234775543212891069e+00 -6.968983411788940430e-01 1.500000000000000000e+01
2.413401603698730025e+00 -2.658812046051024947e+00 -6.979793310165405273e-01 1.200000000000000000e+01
2.987429380416870117e+00 -3.293520212173461914e+00 -7.042679786682128906e-01 1.100000000000000000e+01
3.920855045318603960e+00 -4.325617313385009766e+00 -7.168354988098144531e-01 1.500000000000000000e+01
4.889708995819091797e+00 -5.396381855010986328e+00 -6.371085047721862793e-01 7.000000000000000000e+00
1.732885241508484109e+00 -1.920515775680541992e+00 -6.931173801422119141e-01 1.600000000000000000e+01
2.022707223892211914e+00 -2.243292570114136186e+00 -6.973482966423034668e-01 1.400000000000000000e+01
2.406734704971313032e+00 -2.670136928558350053e+00 -6.987425684928894043e-01 1.300000000000000000e+01
2.970626592636107954e+00 -3.298057317733765093e+00 -7.030164599418640137e-01 1.000000000000000000e+01
3.915028095245360884e+00 -4.349605560302734375e+00 -7.185416221618652344e-01 1.300000000000000000e+01
4.842856884002686435e+00 -5.382314205169677734e+00 -6.334479451179504395e-01 7.000000000000000000e+00
1.727460026741028054e+00 -1.927991747856139915e+00 -6.936350464820861816e-01 1.600000000000000000e+01
2.016164302825928178e+00 -2.251791238784790039e+00 -6.977981925010681152e-01 1.500000000000000000e+01
2.402637004852294922e+00 -2.684373140335083008e+00 -7.002689838409423828e-01 1.200000000000000000e+01
2.952511548995972124e+00 -3.301044702529906782e+00 -7.014521360397338867e-01 1.100000000000000000e+01
3.915695667266846147e+00 -4.381005764007568359e+00 -7.214665412902832031e-01 1.300000000000000000e+01
4.853243827819824219e+00 -5.431872367858886719e+00 -6.372827887535095215e-01 9.000000000000000000e+00
1.728424310684204102e+00 -1.942669749259948953e+00 -6.967408657073974609e-01 1.400000000000000000e+01
2.003112316131591797e+00 -2.252989768981934038e+00 -6.959985494613647461e-01 1.300000000000000000e+01
2.390643596649169922e+00 -2.689808607101439986e+00 -6.995058059692382812e-01 1.200000000000000000e+01
2.952776670455933061e+00 -3.324623346328734907e+00 -7.042679786682128906e-01 1.000000000000000000e+01
3.883249282836914062e+00 -4.375346660614013672e+00 -7.182978987693786621e-01 1.500000000000000000e+01
4.817063808441162109e+00 -5.429405689239501953e+00 -6.350167393684387207e-01 7.000000000000000000e+00
1.728027939796447976e+00 -1.955930113792418990e+00 -6.993290781974792480e-01 1.600000000000000000e+01
1.991366505622863992e+00 -2.255585670471190962e+00 -6.946488618850708008e-01 1.400000000000000000e+01
2.381239891052246094e+00 -2.698137283325194868e+00 -6.995058059692382812e-01 1.200000000000000000e+01
2.950299739837646040e+00 -3.345280885696411133e+00 -7.064580321311950684e-01 1.100000000000000000e+01
3.854827642440795898e+00 -4.373982429504395419e+00 -7.158605456352233887e-01 1.500000000000000000e+01
4.802033424377441406e+00 -5.450672149658203125e+00 -6.355396509170532227e-01 7.000000000000000000e+00
2.226954460144042969e+01 -2.531322669982910156e+01 -5.884951353073120117e-01 6.000000000000000000e+00
1.719915866851807085e+00 -1.960497856140136941e+00 -6.988114118576049805e-01 1.500000000000000000e+01
1.989904165267943892e+00 -2.269849777221680132e+00 -6.968983411788940430e-01 1.300000000000000000e+01
2.373100996017456055e+00 -2.707909345626831055e+00 -6.998873949050903320e-01 1.300000000000000000e+01
2.938604593276977983e+00 -3.355559110641479048e+00 -7.064580321311950684e-01 1.100000000000000000e+01
3.836921691894530806e+00 -4.384424209594726562e+00 -7.153730392456054688e-01 1.600000000000000000e+01
4.738375186920166016e+00 -5.416416168212890625e+00 -6.296131014823913574e-01 7.000000000000000000e+00
2.201002120971680043e+01 -2.519503021240234020e+01 -5.839574933052062988e-01 6.000000000000000000e+00
1.708328485488892046e+00 -1.960364818572998047e+00 -6.967408657073974609e-01 1.500000000000000000e+01
1.990044713020324929e+00 -2.285253763198852983e+00 -6.995977759361267090e-01 1.200000000000000000e+01
2.361530065536499023e+00 -2.712802410125731978e+00 -6.991241574287414551e-01 1.200000000000000000e+01
2.927460908889770952e+00 -3.365285396575928178e+00 -7.064580321311950684e-01 1.100000000000000000e+01
3.824965953826903853e+00 -4.400119781494140625e+00 -7.158605456352233887e-01 2.000000000000000000e+01
4.711239814758300781e+00 -5.421572208404541016e+00 -6.283929347991943359e-01 1.000000000000000000e+01
2.183460807800292969e+01 -2.516215705871582031e+01 -5.815141797065734863e-01 6.000000000000000000e+00
1.700211048126220925e+00 -1.964855194091797097e+00 -6.962232589721679688e-01 1.600000000000000000e+01
1.979506254196166992e+00 -2.289238214492797852e+00 -6.986979842185974121e-01 1.300000000000000000e+01
2.357181787490845171e+00 -2.726970195770264116e+00 -7.006506323814392090e-01 1.100000000000000000e+01
2.913113594055175781e+00 -3.372493743896483931e+00 -7.058323025703430176e-01 1.100000000000000000e+01
3.792721033096313032e+00 -4.393909454345703125e+00 -7.126919031143188477e-01 3.300000000000000000e+01
4.549109458923339844e+00 -5.272054195404052734e+00 -6.092186570167541504e-01 8.000000000000000000e+00
2.187717437744140980e+01 -2.538971138000487926e+01 -5.850046873092651367e-01 6.000000000000000000e+00
1.700550436973571999e+00 -1.979866385459899902e+00 -6.993290781974792480e-01 1.500000000000000000e+01
1.960948705673217995e+00 -2.284648180007935014e+00 -6.950987577438354492e-01 1.300000000000000000e+01
2.353563308715819868e+00 -2.743041276931763139e+00 -7.025586962699890137e-01 1.200000000000000000e+01
2.904590606689453125e+00 -3.387647151947021040e+00 -7.067708969116210938e-01 1.100000000000000000e+01
3.771424770355225053e+00 -4.401751518249511719e+00 -7.117169499397277832e-01 3.900000000000000000e+01
4.610112190246582031e+00 -5.382511615753173828e+00 -6.200259327888488770e-01 8.000000000000000000e+00
2.168778800964355113e+01 -2.535726737976073863e+01 -5.824217200279235840e-01 1.200000000000000000e+01
1.693629026412964089e+00 -1.985790371894835982e+00 -6.993290781974792480e-01 1.600000000000000000e+01
1.960546255111693892e+00 -2.300378322601317915e+00 -6.977981925010681152e-01 1.300000000000000000e+01
2.336334705352783203e+00 -2.742273569107056108e+00 -7.002689838409423828e-01 1.200000000000000000e+01
2.897869825363159180e+00 -3.403781890869141069e+00 -7.080224156379699707e-01 1.000000000000000000e+01
3.720020055770874023e+00 -4.372554779052734375e+00 -7.048922777175903320e-01 3.900000000000000000e+01
4.623565196990966797e+00 -5.436514377593994141e+00 -6.243837475776672363e-01 7.000000000000000000e+00
1.687034606933593972e+00 -1.991395711898803933e+00 -6.993290781974792480e-01 1.500000000000000000e+01
1.956684470176696999e+00 -2.311329126358031782e+00 -6.991478800773620605e-01 1.400000000000000000e+01
2.324691534042357954e+00 -2.747008800506591797e+00 -6.995058059692382812e-01 1.200000000000000000e+01
2.881464481353760210e+00 -3.407339334487915039e+00 -7.067708969116210938e-01 1.000000000000000000e+01
3.708062171936035156e+00 -4.387898921966552734e+00 -7.053797841072082520e-01 2.600000000000000000e+01
4.601654052734375000e+00 -5.447250843048095703e+00 -6.238608360290527344e-01 7.000000000000000000e+00
1.677585959434509055e+00 -1.994315743446350098e+00 -6.982938051223754883e-01 1.600000000000000000e+01
1.952366352081299050e+00 -2.322620391845703125e+00 -7.004975676536560059e-01 1.300000000000000000e+01
2.317614555358887163e+00 -2.758112668991088867e+00 -7.002689838409423828e-01 1.200000000000000000e+01
2.879715204238892046e+00 -3.429479122161864790e+00 -7.092738747596740723e-01 1.100000000000000000e+01
3.705482959747314009e+00 -4.416022777557373047e+00 -7.078171372413635254e-01 2.600000000000000000e+01
4.613341808319091797e+00 -5.499915599822998047e+00 -6.280443072319030762e-01 7.000000000000000000e+00
1.666550636291503906e+00 -1.996002316474914995e+00 -6.967408657073974609e-01 1.500000000000000000e+01
1.940095067024230957e+00 -2.325271606445312944e+00 -6.991478800773620605e-01 1.400000000000000000e+01
2.315034866333007812e+00 -2.775634765625000000e+00 -7.025586962699890137e-01 1.200000000000000000e+01
2.857008457183837891e+00 -3.427871227264403853e+00 -7.067708969116210938e-01 1.000000000000000000e+01
3.689272403717041016e+00 -4.429574012756347656e+00 -7.078171372413635254e-01 2.200000000000000000e+01
4.575304985046386719e+00 -5.495351314544677734e+00 -6.256039142608642578e-01 7.000000000000000000e+00
1.658340215682982954e+00 -2.000320196151732954e+00 -6.962232589721679688e-01 1.300000000000000000e+01
1.923263907432555930e+00 -2.321524858474731001e+00 -6.959985494613647461e-01 1.200000000000000000e+01
2.304079771041870117e+00 -2.782186746597290039e+00 -7.021771073341369629e-01 1.200000000000000000e+01
2.856360197067261186e+00 -3.451519727706909180e+00 -7.095867395401000977e-01 1.100000000000000000e+01
3.662402153015137163e+00 -4.428657531738281250e+00 -7.056235074996948242e-01 2.400000000000000000e+01
4.617029190063476562e+00 -5.584997653961181641e+00 -6.339708566665649414e-01 7.000000000000000000e+00
1.660293936729430930e+00 -2.016247749328612837e+00 -6.998466849327087402e-01 1.400000000000000000e+01
1.918031334877013938e+00 -2.330899477005004883e+00 -6.968983411788940430e-01 1.200000000000000000e+01
2.299829959869385210e+00 -2.795876979827880859e+00 -7.037035822868347168e-01 1.100000000000000000e+01
2.847407579421997070e+00 -3.464024782180786133e+00 -7.102124691009521484e-01 1.100000000000000000e+01
3.623756170272827148e+00 -4.411633014678955078e+00 -7.009924650192260742e-01 2.200000000000000000e+01
