3.885659217834473100e+00 -7.567033767700195312e-01 -6.269893646240234375e-01 1.100000000000000000e+01
4.503777313232421875e+01 -8.778931617736816406e+00 5.634019851684570312e+00 4.000000000000000000e+01
4.972203731536865234e+00 -9.701013565063476562e-01 -6.220211386680603027e-01 1.000000000000000000e+01
3.618490219116210938e+01 -7.066408157348632812e+00 5.839385509490966797e+00 1.300000000000000000e+01
6.660266399383544922e+00 -1.300657510757446067e+00 -5.937049388885498047e-01 5.000000000000000000e+00
1.048063755035400035e+01 -2.050520896911621094e+00 -5.596807003021240234e-01 2.000000000000000000e+00
3.328941345214843750e+01 -6.519056320190429688e+00 7.831446170806884766e+00 9.000000000000000000e+00
2.077347564697265980e+01 -4.071828842163085938e+00 -3.695023357868195135e-01 1.000000000000000000e+01
2.372860670089722124e+00 -4.685480296611785889e-01 -6.480829119682312012e-01 1.800000000000000000e+01
2.745190620422362837e+00 -5.430645346641540527e-01 -6.460594534873962402e-01 1.400000000000000000e+01
3.214267730712891069e+00 -6.364421844482421875e-01 -6.369204521179199219e-01 1.200000000000000000e+01
3.881056547164916992e+00 -7.698778510093688965e-01 -6.266764402389526367e-01 1.100000000000000000e+01
3.761572265625000000e+01 -7.468583583831787109e+00 4.708787918090820312e+00 2.000000000000000000e+01
4.974627971649169922e+00 -9.886124730110168457e-01 -6.227523684501647949e-01 9.000000000000000000e+00
6.645915031433104581e+00 -1.321954727172852007e+00 -5.928333401679992676e-01 6.000000000000000000e+00
1.053217792510985973e+01 -2.098802566528319868e+00 -5.628208518028259277e-01 2.000000000000000000e+00
3.352254104614257812e+01 -6.686296463012695312e+00 7.891732692718505859e+00 9.000000000000000000e+00
2.018260192871094105e+01 -4.029218673706054688e+00 -3.592403233051300049e-01 3.000000000000000000e+00
2.374998569488524947e+00 -4.775897264480590820e-01 -6.491181850433349609e-01 2.000000000000000000e+01
2.739457607269287109e+00 -5.518739819526672363e-01 -6.451596021652221680e-01 1.400000000000000000e+01
3.208177566528319868e+00 -6.468820571899414062e-01 -6.361572146415710449e-01 1.200000000000000000e+01
3.876409292221068892e+00 -7.830294966697692871e-01 -6.263635754585266113e-01 1.100000000000000000e+01
3.762833786010742188e+01 -7.607709407806395596e+00 4.713662624359130859e+00 2.000000000000000000e+01
4.990603446960449219e+00 -1.009908437728882058e+00 -6.251897215843200684e-01 9.000000000000000000e+00
6.654929161071777344e+00 -1.347913861274719016e+00 -5.940535664558410645e-01 6.000000000000000000e+00
1.046606636047362926e+01 -2.123639106750487837e+00 -5.596807003021240234e-01 2.000000000000000000e+00
3.367469406127929688e+01 -6.838953495025634766e+00 7.933124065399169922e+00 9.000000000000000000e+00
1.969418525695801137e+01 -4.003247737884520596e+00 -3.507933616638184149e-01 6.000000000000000000e+00
3.523948287963867188e+01 -7.169553756713867188e+00 9.635832786560058594e+00 7.000000000000000000e+00
2.382864952087401900e+00 -4.873985350131989081e-01 -6.517063379287719727e-01 2.100000000000000000e+01
2.728067159652709961e+00 -5.589994192123413086e-01 -6.429101228713989258e-01 1.300000000000000000e+01
3.217554092407227007e+00 -6.598837971687316895e-01 -6.384469270706176758e-01 1.300000000000000000e+01
3.879596233367919922e+00 -7.970724105834960938e-01 -6.273022294044494629e-01 1.000000000000000000e+01
4.979449748992919922e+00 -1.024851560592650923e+00 -6.242147684097290039e-01 9.000000000000000000e+00
3.797668457031250000e+01 -7.816218376159667969e+00 6.140991210937500000e+00 1.400000000000000000e+01
6.677742958068847656e+00 -1.375602841377258079e+00 -5.964938998222351074e-01 5.000000000000000000e+00
3.507205581665039062e+01 -7.231161117553710938e+00 6.960711956024169922e+00 6.000000000000000000e+01
1.055285739898681996e+01 -2.177709579467772993e+00 -5.647049546241760254e-01 2.000000000000000000e+00
1.811808776855469105e+01 -3.745480537414550781e+00 -3.229393362998961847e-01 9.000000000000000000e+00
3.554975128173828125e+01 -7.349059104919433594e+00 9.726937294006347656e+00 7.000000000000000000e+00
2.384931802749633789e+00 -4.965007901191710871e-01 -6.527416110038757324e-01 2.200000000000000000e+01
2.728006839752196822e+00 -5.689166188240051270e-01 -6.433600187301635742e-01 1.400000000000000000e+01
3.217153072357178178e+00 -6.715123057365417480e-01 -6.388285160064697266e-01 1.200000000000000000e+01
3.884524583816527876e+00 -8.122270703315734863e-01 -6.285536885261535645e-01 1.000000000000000000e+01
3.701221084594727273e+01 -7.745738506317138672e+00 4.642978191375732422e+00 1.900000000000000000e+01
4.977784633636474609e+00 -1.042633891105652078e+00 -6.244584918022155762e-01 1.000000000000000000e+01
6.676800251007080078e+00 -1.399721741676331010e+00 -5.968425273895263672e-01 6.000000000000000000e+00
1.052564525604248047e+01 -2.210427761077880859e+00 -5.636582374572753906e-01 2.000000000000000000e+00
3.341758346557617188e+01 -7.023917198181152344e+00 7.883634567260742188e+00 9.000000000000000000e+00
1.807359313964844105e+01 -3.802114963531494141e+00 -3.223808407783507746e-01 3.000000000000000000e+00
3.554148101806641336e+01 -7.483286380767822266e+00 9.732113838195800781e+00 7.000000000000000000e+00
2.381294250488280806e+00 -5.044223666191101074e-01 -6.522240042686462402e-01 2.000000000000000000e+01
2.733629703521728960e+00 -5.800536274909973145e-01 -6.451596021652221680e-01 1.300000000000000000e+01
3.195585250854492188e+00 -6.786596775054931641e-01 -6.350123286247253418e-01 1.300000000000000000e+01
3.887462139129639116e+00 -8.270147442817687988e-01 -6.294922828674316406e-01 9.000000000000000000e+00
3.734608078002929688e+01 -7.951780796051025391e+00 4.688313484191895419e+00 2.000000000000000000e+01
4.995471477508544922e+00 -1.064554333686829057e+00 -6.271396279335021973e-01 9.000000000000000000e+00
3.623649215698242188e+01 -7.722136974334716797e+00 5.868169784545898438e+00 1.300000000000000000e+01
6.679667949676513672e+00 -1.424681901931762917e+00 -5.975397825241088867e-01 6.000000000000000000e+00
1.048661422729492010e+01 -2.240478992462158203e+00 -5.619835257530212402e-01 2.000000000000000000e+00
4.177395248413085938e+01 -8.932683944702148438e+00 9.862303733825683594e+00 1.300000000000000000e+01
1.797808456420898082e+01 -3.847603797912598100e+00 -3.209148347377777100e-01 6.000000000000000000e+00
3.737154006958007812e+01 -7.998120307922363281e+00 1.024043464660645064e+01 8.000000000000000000e+00
2.364410877227783203e+00 -5.094761252403259277e-01 -6.480829119682312012e-01 2.000000000000000000e+01
2.735397815704346147e+00 -5.904145836830139160e-01 -6.460594534873962402e-01 1.400000000000000000e+01
3.204710721969604048e+00 -6.922975182533264160e-01 -6.373020410537719727e-01 1.200000000000000000e+01
3.890343666076660156e+00 -8.418328762054443359e-01 -6.304308772087097168e-01 1.100000000000000000e+01
3.746942520141602273e+01 -8.114868164062500000e+00 4.707325458526611328e+00 2.000000000000000000e+01
4.974264621734619141e+00 -1.078200697898864968e+00 -6.249459981918334961e-01 1.000000000000000000e+01
6.682442665100097656e+00 -1.449679255485534890e+00 -5.982370376586914062e-01 5.000000000000000000e+00
1.059192848205566051e+01 -2.301668882369995117e+00 -5.680544972419738770e-01 2.000000000000000000e+00
3.784784317016602273e+01 -8.245244979858398438e+00 1.037916088104248047e+01 8.000000000000000000e+00
2.366392135620117188e+00 -5.185534358024597168e-01 -6.491181850433349609e-01 2.000000000000000000e+01
2.733320236206055132e+00 -5.999593138694763184e-01 -6.460594534873962402e-01 1.400000000000000000e+01
3.208027124404906782e+00 -7.047435641288757324e-01 -6.384469270706176758e-01 1.300000000000000000e+01
3.871947765350341797e+00 -8.520113825798034668e-01 -6.279279589653015137e-01 1.000000000000000000e+01
4.991795063018798828e+00 -1.100257635116576926e+00 -6.276271343231201172e-01 9.000000000000000000e+00
6.669559001922607422e+00 -1.471279740333556907e+00 -5.975397825241088867e-01 5.000000000000000000e+00
1.058382987976074041e+01 -2.338627576828002930e+00 -5.680544972419738770e-01 2.000000000000000000e+00
3.633715820312500000e+01 -8.035795211791992188e+00 8.591780662536621094e+00 1.100000000000000000e+01
1.913396644592285156e+01 -4.234891414642333984e+00 -3.420671522617340088e-01 6.000000000000000000e+00
4.189826965332031250e+01 -9.273280143737792969e+00 1.149829483032226918e+01 1.100000000000000000e+01
2.375881433486938032e+00 -5.293311476707458496e-01 -6.522240042686462402e-01 2.000000000000000000e+01
2.721699714660644975e+00 -6.073744893074035645e-01 -6.438099145889282227e-01 1.200000000000000000e+01
3.209379673004149947e+00 -7.167932391166687012e-01 -6.392101049423217773e-01 1.200000000000000000e+01
3.882444143295288086e+00 -8.685405850410461426e-01 -6.301180124282836914e-01 1.100000000000000000e+01
3.664863204956054688e+01 -8.205372810363769531e+00 4.611292362213134766e+00 1.900000000000000000e+01
5.001483440399169922e+00 -1.120713949203490989e+00 -6.293333172798156738e-01 1.000000000000000000e+01
6.691600322723388672e+00 -1.500655651092529075e+00 -5.999801158905029297e-01 6.000000000000000000e+00
1.055221748352050959e+01 -2.370305061340332031e+00 -5.667983889579772949e-01 2.000000000000000000e+00
1.866645240783691051e+01 -4.199820518493652344e+00 -3.339692354202271063e-01 6.000000000000000000e+00
3.781723022460938211e+01 -8.508610725402832031e+00 1.038640785217284979e+01 8.000000000000000000e+00
2.381555795669556108e+00 -5.393280386924743652e-01 -6.542945504188537598e-01 2.000000000000000000e+01
2.717662572860718218e+00 -6.164402365684509277e-01 -6.433600187301635742e-01 1.400000000000000000e+01
3.210687160491942915e+00 -7.288609743118286133e-01 -6.399733424186706543e-01 1.200000000000000000e+01
3.881314992904663086e+00 -8.825255036354064941e-01 -6.304308772087097168e-01 1.100000000000000000e+01
4.991734504699707031e+00 -1.136843085289001021e+00 -6.286020874977111816e-01 9.000000000000000000e+00
3.613911437988281250e+01 -8.237141609191894531e+00 5.870672702789306641e+00 1.300000000000000000e+01
6.674665927886962891e+00 -1.521347999572753906e+00 -5.989342927932739258e-01 6.000000000000000000e+00
1.062565994262694957e+01 -2.425795078277587891e+00 -5.711946487426757812e-01 3.000000000000000000e+00
1.849572944641112926e+01 -4.229292869567871094e+00 -3.311768770217896063e-01 3.000000000000000000e+00
3.795679092407227273e+01 -8.679322242736816406e+00 1.043299579620360973e+01 8.000000000000000000e+00
2.370245456695557085e+00 -5.454716086387634277e-01 -6.517063379287719727e-01 1.900000000000000000e+01
2.724988937377930132e+00 -6.281114220619201660e-01 -6.456094980239868164e-01 1.500000000000000000e+01
3.196645259857178178e+00 -7.374160885810852051e-01 -6.376836895942687988e-01 1.200000000000000000e+01
3.887834072113037109e+00 -8.982919454574584961e-01 -6.319952607154846191e-01 1.200000000000000000e+01
4.999339580535888672e+00 -1.156945943832397017e+00 -6.300644874572753906e-01 9.000000000000000000e+00
3.597927856445313211e+01 -8.332932472229003906e+00 5.849397659301757812e+00 1.300000000000000000e+01
6.690665721893311435e+00 -1.549582600593566895e+00 -6.008517146110534668e-01 5.000000000000000000e+00
1.058210659027099965e+01 -2.454746961593627930e+00 -5.693105459213256836e-01 2.000000000000000000e+00
1.807181167602539062e+01 -4.198792934417724609e+00 -3.238468468189240057e-01 1.200000000000000000e+01
3.666778182983397727e+01 -8.526113510131835938e+00 1.008721351623534979e+01 8.000000000000000000e+00
2.366445779800415039e+00 -5.533021688461303711e-01 -6.511887311935424805e-01 2.000000000000000000e+01
2.736061573028564009e+00 -6.407299041748046875e-01 -6.487588286399841309e-01 1.400000000000000000e+01
4.182378768920897727e+01 -9.801980018615722656e+00 2.251283407211304155e+00 3.000000000000000000e+01
3.201697587966918945e+00 -7.503618597984313965e-01 -6.392101049423217773e-01 1.200000000000000000e+01
3.882751703262329102e+00 -9.114061594009399414e-01 -6.316823959350585938e-01 1.000000000000000000e+01
4.995270252227783203e+00 -1.174389839172363059e+00 -6.300644874572753906e-01 9.000000000000000000e+00
3.598458480834960938e+01 -8.466615676879882812e+00 5.855029106140136719e+00 1.300000000000000000e+01
6.685215950012207031e+00 -1.572927951812743919e+00 -6.008517146110534668e-01 5.000000000000000000e+00
1.061624240875243963e+01 -2.501748800277709961e+00 -5.716133117675781250e-01 3.000000000000000000e+00
3.786775970458983664e+01 -8.930625915527343750e+00 8.982295989990234375e+00 1.200000000000000000e+01
1.802785301208496094e+01 -4.254959583282470703e+00 -3.233232796192169189e-01 1.200000000000000000e+01
3.673707580566406250e+01 -8.670737266540527344e+00 1.011413097381591975e+01 8.000000000000000000e+00
2.360740900039672852e+00 -5.606664419174194336e-01 -6.501534581184387207e-01 2.000000000000000000e+01
2.731912612915039062e+00 -6.498256921768188477e-01 -6.483089327812194824e-01 1.500000000000000000e+01
3.195239067077637163e+00 -7.606239914894104004e-01 -6.384469270706176758e-01 1.200000000000000000e+01
3.871860504150391069e+00 -9.231214523315429688e-01 -6.304308772087097168e-01 1.100000000000000000e+01
3.653049468994141336e+01 -8.716267585754394531e+00 4.611292362213134766e+00 1.900000000000000000e+01
5.000794887542724609e+00 -1.194124698638916016e+00 -6.312832236289978027e-01 1.000000000000000000e+01
3.612004089355468750e+01 -8.631659507751464844e+00 5.881936073303222656e+00 1.300000000000000000e+01
6.652554988861083984e+00 -1.589770913124084029e+00 -5.984113216400146484e-01 5.000000000000000000e+00
1.061909866333007990e+01 -2.541580677032471147e+00 -5.722413659095764160e-01 3.000000000000000000e+00
3.779087066650391336e+01 -9.051860809326171875e+00 8.971497535705566406e+00 2.400000000000000000e+01
1.799927711486816051e+01 -4.314599514007568359e+00 -3.230789601802825928e-01 3.000000000000000000e+00
3.637970352172852273e+01 -8.720564842224121094e+00 1.002406120300292969e+01 8.000000000000000000e+00
2.375771522521973100e+00 -5.725654363632202148e-01 -6.548121571540832520e-01 2.100000000000000000e+01
2.718376636505126953e+00 -6.561380624771118164e-01 -6.456094980239868164e-01 1.600000000000000000e+01
3.209874391555786133e+00 -7.753643989562988281e-01 -6.418814659118652344e-01 1.200000000000000000e+01
3.872617959976195845e+00 -9.368848800659179688e-01 -6.310566067695617676e-01 1.100000000000000000e+01
3.630845260620117188e+01 -8.790647506713867188e+00 4.586918354034423828e+00 1.900000000000000000e+01
5.000665664672851562e+00 -1.211636304855346902e+00 -6.317706704139709473e-01 1.000000000000000000e+01
6.664672851562500000e+00 -1.616048455238342063e+00 -5.999801158905029297e-01 3.000000000000000000e+00
1.059120368957520064e+01 -2.572067499160767046e+00 -5.711946487426757812e-01 3.000000000000000000e+00
3.774171066284179688e+01 -9.172527313232421875e+00 8.966999053955078125e+00 1.200000000000000000e+01
2.014165687561035156e+01 -4.898835182189941406e+00 -3.618232905864716131e-01 3.000000000000000000e+00
3.706764984130858664e+01 -9.015559196472167969e+00 1.022179889678955078e+01 8.000000000000000000e+00
2.366252422332764116e+00 -5.790182948112487793e-01 -6.527416110038757324e-01 1.900000000000000000e+01
2.723640680313109907e+00 -6.674783825874328613e-01 -6.474091410636901855e-01 1.500000000000000000e+01
3.199521303176879883e+00 -7.846937179565429688e-01 -6.403549909591674805e-01 1.100000000000000000e+01
3.873160839080810991e+00 -9.513395428657531738e-01 -6.316823959350585938e-01 1.000000000000000000e+01
3.624670410156250000e+01 -8.909752845764160156e+00 4.583018302917479581e+00 1.900000000000000000e+01
4.990622997283936435e+00 -1.227661967277527078e+00 -6.310394406318664551e-01 9.000000000000000000e+00
6.693814754486083984e+00 -1.647875428199768066e+00 -6.031177639961242676e-01 3.000000000000000000e+00
1.066360759735107067e+01 -2.629102468490601030e+00 -5.755908489227294922e-01 3.000000000000000000e+00
3.781163024902343750e+01 -9.329422950744628906e+00 8.991293907165527344e+00 1.200000000000000000e+01
3.914985275268554688e+01 -9.674107551574707031e+00 1.080569553375243963e+01 9.000000000000000000e+00
2.366091728210449219e+00 -5.877402424812316895e-01 -6.532592773437500000e-01 1.700000000000000000e+01
2.725076198577880859e+00 -6.779224872589111328e-01 -6.483089327812194824e-01 1.600000000000000000e+01
3.187237262725830078e+00 -7.934858798980712891e-01 -6.384469270706176758e-01 1.000000000000000000e+01
3.896650075912476030e+00 -9.715440273284912109e-01 -6.360625624656677246e-01 1.000000000000000000e+01
4.994011402130126953e+00 -1.246998667716979980e+00 -6.320143938064575195e-01 9.000000000000000000e+00
3.720594406127929688e+01 -9.297178268432617188e+00 6.074037551879882812e+00 1.400000000000000000e+01
6.695753574371337891e+00 -1.673163175582885964e+00 -6.038149595260620117e-01 5.000000000000000000e+00
1.065824031829833984e+01 -2.667279005050659180e+00 -5.758001804351806641e-01 3.000000000000000000e+00
3.598299407958983664e+01 -9.011602401733398438e+00 8.563886642456054688e+00 1.100000000000000000e+01
1.817114067077637074e+01 -4.554162025451660156e+00 -3.269882798194885254e-01 3.000000000000000000e+00
2.362152338027954102e+00 -5.955235958099365234e-01 -6.527416110038757324e-01 1.900000000000000000e+01
2.732140541076660156e+00 -6.898158788681030273e-01 -6.505584716796875000e-01 1.400000000000000000e+01
3.190158367156981978e+00 -8.060494065284729004e-01 -6.395917534828186035e-01 1.100000000000000000e+01
3.883660078048706055e+00 -9.827170372009277344e-01 -6.344981789588928223e-01 1.100000000000000000e+01
4.997324943542479581e+00 -1.266373872756958008e+00 -6.329893469810485840e-01 9.000000000000000000e+00
6.691803455352783203e+00 -1.697015285491942915e+00 -6.039893031120300293e-01 5.000000000000000000e+00
1.064886474609375000e+01 -2.704467058181763139e+00 -5.758001804351806641e-01 3.000000000000000000e+00
3.563779449462891336e+01 -9.057468414306640625e+00 8.489202499389648438e+00 1.100000000000000000e+01
3.655931472778320312e+01 -9.298468589782714844e+00 1.010791873931884943e+01 8.000000000000000000e+00
2.352678060531616211e+00 -6.014395952224731445e-01 -6.506710648536682129e-01 1.800000000000000000e+01
2.724174499511719194e+00 -6.974222660064697266e-01 -6.492087244987487793e-01 1.500000000000000000e+01
4.064567565917968750e+01 -1.041335391998291016e+01 2.198947429656981978e+00 2.700000000000000000e+01
3.198879003524779829e+00 -8.195474147796630859e-01 -6.418814659118652344e-01 1.100000000000000000e+01
3.706888961791992188e+01 -9.503881454467773438e+00 3.348000764846802202e+00 4.900000000000000000e+01
3.870812892913817915e+00 -9.931357502937316895e-01 -6.329338550567626953e-01 1.000000000000000000e+01
3.623379135131835938e+01 -9.303256034851074219e+00 4.593255519866943359e+00 1.900000000000000000e+01
5.014246940612792969e+00 -1.288372755050658958e+00 -6.356704831123352051e-01 1.000000000000000000e+01
6.682280063629150391e+00 -1.718204498291016069e+00 -6.036406755447387695e-01 3.000000000000000000e+00
1.069012546539306996e+01 -2.752714395523070845e+00 -5.785216689109802246e-01 3.000000000000000000e+00
3.569059371948242188e+01 -9.196993827819824219e+00 8.508998870849609375e+00 1.100000000000000000e+01
3.636950302124022727e+01 -9.385479927062988281e+00 1.006443691253661932e+01 8.000000000000000000e+00
2.352434158325194868e+00 -6.101332902908325195e-01 -6.511887311935424805e-01 1.900000000000000000e+01
4.235591888427733664e+01 -1.099342918395995916e+01 7.638220191001892090e-01 4.500000000000000000e+01
2.708520174026488814e+00 -7.034978270530700684e-01 -6.460594534873962402e-01 1.400000000000000000e+01
3.203599214553833008e+00 -8.326840996742248535e-01 -6.434079408645629883e-01 1.100000000000000000e+01
3.874969244003295898e+00 -1.008631706237792969e+00 -6.341853141784667969e-01 1.200000000000000000e+01
3.594368362426757812e+01 -9.362627983093261719e+00 4.560594558715820312e+00 1.900000000000000000e+01
5.003956794738770419e+00 -1.304365754127501997e+00 -6.349392533302307129e-01 9.000000000000000000e+00
3.643923950195313211e+01 -9.505294799804687500e+00 5.964533329010009766e+00 1.300000000000000000e+01
6.701303958892822266e+00 -1.748057126998900923e+00 -6.059067249298095703e-01 6.000000000000000000e+00
1.068045234680175959e+01 -2.790013074874877930e+00 -5.785216689109802246e-01 3.000000000000000000e+00
3.569975280761718750e+01 -9.332364082336425781e+00 8.518896102905273438e+00 1.100000000000000000e+01
2.590422248840332031e+01 -6.776519775390625000e+00 -4.673754572868347168e-01 4.000000000000000000e+00
3.636642456054688211e+01 -9.520203590393066406e+00 1.007271957397460938e+01 8.000000000000000000e+00
2.359631538391112837e+00 -6.207987666130065918e-01 -6.537768840789794922e-01 2.000000000000000000e+01
2.713585853576660156e+00 -7.149339914321899414e-01 -6.478590369224548340e-01 1.700000000000000000e+01
3.187384366989136186e+00 -8.403580784797668457e-01 -6.407365798950195312e-01 1.200000000000000000e+01
3.879064559936522993e+00 -1.024168848991394043e+00 -6.354367733001708984e-01 1.200000000000000000e+01
3.595684432983397727e+01 -9.500207901000976562e+00 4.566444396972656250e+00 1.900000000000000000e+01
5.007049560546875000e+00 -1.323854565620421919e+00 -6.359142065048217773e-01 9.000000000000000000e+00
6.708644390106201172e+00 -1.775005698204040971e+00 -6.071268916130065918e-01 5.000000000000000000e+00
1.067064762115479049e+01 -2.827277898788452148e+00 -5.785216689109802246e-01 3.000000000000000000e+00
3.623214340209960938e+01 -9.620316505432128906e+00 1.004476737976074041e+01 8.000000000000000000e+00
2.359316587448120117e+00 -6.295296549797058105e-01 -6.542945504188537598e-01 1.900000000000000000e+01
4.231678009033203125e+01 -1.129917621612549006e+01 7.645201086997985840e-01 4.500000000000000000e+01
2.724252462387084961e+00 -7.279232144355773926e-01 -6.510083675384521484e-01 1.500000000000000000e+01
3.188224792480469194e+00 -8.524932861328125000e-01 -6.414998173713684082e-01 1.200000000000000000e+01
3.885006666183472124e+00 -1.040257692337035911e+00 -6.370011568069458008e-01 1.100000000000000000e+01
3.601166534423828125e+01 -9.649296760559082031e+00 4.577656269073486328e+00 1.900000000000000000e+01
5.002398014068604404e+00 -1.341324329376220925e+00 -6.359142065048217773e-01 1.000000000000000000e+01
3.573261260986328125e+01 -9.581209182739257812e+00 5.859409332275390625e+00 1.300000000000000000e+01
6.710104942321777344e+00 -1.800477862358093040e+00 -6.078241467475891113e-01 5.000000000000000000e+00
1.069929122924805043e+01 -2.874873638153076172e+00 -5.806151032447814941e-01 3.000000000000000000e+00
2.619227981567383168e+01 -7.047605991363525391e+00 -4.734488725662230890e-01 4.000000000000000000e+00
3.611253356933593750e+01 -9.723627090454101562e+00 1.002095603942870916e+01 8.000000000000000000e+00
2.338456869125366211e+00 -6.327158212661743164e-01 -6.491181850433349609e-01 1.900000000000000000e+01
4.230796432495117188e+01 -1.145518207550049006e+01 7.650786042213439941e-01 4.500000000000000000e+01
2.729218721389770952e+00 -7.394667267799377441e-01 -6.528079509735107422e-01 1.500000000000000000e+01
4.020907211303710938e+01 -1.089442539215088068e+01 2.183246850967406782e+00 2.700000000000000000e+01
3.189019203186035156e+00 -8.646445870399475098e-01 -6.422630548477172852e-01 1.200000000000000000e+01
3.881351947784423828e+00 -1.053812623023987038e+00 -6.370011568069458008e-01 1.100000000000000000e+01
3.648732376098632812e+01 -9.913386344909667969e+00 4.642490863800048828e+00 1.900000000000000000e+01
4.991938591003417969e+00 -1.357215404510498047e+00 -6.351830363273620605e-01 1.000000000000000000e+01
6.696088790893554688e+00 -1.821797251701354980e+00 -6.071268916130065918e-01 6.000000000000000000e+00
1.065065002441406072e+01 -2.901703596115111861e+00 -5.785216689109802246e-01 3.000000000000000000e+00
4.245498275756835938e+01 -1.157455730438232067e+01 1.015923976898193004e+01 1.300000000000000000e+01
3.674357986450195312e+01 -1.002433967590332031e+01 1.020523452758789062e+01 8.000000000000000000e+00
2.353001117706298828e+00 -6.454742550849914551e-01 -6.537768840789794922e-01 1.900000000000000000e+01
2.715346097946166992e+00 -7.458918094635009766e-01 -6.501085758209228516e-01 1.500000000000000000e+01
3.187874794006348100e+00 -8.762914538383483887e-01 -6.426447033882141113e-01 1.200000000000000000e+01
3.864317893981934038e+00 -1.063684940338134988e+00 -6.348110437393188477e-01 1.100000000000000000e+01
3.639891052246093750e+01 -1.002593040466308949e+01 4.635665893554688388e+00 1.900000000000000000e+01
5.010135650634765625e+00 -1.380962014198303001e+00 -6.381078958511352539e-01 1.000000000000000000e+01
6.703133583068847656e+00 -1.848868250846863015e+00 -6.083470582962036133e-01 5.000000000000000000e+00
3.622228240966796875e+01 -9.997686386108398438e+00 7.304168224334716797e+00 6.200000000000000000e+01
1.073671531677245916e+01 -2.965450048446654829e+00 -5.837552547454833984e-01 3.000000000000000000e+00
3.564905548095703125e+01 -9.866259574890136719e+00 9.911216735839843750e+00 7.000000000000000000e+00
2.358293056488037109e+00 -6.553425192832946777e-01 -6.558474898338317871e-01 1.900000000000000000e+01
4.632494735717772727e+01 -1.288187980651854936e+01 8.392862081527709961e-01 5.800000000000000000e+01
2.709102869033813032e+00 -7.538473010063171387e-01 -6.492087244987487793e-01 1.500000000000000000e+01
3.192516565322875977e+00 -8.889645338058471680e-01 -6.441711783409118652e-01 1.200000000000000000e+01
3.599984359741210938e+01 -1.003102111816406072e+01 3.269560575485229048e+00 4.700000000000000000e+01
3.868380546569824219e+00 -1.078615784645081010e+00 -6.360625624656677246e-01 1.200000000000000000e+01
3.667904281616210938e+01 -1.023407173156737926e+01 4.675639152526854581e+00 2.000000000000000000e+01
4.999792575836181641e+00 -1.395967245101928933e+00 -6.373766660690307617e-01 9.000000000000000000e+00
6.700803279876708984e+00 -1.872158646583556907e+00 -6.086956858634948730e-01 5.000000000000000000e+00
1.069989490509033025e+01 -2.993504285812377930e+00 -5.822898745536804199e-01 3.000000000000000000e+00
3.813037490844727273e+01 -1.067489337921142933e+01 9.141560554504394531e+00 1.200000000000000000e+01
3.553231430053710938e+01 -9.954233169555664062e+00 9.887405395507812500e+00 7.000000000000000000e+00
2.365288734436035156e+00 -6.661891937255859375e-01 -6.584356427192687988e-01 2.100000000000000000e+01
2.698952674865723100e+00 -7.611833810806274414e-01 -6.474091410636901855e-01 1.500000000000000000e+01
3.189393997192382812e+00 -9.001030921936035156e-01 -6.441711783409118652e-01 1.200000000000000000e+01
3.866492986679077148e+00 -1.092649579048156960e+00 -6.363754272460937500e-01 1.100000000000000000e+01
3.676916885375977273e+01 -1.039769458770751953e+01 4.691726207733154297e+00 2.000000000000000000e+01
4.994889259338378906e+00 -1.413411259651184082e+00 -6.373766660690307617e-01 9.000000000000000000e+00
6.699978828430175781e+00 -1.897165894508362038e+00 -6.092186570167541504e-01 5.000000000000000000e+00
1.081235694885254084e+01 -3.065704107284545898e+00 -5.889888405799865723e-01 3.000000000000000000e+00
3.805913543701171875e+01 -1.079835319519042969e+01 9.133462905883789062e+00 1.200000000000000000e+01
2.676590347290039062e+01 -7.599221229553222656e+00 -4.856655597686768133e-01 4.000000000000000000e+00
3.861011886596679688e+01 -1.096924495697020951e+01 1.075496673583984020e+01 9.000000000000000000e+00
2.355635404586791992e+00 -6.719095110893249512e-01 -6.563650965690612793e-01 1.900000000000000000e+01
2.711404085159302202e+00 -7.744107246398925781e-01 -6.510083675384521484e-01 1.600000000000000000e+01
3.190166950225830078e+00 -9.117535352706909180e-01 -6.449344158172607422e-01 1.300000000000000000e+01
3.872344017028809038e+00 -1.108182787895203081e+00 -6.379397511482238770e-01 1.100000000000000000e+01
3.690623855590820312e+01 -1.056875324249267933e+01 4.713662624359130859e+00 2.000000000000000000e+01
5.005441188812255859e+00 -1.434341788291930930e+00 -6.393265724182128906e-01 9.000000000000000000e+00
6.703226566314697266e+00 -1.922119259834289995e+00 -6.100901961326599121e-01 3.000000000000000000e+00
3.517567062377929688e+01 -1.009310531616210938e+01 7.113359451293945312e+00 6.100000000000000000e+01
1.076373767852783025e+01 -3.090518712997436968e+00 -5.868954062461853027e-01 3.000000000000000000e+00
3.753203582763671875e+01 -1.079049968719482067e+01 1.046405410766601918e+01 9.000000000000000000e+00
2.347707986831665039e+00 -6.785189509391784668e-01 -6.548121571540832520e-01 1.900000000000000000e+01
2.706812381744385210e+00 -7.833288311958312988e-01 -6.505584716796875000e-01 1.400000000000000000e+01
3.173764467239379883e+00 -9.190611839294433594e-01 -6.422630548477172852e-01 1.200000000000000000e+01
3.872246503829956055e+00 -1.122793316841125044e+00 -6.385654807090759277e-01 1.100000000000000000e+01
4.988965511322020596e+00 -1.448484301567078081e+00 -6.378641724586486816e-01 9.000000000000000000e+00
6.692649841308593750e+00 -1.944394469261168990e+00 -6.097415685653686523e-01 5.000000000000000000e+00
3.551726531982421875e+01 -1.032544231414794922e+01 7.189682960510253906e+00 6.100000000000000000e+01
1.081808757781982067e+01 -3.147040367126464844e+00 -5.904542803764343262e-01 3.000000000000000000e+00
2.718969345092773082e+01 -7.919924259185791016e+00 -4.943219721317291260e-01 4.000000000000000000e+00
3.847520828247070312e+01 -1.121450138092041016e+01 1.073840236663818004e+01 9.000000000000000000e+00
2.337909221649169922e+00 -6.845384240150451660e-01 -6.527416110038757324e-01 1.900000000000000000e+01
2.704061746597290039e+00 -7.927725911140441895e-01 -6.505584716796875000e-01 1.400000000000000000e+01
3.189375638961791992e+00 -9.356607198715209961e-01 -6.460792422294616699e-01 1.200000000000000000e+01
3.855036497116088867e+00 -1.132405996322632058e+00 -6.363754272460937500e-01 1.100000000000000000e+01
3.627924728393554688e+01 -1.066380310058593928e+01 4.642978191375732422e+00 1.900000000000000000e+01
5.008636474609375000e+00 -1.473172068595886008e+00 -6.410327553749084473e-01 1.100000000000000000e+01
6.693467140197753906e+00 -1.969994544982909934e+00 -6.104388236999511719e-01 2.000000000000000000e+00
3.522488021850585938e+01 -1.037392711639403942e+01 7.137783050537109375e+00 6.100000000000000000e+01
1.078021526336669922e+01 -3.176879405975341797e+00 -5.889888405799865723e-01 3.000000000000000000e+00
3.837851715087891336e+01 -1.132453250885009943e+01 1.072183799743651988e+01 9.000000000000000000e+00
2.348470211029053178e+00 -6.965403556823730469e-01 -6.563650965690612793e-01 1.900000000000000000e+01
2.701277971267700195e+00 -8.022066950798034668e-01 -6.505584716796875000e-01 1.400000000000000000e+01
3.189853906631470171e+00 -9.479064941406250000e-01 -6.468424797058105469e-01 1.300000000000000000e+01
3.852953672409058061e+00 -1.146419048309325950e+00 -6.366882920265197754e-01 1.100000000000000000e+01
3.637498092651367188e+01 -1.083002853393555043e+01 4.660039901733398438e+00 2.000000000000000000e+01
5.007268905639648438e+00 -1.491780042648314986e+00 -6.415202021598815918e-01 1.100000000000000000e+01
3.646767807006835938e+01 -1.087148666381835938e+01 6.027107238769531250e+00 1.300000000000000000e+01
6.709462165832520419e+00 -2.000177383422852007e+00 -6.125305891036987305e-01 2.000000000000000000e+00
1.081881999969482067e+01 -3.229342699050902876e+00 -5.917103290557861328e-01 3.000000000000000000e+00
3.883648300170897727e+01 -1.161457157135009943e+01 1.086159992218017933e+01 9.000000000000000000e+00
2.349478244781494141e+00 -7.066655158996582031e-01 -6.574003696441650391e-01 1.900000000000000000e+01
2.700043678283690962e+00 -8.131348490715026855e-01 -6.510083675384521484e-01 1.600000000000000000e+01
3.184310913085937944e+00 -9.595811367034912109e-01 -6.464608907699584961e-01 1.300000000000000000e+01
3.865543842315673828e+00 -1.166340351104736106e+00 -6.395040750503540039e-01 1.100000000000000000e+01
4.984401226043701172e+00 -1.505828738212585005e+00 -6.393265724182128906e-01 9.000000000000000000e+00
6.713175296783447266e+00 -2.029384374618529829e+00 -6.135764122009277344e-01 5.000000000000000000e+00
1.079487037658691051e+01 -3.267388582229613814e+00 -5.910822749137878418e-01 3.000000000000000000e+00
3.847935485839843750e+01 -1.166158485412598012e+01 1.077360153198242010e+01 9.000000000000000000e+00
2.341453313827515093e+00 -7.131738066673278809e-01 -6.558474898338317871e-01 2.000000000000000000e+01
2.702780723571776900e+00 -8.242601752281188965e-01 -6.523580551147460938e-01 1.400000000000000000e+01
3.171553134918212891e+00 -9.678255319595336914e-01 -6.445527672767639160e-01 1.200000000000000000e+01
3.867116451263428178e+00 -1.181558132171631081e+00 -6.404427289962768555e-01 1.000000000000000000e+01
3.638953399658203125e+01 -1.112539672851563033e+01 4.672226905822753906e+00 2.000000000000000000e+01
5.001893520355224609e+00 -1.530187010765075906e+00 -6.422514319419860840e-01 9.000000000000000000e+00
6.717481136322020596e+00 -2.056304454803466797e+00 -6.146222949028015137e-01 5.000000000000000000e+00
1.079485702514648082e+01 -3.308561325073242188e+00 -5.917103290557861328e-01 3.000000000000000000e+00
3.904853439331054688e+01 -1.197560691833495916e+01 9.429498672485351562e+00 1.200000000000000000e+01
3.921568298339843750e+01 -1.204184627532958984e+01 1.099204444885254084e+01 1.000000000000000000e+01
2.335257530212401900e+00 -7.202039957046508789e-01 -6.548121571540832520e-01 2.000000000000000000e+01
2.705473184585570845e+00 -8.354145288467407227e-01 -6.537077426910400391e-01 1.500000000000000000e+01
3.175658464431763139e+00 -9.812087416648864746e-01 -6.460792422294616699e-01 1.200000000000000000e+01
3.870517015457152876e+00 -1.197384953498840110e+00 -6.416941881179809570e-01 1.000000000000000000e+01
4.994625568389892578e+00 -1.547050237655640093e+00 -6.420077085494995117e-01 1.300000000000000000e+01
3.589700698852539062e+01 -1.111884593963623047e+01 5.952018737792968750e+00 1.300000000000000000e+01
6.681716442108154297e+00 -2.070892810821533203e+00 -6.120076179504394531e-01 3.000000000000000000e+00
1.079087257385254084e+01 -3.348590135574340820e+00 -5.921289920806884766e-01 3.000000000000000000e+00
3.913494873046875000e+01 -1.215921401977539062e+01 1.098065662384033025e+01 1.000000000000000000e+01
2.334573268890380859e+00 -7.289269566535949707e-01 -6.553298234939575195e-01 1.900000000000000000e+01
2.704400539398192915e+00 -8.454347252845764160e-01 -6.541576385498046875e-01 1.400000000000000000e+01
3.177835226058959961e+00 -9.940462112426757812e-01 -6.472241282463073730e-01 1.100000000000000000e+01
3.866313695907593218e+00 -1.210888266563415971e+00 -6.416941881179809570e-01 1.200000000000000000e+01
4.987300872802734375e+00 -1.563881397247314009e+00 -6.417639851570129395e-01 9.000000000000000000e+00
6.670644760131835938e+00 -2.093010902404785156e+00 -6.116589903831481934e-01 3.000000000000000000e+00
1.077911758422851918e+01 -3.386236906051636186e+00 -5.921289920806884766e-01 3.000000000000000000e+00
1.362762832641601918e+01 -4.286317348480224609e+00 -2.493599802255629938e-01 2.000000000000000000e+00
3.909226608276367188e+01 -1.229574584960938033e+01 1.098065662384033025e+01 1.000000000000000000e+01
2.343325138092041016e+00 -7.397469878196716309e-01 -6.584356427192687988e-01 1.900000000000000000e+01
2.692440509796143022e+00 -8.509901762008666992e-01 -6.519081592559814453e-01 1.600000000000000000e+01
3.180312395095825195e+00 -1.005800724029541016e+00 -6.483689546585083008e-01 1.300000000000000000e+01
3.849308013916016069e+00 -1.218854546546936035e+00 -6.395040750503540039e-01 1.100000000000000000e+01
3.557486724853516336e+01 -1.127134704589843928e+01 4.582043647766113281e+00 1.900000000000000000e+01
4.989932537078857422e+00 -1.581941246986388938e+00 -6.427389383316040039e-01 9.000000000000000000e+00
6.681128501892089844e+00 -2.119378805160522017e+00 -6.132277846336364746e-01 2.000000000000000000e+00
3.469301223754882812e+01 -1.101193714141846058e+01 7.075197696685791016e+00 6.100000000000000000e+01
1.078365516662598012e+01 -3.424920320510863814e+00 -5.929663777351379395e-01 3.000000000000000000e+00
3.878416061401367188e+01 -1.232541465759276988e+01 9.395305633544921875e+00 1.200000000000000000e+01
3.997395324707031250e+01 -1.271120643615723012e+01 1.123947620391846058e+01 1.000000000000000000e+01
2.340728759765625000e+00 -7.479221820831298828e-01 -6.584356427192687988e-01 1.900000000000000000e+01
2.693165779113769975e+00 -8.615709543228149414e-01 -6.528079509735107422e-01 1.500000000000000000e+01
3.176782131195067915e+00 -1.016896009445189986e+00 -6.483689546585083008e-01 1.300000000000000000e+01
3.856316804885863814e+00 -1.235900878906250000e+00 -6.413813233375549316e-01 1.100000000000000000e+01
4.969258308410645419e+00 -1.594497680664062944e+00 -6.407890319824218750e-01 9.000000000000000000e+00
6.704041957855224609e+00 -2.152432441711425781e+00 -6.160168051719665527e-01 2.000000000000000000e+00
1.075642204284667969e+01 -3.457651615142821822e+00 -5.921289920806884766e-01 3.000000000000000000e+00
2.325236797332764116e+00 -7.519274353981018066e-01 -6.548121571540832520e-01 1.800000000000000000e+01
2.691995859146118164e+00 -8.715668320655822754e-01 -6.532578468322753906e-01 1.300000000000000000e+01
3.162006855010985884e+00 -1.024348497390747070e+00 -6.460792422294616699e-01 1.200000000000000000e+01
3.867011308670043945e+00 -1.254230022430419922e+00 -6.438842415809631348e-01 1.100000000000000000e+01
4.978766918182373047e+00 -1.616738796234131081e+00 -6.427389383316040039e-01 9.000000000000000000e+00
6.704067230224609375e+00 -2.178283452987670898e+00 -6.167140603065490723e-01 2.000000000000000000e+00
1.078227329254150035e+01 -3.507534503936768022e+00 -5.942224264144897461e-01 3.000000000000000000e+00
4.071083450317382812e+01 -1.325918102264403942e+01 1.147241306304931996e+01 1.100000000000000000e+01
2.322597980499268022e+00 -7.600394487380981445e-01 -6.548121571540832520e-01 1.900000000000000000e+01
2.698196411132812944e+00 -8.839919567108154297e-01 -6.555073857307434082e-01 1.600000000000000000e+01
3.162143230438231978e+00 -1.036602854728698953e+00 -6.468424797058105469e-01 1.200000000000000000e+01
3.853225231170653853e+00 -1.264640808105468972e+00 -6.423199176788330078e-01 1.100000000000000000e+01
4.984408378601074219e+00 -1.637826085090636985e+00 -6.442013382911682129e-01 1.100000000000000000e+01
6.673710346221923828e+00 -2.194204330444335938e+00 -6.146222949028015137e-01 3.000000000000000000e+00
1.080411243438721058e+01 -3.556390762329102007e+00 -5.961065292358398438e-01 3.000000000000000000e+00
4.057256317138671875e+01 -1.337097454071044922e+01 1.144653129577637074e+01 1.100000000000000000e+01
2.317962884902954102e+00 -7.679395675659179688e-01 -6.542945504188537598e-01 1.900000000000000000e+01
2.700487375259398970e+00 -8.957158923149108887e-01 -6.568570733070373535e-01 1.700000000000000000e+01
3.167639255523682085e+00 -1.051277756690979004e+00 -6.487506031990051270e-01 1.200000000000000000e+01
3.844815015792847124e+00 -1.277509331703186035e+00 -6.416941881179809570e-01 1.000000000000000000e+01
4.989673614501953125e+00 -1.659843444824218972e+00 -6.456637978553771973e-01 9.000000000000000000e+00
6.673185348510742188e+00 -2.221166849136352983e+00 -6.153195500373840332e-01 2.000000000000000000e+00
1.077584648132324041e+01 -3.590914726257324219e+00 -5.952691435813903809e-01 3.000000000000000000e+00
4.043165588378906250e+01 -1.348902130126952947e+01 1.142064952850341975e+01 1.100000000000000000e+01
2.324426651000977007e+00 -7.790958285331726074e-01 -6.568827629089355469e-01 1.900000000000000000e+01
2.680716753005981001e+00 -8.995572924613952637e-01 -6.528079509735107422e-01 1.500000000000000000e+01
3.169533729553223100e+00 -1.064203143119812012e+00 -6.498954296112060547e-01 1.300000000000000000e+01
3.832842588424683061e+00 -1.288404822349547896e+00 -6.404427289962768555e-01 1.000000000000000000e+01
4.957509517669677734e+00 -1.668386220932007058e+00 -6.422514319419860840e-01 9.000000000000000000e+00
6.705043792724609375e+00 -2.257799386978148970e+00 -6.189801096916198730e-01 5.000000000000000000e+00
1.076324558258056996e+01 -3.628507375717163086e+00 -5.952691435813903809e-01 3.000000000000000000e+00
4.001588439941406250e+01 -1.351350021362305043e+01 1.131712150573729936e+01 1.100000000000000000e+01
2.321692943572998047e+00 -7.872048020362854004e-01 -6.568827629089355469e-01 2.000000000000000000e+01
2.683096408843994141e+00 -9.107884764671325684e-01 -6.541576385498046875e-01 1.400000000000000000e+01
3.162081718444824219e+00 -1.073997616767883079e+00 -6.491321921348571777e-01 1.300000000000000000e+01
3.830192089080810991e+00 -1.302412033081054910e+00 -6.407555937767028809e-01 1.100000000000000000e+01
4.968568325042724609e+00 -1.691438555717468040e+00 -6.444450616836547852e-01 1.100000000000000000e+01
6.680147647857666016e+00 -2.275408983230590820e+00 -6.174112558364868164e-01 3.000000000000000000e+00
1.077319908142090021e+01 -3.673791646957397017e+00 -5.965252518653869629e-01 3.000000000000000000e+00
4.015367889404296875e+01 -1.370853996276854936e+01 1.136888504028319957e+01 1.100000000000000000e+01
2.326240301132202148e+00 -7.978110909461975098e-01 -6.589533090591430664e-01 2.000000000000000000e+01
2.679900884628295898e+00 -9.201486706733703613e-01 -6.541576385498046875e-01 1.200000000000000000e+01
3.149029731750487837e+00 -1.081839442253113015e+00 -6.472241282463073730e-01 1.200000000000000000e+01
3.838698387145996094e+00 -1.320271134376526101e+00 -6.429456472396850586e-01 1.000000000000000000e+01
4.964510440826416016e+00 -1.709418058395385964e+00 -6.446888446807861328e-01 9.000000000000000000e+00
6.685350418090820312e+00 -2.303256034851074219e+00 -6.186314821243286133e-01 5.000000000000000000e+00
1.049975109100341975e+01 -3.621504783630371094e+00 -5.820804834365844727e-01 6.000000000000000000e+00
4.014210128784179688e+01 -1.386122989654541016e+01 1.137923812866210938e+01 1.100000000000000000e+01
2.314455509185791016e+00 -8.023569583892822266e-01 -6.563650965690612793e-01 2.100000000000000000e+01
2.682357788085937944e+00 -9.309473633766174316e-01 -6.555073857307434082e-01 1.300000000000000000e+01
3.156552553176879883e+00 -1.096140146255492942e+00 -6.495138406753540039e-01 1.300000000000000000e+01
3.836164951324462891e+00 -1.333642125129699929e+00 -6.432585120201110840e-01 1.000000000000000000e+01
4.970063686370849609e+00 -1.729786634445189986e+00 -6.461512446403503418e-01 9.000000000000000000e+00
6.681438922882080078e+00 -2.326723337173461914e+00 -6.189801096916198730e-01 3.000000000000000000e+00
1.047636795043944957e+01 -3.652358293533325195e+00 -5.814524888992309570e-01 6.000000000000000000e+00
4.037799072265625000e+01 -1.410062599182129084e+01 1.145998954772949041e+01 1.100000000000000000e+01
2.317109823226929155e+00 -8.123484253883361816e-01 -6.579180359840393066e-01 2.000000000000000000e+01
2.684608221054077148e+00 -9.422409534454345703e-01 -6.568570733070373535e-01 1.400000000000000000e+01
4.006184387207031250e+01 -1.406086349487305043e+01 2.225115537643433061e+00 2.900000000000000000e+01
3.154559612274169922e+00 -1.107802391052246094e+00 -6.498954296112060547e-01 1.200000000000000000e+01
3.822168350219727007e+00 -1.343748927116394043e+00 -6.416941881179809570e-01 1.000000000000000000e+01
4.969612598419188565e+00 -1.749101996421813965e+00 -6.468824744224548340e-01 9.000000000000000000e+00
6.667638778686523438e+00 -2.348046302795410156e+00 -6.184571385383605957e-01 5.000000000000000000e+00
1.082521152496338068e+01 -3.816406726837158203e+00 -6.015495061874389648e-01 3.000000000000000000e+00
3.997304534912108664e+01 -1.410026073455811080e+01 9.785820960998535156e+00 1.300000000000000000e+01
4.009900283813477273e+01 -1.416043281555175959e+01 1.139476680755615057e+01 1.100000000000000000e+01
2.317758321762084961e+00 -8.221272826194763184e-01 -6.589533090591430664e-01 1.900000000000000000e+01
2.666445493698120117e+00 -9.468573927879333496e-01 -6.532578468322753906e-01 1.400000000000000000e+01
3.159727811813354048e+00 -1.122643470764159934e+00 -6.518035531044006348e-01 1.200000000000000000e+01
3.833967924118041992e+00 -1.363706827163696067e+00 -6.445099711418151855e-01 1.000000000000000000e+01
4.976258754730224609e+00 -1.771966099739074929e+00 -6.485886573791503906e-01 9.000000000000000000e+00
6.666495323181152344e+00 -2.375143289566040039e+00 -6.191543936729431152e-01 3.000000000000000000e+00
1.084877490997313920e+01 -3.869476795196533203e+00 -6.036429405212402344e-01 3.000000000000000000e+00
4.058896636962891336e+01 -1.450099277496338068e+01 1.154902362823485973e+01 1.100000000000000000e+01
2.329421997070312944e+00 -8.354300856590270996e-01 -6.630944013595581055e-01 2.000000000000000000e+01
2.674128770828247070e+00 -9.601103067398071289e-01 -6.559572815895080566e-01 1.400000000000000000e+01
3.155789852142333984e+00 -1.133666157722472922e+00 -6.518035531044006348e-01 1.200000000000000000e+01
3.834760904312133789e+00 -1.379086971282958984e+00 -6.454486250877380371e-01 1.000000000000000000e+01
4.966307640075683594e+00 -1.787980794906615989e+00 -6.481011509895324707e-01 9.000000000000000000e+00
6.695653438568115234e+00 -2.411903619766234907e+00 -6.226406097412109375e-01 3.000000000000000000e+00
1.085399055480957031e+01 -3.914098024368286133e+00 -6.046896576881408691e-01 3.000000000000000000e+00
4.083608245849608664e+01 -1.475021839141846058e+01 1.163391590118408025e+01 1.100000000000000000e+01
2.308475971221923828e+00 -8.365681767463684082e-01 -6.579180359840393066e-01 2.000000000000000000e+01
2.670930147171020952e+00 -9.689727425575256348e-01 -6.559572815895080566e-01 1.400000000000000000e+01
3.140940427780150923e+00 -1.140105724334717019e+00 -6.495138406753540039e-01 1.200000000000000000e+01
3.828310012817382812e+00 -1.391121268272399902e+00 -6.451357603073120117e-01 9.000000000000000000e+00
4.973409652709960938e+00 -1.809190154075623003e+00 -6.498073339462280273e-01 1.100000000000000000e+01
6.717574119567871094e+00 -2.444997072219849077e+00 -6.254296302795410156e-01 3.000000000000000000e+00
1.088223552703857067e+01 -3.965112209320067915e+00 -6.069924235343933105e-01 3.000000000000000000e+00
4.061413192749022727e+01 -1.480642318725585938e+01 9.980178833007812500e+00 1.300000000000000000e+01
4.092021179199218750e+01 -1.492609977722167969e+01 1.167118644714354936e+01 1.100000000000000000e+01
2.300099849700928178e+00 -8.426275849342346191e-01 -6.563650965690612793e-01 2.100000000000000000e+01
2.674849748611450195e+00 -9.809740781784057617e-01 -6.577568650245666504e-01 1.400000000000000000e+01
3.138784646987915039e+00 -1.151739001274109109e+00 -6.498954296112060547e-01 1.200000000000000000e+01
3.817867994308472124e+00 -1.402432680130005105e+00 -6.441971063613891602e-01 1.000000000000000000e+01
4.963337898254395419e+00 -1.825169324874877930e+00 -6.493198871612548828e-01 1.100000000000000000e+01
6.682820796966552734e+00 -2.458799362182617188e+00 -6.229892373085021973e-01 3.000000000000000000e+00
1.077462005615234020e+01 -3.968559026718140093e+00 -6.017588376998901367e-01 3.000000000000000000e+00
3.971376419067382812e+01 -1.463543415069580078e+01 9.771424293518066406e+00 1.300000000000000000e+01
4.083623123168945312e+01 -1.506528091430664062e+01 1.166290378570556996e+01 1.100000000000000000e+01
2.306202650070189986e+00 -8.540055751800537109e-01 -6.589533090591430664e-01 1.800000000000000000e+01
2.671409368515015093e+00 -9.903050661087036133e-01 -6.577568650245666504e-01 1.400000000000000000e+01
3.145789623260498047e+00 -1.166784763336182085e+00 -6.521851420402526855e-01 1.300000000000000000e+01
3.812949419021606001e+00 -1.415750980377197044e+00 -6.441971063613891602e-01 1.000000000000000000e+01
4.958797454833984375e+00 -1.843175172805785911e+00 -6.495636105537414551e-01 9.000000000000000000e+00
6.700341224670410156e+00 -2.491834640502930132e+00 -6.254296302795410156e-01 4.000000000000000000e+00
1.074759864807129084e+01 -4.001267433166503906e+00 -6.010261178016662598e-01 1.000000000000000000e+01
2.308635473251343218e+00 -8.640820980072021484e-01 -6.605061888694763184e-01 2.000000000000000000e+01
2.660636901855469194e+00 -9.968890547752380371e-01 -6.559572815895080566e-01 1.400000000000000000e+01
3.143535852432250977e+00 -1.178447604179382102e+00 -6.525667905807495117e-01 1.300000000000000000e+01
