3.951493024826049805e+00 1.393642425537109020e+01 -2.528504729270935059e-01 2.000000000000000000e+00
6.116566061973571777e-01 2.145815849304199219e+00 -5.978720188140869141e-01 1.700000000000000000e+01
6.979877948760986328e-01 2.445444822311400923e+00 -5.871222615242004395e-01 9.000000000000000000e+00
8.049803376197814941e-01 2.818435907363892046e+00 -5.697556734085083008e-01 9.000000000000000000e+00
9.603101015090942383e-01 3.357845067977904829e+00 -5.531522631645202637e-01 9.000000000000000000e+00
1.193008303642272949e+00 4.166002273559570312e+00 -5.320815443992614746e-01 9.000000000000000000e+00
1.544443249702454057e+00 5.389663696289063388e+00 -4.905125200748444159e-01 9.000000000000000000e+00
2.234815835952758789e+00 7.788598060607910156e+00 -4.246539473533629816e-01 1.000000000000000000e+00
4.000116348266601562e+00 1.392254543304443004e+01 -2.528504729270935059e-01 2.000000000000000000e+00
6.198405027389526367e-01 2.147487878799438032e+00 -5.989072918891906738e-01 1.600000000000000000e+01
7.044701576232910156e-01 2.437500476837158203e+00 -5.857725739479064941e-01 1.000000000000000000e+01
8.165038824081420898e-01 2.823294878005981001e+00 -5.712821483612060547e-01 9.000000000000000000e+00
9.708904027938842773e-01 3.352744579315185991e+00 -5.528393983840942383e-01 9.000000000000000000e+00
1.203499794006348100e+00 4.150584220886229581e+00 -5.306191444396972656e-01 9.000000000000000000e+00
1.560086727142333984e+00 5.376858711242675781e+00 -4.898152649402617853e-01 9.000000000000000000e+00
2.266203641891479048e+00 7.800323963165283203e+00 -4.257006645202637274e-01 1.000000000000000000e+00
4.026154518127441406e+00 1.384008121490479049e+01 -2.515938878059387207e-01 2.000000000000000000e+00
6.300438642501831055e-01 2.154582023620605025e+00 -6.014954447746276855e-01 1.600000000000000000e+01
7.118791341781616211e-01 2.431286096572875977e+00 -5.848727226257324219e-01 1.100000000000000000e+01
8.258020281791687012e-01 2.818543434143065962e+00 -5.709004998207092285e-01 1.000000000000000000e+01
9.848120212554931641e-01 3.356917142868041992e+00 -5.540908575057983398e-01 8.000000000000000000e+00
1.214623808860779031e+00 4.134930133819580078e+00 -5.291566848754882812e-01 9.000000000000000000e+00
1.583902835845947044e+00 5.388584136962890625e+00 -4.913840889930725098e-01 8.000000000000000000e+00
2.287778854370117188e+00 7.773206233978270596e+00 -4.246539473533629816e-01 1.000000000000000000e+00
4.075571537017822266e+00 1.382977867126465021e+01 -2.516637146472930908e-01 2.000000000000000000e+00
6.353662610054016113e-01 2.144960403442382812e+00 -5.994248986244201660e-01 1.600000000000000000e+01
7.225780487060546875e-01 2.436259508132935014e+00 -5.866723656654357910e-01 1.100000000000000000e+01
8.311669230461120605e-01 2.800586938858031782e+00 -5.678475499153137207e-01 9.000000000000000000e+00
9.965238571166992188e-01 3.353459119796752930e+00 -5.540908575057983398e-01 8.000000000000000000e+00
1.229050040245055930e+00 4.130664825439453125e+00 -5.291566848754882812e-01 9.000000000000000000e+00
1.601565718650818093e+00 5.379203319549561435e+00 -4.910354614257813055e-01 9.000000000000000000e+00
2.316039800643920898e+00 7.769001007080078125e+00 -4.248632788658142090e-01 2.000000000000000000e+00
4.116958141326904297e+00 1.379247474670409979e+01 -2.512448430061339777e-01 2.000000000000000000e+00
6.389636993408203125e-01 2.129776954650878906e+00 -5.958014130592346191e-01 1.600000000000000000e+01
7.344416379928588867e-01 2.444920539855957031e+00 -5.893717408180236816e-01 1.100000000000000000e+01
8.431982994079589844e-01 2.805189132690430132e+00 -5.693740248680114746e-01 9.000000000000000000e+00
1.004807829856873003e+00 3.338610649108887163e+00 -5.522136688232421875e-01 8.000000000000000000e+00
1.245752334594727007e+00 4.133952140808104581e+00 -5.301316380500793457e-01 9.000000000000000000e+00
1.615156173706054910e+00 5.356411933898925781e+00 -4.894666373729705811e-01 9.000000000000000000e+00
2.336217164993286133e+00 7.737925052642822266e+00 -4.236072301864624023e-01 2.000000000000000000e+00
4.177807807922363281e+00 1.382013034820556996e+01 -2.520127594470977783e-01 2.000000000000000000e+00
6.467733383178710938e-01 2.131456375122069868e+00 -5.968367457389831543e-01 1.400000000000000000e+01
7.387199401855468750e-01 2.431413650512694868e+00 -5.866723656654357910e-01 1.100000000000000000e+01
8.542910814285278320e-01 2.810039758682250977e+00 -5.709004998207092285e-01 8.000000000000000000e+00
1.015866637229918990e+00 3.337327241897583008e+00 -5.525265336036682129e-01 7.000000000000000000e+00
1.261048197746277078e+00 4.137613773345947266e+00 -5.311065912246704102e-01 9.000000000000000000e+00
1.630813479423522949e+00 5.347499847412109375e+00 -4.891180396080017090e-01 9.000000000000000000e+00
2.362848281860352007e+00 7.738188266754150391e+00 -4.240259230136870783e-01 2.000000000000000000e+00
4.211850166320800781e+00 1.377634048461914062e+01 -2.514542639255524237e-01 2.000000000000000000e+00
6.576139330863952637e-01 2.140265703201293945e+00 -5.999425649642944336e-01 1.600000000000000000e+01
7.449106574058532715e-01 2.421369791030883789e+00 -5.848727226257324219e-01 1.100000000000000000e+01
8.675603866577148438e-01 2.818298816680908203e+00 -5.731902122497558594e-01 1.100000000000000000e+01
1.028091669082642046e+00 3.335648775100708008e+00 -5.528393983840942383e-01 8.000000000000000000e+00
1.274312853813170943e+00 4.129393100738525391e+00 -5.306191444396972656e-01 9.000000000000000000e+00
1.648881912231445090e+00 5.339870929718017578e+00 -4.889437258243560791e-01 9.000000000000000000e+00
2.389845132827758789e+00 7.729893207550048828e+00 -4.240259230136870783e-01 1.000000000000000000e+00
4.265825748443604404e+00 1.378065681457520064e+01 -2.518033087253571112e-01 2.000000000000000000e+00
6.666023135185241699e-01 2.141530036926269975e+00 -6.009778380393981934e-01 1.700000000000000000e+01
7.537804245948791504e-01 2.418623447418212891e+00 -5.848727226257324219e-01 1.100000000000000000e+01
8.755462169647216797e-01 2.807603120803833008e+00 -5.716637372970581055e-01 9.000000000000000000e+00
1.039133071899414062e+00 3.328086853027344194e+00 -5.522136688232421875e-01 8.000000000000000000e+00
1.287070035934448020e+00 4.117115974426270419e+00 -5.296441912651062012e-01 9.000000000000000000e+00
1.673200964927672896e+00 5.349003791809082031e+00 -4.903382062911986750e-01 9.000000000000000000e+00
2.418160438537598100e+00 7.721081733703613281e+00 -4.240259230136870783e-01 1.000000000000000000e+00
4.305536270141601562e+00 1.373058414459229049e+01 -2.511750459671021063e-01 2.000000000000000000e+00
6.705900430679321289e-01 2.128134965896606001e+00 -5.978720188140869141e-01 1.500000000000000000e+01
7.645636796951293945e-01 2.423411130905150923e+00 -5.866723656654357910e-01 1.000000000000000000e+01
8.806131482124328613e-01 2.789552450180054155e+00 -5.686107873916625977e-01 9.000000000000000000e+00
1.056101799011230025e+00 3.341391324996947798e+00 -5.550295114517211914e-01 9.000000000000000000e+00
1.299037933349608931e+00 4.105027675628662109e+00 -5.286692380905151367e-01 1.000000000000000000e+01
1.692463755607604980e+00 5.345030307769775391e+00 -4.905125200748444159e-01 9.000000000000000000e+00
2.442683219909667969e+00 7.704978466033936435e+00 -4.236072301864624023e-01 2.000000000000000000e+00
4.360698223114013672e+00 1.373834323883056996e+01 -2.515938878059387207e-01 2.000000000000000000e+00
6.768404841423034668e-01 2.122100114822388139e+00 -5.968367457389831543e-01 1.400000000000000000e+01
7.730183005332946777e-01 2.420727729797362837e+00 -5.866723656654357910e-01 1.000000000000000000e+01
8.909426927566528320e-01 2.788331508636475053e+00 -5.689924359321594238e-01 1.000000000000000000e+01
1.065953373908997026e+00 3.332040071487427202e+00 -5.540908575057983398e-01 8.000000000000000000e+00
1.318203449249268022e+00 4.115592002868652344e+00 -5.306191444396972656e-01 9.000000000000000000e+00
1.709894895553589089e+00 5.335295200347900391e+00 -4.901638925075531006e-01 9.000000000000000000e+00
2.468343257904053178e+00 7.692601203918457031e+00 -4.233978986740111750e-01 2.000000000000000000e+00
4.390278816223145419e+00 1.366592216491699041e+01 -2.505467534065247137e-01 2.000000000000000000e+00
6.848372817039489746e-01 2.121562957763671875e+00 -5.973543524742126465e-01 1.500000000000000000e+01
7.838606238365173340e-01 2.425431728363037109e+00 -5.884719491004943848e-01 1.000000000000000000e+01
9.030866026878356934e-01 2.792676687240601030e+00 -5.705189108848571777e-01 1.000000000000000000e+01
1.073927044868469016e+00 3.317022800445557085e+00 -5.522136688232421875e-01 8.000000000000000000e+00
1.332561492919922097e+00 4.110965728759765625e+00 -5.306191444396972656e-01 9.000000000000000000e+00
1.727278709411621094e+00 5.325503826141357422e+00 -4.898152649402617853e-01 9.000000000000000000e+00
2.502582550048828125e+00 7.706733703613281250e+00 -4.246539473533629816e-01 1.000000000000000000e+00
4.454030036926270419e+00 1.369995784759520951e+01 -2.514542639255524237e-01 2.000000000000000000e+00
6.950942873954772949e-01 2.130420446395874023e+00 -6.004601716995239258e-01 1.600000000000000000e+01
7.878458499908447266e-01 2.411842823028564009e+00 -5.857725739479064941e-01 1.000000000000000000e+01
9.142953753471374512e-01 2.797290086746215820e+00 -5.720453858375549316e-01 1.000000000000000000e+01
1.084956884384155051e+00 3.315510034561156782e+00 -5.525265336036682129e-01 9.000000000000000000e+00
1.344233751296997070e+00 4.102986335754395419e+00 -5.301316380500793457e-01 9.000000000000000000e+00
1.740276932716370073e+00 5.308691501617431641e+00 -4.887694120407103937e-01 9.000000000000000000e+00
2.515570878982543945e+00 7.664675712585449219e+00 -4.227698445320128839e-01 1.000000000000000000e+00
7.043434977531433105e-01 2.133484601974486861e+00 -6.020131111145019531e-01 1.600000000000000000e+01
7.938136458396911621e-01 2.401676893234252930e+00 -5.839729309082031250e-01 1.100000000000000000e+01
9.209719300270080566e-01 2.784761905670166016e+00 -5.701372623443603516e-01 9.000000000000000000e+00
1.100248932838439941e+00 3.322954177856444868e+00 -5.544037222862243652e-01 9.000000000000000000e+00
1.357298493385314941e+00 4.094500541687011719e+00 -5.296441912651062012e-01 9.000000000000000000e+00
1.765069603919982910e+00 5.321495056152343750e+00 -4.905125200748444159e-01 9.000000000000000000e+00
2.542310237884521040e+00 7.655848026275634766e+00 -4.227698445320128839e-01 1.000000000000000000e+00
4.617973804473876953e+00 1.389023494720458984e+01 -2.555032372474669855e-01 2.000000000000000000e+00
7.056661844253540039e-01 2.112689495086669922e+00 -5.968367457389831543e-01 1.600000000000000000e+01
8.034282922744750977e-01 2.402587413787841797e+00 -5.848727226257324219e-01 1.100000000000000000e+01
9.306869506835937500e-01 2.781530141830443892e+00 -5.701372623443603516e-01 9.000000000000000000e+00
1.111841559410094993e+00 3.319093465805054155e+00 -5.544037222862243652e-01 9.000000000000000000e+00
1.369057893753051980e+00 4.082209587097167969e+00 -5.286692380905151367e-01 9.000000000000000000e+00
1.778563499450684038e+00 5.300190448760986328e+00 -4.891180396080017090e-01 9.000000000000000000e+00
2.577923297882080078e+00 7.673432826995849609e+00 -4.242352545261383057e-01 2.000000000000000000e+00
4.666431903839111328e+00 1.387403106689452947e+01 -2.555032372474669855e-01 2.000000000000000000e+00
7.111813426017761230e-01 2.104722976684569868e+00 -5.952838063240051270e-01 1.600000000000000000e+01
8.130589127540588379e-01 2.403460264205933061e+00 -5.857725739479064941e-01 1.000000000000000000e+01
9.397611618041992188e-01 2.776404857635498047e+00 -5.697556734085083008e-01 1.000000000000000000e+01
1.120250701904297097e+00 3.305837631225585938e+00 -5.528393983840942383e-01 9.000000000000000000e+00
1.387125611305237038e+00 4.088684558868408203e+00 -5.301316380500793457e-01 9.000000000000000000e+00
1.797053813934325950e+00 5.293950080871582031e+00 -4.891180396080017090e-01 9.000000000000000000e+00
2.600836992263793945e+00 7.653041362762451172e+00 -4.236072301864624023e-01 1.000000000000000000e+00
4.721273899078369141e+00 1.387658882141112926e+01 -2.558522820472716730e-01 2.000000000000000000e+00
7.226414680480957031e-01 2.113069534301757812e+00 -5.983896255493164062e-01 1.600000000000000000e+01
8.231250643730163574e-01 2.404151439666748047e+00 -5.866723656654357910e-01 1.000000000000000000e+01
9.518396854400634766e-01 2.778513669967650923e+00 -5.709004998207092285e-01 9.000000000000000000e+00
1.133641362190247026e+00 3.305446624755858931e+00 -5.534651279449462891e-01 8.000000000000000000e+00
1.403391361236572044e+00 4.087328433990479404e+00 -5.306191444396972656e-01 9.000000000000000000e+00
1.816444993019104004e+00 5.287327766418457031e+00 -4.891180396080017090e-01 9.000000000000000000e+00
2.623672723770142046e+00 7.628347873687744141e+00 -4.227698445320128839e-01 1.000000000000000000e+00
4.765591621398925781e+00 1.384028339385985973e+01 -2.555032372474669855e-01 2.000000000000000000e+00
7.312760353088378906e-01 2.114185571670531782e+00 -5.994248986244201660e-01 1.600000000000000000e+01
8.251354694366455078e-01 2.382848978042602983e+00 -5.821733474731445312e-01 1.100000000000000000e+01
9.634608626365661621e-01 2.780739307403564009e+00 -5.720453858375549316e-01 1.000000000000000000e+01
1.142583131790160911e+00 3.294004201889038086e+00 -5.522136688232421875e-01 8.000000000000000000e+00
1.417650341987610085e+00 4.082404613494873047e+00 -5.306191444396972656e-01 9.000000000000000000e+00
1.835544109344481978e+00 5.282836914062500000e+00 -4.892923533916472834e-01 9.000000000000000000e+00
2.647660017013549805e+00 7.611597537994384766e+00 -4.223511815071105957e-01 2.000000000000000000e+00
4.807298183441162109e+00 1.380467987060547053e+01 -2.551541924476624090e-01 2.000000000000000000e+00
7.391887903213500977e-01 2.115525245666503906e+00 -6.004601716995239258e-01 1.600000000000000000e+01
8.364779949188232422e-01 2.391281843185424805e+00 -5.848727226257324219e-01 1.100000000000000000e+01
9.702463746070861816e-01 2.772139787673950195e+00 -5.709004998207092285e-01 1.000000000000000000e+01
1.156191945075988992e+00 3.299719572067261186e+00 -5.537779927253723145e-01 9.000000000000000000e+00
1.427840232849121094e+00 4.070437908172607422e+00 -5.296441912651062012e-01 1.000000000000000000e+01
1.854111075401305930e+00 5.282684326171875000e+00 -4.898152649402617853e-01 9.000000000000000000e+00
2.672883510589600053e+00 7.607010841369628906e+00 -4.225605130195618231e-01 2.000000000000000000e+00
4.841352939605712891e+00 1.376309967041015980e+01 -2.546655237674713135e-01 2.000000000000000000e+00
7.433509230613708496e-01 2.103824853897095171e+00 -5.978720188140869141e-01 1.600000000000000000e+01
8.474195003509521484e-01 2.395696163177489790e+00 -5.866723656654357910e-01 1.100000000000000000e+01
9.779520034790039062e-01 2.763183832168579102e+00 -5.697556734085083008e-01 9.000000000000000000e+00
1.167703151702881081e+00 3.295663833618164062e+00 -5.537779927253723145e-01 9.000000000000000000e+00
1.439385533332824929e+00 4.057945728302001953e+00 -5.286692380905151367e-01 9.000000000000000000e+00
1.871206998825073020e+00 5.272424697875976562e+00 -4.894666373729705811e-01 8.000000000000000000e+00
2.704770088195800781e+00 7.612690448760986328e+00 -4.233978986740111750e-01 2.000000000000000000e+00
4.882664203643798828e+00 1.372727584838867010e+01 -2.543164789676666260e-01 2.000000000000000000e+00
7.484557628631591797e-01 2.093809604644774947e+00 -5.958014130592346191e-01 1.500000000000000000e+01
8.588207960128784180e-01 2.399913311004639116e+00 -5.884719491004943848e-01 1.100000000000000000e+01
9.893965721130371094e-01 2.763277530670166016e+00 -5.705189108848571777e-01 9.000000000000000000e+00
1.181107521057128906e+00 3.295080900192261186e+00 -5.544037222862243652e-01 9.000000000000000000e+00
1.458271741867064986e+00 4.063853263854979581e+00 -5.301316380500793457e-01 9.000000000000000000e+00
1.885132670402527078e+00 5.250529289245604581e+00 -4.880721569061278742e-01 9.000000000000000000e+00
2.732653856277465820e+00 7.602725505828857422e+00 -4.233978986740111750e-01 2.000000000000000000e+00
4.932944774627686435e+00 1.370928764343262074e+01 -2.543164789676666260e-01 2.000000000000000000e+00
7.596995830535888672e-01 2.102085351943970171e+00 -5.989072918891906738e-01 1.500000000000000000e+01
8.618888854980468750e-01 2.382240772247314009e+00 -5.848727226257324219e-01 1.100000000000000000e+01
9.983679652214050293e-01 2.757961034774779829e+00 -5.701372623443603516e-01 1.000000000000000000e+01
1.189910173416137917e+00 3.283509016036986861e+00 -5.531522631645202637e-01 9.000000000000000000e+00
1.475156307220458984e+00 4.066202640533447266e+00 -5.311065912246704102e-01 1.000000000000000000e+01
1.904128789901732954e+00 5.245790004730224609e+00 -4.882464706897736151e-01 9.000000000000000000e+00
2.760539770126343218e+00 7.596894741058349609e+00 -4.236072301864624023e-01 2.000000000000000000e+00
4.969830989837645596e+00 1.366191768646240057e+01 -2.537579834461212158e-01 2.000000000000000000e+00
7.666661739349365234e-01 2.099554538726807085e+00 -5.989072918891906738e-01 1.500000000000000000e+01
8.671076893806457520e-01 2.372048377990723100e+00 -5.830731391906738281e-01 1.200000000000000000e+01
1.008856892585753950e+00 2.758322715759276900e+00 -5.709004998207092285e-01 1.000000000000000000e+01
1.199433803558350053e+00 3.275835275650023970e+00 -5.525265336036682129e-01 9.000000000000000000e+00
1.482483744621277078e+00 4.044514179229736328e+00 -5.289129614830017090e-01 1.000000000000000000e+01
1.924944043159485085e+00 5.248799800872802734e+00 -4.891180396080017090e-01 9.000000000000000000e+00
2.782963514328002930e+00 7.580199241638183594e+00 -4.231885373592377264e-01 1.000000000000000000e+00
5.001311779022216797e+00 1.360782241821289062e+01 -2.530598938465117853e-01 2.000000000000000000e+00
7.786731123924255371e-01 2.109551906585692915e+00 -6.025307178497314453e-01 1.600000000000000000e+01
8.780842423439025879e-01 2.376318931579589844e+00 -5.848727226257324219e-01 1.000000000000000000e+01
1.019159913063049094e+00 2.756625890731811968e+00 -5.712821483612060547e-01 1.000000000000000000e+01
1.211547017097472922e+00 3.273481130599976030e+00 -5.528393983840942383e-01 8.000000000000000000e+00
1.493144273757935014e+00 4.030007362365722656e+00 -5.276942849159240723e-01 9.000000000000000000e+00
1.946716785430907981e+00 5.251389026641845703e+00 -4.899895787239075262e-01 9.000000000000000000e+00
2.802457571029663086e+00 7.551713943481445312e+00 -4.221418201923369806e-01 1.000000000000000000e+00
5.043210029602050781e+00 1.357528591156006037e+01 -2.527806460857390802e-01 2.000000000000000000e+00
7.806297540664672852e-01 2.092340946197510210e+00 -5.983896255493164062e-01 1.600000000000000000e+01
8.877373933792114258e-01 2.376890659332274947e+00 -5.857725739479064941e-01 1.100000000000000000e+01
1.024652838706969993e+00 2.742017269134521040e+00 -5.689924359321594238e-01 1.000000000000000000e+01
1.226426720619202104e+00 3.278482913970946822e+00 -5.544037222862243652e-01 9.000000000000000000e+00
1.512771844863892046e+00 4.039642810821533203e+00 -5.296441912651062012e-01 9.000000000000000000e+00
1.961540341377258079e+00 5.235233306884765625e+00 -4.891180396080017090e-01 9.000000000000000000e+00
2.835814952850341797e+00 7.560585975646972656e+00 -4.231885373592377264e-01 2.000000000000000000e+00
5.063855171203613281e+00 1.348645973205566051e+01 -2.514542639255524237e-01 2.000000000000000000e+00
7.872470617294311523e-01 2.087795734405518022e+00 -5.978720188140869141e-01 1.800000000000000000e+01
8.987816572189331055e-01 2.381070137023925781e+00 -5.875721573829650879e-01 1.100000000000000000e+01
1.037686228752136008e+00 2.747606992721558061e+00 -5.709004998207092285e-01 1.000000000000000000e+01
1.237164735794066939e+00 3.272334098815917969e+00 -5.540908575057983398e-01 8.000000000000000000e+00
1.526863694190979004e+00 4.034337520599365234e+00 -5.296441912651062012e-01 9.000000000000000000e+00
1.977686166763306108e+00 5.222764492034912109e+00 -4.885950982570648193e-01 8.000000000000000000e+00
2.860773324966431108e+00 7.546905994415283203e+00 -4.229792058467864990e-01 2.000000000000000000e+00
5.102387428283691406e+00 1.344626617431640980e+01 -2.510354220867156982e-01 5.000000000000000000e+00
7.959058284759521484e-01 2.088645458221435991e+00 -5.989072918891906738e-01 2.000000000000000000e+01
9.070876836776733398e-01 2.377918243408203125e+00 -5.875721573829650879e-01 1.100000000000000000e+01
1.047270774841309038e+00 2.743968009948730025e+00 -5.709004998207092285e-01 1.000000000000000000e+01
1.248579740524291992e+00 3.267995595932006836e+00 -5.540908575057983398e-01 9.000000000000000000e+00
1.542355060577393022e+00 4.032691478729248047e+00 -5.301316380500793457e-01 9.000000000000000000e+00
2.000177383422852007e+00 5.226994037628173828e+00 -4.896409511566162109e-01 9.000000000000000000e+00
2.894243955612183061e+00 7.555524826049804688e+00 -4.240259230136870783e-01 1.000000000000000000e+00
5.143564701080322266e+00 1.341343688964843928e+01 -2.507561743259429932e-01 2.000000000000000000e+00
8.073568940162658691e-01 2.096671342849731001e+00 -6.020131111145019531e-01 2.000000000000000000e+01
9.125789999961853027e-01 2.367464065551757812e+00 -5.857725739479064941e-01 1.000000000000000000e+01
1.058255553245543990e+00 2.743959188461304155e+00 -5.716637372970581055e-01 1.000000000000000000e+01
1.257133841514586958e+00 3.256246089935303178e+00 -5.528393983840942383e-01 8.000000000000000000e+00
1.556422352790832964e+00 4.027283191680908203e+00 -5.301316380500793457e-01 9.000000000000000000e+00
2.016973495483397993e+00 5.216263771057128906e+00 -4.892923533916472834e-01 8.000000000000000000e+00
2.906180858612060991e+00 7.508124351501464844e+00 -4.219324886798859198e-01 1.000000000000000000e+00
5.200469970703125000e+00 1.342150497436523082e+01 -2.512448430061339777e-01 2.000000000000000000e+00
8.129049539566040039e-01 2.090381622314453125e+00 -6.009778380393981934e-01 1.500000000000000000e+01
9.183040261268615723e-01 2.358976840972899947e+00 -5.844228267669677734e-01 1.200000000000000000e+01
1.064498901367187944e+00 2.733117103576660156e+00 -5.701372623443603516e-01 1.000000000000000000e+01
1.270077705383301003e+00 3.257580757141112837e+00 -5.537779927253723145e-01 9.000000000000000000e+00
1.566881895065308061e+00 4.014702796936035156e+00 -5.291566848754882812e-01 9.000000000000000000e+00
2.035709619522095171e+00 5.213258266448974609e+00 -4.896409511566162109e-01 9.000000000000000000e+00
2.936879873275756836e+00 7.513327121734619141e+00 -4.227698445320128839e-01 1.000000000000000000e+00
5.242033958435058594e+00 1.339673709869384943e+01 -2.511052191257476807e-01 2.000000000000000000e+00
8.166645169258117676e-01 2.078541040420531782e+00 -5.983896255493164062e-01 1.400000000000000000e+01
9.286725521087646484e-01 2.361197471618651900e+00 -5.857725739479064941e-01 1.000000000000000000e+01
1.072595000267029031e+00 2.725730895996094194e+00 -5.693740248680114746e-01 1.000000000000000000e+01
1.280717015266418013e+00 3.251289606094359907e+00 -5.534651279449462891e-01 8.000000000000000000e+00
1.582342624664307085e+00 4.012902259826660156e+00 -5.296441912651062012e-01 1.000000000000000000e+01
2.053894996643065962e+00 5.206120491027832031e+00 -4.896409511566162109e-01 9.000000000000000000e+00
2.958686590194702148e+00 7.491884231567382812e+00 -4.221418201923369806e-01 2.000000000000000000e+00
5.279943466186523438e+00 1.335604190826416016e+01 -2.506863772869110107e-01 2.000000000000000000e+00
8.210541009902954102e-01 2.070577621459960938e+00 -5.968367457389831543e-01 1.600000000000000000e+01
9.403996467590332031e-01 2.369135856628417969e+00 -5.884719491004943848e-01 1.000000000000000000e+01
1.080428242683411089e+00 2.720523118972777876e+00 -5.689924359321594238e-01 9.000000000000000000e+00
1.291654706001281960e+00 3.249085664749145952e+00 -5.537779927253723145e-01 9.000000000000000000e+00
1.596409678459167036e+00 4.011600494384765625e+00 -5.301316380500793457e-01 1.000000000000000000e+01
2.065081357955933061e+00 5.186685085296630859e+00 -4.884207844734191895e-01 9.000000000000000000e+00
2.991081714630126953e+00 7.504816055297851562e+00 -4.233978986740111750e-01 2.000000000000000000e+00
5.312984466552734375e+00 1.331710052490234020e+01 -2.502675056457520086e-01 2.000000000000000000e+00
8.311502337455749512e-01 2.074872493743896040e+00 -5.989072918891906738e-01 1.700000000000000000e+01
9.472132325172424316e-01 2.362221479415893999e+00 -5.875721573829650879e-01 1.000000000000000000e+01
1.092110991477966087e+00 2.722201585769652876e+00 -5.701372623443603516e-01 1.000000000000000000e+01
1.298571348190308061e+00 3.233558654785155806e+00 -5.519008040428161621e-01 9.000000000000000000e+00
1.611883878707885964e+00 4.009686946868895596e+00 -5.306191444396972656e-01 9.000000000000000000e+00
2.089121341705321822e+00 5.194232463836669922e+00 -4.898152649402617853e-01 9.000000000000000000e+00
3.009800910949707031e+00 7.475801944732666016e+00 -4.223511815071105957e-01 2.000000000000000000e+00
5.368407249450683594e+00 1.332073020935058949e+01 -2.506863772869110107e-01 2.000000000000000000e+00
8.405616879463195801e-01 2.077330827713013139e+00 -6.004601716995239258e-01 1.900000000000000000e+01
9.481372833251953125e-01 2.340838670730590820e+00 -5.830731391906738281e-01 1.000000000000000000e+01
1.101606607437134011e+00 2.718372821807860884e+00 -5.701372623443603516e-01 1.000000000000000000e+01
1.309850692749022993e+00 3.229006052017211914e+00 -5.519008040428161621e-01 9.000000000000000000e+00
1.621389389038085938e+00 3.993000507354735884e+00 -5.291566848754882812e-01 9.000000000000000000e+00
2.104240179061890093e+00 5.179525375366210938e+00 -4.891180396080017090e-01 9.000000000000000000e+00
3.040392398834228960e+00 7.476351261138916016e+00 -4.229792058467864990e-01 2.000000000000000000e+00
5.405825138092041016e+00 1.327968502044677912e+01 -2.502675056457520086e-01 2.000000000000000000e+00
8.514621257781982422e-01 2.083325386047362837e+00 -6.030483841896057129e-01 1.800000000000000000e+01
9.607298374176025391e-01 2.348336458206177202e+00 -5.857725739479064941e-01 1.000000000000000000e+01
1.108114004135132058e+00 2.707242965698242188e+00 -5.686107873916625977e-01 1.100000000000000000e+01
1.325607538223267046e+00 3.235381603240966797e+00 -5.537779927253723145e-01 9.000000000000000000e+00
1.633811235427856001e+00 3.983643293380736861e+00 -5.286692380905151367e-01 9.000000000000000000e+00
2.126845359802246094e+00 5.183207988739013672e+00 -4.901638925075531006e-01 9.000000000000000000e+00
3.055847406387329102e+00 7.439827919006347656e+00 -4.215137958526610773e-01 1.000000000000000000e+00
5.420209407806395596e+00 1.318305587768555043e+01 -2.488014996051788053e-01 2.000000000000000000e+00
8.543064594268798828e-01 2.069626331329346147e+00 -5.999425649642944336e-01 1.900000000000000000e+01
9.704095721244812012e-01 2.348570823669434038e+00 -5.866723656654357910e-01 1.000000000000000000e+01
1.116057276725769043e+00 2.699729919433594194e+00 -5.678475499153137207e-01 1.000000000000000000e+01
1.337648391723633035e+00 3.232559919357299805e+00 -5.540908575057983398e-01 8.000000000000000000e+00
1.647706747055053933e+00 3.977916002273560014e+00 -5.286692380905151367e-01 9.000000000000000000e+00
2.135771989822388139e+00 5.153665065765380859e+00 -4.880721569061278742e-01 9.000000000000000000e+00
3.100165605545043945e+00 7.473391532897949219e+00 -4.240259230136870783e-01 2.000000000000000000e+00
5.478463649749755859e+00 1.319360446929931996e+01 -2.493599802255629938e-01 2.000000000000000000e+00
8.592956066131591797e-01 2.061282396316527876e+00 -5.983896255493164062e-01 2.100000000000000000e+01
9.831044673919677734e-01 2.355959892272949219e+00 -5.893717408180236816e-01 1.100000000000000000e+01
1.129256129264831987e+00 2.704876184463500977e+00 -5.697556734085083008e-01 1.000000000000000000e+01
1.348162293434143066e+00 3.226048469543457031e+00 -5.537779927253723145e-01 9.000000000000000000e+00
1.661582231521606001e+00 3.972140073776245117e+00 -5.286692380905151367e-01 9.000000000000000000e+00
2.153748512268065962e+00 5.146178245544433594e+00 -4.880721569061278742e-01 9.000000000000000000e+00
3.121603250503540039e+00 7.451471328735351562e+00 -4.233978986740111750e-01 2.000000000000000000e+00
5.529124736785888672e+00 1.318546581268311080e+01 -2.495694160461426059e-01 2.000000000000000000e+00
8.657360076904296875e-01 2.056489706039429155e+00 -5.978720188140869141e-01 2.000000000000000000e+01
9.852684736251831055e-01 2.338147163391112837e+00 -5.857725739479064941e-01 1.100000000000000000e+01
1.140216350555419922e+00 2.704535961151123047e+00 -5.705189108848571777e-01 9.000000000000000000e+00
1.355574965476989968e+00 3.212223052978516069e+00 -5.522136688232421875e-01 8.000000000000000000e+00
1.681617021560668945e+00 3.980945110321044922e+00 -5.306191444396972656e-01 9.000000000000000000e+00
2.180230617523192915e+00 5.158816814422607422e+00 -4.899895787239075262e-01 8.000000000000000000e+00
3.141369581222534180e+00 7.425814151763916016e+00 -4.225605130195618231e-01 2.000000000000000000e+00
5.551724433898925781e+00 1.311084270477294922e+01 -2.485222667455672940e-01 2.000000000000000000e+00
8.774438500404357910e-01 2.064122676849364790e+00 -6.009778380393981934e-01 1.700000000000000000e+01
9.934241175651550293e-01 2.334693670272827148e+00 -5.857725739479064941e-01 1.000000000000000000e+01
1.147343039512634055e+00 2.695120334625244141e+00 -5.693740248680114746e-01 1.000000000000000000e+01
1.371425747871398926e+00 3.218375205993651900e+00 -5.540908575057983398e-01 9.000000000000000000e+00
1.689272284507751021e+00 3.960443496704102007e+00 -5.286692380905151367e-01 9.000000000000000000e+00
2.199789047241210938e+00 5.154839992523193359e+00 -4.903382062911986750e-01 9.000000000000000000e+00
3.159425735473632812e+00 7.396436214447020596e+00 -4.215137958526610773e-01 2.000000000000000000e+00
5.597455978393554688e+00 1.309138393402099965e+01 -2.485222667455672940e-01 2.000000000000000000e+00
8.865688443183898926e-01 2.066527605056763139e+00 -6.025307178497314453e-01 1.900000000000000000e+01
1.002698659896851030e+00 2.334967851638793945e+00 -5.866723656654357910e-01 1.000000000000000000e+01
1.159373998641967995e+00 2.698515892028809038e+00 -5.709004998207092285e-01 1.000000000000000000e+01
1.375067114830017090e+00 3.197477579116820845e+00 -5.512750744819641113e-01 9.000000000000000000e+00
1.699256777763366921e+00 3.947526454925537109e+00 -5.276942849159240723e-01 9.000000000000000000e+00
2.212142467498778853e+00 5.136537075042724609e+00 -4.892923533916472834e-01 9.000000000000000000e+00
3.195004940032958984e+00 7.411595821380615234e+00 -4.229792058467864990e-01 2.000000000000000000e+00
5.628161907196044922e+00 1.304337310791015980e+01 -2.479637861251831055e-01 2.000000000000000000e+00
8.899377584457397461e-01 2.054556846618651900e+00 -5.999425649642944336e-01 1.700000000000000000e+01
1.009292721748352051e+00 2.327877759933472124e+00 -5.857725739479064941e-01 1.100000000000000000e+01
1.167223930358886941e+00 2.690850496292113814e+00 -5.701372623443603516e-01 1.100000000000000000e+01
1.392513871192931907e+00 3.207153797149658203e+00 -5.537779927253723145e-01 9.000000000000000000e+00
1.717773318290710005e+00 3.952494382858275923e+00 -5.291566848754882812e-01 9.000000000000000000e+00
2.224497556686400923e+00 5.115993976593017578e+00 -4.880721569061278742e-01 7.000000000000000000e+00
3.209698200225830078e+00 7.374759674072265625e+00 -4.215137958526610773e-01 1.000000000000000000e+00
5.247174739837645596e+00 1.204467391967773082e+01 -2.293246239423752109e-01 2.000000000000000000e+00
8.955559730529785156e-01 2.047897815704346147e+00 -5.989072918891906738e-01 1.800000000000000000e+01
1.020538091659545898e+00 2.331481218338013139e+00 -5.875721573829650879e-01 1.100000000000000000e+01
1.178184747695923074e+00 2.690356254577637163e+00 -5.709004998207092285e-01 1.000000000000000000e+01
1.403700470924376997e+00 3.202273368835449219e+00 -5.537779927253723145e-01 9.000000000000000000e+00
1.729964375495911089e+00 3.942838668823242188e+00 -5.286692380905151367e-01 9.000000000000000000e+00
2.248748779296875000e+00 5.122792720794677734e+00 -4.894666373729705811e-01 9.000000000000000000e+00
3.251489877700806108e+00 7.400081634521484375e+00 -4.236072301864624023e-01 2.000000000000000000e+00
5.707813262939453125e+00 1.297813606262207031e+01 -2.474751174449920932e-01 2.000000000000000000e+00
9.019188284873962402e-01 2.042991876602172852e+00 -5.983896255493164062e-01 1.600000000000000000e+01
1.027094960212707964e+00 2.324339866638184038e+00 -5.866723656654357910e-01 1.100000000000000000e+01
1.187568664550781028e+00 2.686227321624755859e+00 -5.709004998207092285e-01 1.000000000000000000e+01
1.406876325607300027e+00 3.179289817810059038e+00 -5.506493449211120605e-01 9.000000000000000000e+00
1.745324850082397017e+00 3.940405845642089844e+00 -5.291566848754882812e-01 9.000000000000000000e+00
2.260966539382935014e+00 5.102161407470703125e+00 -4.882464706897736151e-01 9.000000000000000000e+00
3.264344215393065962e+00 7.359475135803222656e+00 -4.219324886798859198e-01 1.000000000000000000e+00
5.749835014343261719e+00 1.295082283020020064e+01 -2.473355084657669067e-01 2.000000000000000000e+00
9.110468626022338867e-01 2.045284032821654829e+00 -5.999425649642944336e-01 1.700000000000000000e+01
1.033210039138793945e+00 2.317361354827880859e+00 -5.857725739479064941e-01 1.100000000000000000e+01
1.193270921707153098e+00 2.675102472305297852e+00 -5.693740248680114746e-01 9.000000000000000000e+00
1.422243475914001021e+00 3.185429573059082031e+00 -5.525265336036682129e-01 9.000000000000000000e+00
1.758382081985474077e+00 3.934596538543701172e+00 -5.291566848754882812e-01 9.000000000000000000e+00
2.281939744949340820e+00 5.103729724884033203e+00 -4.891180396080017090e-01 9.000000000000000000e+00
3.291994810104370117e+00 7.355901718139648438e+00 -4.223511815071105957e-01 2.000000000000000000e+00
5.789479732513427734e+00 1.292438411712645951e+01 -2.471958845853806097e-01 2.000000000000000000e+00
9.189729094505310059e-01 2.043853282928466797e+00 -6.004601716995239258e-01 1.500000000000000000e+01
1.042892336845397949e+00 2.317294836044311968e+00 -5.866723656654357910e-01 1.000000000000000000e+01
1.200989365577697976e+00 2.667340755462646040e+00 -5.686107873916625977e-01 1.000000000000000000e+01
1.435788989067078081e+00 3.185848474502563032e+00 -5.534651279449462891e-01 8.000000000000000000e+00
1.765575528144835982e+00 3.913958549499512163e+00 -5.272067785263061523e-01 9.000000000000000000e+00
2.299741268157958984e+00 5.095733165740966797e+00 -4.891180396080017090e-01 9.000000000000000000e+00
3.311073780059814009e+00 7.329804420471191406e+00 -4.215137958526610773e-01 2.000000000000000000e+00
5.841149806976318359e+00 1.291867351531982067e+01 -2.474751174449920932e-01 2.000000000000000000e+00
9.261016845703125000e-01 2.040632963180541992e+00 -6.004601716995239258e-01 1.600000000000000000e+01
1.050974845886230025e+00 2.313640356063843218e+00 -5.866723656654357910e-01 1.100000000000000000e+01
1.207043766975403054e+00 2.655982732772827148e+00 -5.670843124389648438e-01 1.000000000000000000e+01
1.449354648590087891e+00 3.186211347579956055e+00 -5.544037222862243652e-01 9.000000000000000000e+00
1.785807609558105025e+00 3.922224998474121094e+00 -5.291566848754882812e-01 9.000000000000000000e+00
2.309255599975585938e+00 5.069543361663818359e+00 -4.873749017715454102e-01 9.000000000000000000e+00
3.344925165176392046e+00 7.336374759674072266e+00 -4.225605130195618231e-01 2.000000000000000000e+00
5.869604587554931641e+00 1.286182117462158025e+01 -2.467770278453826904e-01 2.000000000000000000e+00
9.308056831359863281e-01 2.032118797302246094e+00 -5.989072918891906738e-01 1.700000000000000000e+01
1.060668826103210005e+00 2.313500404357910156e+00 -5.875721573829650879e-01 1.000000000000000000e+01
1.219581484794616921e+00 2.658891201019287109e+00 -5.686107873916625977e-01 1.000000000000000000e+01
1.460467815399169922e+00 3.181132793426514116e+00 -5.544037222862243652e-01 9.000000000000000000e+00
1.799487948417664018e+00 3.915967464447021040e+00 -5.291566848754882812e-01 1.000000000000000000e+01
2.330266475677489790e+00 5.068692684173583984e+00 -4.880721569061278742e-01 9.000000000000000000e+00
3.372183322906494141e+00 7.328282833099365234e+00 -4.227698445320128839e-01 2.000000000000000000e+00
5.924503803253173828e+00 1.286304950714110973e+01 -2.471958845853806097e-01 2.000000000000000000e+00
9.387040734291076660e-01 2.030610799789429155e+00 -5.994248986244201660e-01 1.500000000000000000e+01
1.068737983703613059e+00 2.309783935546875000e+00 -5.875721573829650879e-01 1.100000000000000000e+01
1.234628558158874956e+00 2.667089223861693892e+00 -5.712821483612060547e-01 9.000000000000000000e+00
1.467410922050476074e+00 3.167053937911986861e+00 -5.528393983840942383e-01 8.000000000000000000e+00
1.819827556610106978e+00 3.924068927764893022e+00 -5.311065912246704102e-01 9.000000000000000000e+00
2.352976560592650923e+00 5.071371555328369141e+00 -4.891180396080017090e-01 9.000000000000000000e+00
3.392695903778076172e+00 7.305598258972167969e+00 -4.221418201923369806e-01 2.000000000000000000e+00
5.959253311157226562e+00 1.282053089141846058e+01 -2.467770278453826904e-01 2.000000000000000000e+00
9.506869316101074219e-01 2.037826061248778853e+00 -6.025307178497314453e-01 1.900000000000000000e+01
1.071847200393676980e+00 2.295444965362548828e+00 -5.848727226257324219e-01 1.100000000000000000e+01
1.245592713356018066e+00 2.666320800781250000e+00 -5.720453858375549316e-01 1.000000000000000000e+01
1.475946903228759988e+00 3.156543970108031782e+00 -5.519008040428161621e-01 9.000000000000000000e+00
1.825099587440490945e+00 3.899713277816772017e+00 -5.286692380905151367e-01 9.000000000000000000e+00
2.372354269027709961e+00 5.066735744476318359e+00 -4.894666373729705811e-01 9.000000000000000000e+00
3.404615640640258789e+00 7.264774799346923828e+00 -4.204670786857604980e-01 1.000000000000000000e+00
5.983587741851806641e+00 1.275620079040526988e+01 -2.459393143653869906e-01 2.000000000000000000e+00
9.577944874763488770e-01 2.034495115280150923e+00 -6.025307178497314453e-01 1.900000000000000000e+01
1.079853177070617898e+00 2.291689634323120117e+00 -5.848727226257324219e-01 1.100000000000000000e+01
1.249032258987426980e+00 2.649525880813599077e+00 -5.693740248680114746e-01 1.000000000000000000e+01
1.492856979370116965e+00 3.163878202438354048e+00 -5.540908575057983398e-01 9.000000000000000000e+00
1.835310101509094016e+00 3.886138916015625000e+00 -5.276942849159240723e-01 9.000000000000000000e+00
2.395984172821044922e+00 5.071033954620361328e+00 -4.906868338584899902e-01 9.000000000000000000e+00
3.435076713562012163e+00 7.263679504394531250e+00 -4.210951030254364014e-01 2.000000000000000000e+00
6.022945404052734375e+00 1.272439193725585938e+01 -2.457298785448074063e-01 2.000000000000000000e+00
9.640614390373229980e-01 2.029394388198852983e+00 -6.020131111145019531e-01 1.700000000000000000e+01
1.092867016792296919e+00 2.298465728759766069e+00 -5.875721573829650879e-01 1.100000000000000000e+01
1.259959936141967995e+00 2.648695707321166992e+00 -5.701372623443603516e-01 1.000000000000000000e+01
1.503042697906493919e+00 3.156864404678345171e+00 -5.537779927253723145e-01 9.000000000000000000e+00
1.852280020713805930e+00 3.886876821517943892e+00 -5.286692380905151367e-01 9.000000000000000000e+00
2.412813186645507812e+00 5.060841083526611328e+00 -4.905125200748444159e-01 9.000000000000000000e+00
3.463851451873778853e+00 7.258854866027832031e+00 -4.215137958526610773e-01 2.000000000000000000e+00
6.067325115203857422e+00 1.270328998565674006e+01 -2.457298785448074063e-01 2.000000000000000000e+00
9.619541168212890625e-01 2.006854295730590820e+00 -5.963190793991088867e-01 1.600000000000000000e+01
1.097511649131774902e+00 2.287608861923218218e+00 -5.857725739479064941e-01 1.100000000000000000e+01
1.265799880027770996e+00 2.637201547622681108e+00 -5.686107873916625977e-01 1.000000000000000000e+01
1.514052987098694070e+00 3.151598453521728960e+00 -5.537779927253723145e-01 9.000000000000000000e+00
1.867556929588318093e+00 3.883965492248535156e+00 -5.291566848754882812e-01 9.000000000000000000e+00
2.418372392654418945e+00 5.027251720428466797e+00 -4.880721569061278742e-01 9.000000000000000000e+00
3.487435579299927202e+00 7.243120670318604404e+00 -4.213044345378875732e-01 2.000000000000000000e+00
6.102949619293212891e+00 1.266401958465575994e+01 -2.453808337450026911e-01 2.000000000000000000e+00
9.731590151786804199e-01 2.012179851531981978e+00 -5.989072918891906738e-01 1.700000000000000000e+01
1.108886480331420898e+00 2.290780067443848100e+00 -5.875721573829650879e-01 1.100000000000000000e+01
1.276709079742432085e+00 2.636301040649414062e+00 -5.693740248680114746e-01 1.000000000000000000e+01
1.518152117729187012e+00 3.132073879241942915e+00 -5.512750744819641113e-01 1.000000000000000000e+01
1.886301875114440918e+00 3.888139009475708008e+00 -5.306191444396972656e-01 1.000000000000000000e+01
2.441125869750977007e+00 5.029533863067626953e+00 -4.891180396080017090e-01 9.000000000000000000e+00
3.510952234268188032e+00 7.227310180664063388e+00 -4.210951030254364014e-01 2.000000000000000000e+00
6.138374328613281250e+00 1.262465572357177912e+01 -2.450317889451980868e-01 2.000000000000000000e+00
9.827184081077575684e-01 2.013979196548461914e+00 -6.004601716995239258e-01 1.600000000000000000e+01
1.111744999885559082e+00 2.276389122009276900e+00 -5.848727226257324219e-01 1.200000000000000000e+01
1.287627458572387917e+00 2.635356426239014116e+00 -5.701372623443603516e-01 1.000000000000000000e+01
1.534282684326172097e+00 3.137402534484862837e+00 -5.531522631645202637e-01 9.000000000000000000e+00
1.894626379013061968e+00 3.870832920074462891e+00 -5.291566848754882812e-01 1.000000000000000000e+01
2.467429399490356001e+00 5.038876056671142578e+00 -4.908611476421356201e-01 9.000000000000000000e+00
3.536158800125122070e+00 7.215010643005371094e+00 -4.210951030254364014e-01 1.000000000000000000e+00
6.191211700439453125e+00 1.262110424041748047e+01 -2.453808337450026911e-01 2.000000000000000000e+00
9.940086603164672852e-01 2.019202709197998047e+00 -6.030483841896057129e-01 1.600000000000000000e+01
1.121406793594359907e+00 2.275990486145019975e+00 -5.857725739479064941e-01 1.100000000000000000e+01
1.297686696052551047e+00 2.632606506347655806e+00 -5.705189108848571777e-01 9.000000000000000000e+00
1.546098828315735085e+00 3.133799314498900923e+00 -5.534651279449462891e-01 9.000000000000000000e+00
1.902853012084960938e+00 3.853516340255736861e+00 -5.276942849159240723e-01 9.000000000000000000e+00
2.481473445892333984e+00 5.023087024688720703e+00 -4.901638925075531006e-01 9.000000000000000000e+00
3.570174694061278853e+00 7.220526695251464844e+00 -4.221418201923369806e-01 1.000000000000000000e+00
6.235229969024658203e+00 1.259941673278808949e+01 -2.453808337450026911e-01 2.000000000000000000e+00
9.964042901992797852e-01 2.007243394851685014e+00 -6.004601716995239258e-01 1.600000000000000000e+01
1.128948092460632102e+00 2.272259473800659180e+00 -5.857725739479064941e-01 1.100000000000000000e+01
1.303788065910338911e+00 2.623014688491820845e+00 -5.693740248680114746e-01 1.000000000000000000e+01
1.558242201805114968e+00 3.132192373275756836e+00 -5.540908575057983398e-01 1.000000000000000000e+01
1.918275713920593040e+00 3.852516174316405806e+00 -5.284254550933837891e-01 1.000000000000000000e+01
2.498116970062255859e+00 5.014830589294433594e+00 -4.901638925075531006e-01 9.000000000000000000e+00
3.585187435150146040e+00 7.190773487091063565e+00 -4.210951030254364014e-01 2.000000000000000000e+00
6.260904788970947266e+00 1.254646301269531072e+01 -2.447525411844254095e-01 2.000000000000000000e+00
9.999448060989379883e-01 1.996843576431273970e+00 -5.983896255493164062e-01 1.600000000000000000e+01
1.142112016677856001e+00 2.278757810592650923e+00 -5.884719491004943848e-01 1.100000000000000000e+01
1.312056183815001997e+00 2.616692543029785156e+00 -5.689924359321594238e-01 1.000000000000000000e+01
1.564735889434814009e+00 3.117906332015991211e+00 -5.525265336036682129e-01 9.000000000000000000e+00
1.934384822845458984e+00 3.851118326187133789e+00 -5.291566848754882812e-01 9.000000000000000000e+00
2.508450031280518022e+00 4.991837978363037109e+00 -4.887694120407103937e-01 9.000000000000000000e+00
3.619240283966064009e+00 7.196058273315429688e+00 -4.221418201923369806e-01 2.000000000000000000e+00
6.277688503265380859e+00 1.247094726562500000e+01 -2.437054067850112915e-01 2.000000000000000000e+00
1.006909012794495073e+00 1.993340969085692915e+00 -5.983896255493164062e-01 1.500000000000000000e+01
1.146542310714721902e+00 2.267800807952880859e+00 -5.866723656654357910e-01 1.100000000000000000e+01
1.322068214416503906e+00 2.613848686218262163e+00 -5.693740248680114746e-01 1.000000000000000000e+01
1.577394247055053933e+00 3.115950345993041992e+00 -5.531522631645202637e-01 9.000000000000000000e+00
1.950507640838623047e+00 3.849654912948607954e+00 -5.298879146575927734e-01 1.000000000000000000e+01
2.527661085128784180e+00 4.986605644226074219e+00 -4.891180396080017090e-01 9.000000000000000000e+00
3.626264572143555132e+00 7.147758007049561435e+00 -4.200483858585358221e-01 2.000000000000000000e+00
6.324803352355957031e+00 1.245608997344971058e+01 -2.438450157642365057e-01 2.000000000000000000e+00
1.016492009162903054e+00 1.994977951049804910e+00 -5.999425649642944336e-01 1.800000000000000000e+01
1.145598292350769043e+00 2.246424436569213867e+00 -5.821733474731445312e-01 1.100000000000000000e+01
1.331184267997741921e+00 2.609217882156372070e+00 -5.693740248680114746e-01 1.000000000000000000e+01
1.584668040275573953e+00 3.103388071060181108e+00 -5.519008040428161621e-01 9.000000000000000000e+00
1.961223363876342995e+00 3.837520122528076172e+00 -5.291566848754882812e-01 1.000000000000000000e+01
2.545959234237670898e+00 4.979526042938232422e+00 -4.892923533916472834e-01 9.000000000000000000e+00
3.660291194915771040e+00 7.152835845947265625e+00 -4.210951030254364014e-01 2.000000000000000000e+00
6.381006717681884766e+00 1.245885467529297053e+01 -2.443336844444274902e-01 2.000000000000000000e+00
1.032280087471008079e+00 2.008599758148192915e+00 -6.051189303398132324e-01 1.900000000000000000e+01
1.160563826560973899e+00 2.256275415420531782e+00 -5.857725739479064941e-01 1.000000000000000000e+01
1.341182351112365945e+00 2.606300830841064009e+00 -5.697556734085083008e-01 1.000000000000000000e+01
1.598204612731934038e+00 3.103106021881103960e+00 -5.528393983840942383e-01 9.000000000000000000e+00
1.969149708747863992e+00 3.820063829421997070e+00 -5.276942849159240723e-01 1.000000000000000000e+01
2.567891597747803178e+00 4.979462623596191406e+00 -4.901638925075531006e-01 9.000000000000000000e+00
3.668748140335083008e+00 7.108069419860839844e+00 -4.192110002040863037e-01 2.000000000000000000e+00
6.396924018859863281e+00 1.238320541381835938e+01 -2.432865500450134000e-01 2.000000000000000000e+00
1.032172799110413042e+00 1.991263151168823020e+00 -6.009778380393981934e-01 1.900000000000000000e+01
1.173817038536071999e+00 2.262589216232299805e+00 -5.884719491004943848e-01 1.000000000000000000e+01
1.350271821022033913e+00 2.601603507995605025e+00 -5.697556734085083008e-01 9.000000000000000000e+00
1.611758470535278098e+00 3.102767229080200195e+00 -5.537779927253723145e-01 9.000000000000000000e+00
1.986135005950927956e+00 3.820212125778197798e+00 -5.286692380905151367e-01 9.000000000000000000e+00
2.583418607711791992e+00 4.966933727264404297e+00 -4.898152649402617853e-01 9.000000000000000000e+00
3.699070930480957031e+00 7.105849266052246094e+00 -4.198390543460845947e-01 2.000000000000000000e+00
6.454894065856933594e+00 1.238917541503906072e+01 -2.438450157642365057e-01 2.000000000000000000e+00
1.037327289581299050e+00 1.984224081039428933e+00 -5.999425649642944336e-01 2.000000000000000000e+01
1.181707859039307085e+00 2.258478164672852007e+00 -5.884719491004943848e-01 1.100000000000000000e+01
1.356613397598267046e+00 2.591656208038330078e+00 -5.686107873916625977e-01 1.000000000000000000e+01
