2.666022062301636186e+00 1.379574179649353027e+00 -5.834938883781433105e-01 1.300000000000000000e+01
3.195346593856811968e+00 1.652067422866821067e+00 -5.697343349456787109e-01 1.100000000000000000e+01
3.959437608718872070e+00 2.045368671417235884e+00 -5.471933484077453613e-01 1.100000000000000000e+01
3.378096008300781250e+01 1.745059013366698863e+01 6.022101402282714844e+00 1.300000000000000000e+01
5.227731227874755859e+00 2.699388980865478960e+00 -5.147418379783630371e-01 1.100000000000000000e+01
7.467251300811767578e+00 3.852485418319702148e+00 -4.403547346591948908e-01 1.000000000000000000e+00
3.402159500122070312e+01 1.754481887817383168e+01 8.837427139282226562e+00 1.200000000000000000e+01
1.237456321716308949e+01 6.378785133361816406e+00 -2.430073022842406949e-01 2.000000000000000000e+00
2.020808458328247070e+00 1.038108706474303977e+00 -6.087424159049987793e-01 1.600000000000000000e+01
2.316233396530150923e+00 1.188849568367003950e+00 -6.010692119598388672e-01 1.200000000000000000e+01
2.665581226348876953e+00 1.367570996284485085e+00 -5.823490619659423828e-01 1.200000000000000000e+01
3.201093912124633789e+00 1.640903472900391069e+00 -5.697343349456787109e-01 1.000000000000000000e+01
3.973620414733887163e+00 2.035154819488524947e+00 -5.481683015823364258e-01 1.000000000000000000e+01
3.386980056762695312e+01 1.734697341918944957e+01 6.027107238769531250e+00 1.300000000000000000e+01
5.219387531280517578e+00 2.672044992446898970e+00 -5.129987001419067383e-01 1.700000000000000000e+01
7.494878292083740234e+00 3.833672523498535156e+00 -4.411921203136444092e-01 1.000000000000000000e+00
3.404446029663085938e+01 1.740643692016601918e+01 8.827528953552246094e+00 1.200000000000000000e+01
1.238250923156737926e+01 6.328270912170410156e+00 -2.427280694246292114e-01 2.000000000000000000e+00
3.391413116455078125e+01 1.733233642578125000e+01 1.020523452758789062e+01 8.000000000000000000e+00
2.026141405105590820e+00 1.031925201416016069e+00 -6.092600226402282715e-01 1.800000000000000000e+01
2.320369005203247070e+00 1.180757164955138938e+00 -6.010692119598388672e-01 1.300000000000000000e+01
2.682587862014770952e+00 1.364488601684570090e+00 -5.850203633308410645e-01 1.200000000000000000e+01
3.196236133575439009e+00 1.624349832534790039e+00 -5.678570866584777832e-01 1.000000000000000000e+01
3.986010313034058061e+00 2.023968219757080078e+00 -5.488995313644409180e-01 1.100000000000000000e+01
5.232235908508300781e+00 2.655613183975220171e+00 -5.133473277091979980e-01 1.900000000000000000e+01
7.476151466369628906e+00 3.791227579116820845e+00 -4.393080174922943115e-01 1.000000000000000000e+00
3.421625518798828125e+01 1.734388160705566051e+01 8.856323242187500000e+00 1.200000000000000000e+01
1.242236137390137074e+01 6.294047355651854581e+00 -2.430771142244338989e-01 2.000000000000000000e+00
3.848941421508789062e+01 1.950146102905273082e+01 1.156144714355468928e+01 1.100000000000000000e+01
2.034904479980469194e+00 1.027458548545836958e+00 -6.108129620552062988e-01 1.600000000000000000e+01
2.319256782531737837e+00 1.170017123222351074e+00 -5.997195243835449219e-01 1.400000000000000000e+01
2.690840482711791992e+00 1.356884241104125977e+00 -5.857836008071899414e-01 1.200000000000000000e+01
3.214235544204711914e+00 1.619404673576354980e+00 -5.700471997261047363e-01 1.200000000000000000e+01
3.982412338256835938e+00 2.004686832427978960e+00 -5.474370718002319336e-01 1.000000000000000000e+01
3.390483474731445312e+01 1.705977058410644887e+01 6.011463642120361328e+00 1.300000000000000000e+01
5.241474151611328125e+00 2.637333154678345171e+00 -5.133473277091979980e-01 1.600000000000000000e+01
7.485770702362061435e+00 3.763313531875609907e+00 -4.390986859798430841e-01 1.000000000000000000e+00
1.242996025085449041e+01 6.243466377258300781e+00 -2.427978813648223877e-01 2.000000000000000000e+00
3.865385818481445312e+01 1.940706634521484020e+01 1.158939933776854936e+01 1.100000000000000000e+01
2.043661117553710938e+00 1.022943258285522017e+00 -6.123658418655395508e-01 1.700000000000000000e+01
2.325069904327393022e+00 1.162785887718200906e+00 -6.001694202423095703e-01 1.500000000000000000e+01
2.690292358398437944e+00 1.344849705696105957e+00 -5.846387743949890137e-01 1.100000000000000000e+01
3.219868898391724077e+00 1.608175039291382058e+00 -5.700471997261047363e-01 1.100000000000000000e+01
3.794914627075195312e+01 1.894556236267089844e+01 5.207964420318604404e+00 2.900000000000000000e+01
3.985833168029785156e+00 1.989000678062438965e+00 -5.469496250152587891e-01 1.100000000000000000e+01
3.405255889892578125e+01 1.698540115356444957e+01 6.027107238769531250e+00 1.300000000000000000e+01
5.252430915832520419e+00 2.619910240173339844e+00 -5.135216116905212402e-01 1.100000000000000000e+01
7.516737461090087891e+00 3.746068954467772993e+00 -4.401454031467437744e-01 1.000000000000000000e+00
1.247673988342284979e+01 6.212518215179443359e+00 -2.432865500450134000e-01 2.000000000000000000e+00
2.043758392333983931e+00 1.014085888862610085e+00 -6.113305687904357910e-01 1.700000000000000000e+01
2.337844371795653853e+00 1.158990621566772017e+00 -6.024188995361328125e-01 1.400000000000000000e+01
2.684415578842163086e+00 1.330220460891724077e+00 -5.823490619659423828e-01 1.100000000000000000e+01
3.230773687362670898e+00 1.599555253982543945e+00 -5.709857940673828125e-01 1.100000000000000000e+01
3.998089790344237837e+00 1.977715849876404031e+00 -5.476808547973632812e-01 9.000000000000000000e+00
3.417538833618164062e+01 1.689795303344726918e+01 6.038370132446289062e+00 1.300000000000000000e+01
5.249042034149169922e+00 2.595378160476685014e+00 -5.123014450073242188e-01 9.000000000000000000e+00
7.551255702972412109e+00 3.730423212051392046e+00 -4.414014518260955811e-01 1.000000000000000000e+00
3.236911010742188211e+01 1.598375415802001953e+01 8.334436416625976562e+00 1.000000000000000000e+01
1.247683143615723012e+01 6.158307552337645596e+00 -2.428676933050155917e-01 2.000000000000000000e+00
3.731605148315429688e+01 1.841843605041503906e+01 1.115044212341308949e+01 1.000000000000000000e+01
2.026483535766602007e+00 9.967142343521118164e-01 -6.051189303398132324e-01 1.600000000000000000e+01
3.819343948364257812e+01 1.877694511413573863e+01 7.428791522979736328e-01 4.200000000000000000e+01
2.340126752853393999e+00 1.149963498115539995e+00 -6.019690036773681641e-01 1.500000000000000000e+01
2.703139781951903853e+00 1.327766418457031028e+00 -5.854020118713378906e-01 1.200000000000000000e+01
3.238110780715941939e+00 1.589138269424438032e+00 -5.712986588478088379e-01 1.100000000000000000e+01
4.010315895080566406e+00 1.966369628906250000e+00 -5.484120249748229980e-01 1.000000000000000000e+01
3.422769165039063211e+01 1.678279113769530895e+01 6.037744522094726562e+00 1.300000000000000000e+01
5.261647701263427734e+00 2.578793525695800781e+00 -5.126500725746154785e-01 9.000000000000000000e+00
7.546293735504150391e+00 3.695258140563964844e+00 -4.403547346591948908e-01 2.000000000000000000e+00
3.233369064331054688e+01 1.582611846923827947e+01 8.311041831970214844e+00 1.000000000000000000e+01
1.247669696807860973e+01 6.104172229766845703e+00 -2.424488365650177002e-01 2.000000000000000000e+00
3.767858505249022727e+01 1.843409156799316051e+01 1.123947620391846058e+01 1.000000000000000000e+01
2.047315359115601030e+00 9.981001019477844238e-01 -6.102952957153320312e-01 1.700000000000000000e+01
2.347630500793457031e+00 1.143494725227355957e+00 -6.028688549995422363e-01 1.500000000000000000e+01
2.709523200988769975e+00 1.319182038307189941e+00 -5.857836008071899414e-01 1.200000000000000000e+01
3.243638277053833008e+00 1.577825427055359109e+00 -5.712986588478088379e-01 1.100000000000000000e+01
4.031438827514648438e+00 1.959300756454467995e+00 -5.503619313240051270e-01 1.100000000000000000e+01
5.272409439086914062e+00 2.561281919479370117e+00 -5.128244161605834961e-01 9.000000000000000000e+00
7.587895393371582031e+00 3.682847738265991211e+00 -4.420294761657714844e-01 2.000000000000000000e+00
3.240977478027343750e+01 1.572336292266846058e+01 8.316440582275390625e+00 1.000000000000000000e+01
1.255910491943359020e+01 6.090249061584472656e+00 -2.436355948448180875e-01 2.000000000000000000e+00
3.747470855712891336e+01 1.816442108154296875e+01 1.115872478485107067e+01 1.000000000000000000e+01
2.050613880157471147e+00 9.913054704666137695e-01 -6.102952957153320312e-01 1.600000000000000000e+01
2.337371349334716797e+00 1.128923058509827104e+00 -5.992696285247802734e-01 1.500000000000000000e+01
2.722723007202147993e+00 1.314457416534424050e+00 -5.876917243003845215e-01 1.200000000000000000e+01
3.245294094085692915e+00 1.565344095230102983e+00 -5.706729292869567871e-01 1.000000000000000000e+01
3.861801910400391336e+01 1.861881446838378906e+01 5.264024257659912109e+00 3.100000000000000000e+01
4.043278694152832031e+00 1.948506712913512962e+00 -5.510931611061096191e-01 1.000000000000000000e+01
5.277284145355224609e+00 2.542054414749145952e+00 -5.124757885932922363e-01 9.000000000000000000e+00
7.589268684387207031e+00 3.652468204498291016e+00 -4.414014518260955811e-01 2.000000000000000000e+00
3.228612518310546875e+01 1.553132438659667969e+01 8.271450042724609375e+00 1.000000000000000000e+01
1.253958320617675959e+01 6.029503822326660156e+00 -2.428676933050155917e-01 2.000000000000000000e+00
3.504886627197266336e+01 1.685281372070312855e+01 1.042057228088379084e+01 8.000000000000000000e+00
2.057546138763428178e+00 9.858108758926391602e-01 -6.113305687904357910e-01 1.700000000000000000e+01
2.350086450576781782e+00 1.124964237213134988e+00 -6.015191078186035156e-01 1.700000000000000000e+01
2.718439817428588867e+00 1.300708413124084029e+00 -5.857836008071899414e-01 1.200000000000000000e+01
3.250738382339477983e+00 1.554006338119507058e+00 -5.706729292869567871e-01 1.000000000000000000e+01
3.860754776000977273e+01 1.844795227050780895e+01 5.253787517547607422e+00 3.000000000000000000e+01
4.030351638793945312e+00 1.924970149993896040e+00 -5.484120249748229980e-01 5.000000000000000000e+00
3.478661346435546875e+01 1.660727119445801137e+01 6.105324268341063565e+00 1.400000000000000000e+01
5.296913623809813565e+00 2.528768062591553178e+00 -5.135216116905212402e-01 9.000000000000000000e+00
7.594760894775390625e+00 3.622515201568603960e+00 -4.409827589988707941e-01 2.000000000000000000e+00
3.202351379394531250e+01 1.526757335662841975e+01 8.190467834472656250e+00 1.000000000000000000e+01
1.258221626281737926e+01 5.996018886566162109e+00 -2.432865500450134000e-01 2.000000000000000000e+00
3.498714828491210938e+01 1.667302322387694957e+01 1.038485527038574041e+01 1.700000000000000000e+01
2.062719821929932085e+00 9.794513583183288574e-01 -6.118482351303100586e-01 1.600000000000000000e+01
2.355759620666503906e+00 1.117589354515075906e+00 -6.019690036773681641e-01 1.500000000000000000e+01
2.717641830444335938e+00 1.288687825202941895e+00 -5.846387743949890137e-01 1.200000000000000000e+01
3.548032379150391336e+01 1.681695175170898082e+01 3.435156345367432085e+00 5.200000000000000000e+01
3.266854047775268999e+00 1.547724246978759988e+00 -5.725501179695129395e-01 9.000000000000000000e+00
4.029869556427001953e+00 1.907492756843566895e+00 -5.474370718002319336e-01 5.000000000000000000e+00
3.452011108398438211e+01 1.633969879150390980e+01 6.049007892608642578e+00 1.400000000000000000e+01
5.311110973358154297e+00 2.512819290161132812e+00 -5.140445828437805176e-01 9.000000000000000000e+00
7.621805191040039062e+00 3.602810859680175781e+00 -4.418201446533203125e-01 2.000000000000000000e+00
3.221757125854492188e+01 1.522229766845702947e+01 8.226460456848144531e+00 1.000000000000000000e+01
1.255967330932617010e+01 5.931567668914794922e+00 -2.424488365650177002e-01 2.000000000000000000e+00
3.487157440185546875e+01 1.646138572692871094e+01 1.033257389068604049e+01 1.700000000000000000e+01
2.057386159896851030e+00 9.681324362754821777e-01 -6.092600226402282715e-01 1.500000000000000000e+01
2.368464231491088867e+00 1.113505005836487038e+00 -6.042185425758361816e-01 1.400000000000000000e+01
2.725677251815795898e+00 1.280863642692565918e+00 -5.854020118713378906e-01 1.100000000000000000e+01
3.274024963378905806e+00 1.537150859832763894e+00 -5.728629827499389648e-01 1.000000000000000000e+01
4.049083709716796875e+00 1.899315357208251953e+00 -5.491432547569274902e-01 1.000000000000000000e+01
5.318046092987061435e+00 2.493418931961060014e+00 -5.138702392578125000e-01 9.000000000000000000e+00
7.645186901092529297e+00 3.581267118453979048e+00 -4.424481689929962158e-01 2.000000000000000000e+00
3.212932205200195312e+01 1.504363632202148082e+01 8.190467834472656250e+00 1.000000000000000000e+01
1.257667922973632990e+01 5.885994434356688565e+00 -2.423790246248244962e-01 5.000000000000000000e+00
3.487282943725585938e+01 1.631336593627930043e+01 1.031600952148438033e+01 8.000000000000000000e+00
2.069507360458374023e+00 9.650270938873291016e-01 -6.118482351303100586e-01 1.600000000000000000e+01
2.368803739547729048e+00 1.103584766387939009e+00 -6.033187508583068848e-01 1.300000000000000000e+01
2.733691215515137163e+00 1.272999048233032005e+00 -5.861652493476867676e-01 1.100000000000000000e+01
3.275788545608520952e+00 1.524046421051024947e+00 -5.722372531890869141e-01 1.200000000000000000e+01
4.070089817047119141e+00 1.891863703727721946e+00 -5.510931611061096191e-01 1.100000000000000000e+01
3.504534149169921875e+01 1.628981590270996094e+01 6.120967864990234375e+00 1.400000000000000000e+01
5.312262535095214844e+00 2.468124389648437944e+00 -5.124757885932922363e-01 9.000000000000000000e+00
3.354676437377929688e+01 1.557900714874267933e+01 7.189682960510253906e+00 6.100000000000000000e+01
7.668510913848876953e+00 3.559604167938231978e+00 -4.430761933326721191e-01 2.000000000000000000e+00
3.215689086914063211e+01 1.491991043090819957e+01 8.184168815612792969e+00 1.000000000000000000e+01
1.264431571960449041e+01 5.863932132720947266e+00 -2.432865500450134000e-01 5.000000000000000000e+00
3.516792678833007812e+01 1.630203247070312855e+01 1.038640785217284979e+01 8.000000000000000000e+00
2.071109533309936968e+00 9.569869637489318848e-01 -6.113305687904357910e-01 1.700000000000000000e+01
2.365564346313477007e+00 1.092042326927185059e+00 -6.015191078186035156e-01 1.100000000000000000e+01
2.741683483123778853e+00 1.265094041824341042e+00 -5.869284868240356445e-01 1.100000000000000000e+01
3.281088590621947798e+00 1.512602567672729048e+00 -5.722372531890869141e-01 1.000000000000000000e+01
3.406566238403320312e+01 1.569727802276610973e+01 4.605442523956298828e+00 1.900000000000000000e+01
4.085684299468994141e+00 1.881797194480895996e+00 -5.523118376731872559e-01 1.100000000000000000e+01
5.357041358947753906e+00 2.466229677200316939e+00 -5.159620046615600586e-01 9.000000000000000000e+00
7.677260398864746094e+00 3.531145334243773970e+00 -4.428668618202208918e-01 2.000000000000000000e+00
3.227959823608397727e+01 1.484013080596924006e+01 8.202165603637695312e+00 1.000000000000000000e+01
1.270286464691161932e+01 5.837293624877929688e+00 -2.440195530652999878e-01 7.000000000000000000e+00
2.081463575363159180e+00 9.529684185981750488e-01 -6.134011149406433105e-01 1.500000000000000000e+01
2.374678373336791992e+00 1.086210131645203081e+00 -6.028688549995422363e-01 1.200000000000000000e+01
2.749653816223144975e+00 1.257148742675781028e+00 -5.876917243003845215e-01 1.100000000000000000e+01
3.297129392623900923e+00 1.506064653396606001e+00 -5.741145014762878418e-01 1.000000000000000000e+01
4.085004329681395596e+00 1.864227414131164995e+00 -5.513368844985961914e-01 1.200000000000000000e+01
5.354741573333740234e+00 2.442553997039794922e+00 -5.149161219596862793e-01 9.000000000000000000e+00
3.347607421875000000e+01 1.526298236846924006e+01 7.151521205902099609e+00 6.100000000000000000e+01
7.689539432525634766e+00 3.504325151443481001e+00 -4.428668618202208918e-01 2.000000000000000000e+00
1.272498321533202947e+01 5.793745517730712891e+00 -2.440544515848160068e-01 2.000000000000000000e+00
2.077739953994750977e+00 9.425047039985656738e-01 -6.113305687904357910e-01 1.600000000000000000e+01
3.839707946777343750e+01 1.740960693359375000e+01 7.358981966972351074e-01 4.000000000000000000e+01
2.383780241012572798e+00 1.080327510833740012e+00 -6.042185425758361816e-01 1.100000000000000000e+01
2.743295192718505859e+00 1.242682337760925071e+00 -5.854020118713378906e-01 1.100000000000000000e+01
3.304166078567504883e+00 1.495360851287842019e+00 -5.744273662567138672e-01 1.100000000000000000e+01
4.098721981048583984e+00 1.853228092193603960e+00 -5.523118376731872559e-01 1.200000000000000000e+01
5.359603881835938388e+00 2.422206401824951172e+00 -5.145674943923950195e-01 9.000000000000000000e+00
3.370806503295897727e+01 1.522685813903808949e+01 7.189682960510253906e+00 6.100000000000000000e+01
7.712646961212158203e+00 3.482393741607666016e+00 -4.434948861598969061e-01 2.000000000000000000e+00
1.275971221923827947e+01 5.755869865417479581e+00 -2.443336844444274902e-01 2.000000000000000000e+00
3.507254409790039062e+01 1.581375885009765980e+01 1.030876255035400035e+01 8.000000000000000000e+00
2.077330112457274947e+00 9.340250492095947266e-01 -6.102952957153320312e-01 1.800000000000000000e+01
3.845459747314453125e+01 1.728218269348144887e+01 7.358981966972351074e-01 4.000000000000000000e+01
2.394460201263428178e+00 1.075610756874084029e+00 -6.060181260108947754e-01 1.200000000000000000e+01
2.754565000534058061e+00 1.236795067787169966e+00 -5.869284868240356445e-01 1.300000000000000000e+01
3.300094842910767046e+00 1.480353116989135964e+00 -5.728629827499389648e-01 1.000000000000000000e+01
3.463124084472656250e+01 1.552758502960205078e+01 4.660039901733398438e+00 2.000000000000000000e+01
4.115714073181152344e+00 1.844497084617614968e+00 -5.537742972373962402e-01 1.200000000000000000e+01
5.367606639862061435e+00 2.404420137405395952e+00 -5.145674943923950195e-01 9.000000000000000000e+00
7.720506668090820312e+00 3.455166816711425781e+00 -4.432855546474456787e-01 2.000000000000000000e+00
1.281523990631104049e+01 5.729849815368652344e+00 -2.450317889451980868e-01 2.000000000000000000e+00
3.459297180175781250e+01 1.546693897247313920e+01 1.015347099304199041e+01 8.000000000000000000e+00
2.087636709213256836e+00 9.299123883247375488e-01 -6.123658418655395508e-01 1.800000000000000000e+01
2.398200035095214844e+00 1.067245960235595925e+00 -6.060181260108947754e-01 1.300000000000000000e+01
3.733319854736328125e+01 1.660619926452637074e+01 2.141377925872803178e+00 2.500000000000000000e+01
2.762453079223632812e+00 1.228768110275268999e+00 -5.876917243003845215e-01 1.200000000000000000e+01
3.303436994552611861e+00 1.468022465705872026e+00 -5.725501179695129395e-01 1.100000000000000000e+01
3.459452056884766336e+01 1.536631393432617010e+01 4.647852897644042969e+00 1.900000000000000000e+01
4.133013248443604404e+00 1.834952354431151900e+00 -5.552367568016052246e-01 1.200000000000000000e+01
5.383251190185546875e+00 2.388901710510253906e+00 -5.152647495269775391e-01 9.000000000000000000e+00
7.743475437164306641e+00 3.433053016662598100e+00 -4.439135789871215820e-01 2.000000000000000000e+00
3.293367767333983664e+01 1.459419727325438920e+01 8.316440582275390625e+00 1.000000000000000000e+01
1.289732742309569957e+01 5.712615966796875000e+00 -2.462185472249985019e-01 2.000000000000000000e+00
3.471655654907227273e+01 1.536976337432860973e+01 1.017314147949218928e+01 8.000000000000000000e+00
2.085567712783813032e+00 9.202798008918762207e-01 -6.108129620552062988e-01 1.900000000000000000e+01
2.384079456329346147e+00 1.051007270812988059e+00 -6.015191078186035156e-01 1.300000000000000000e+01
2.777504920959473100e+00 1.223867654800415039e+00 -5.899814367294311523e-01 1.300000000000000000e+01
3.312157154083251953e+00 1.458074092864990012e+00 -5.731759071350097656e-01 1.100000000000000000e+01
3.473879623413085938e+01 1.528543663024901988e+01 4.660039901733398438e+00 2.000000000000000000e+01
4.141210079193115234e+00 1.821313500404357910e+00 -5.554804801940917969e-01 1.300000000000000000e+01
3.862727737426757812e+01 1.698836135864258168e+01 6.683506011962890625e+00 1.400000000000000000e+01
5.402501106262207031e+00 2.374906778335570845e+00 -5.163106322288513184e-01 9.000000000000000000e+00
7.755411624908447266e+00 3.406002283096313032e+00 -4.439135789871215820e-01 2.000000000000000000e+00
3.654962921142578125e+01 1.604416465759276988e+01 9.215344429016113281e+00 1.200000000000000000e+01
1.298311233520507990e+01 5.696485519409179688e+00 -2.474751174449920932e-01 2.000000000000000000e+00
3.525382232666016336e+01 1.546800899505615057e+01 1.031549167633056996e+01 1.700000000000000000e+01
2.101158380508422852e+00 9.184102416038513184e-01 -6.144363880157470703e-01 1.700000000000000000e+01
2.393091201782227007e+00 1.045018434524535911e+00 -6.028688549995422363e-01 1.500000000000000000e+01
2.776362180709838867e+00 1.211808919906615989e+00 -5.888365507125854492e-01 1.300000000000000000e+01
3.315415859222412109e+00 1.445714116096497026e+00 -5.728629827499389648e-01 1.000000000000000000e+01
3.470095443725585938e+01 1.512442588806151988e+01 4.647852897644042969e+00 1.900000000000000000e+01
4.132983684539794922e+00 1.800504326820373979e+00 -5.535305738449096680e-01 1.300000000000000000e+01
3.621166229248046875e+01 1.576782894134520951e+01 6.255501270294188565e+00 1.400000000000000000e+01
5.430851936340332031e+00 2.364783763885498047e+00 -5.182280540466308594e-01 9.000000000000000000e+00
7.774579524993895596e+00 3.382097005844116211e+00 -4.443322718143463135e-01 1.000000000000000000e+00
3.399980163574218750e+01 1.478353404998778942e+01 8.559387207031250000e+00 1.100000000000000000e+01
1.296623802185058949e+01 5.635190010070800781e+00 -2.467770278453826904e-01 2.000000000000000000e+00
3.699180603027343750e+01 1.606914329528808949e+01 1.080673027038574041e+01 9.000000000000000000e+00
2.097259998321533203e+00 9.080001115798950195e-01 -6.123658418655395508e-01 1.800000000000000000e+01
2.403878927230834961e+00 1.039753198623657005e+00 -6.046684384346008301e-01 1.500000000000000000e+01
2.782377243041992188e+00 1.202889204025268999e+00 -5.892181992530822754e-01 1.400000000000000000e+01
3.333136320114136186e+00 1.439615011215209961e+00 -5.750530958175659180e-01 1.100000000000000000e+01
4.146533966064453125e+00 1.789212346076965110e+00 -5.545055270195007324e-01 1.300000000000000000e+01
3.639071273803710938e+01 1.570244312286376953e+01 6.277402400970458984e+00 1.400000000000000000e+01
5.422608375549316406e+00 2.338710784912108931e+00 -5.166592597961425781e-01 9.000000000000000000e+00
7.790006637573242188e+00 3.356518745422362837e+00 -4.445416033267974854e-01 2.000000000000000000e+00
1.302991199493408025e+01 5.608870983123779297e+00 -2.476147413253783902e-01 2.000000000000000000e+00
3.697746276855468750e+01 1.591736030578612926e+01 1.078705978393555043e+01 9.000000000000000000e+00
2.091539382934569868e+00 8.968670368194580078e-01 -6.097776889801025391e-01 1.600000000000000000e+01
2.411076068878173828e+00 1.032890439033508079e+00 -6.055682301521301270e-01 1.500000000000000000e+01
2.793778181076049805e+00 1.196260690689086914e+00 -5.907446742057800293e-01 1.600000000000000000e+01
3.343589782714844194e+00 1.430302262306212935e+00 -5.759916901588439941e-01 1.000000000000000000e+01
4.167356967926025391e+00 1.780968189239501953e+00 -5.564554333686828613e-01 1.300000000000000000e+01
5.438067913055419922e+00 2.322898626327515093e+00 -5.173565149307250977e-01 9.000000000000000000e+00
7.809023380279541016e+00 3.332441806793212891e+00 -4.449602961540222168e-01 2.000000000000000000e+00
1.305676937103270951e+01 5.566490650177001953e+00 -2.477543652057647983e-01 2.000000000000000000e+00
3.513747787475585938e+01 1.497290992736816051e+01 1.023422241210938033e+01 8.000000000000000000e+00
2.099835872650146040e+00 8.921926617622375488e-01 -6.113305687904357910e-01 1.600000000000000000e+01
2.409106731414794922e+00 1.022605061531066895e+00 -6.042185425758361816e-01 1.600000000000000000e+01
2.797729969024658203e+00 1.186989665031433105e+00 -5.907446742057800293e-01 1.400000000000000000e+01
3.322852134704589844e+00 1.408414125442505105e+00 -5.716115236282348633e-01 1.000000000000000000e+01
4.178723812103270596e+00 1.769461035728455034e+00 -5.571866631507873535e-01 1.200000000000000000e+01
5.445740699768066406e+00 2.304852485656737837e+00 -5.173565149307250977e-01 9.000000000000000000e+00
7.831068515777587891e+00 3.311194658279418945e+00 -4.455883204936981201e-01 1.000000000000000000e+00
1.311568260192870916e+01 5.540281295776367188e+00 -2.485222667455672940e-01 2.000000000000000000e+00
3.526264572143554688e+01 1.489552497863770064e+01 1.025699901580811080e+01 8.000000000000000000e+00
2.106498718261719194e+00 8.863559365272521973e-01 -6.123658418655395508e-01 1.500000000000000000e+01
2.407272100448607954e+00 1.011924028396606001e+00 -6.028688549995422363e-01 1.500000000000000000e+01
2.807286024093627930e+00 1.179497957229614036e+00 -5.918895006179809570e-01 1.300000000000000000e+01
3.338676691055297852e+00 1.401393890380858931e+00 -5.734887719154357910e-01 1.000000000000000000e+01
4.181213855743408203e+00 1.753328442573546919e+00 -5.566991567611694336e-01 1.300000000000000000e+01
5.442728042602539062e+00 2.281208276748656782e+00 -5.163106322288513184e-01 9.000000000000000000e+00
3.483940887451171875e+01 1.459507846832275035e+01 7.342329978942871094e+00 6.200000000000000000e+01
7.820471763610839844e+00 3.274582147598267046e+00 -4.443322718143463135e-01 2.000000000000000000e+00
1.322718143463134943e+01 5.533049583435058594e+00 -2.502675056457520086e-01 2.000000000000000000e+00
3.516016006469727273e+01 1.470060348510742010e+01 1.021144676208495916e+01 8.000000000000000000e+00
2.122216939926147017e+00 8.838282823562622070e-01 -6.159893274307250977e-01 1.400000000000000000e+01
2.414563179016112837e+00 1.004591226577759011e+00 -6.037686467170715332e-01 1.500000000000000000e+01
2.809777498245238814e+00 1.168446898460387962e+00 -5.915079116821289062e-01 1.200000000000000000e+01
3.349263191223144975e+00 1.391421198844909890e+00 -5.744273662567138672e-01 1.100000000000000000e+01
3.642628479003906250e+01 1.512551689147949041e+01 4.842844009399414062e+00 2.000000000000000000e+01
4.182111740112304688e+00 1.735708951950073020e+00 -5.559679269790649414e-01 1.100000000000000000e+01
5.465775012969970703e+00 2.267351865768433061e+00 -5.177050828933715820e-01 9.000000000000000000e+00
7.858252525329589844e+00 3.256601810455321822e+00 -4.457976818084716797e-01 2.000000000000000000e+00
3.310037612915039062e+01 1.371062374114990057e+01 8.271450042724609375e+00 1.000000000000000000e+01
1.326954364776610973e+01 5.493711948394775391e+00 -2.506863772869110107e-01 2.000000000000000000e+00
3.758164215087891336e+01 1.555914211273193004e+01 1.089886951446533025e+01 1.000000000000000000e+01
2.109215497970581055e+00 8.697866201400756836e-01 -6.113305687904357910e-01 1.600000000000000000e+01
2.421658992767333984e+00 9.976413249969482422e-01 -6.046684384346008301e-01 1.600000000000000000e+01
2.804762125015258789e+00 1.154894351959228960e+00 -5.895997881889343262e-01 1.300000000000000000e+01
3.352272987365723100e+00 1.378970026969909890e+00 -5.741145014762878418e-01 1.000000000000000000e+01
3.651925277709960938e+01 1.501488018035889027e+01 4.848206043243408203e+00 2.000000000000000000e+01
4.193653106689453125e+00 1.723363757133484109e+00 -5.566991567611694336e-01 1.100000000000000000e+01
3.556294631958007812e+01 1.461443901062012074e+01 6.089680671691895419e+00 1.400000000000000000e+01
5.481028079986572266e+00 2.251286745071411133e+00 -5.184023380279541016e-01 9.000000000000000000e+00
7.862181186676025391e+00 3.226118803024291992e+00 -4.453789889812468927e-01 2.000000000000000000e+00
3.325621032714843750e+01 1.363936614990234020e+01 8.298444747924804688e+00 1.000000000000000000e+01
1.329604053497313920e+01 5.450392723083496094e+00 -2.508259713649749756e-01 2.000000000000000000e+00
3.769649887084960938e+01 1.545277595520020064e+01 1.091646957397460938e+01 1.000000000000000000e+01
2.110450267791748047e+00 8.616885542869567871e-01 -6.108129620552062988e-01 1.400000000000000000e+01
2.432344198226929155e+00 9.921261072158813477e-01 -6.064680218696594238e-01 1.500000000000000000e+01
2.808776378631591797e+00 1.145096898078918013e+00 -5.895997881889343262e-01 1.300000000000000000e+01
3.358895540237427202e+00 1.368005156517029031e+00 -5.744273662567138672e-01 1.100000000000000000e+01
4.206998348236083984e+00 1.711707115173340066e+00 -5.576741099357604980e-01 1.100000000000000000e+01
5.466705799102783203e+00 2.223134040832519975e+00 -5.163106322288513184e-01 9.000000000000000000e+00
7.880796432495117188e+00 3.201661825180054155e+00 -4.457976818084716797e-01 2.000000000000000000e+00
1.332980823516846058e+01 5.409964084625244141e+00 -2.511052191257476807e-01 2.000000000000000000e+00
3.767860794067382812e+01 1.529203605651854936e+01 1.089576435089110973e+01 1.000000000000000000e+01
2.111654281616210938e+00 8.535924553871154785e-01 -6.102952957153320312e-01 1.600000000000000000e+01
2.439406394958496094e+00 9.850890040397644043e-01 -6.073678731918334961e-01 1.600000000000000000e+01
2.814577102661132812e+00 1.136020302772521973e+00 -5.899814367294311523e-01 1.300000000000000000e+01
3.352658033370972124e+00 1.351839780807494895e+00 -5.725501179695129395e-01 1.100000000000000000e+01
4.235043525695800781e+00 1.705911993980407937e+00 -5.605989694595336914e-01 1.100000000000000000e+01
5.496611595153808594e+00 2.212967395782471147e+00 -5.184023380279541016e-01 9.000000000000000000e+00
7.936396121978759766e+00 3.192019939422606978e+00 -4.483098089694976807e-01 1.000000000000000000e+00
3.468862533569335938e+01 1.394473743438721058e+01 8.631371498107910156e+00 1.100000000000000000e+01
1.337829971313476918e+01 5.375329971313476562e+00 -2.516637146472930908e-01 2.000000000000000000e+00
3.765193939208983664e+01 1.512071800231933949e+01 1.087195301055908025e+01 9.000000000000000000e+00
2.125085353851317915e+00 8.512644767761230469e-01 -6.134011149406433105e-01 1.600000000000000000e+01
2.426205873489379883e+00 9.709043502807617188e-01 -6.033187508583068848e-01 1.400000000000000000e+01
2.832714796066284180e+00 1.133005142211914062e+00 -5.930343866348266602e-01 1.300000000000000000e+01
3.367894411087036133e+00 1.345698237419127974e+00 -5.744273662567138672e-01 1.100000000000000000e+01
4.229320049285888672e+00 1.688183307647705078e+00 -5.591365694999694824e-01 1.100000000000000000e+01
3.506938552856445312e+01 1.399126720428466975e+01 5.980176925659179688e+00 1.300000000000000000e+01
5.518341064453125000e+00 2.201594829559326172e+00 -5.197968482971191406e-01 9.000000000000000000e+00
7.909278392791748047e+00 3.152282238006591797e+00 -4.462163746356964111e-01 1.000000000000000000e+00
3.482278060913085938e+01 1.387174987792968928e+01 8.653866767883300781e+00 1.100000000000000000e+01
1.342856216430664062e+01 5.346589088439941406e+00 -2.522919774055480957e-01 2.000000000000000000e+00
3.761766433715820312e+01 1.497749328613281072e+01 1.084917640686034979e+01 9.000000000000000000e+00
2.131635427474976030e+00 8.452655673027038574e-01 -6.144363880157470703e-01 1.500000000000000000e+01
2.435015439987183061e+00 9.645825028419494629e-01 -6.046684384346008301e-01 1.600000000000000000e+01
2.838477849960327148e+00 1.123832941055298074e+00 -5.934159755706787109e-01 1.700000000000000000e+01
3.381755828857421875e+00 1.337566614151000977e+00 -5.759916901588439941e-01 1.000000000000000000e+01
4.231494903564453125e+00 1.671950936317444070e+00 -5.586490631103515625e-01 1.100000000000000000e+01
5.533404827117919922e+00 2.185246229171752930e+00 -5.204941034317016602e-01 9.000000000000000000e+00
7.938812732696533203e+00 3.131984233856201172e+00 -4.472630918025969904e-01 1.000000000000000000e+00
3.463531494140625000e+01 1.365718078613281072e+01 8.595379829406738281e+00 1.100000000000000000e+01
1.352528095245360973e+01 5.330476760864257812e+00 -2.537579834461212158e-01 2.000000000000000000e+00
3.773082733154296875e+01 1.487017536163330078e+01 1.086677646636963068e+01 9.000000000000000000e+00
2.132774829864501953e+00 8.371137976646423340e-01 -6.139187812805175781e-01 1.600000000000000000e+01
2.445624828338623047e+00 9.589223265647888184e-01 -6.064680218696594238e-01 1.500000000000000000e+01
2.835072040557860884e+00 1.111052513122559038e+00 -5.918895006179809570e-01 1.400000000000000000e+01
3.399280309677124023e+00 1.330794811248779075e+00 -5.781818032264709473e-01 1.100000000000000000e+01
4.241002559661865234e+00 1.658616185188293013e+00 -5.591365694999694824e-01 1.100000000000000000e+01
5.526153564453125000e+00 2.160114765167235884e+00 -5.190995931625366211e-01 9.000000000000000000e+00
7.979464054107666016e+00 3.115877151489257812e+00 -4.489378333091735840e-01 1.000000000000000000e+00
3.573569488525391336e+01 1.394713687896729049e+01 8.856323242187500000e+00 1.200000000000000000e+01
1.350654602050781072e+01 5.268698215484619141e+00 -2.530598938465117853e-01 2.000000000000000000e+00
3.763852310180664062e+01 1.468221473693848012e+01 1.082536506652832031e+01 9.000000000000000000e+00
2.123078584671020952e+00 8.247670531272888184e-01 -6.102952957153320312e-01 1.600000000000000000e+01
2.454407453536986861e+00 9.524947404861450195e-01 -6.078177690505981445e-01 1.300000000000000000e+01
2.842593669891356978e+00 1.102569460868835005e+00 -5.926527380943298340e-01 1.300000000000000000e+01
3.403904914855957031e+00 1.318920969963073953e+00 -5.781818032264709473e-01 1.100000000000000000e+01
4.265278816223145419e+00 1.650967836380005105e+00 -5.615739226341247559e-01 1.100000000000000000e+01
3.530609512329102273e+01 1.365889739990234020e+01 5.995820045471191406e+00 1.300000000000000000e+01
5.526227474212645596e+00 2.137936115264893022e+00 -5.184023380279541016e-01 9.000000000000000000e+00
7.967936515808104581e+00 3.079364776611328125e+00 -4.476817548274993896e-01 2.000000000000000000e+00
3.573689651489257812e+01 1.380405426025390980e+01 8.844625473022460938e+00 1.200000000000000000e+01
1.359760951995849965e+01 5.249607563018798828e+00 -2.544211745262145996e-01 2.000000000000000000e+00
3.762719726562500000e+01 1.451912784576416016e+01 1.080673027038574041e+01 9.000000000000000000e+00
2.136763811111450195e+00 8.215106725692749023e-01 -6.134011149406433105e-01 1.700000000000000000e+01
6.191785812377929688e+01 2.379284095764160156e+01 1.157827496528625044e+00 4.400000000000000000e+01
2.463174819946289062e+00 9.460175037384033203e-01 -6.091674566268920898e-01 1.300000000000000000e+01
2.850090742111206055e+00 1.094047427177428977e+00 -5.934159755706787109e-01 1.300000000000000000e+01
3.395577192306518999e+00 1.302080273628235085e+00 -5.759916901588439941e-01 1.100000000000000000e+01
3.567654037475585938e+01 1.367351150512694957e+01 4.691238403320313388e+00 2.000000000000000000e+01
4.259893417358398438e+00 1.631808638572693093e+00 -5.601115226745605469e-01 1.100000000000000000e+01
5.544820785522460938e+00 2.122907400131226030e+00 -5.194482207298278809e-01 9.000000000000000000e+00
7.978636741638183594e+00 3.051532745361328125e+00 -4.476817548274993896e-01 2.000000000000000000e+00
3.562467956542968750e+01 1.361799335479735973e+01 8.805034637451171875e+00 1.100000000000000000e+01
1.362332248687743963e+01 5.204965591430664062e+00 -2.545607984066010077e-01 2.000000000000000000e+00
2.141423940658568892e+00 8.147339224815368652e-01 -6.139187812805175781e-01 1.500000000000000000e+01
2.450067520141602007e+00 9.311826825141906738e-01 -6.051183342933654785e-01 1.400000000000000000e+01
2.875916004180908203e+00 1.092458009719849077e+00 -5.979954004287719727e-01 1.300000000000000000e+01
3.413029670715332031e+00 1.295125246047974077e+00 -5.781818032264709473e-01 1.100000000000000000e+01
4.271131992340087891e+00 1.619039773941040039e+00 -5.608426928520202637e-01 1.100000000000000000e+01
5.552197456359863281e+00 2.103539466857910156e+00 -5.194482207298278809e-01 9.000000000000000000e+00
8.000447273254394531e+00 3.027905464172362837e+00 -4.483098089694976807e-01 2.000000000000000000e+00
3.625890731811522727e+01 1.371556472778319957e+01 8.949902534484863281e+00 1.200000000000000000e+01
1.366011333465575994e+01 5.164451599121093750e+00 -2.549098432064055841e-01 2.000000000000000000e+00
3.734568023681641336e+01 1.411920547485351918e+01 1.069802665710449041e+01 9.000000000000000000e+00
2.151345252990723100e+00 8.103520870208740234e-01 -6.159893274307250977e-01 1.600000000000000000e+01
2.458613634109497070e+00 9.251117110252380371e-01 -6.064680218696594238e-01 1.500000000000000000e+01
2.868497371673583984e+00 1.078768730163573997e+00 -5.957056879997253418e-01 1.300000000000000000e+01
3.419154882431029829e+00 1.284494876861572044e+00 -5.784946680068969727e-01 1.000000000000000000e+01
4.270902156829833984e+00 1.602774858474731001e+00 -5.601115226745605469e-01 1.100000000000000000e+01
5.577797412872313565e+00 2.092113018035889116e+00 -5.211913585662841797e-01 9.000000000000000000e+00
8.017926216125488281e+00 3.004161357879639116e+00 -4.487285017967224121e-01 2.000000000000000000e+00
3.555960083007813211e+01 1.331641578674316051e+01 8.766342163085937500e+00 1.100000000000000000e+01
1.368091011047362926e+01 5.120526313781738281e+00 -2.549796700477600098e-01 2.000000000000000000e+00
3.733321762084960938e+01 1.396574592590332031e+01 1.068042659759520951e+01 9.000000000000000000e+00
2.148730278015137163e+00 8.008136153221130371e-01 -6.144363880157470703e-01 1.600000000000000000e+01
2.472785472869873047e+00 9.206033945083618164e-01 -6.091674566268920898e-01 1.600000000000000000e+01
2.861205339431763139e+00 1.064641237258910911e+00 -5.934159755706787109e-01 1.300000000000000000e+01
3.419914722442626953e+00 1.271175503730773926e+00 -5.778689384460449219e-01 1.000000000000000000e+01
4.282053470611572266e+00 1.589929819107056108e+00 -5.608426928520202637e-01 1.100000000000000000e+01
5.585066318511962891e+00 2.072630167007445845e+00 -5.211913585662841797e-01 9.000000000000000000e+00
3.677021026611328125e+01 1.363820457458495916e+01 7.623200893402099609e+00 6.300000000000000000e+01
8.020872116088867188e+00 2.973378419876099077e+00 -4.483098089694976807e-01 2.000000000000000000e+00
3.560586547851563211e+01 1.319220829010009943e+01 8.766342163085937500e+00 1.100000000000000000e+01
1.370620155334473012e+01 5.075517654418945312e+00 -2.551192641258239746e-01 2.000000000000000000e+00
3.734550476074218750e+01 1.382193279266357067e+01 1.067007350921631037e+01 9.000000000000000000e+00
2.142587423324584961e+00 7.895926833152770996e-01 -6.118482351303100586e-01 1.400000000000000000e+01
2.479800701141356978e+00 9.128804206848144531e-01 -6.100672483444213867e-01 1.500000000000000000e+01
2.865088224411011186e+00 1.054147243499756081e+00 -5.934159755706787109e-01 1.300000000000000000e+01
3.433821439743041992e+00 1.262039542198180930e+00 -5.794332623481750488e-01 1.000000000000000000e+01
4.300896644592285156e+00 1.579013586044311968e+00 -5.625488758087158203e-01 1.100000000000000000e+01
5.583272933959960938e+00 2.048714399337768999e+00 -5.203197598457336426e-01 9.000000000000000000e+00
8.031716346740722656e+00 2.943960428237915039e+00 -4.483098089694976807e-01 1.000000000000000000e+00
3.574547195434570312e+01 1.309513473510742010e+01 8.788837432861328125e+00 1.100000000000000000e+01
1.375851249694824041e+01 5.037623405456542969e+00 -2.557475566864014227e-01 2.000000000000000000e+00
2.150775671005249023e+00 7.840938568115234375e-01 -6.134011149406433105e-01 1.600000000000000000e+01
2.462830066680908203e+00 8.968836069107055664e-01 -6.051183342933654785e-01 1.400000000000000000e+01
2.879819631576538086e+00 1.048168659210205078e+00 -5.957056879997253418e-01 1.300000000000000000e+01
3.428923368453979048e+00 1.246670722961426003e+00 -5.778689384460449219e-01 1.000000000000000000e+01
4.308248043060302734e+00 1.564668655395508035e+00 -5.627925992012023926e-01 1.100000000000000000e+01
5.596008777618408203e+00 2.031251907348632812e+00 -5.208427309989929199e-01 9.000000000000000000e+00
8.075741767883300781e+00 2.928161144256591797e+00 -4.501938819885253906e-01 1.000000000000000000e+00
1.383241844177245916e+01 5.009996414184570312e+00 -2.567947208881378174e-01 2.000000000000000000e+00
3.704019546508789062e+01 1.340836334228515980e+01 1.055515861511229936e+01 1.800000000000000000e+01
2.158815622329711914e+00 7.789243459701538086e-01 -6.149540543556213379e-01 1.400000000000000000e+01
2.467623949050902876e+00 8.893724083900451660e-01 -6.055682301521301270e-01 1.500000000000000000e+01
2.886973857879639116e+00 1.039943695068358931e+00 -5.964689254760742188e-01 1.300000000000000000e+01
3.440473556518555132e+00 1.237968444824218972e+00 -5.791203975677490234e-01 1.000000000000000000e+01
4.302204132080078125e+00 1.546344757080077903e+00 -5.613301992416381836e-01 1.100000000000000000e+01
5.610214233398438388e+00 2.015378236770629883e+00 -5.215399861335754395e-01 9.000000000000000000e+00
8.062849044799804688e+00 2.893270015716553178e+00 -4.489378333091735840e-01 1.000000000000000000e+00
1.390166378021240057e+01 4.982991695404052734e+00 -2.577720284461975098e-01 2.000000000000000000e+00
3.698756790161132812e+01 1.325803565979004084e+01 1.052824115753174006e+01 1.800000000000000000e+01
2.159701824188231978e+00 7.707346081733703613e-01 -6.144363880157470703e-01 1.300000000000000000e+01
2.478055715560913086e+00 8.833707571029663086e-01 -6.073678731918334961e-01 1.600000000000000000e+01
2.881339311599731001e+00 1.026565551757812944e+00 -5.945608019828796387e-01 1.200000000000000000e+01
3.454078912734984907e+00 1.229262948036194070e+00 -5.806847214698791504e-01 9.000000000000000000e+00
4.315057754516601562e+00 1.533977508544922097e+00 -5.623051524162292480e-01 1.100000000000000000e+01
5.609705448150634766e+00 1.993114471435547097e+00 -5.208427309989929199e-01 9.000000000000000000e+00
8.095485687255859375e+00 2.873123884201049805e+00 -4.501938819885253906e-01 1.000000000000000000e+00
3.666816711425781250e+01 1.300648975372313920e+01 8.982295989990234375e+00 1.200000000000000000e+01
1.391143321990966975e+01 4.931762695312500000e+00 -2.576324343681334894e-01 2.000000000000000000e+00
2.166022539138793945e+00 7.644770741462707520e-01 -6.154716610908508301e-01 1.500000000000000000e+01
2.473772764205933061e+00 8.721235990524291992e-01 -6.055682301521301270e-01 1.300000000000000000e+01
2.890460252761840820e+00 1.018458843231200950e+00 -5.957056879997253418e-01 1.300000000000000000e+01
3.462075471878052202e+00 1.218510150909424050e+00 -5.813104510307312012e-01 1.000000000000000000e+01
4.312894821166992188e+00 1.516272306442260964e+00 -5.613301992416381836e-01 1.100000000000000000e+01
5.642944812774658203e+00 1.982767462730407937e+00 -5.232830643653869629e-01 8.000000000000000000e+00
8.116772651672363281e+00 2.848816394805908203e+00 -4.508219361305236816e-01 2.000000000000000000e+00
3.664714431762695312e+01 1.285519313812256037e+01 8.966098785400390625e+00 1.200000000000000000e+01
1.390591907501221058e+01 4.875233650207520419e+00 -2.572135627269744873e-01 2.000000000000000000e+00
3.703182601928710938e+01 1.298287487030028942e+01 1.051478290557860973e+01 9.000000000000000000e+00
2.157734155654906782e+00 7.530919909477233887e-01 -6.123658418655395508e-01 1.700000000000000000e+01
2.497043371200561968e+00 8.705399036407470703e-01 -6.105171442031860352e-01 1.400000000000000000e+01
2.895851612091064009e+00 1.009009003639220969e+00 -5.960872769355773926e-01 1.300000000000000000e+01
3.462576627731322798e+00 1.205119132995605025e+00 -5.806847214698791504e-01 9.000000000000000000e+00
4.325661659240722656e+00 1.503815650939940962e+00 -5.623051524162292480e-01 1.100000000000000000e+01
5.631011009216308594e+00 1.956518650054932085e+00 -5.215399861335754395e-01 3.000000000000000000e+00
3.586822891235352273e+01 1.245555305480957031e+01 7.380491733551025391e+00 6.200000000000000000e+01
8.134215354919433594e+00 2.823085784912108931e+00 -4.512406289577484131e-01 2.000000000000000000e+00
3.661078643798828125e+01 1.269909286499023082e+01 8.946303367614746094e+00 1.200000000000000000e+01
1.396819686889648082e+01 4.842382907867431641e+00 -2.580512762069702148e-01 2.000000000000000000e+00
2.167523860931396040e+00 7.484546899795532227e-01 -6.144363880157470703e-01 1.600000000000000000e+01
2.485178470611571822e+00 8.571713566780090332e-01 -6.069179177284240723e-01 1.100000000000000000e+01
2.899181842803955078e+00 9.994004368782043457e-01 -5.960872769355773926e-01 1.300000000000000000e+01
3.462818384170531782e+00 1.192343950271606001e+00 -5.800589919090270996e-01 9.000000000000000000e+00
4.336256027221679688e+00 1.491399765014647993e+00 -5.630363821983337402e-01 1.100000000000000000e+01
5.626163005828857422e+00 1.933948755264282005e+00 -5.204941034317016602e-01 4.000000000000000000e+00
8.135975837707519531e+00 2.793501853942871094e+00 -4.508219361305236816e-01 1.000000000000000000e+00
1.400687694549561080e+01 4.803821086883544922e+00 -2.584701478481292725e-01 2.000000000000000000e+00
2.166466712951660156e+00 7.396357655525207520e-01 -6.134011149406433105e-01 1.500000000000000000e+01
2.493688821792602983e+00 8.503781557083129883e-01 -6.082676649093627930e-01 1.300000000000000000e+01
2.910085678100585938e+00 9.918076992034912109e-01 -5.976137518882751465e-01 1.300000000000000000e+01
3.470699310302733931e+00 1.181522488594054954e+00 -5.806847214698791504e-01 9.000000000000000000e+00
4.343315124511718750e+00 1.476893424987792969e+00 -5.632801055908203125e-01 1.100000000000000000e+01
5.642311573028563565e+00 1.917503476142883079e+00 -5.213656425476074219e-01 9.000000000000000000e+00
3.585923385620117188e+01 1.217954921722411932e+01 7.361411094665527344e+00 6.200000000000000000e+01
8.149459838867187500e+00 2.766368865966796875e+00 -4.510312676429749090e-01 2.000000000000000000e+00
3.688092041015625000e+01 1.251220703125000000e+01 8.991293907165527344e+00 1.200000000000000000e+01
1.406522369384765980e+01 4.769025325775145596e+00 -2.592380344867705744e-01 2.000000000000000000e+00
2.183807134628295898e+00 7.366299629211425781e-01 -6.175422668457031250e-01 1.600000000000000000e+01
2.493095397949219194e+00 8.399881720542907715e-01 -6.073678731918334961e-01 1.300000000000000000e+01
2.908119678497314009e+00 9.792554378509521484e-01 -5.964689254760742188e-01 1.300000000000000000e+01
3.478751182556151900e+00 1.170053243637084961e+00 -5.813104510307312012e-01 9.000000000000000000e+00
4.346817016601563388e+00 1.460332274436950906e+00 -5.630363821983337402e-01 1.100000000000000000e+01
5.685188293457031250e+00 1.908859848976135032e+00 -5.246775746345520020e-01 9.000000000000000000e+00
8.186055183410644531e+00 2.745371818542480025e+00 -4.524966776371002197e-01 1.000000000000000000e+00
1.406743907928466975e+01 4.712360382080078125e+00 -2.589588165283203125e-01 2.000000000000000000e+00
2.175369262695312944e+00 7.253361940383911133e-01 -6.144363880157470703e-01 1.500000000000000000e+01
2.503407716751099077e+00 8.337436318397521973e-01 -6.091674566268920898e-01 1.200000000000000000e+01
2.905931711196898970e+00 9.672381877899169922e-01 -5.953240394592285156e-01 1.300000000000000000e+01
3.490312099456787109e+00 1.160395741462707964e+00 -5.825619697570800781e-01 9.000000000000000000e+00
3.627682113647460938e+01 1.205362892150879084e+01 4.693675994873046875e+00 2.000000000000000000e+01
4.351888179779052734e+00 1.445150136947632058e+00 -5.630363821983337402e-01 1.100000000000000000e+01
5.657779693603515625e+00 1.877706766128540039e+00 -5.215399861335754395e-01 9.000000000000000000e+00
8.203171730041503906e+00 2.719294309616088867e+00 -4.529153704643250067e-01 1.000000000000000000e+00
3.900065994262695312e+01 1.292089271545409979e+01 9.485285758972167969e+00 1.200000000000000000e+01
1.409898948669433949e+01 4.668255329132080078e+00 -2.592380344867705744e-01 2.000000000000000000e+00
2.177762508392333984e+00 7.181184291839599609e-01 -6.144363880157470703e-01 1.500000000000000000e+01
2.506158828735352007e+00 8.254374265670776367e-01 -6.091674566268920898e-01 1.300000000000000000e+01
2.912853002548218218e+00 9.588241577148437500e-01 -5.960872769355773926e-01 1.300000000000000000e+01
3.497894048690795898e+00 1.150049090385437012e+00 -5.831876993179321289e-01 9.000000000000000000e+00
