-2.552759170532227007e+00 -5.879431962966918945e-01 -7.019172310829162598e-01 2.000000000000000000e+01
-4.515854263305664062e+01 -1.039246940612792969e+01 8.088492155075073242e-01 5.300000000000000000e+01
-3.004496335983275923e+00 -6.908814907073974609e-01 -7.117451429367065430e-01 1.500000000000000000e+01
-4.517151641845703125e+01 -1.038715362548827947e+01 2.429121017456055132e+00 3.800000000000000000e+01
-3.578053712844849077e+00 -8.221130967140197754e-01 -7.136256694793701172e-01 1.200000000000000000e+01
-4.459148883819580078e+00 -1.022919774055480957e+00 -7.246044278144836426e-01 1.100000000000000000e+01
-5.967512130737304688e+00 -1.366742730140686035e+00 -7.516900897026062012e-01 9.000000000000000000e+00
-8.945688247680664062e+00 -2.047192811965941939e+00 -8.028786778450012207e-01 1.000000000000000000e+00
-1.838631248474121094e+01 -4.200896739959716797e+00 -9.884168505668640137e-01 2.000000000000000000e+01
-3.427421951293945312e+01 -7.818371772766113281e+00 -6.136265993118286133e-01 1.400000000000000000e+01
-2.558563947677611861e+00 -5.798828601837158203e-01 -7.029525041580200195e-01 2.000000000000000000e+01
-4.512433242797852273e+01 -1.021887397766112926e+01 8.075926303863525391e-01 5.200000000000000000e+01
-2.999286890029906782e+00 -6.786693334579467773e-01 -7.099454998970031738e-01 1.500000000000000000e+01
-4.518801879882813211e+01 -1.022500419616699041e+01 2.428074359893798828e+00 3.700000000000000000e+01
-3.569412231445312944e+00 -8.070206642150878906e-01 -7.113359570503234863e-01 1.100000000000000000e+01
-4.451130867004395419e+00 -1.004738450050354004e+00 -7.227272391319274902e-01 1.100000000000000000e+01
-5.952881336212158203e+00 -1.341539740562438965e+00 -7.492527365684509277e-01 7.000000000000000000e+00
-8.956666946411132812e+00 -2.016829490661621094e+00 -8.032273054122924805e-01 1.000000000000000000e+00
-1.845932388305664062e+01 -4.149833202362061435e+00 -9.915570020675659180e-01 1.300000000000000000e+01
-3.429349899291992188e+01 -7.696932792663574219e+00 -6.134870052337646484e-01 7.000000000000000000e+00
-2.564343690872191939e+00 -5.717890858650207520e-01 -7.039877772331237793e-01 1.800000000000000000e+01
-4.514801788330078125e+01 -1.005868911743164062e+01 8.073832392692565918e-01 5.200000000000000000e+01
-2.994028806686400923e+00 -6.665019392967224121e-01 -7.081459164619445801e-01 1.500000000000000000e+01
-4.518444442749022727e+01 -1.005852699279784979e+01 2.425980806350708008e+00 3.700000000000000000e+01
-3.574123859405518022e+00 -7.949824333190917969e-01 -7.117175459861755371e-01 1.200000000000000000e+01
-4.446897506713867188e+00 -9.874820709228515625e-01 -7.214757800102233887e-01 1.100000000000000000e+01
-5.951713562011718750e+00 -1.319463133811950906e+00 -7.485215067863464355e-01 7.000000000000000000e+00
-8.959761619567871094e+00 -1.984690785408020020e+00 -8.028786778450012207e-01 1.000000000000000000e+00
-1.860240554809569957e+01 -4.113836288452148438e+00 -9.984653592109680176e-01 1.300000000000000000e+01
-3.421861648559570312e+01 -7.554761886596679688e+00 -6.116719245910644531e-01 7.000000000000000000e+00
-2.564338684082030806e+00 -5.628681182861328125e-01 -7.034701704978942871e-01 1.600000000000000000e+01
-4.514987182617188211e+01 -9.902063369750976562e+00 8.068247437477111816e-01 5.200000000000000000e+01
-3.000029802322388139e+00 -6.574040055274963379e-01 -7.090457081794738770e-01 1.500000000000000000e+01
-4.518025970458983664e+01 -9.892198562622070312e+00 2.423887491226195845e+00 3.700000000000000000e+01
-3.570986986160277876e+00 -7.818661332130432129e-01 -7.105727195739746094e-01 1.100000000000000000e+01
-4.459796428680419922e+00 -9.748393297195434570e-01 -7.230401039123535156e-01 1.300000000000000000e+01
-5.940540790557861328e+00 -1.296333551406859907e+00 -7.465716004371643066e-01 9.000000000000000000e+00
-8.958507537841796875e+00 -1.953270554542541948e+00 -8.021814823150634766e-01 1.000000000000000000e+00
-3.417313385009766336e+01 -7.425960540771484375e+00 -6.104153394699096680e-01 7.000000000000000000e+00
-2.564399480819702148e+00 -5.535058975219726562e-01 -7.029525041580200195e-01 1.700000000000000000e+01
-4.517634582519531250e+01 -9.742713928222656250e+00 8.066851496696472168e-01 5.200000000000000000e+01
-3.006116151809691939e+00 -6.477488875389099121e-01 -7.099454998970031738e-01 1.500000000000000000e+01
-4.517546463012695312e+01 -9.726022720336914062e+00 2.421793937683105025e+00 3.700000000000000000e+01
-3.562178850173950195e+00 -7.669170498847961426e-01 -7.082830071449279785e-01 1.100000000000000000e+01
-4.457378387451171875e+00 -9.580205678939819336e-01 -7.221015095710754395e-01 1.100000000000000000e+01
-5.950852394104003906e+00 -1.276838660240172896e+00 -7.473028302192687988e-01 9.000000000000000000e+00
-8.988648414611816406e+00 -1.926999330520630105e+00 -8.042731881141662598e-01 1.000000000000000000e+00
-3.424187088012695312e+01 -7.315820693969726562e+00 -6.111832857131958008e-01 7.000000000000000000e+00
-2.554977416992187944e+00 -5.421451330184936523e-01 -6.998466849327087402e-01 1.900000000000000000e+01
-4.516704177856445312e+01 -9.575835227966308594e+00 8.059172034263610840e-01 5.200000000000000000e+01
-3.008358955383300781e+00 -6.372516155242919922e-01 -7.099454998970031738e-01 1.600000000000000000e+01
-4.517787551879882812e+01 -9.561655044555664062e+00 2.420119285583496094e+00 3.700000000000000000e+01
-3.576358318328856978e+00 -7.569170594215393066e-01 -7.105727195739746094e-01 1.200000000000000000e+01
-4.456830024719238281e+00 -9.416388869285583496e-01 -7.214757800102233887e-01 1.100000000000000000e+01
-5.957215785980224609e+00 -1.256468176841736062e+00 -7.475465536117553711e-01 7.000000000000000000e+00
-8.940732002258300781e+00 -1.884107828140259011e+00 -7.993924617767333984e-01 1.000000000000000000e+00
-3.428676605224608664e+01 -7.200359344482421875e+00 -6.115323305130004883e-01 7.000000000000000000e+00
-2.560636520385742188e+00 -5.340120792388916016e-01 -7.008819580078125000e-01 1.900000000000000000e+01
-4.517670059204102273e+01 -9.413220405578613281e+00 8.054983615875244141e-01 5.200000000000000000e+01
-3.008657217025756836e+00 -6.263494491577148438e-01 -7.094956040382385254e-01 1.700000000000000000e+01
-4.516013336181641336e+01 -9.393321990966796875e+00 2.417397737503052202e+00 3.700000000000000000e+01
-3.584744930267333984e+00 -7.456280589103698730e-01 -7.117175459861755371e-01 1.200000000000000000e+01
-4.456221580505371094e+00 -9.252727031707763672e-01 -7.208499908447265625e-01 1.100000000000000000e+01
-5.965452671051025391e+00 -1.236471772193908913e+00 -7.480340003967285156e-01 1.100000000000000000e+01
-8.931646347045898438e+00 -1.849655151367187944e+00 -7.979979515075683594e-01 1.000000000000000000e+00
-3.441353225708007812e+01 -7.101647853851318359e+00 -6.133473515510559082e-01 7.000000000000000000e+00
-2.564377546310424805e+00 -5.254583358764648438e-01 -7.013996243476867676e-01 1.900000000000000000e+01
-4.517010116577147727e+01 -9.247445106506347656e+00 8.048002719879150391e-01 5.200000000000000000e+01
-2.995551586151123047e+00 -6.127193570137023926e-01 -7.058964371681213379e-01 1.400000000000000000e+01
-4.519264984130858664e+01 -9.235626220703125000e+00 2.417397737503052202e+00 3.700000000000000000e+01
-3.579631805419921875e+00 -7.315380573272705078e-01 -7.101910710334777832e-01 1.300000000000000000e+01
-4.455553054809570312e+00 -9.089222550392150879e-01 -7.202242612838745117e-01 1.100000000000000000e+01
-5.952226161956787109e+00 -1.212075948715209961e+00 -7.458403706550598145e-01 9.000000000000000000e+00
-8.945858001708984375e+00 -1.820055484771728960e+00 -7.986952066421508789e-01 1.000000000000000000e+00
-3.421860885620117188e+01 -6.936980724334716797e+00 -6.094380617141723633e-01 7.000000000000000000e+00
-2.579453229904174805e+00 -5.191720724105834961e-01 -7.050230503082275391e-01 1.900000000000000000e+01
-4.519426345825195312e+01 -9.088138580322265625e+00 8.046606779098510742e-01 5.200000000000000000e+01
-2.997672080993651900e+00 -6.022591590881347656e-01 -7.058964371681213379e-01 1.400000000000000000e+01
-4.518544769287108664e+01 -9.069956779479980469e+00 2.415304422378540039e+00 3.700000000000000000e+01
-3.584088563919066939e+00 -7.194247245788574219e-01 -7.105727195739746094e-01 1.400000000000000000e+01
-4.458698749542236328e+00 -8.933639526367187500e-01 -7.202242612838745117e-01 1.100000000000000000e+01
-5.936955451965332031e+00 -1.187398314476012962e+00 -7.434030175209045410e-01 9.000000000000000000e+00
-8.893544197082519531e+00 -1.777105450630187988e+00 -7.934658527374267578e-01 1.000000000000000000e+00
-3.437205505371093750e+01 -6.843263626098632812e+00 -6.117417216300964355e-01 1.400000000000000000e+01
-2.567983388900756836e+00 -5.075429081916809082e-01 -7.013996243476867676e-01 1.900000000000000000e+01
-4.518255233764647727e+01 -8.921803474426269531e+00 8.038927316665649414e-01 5.200000000000000000e+01
-3.005491733551024947e+00 -5.929232239723205566e-01 -7.072461247444152832e-01 1.500000000000000000e+01
-4.516980361938477273e+01 -8.902905464172363281e+00 2.412792205810546875e+00 3.700000000000000000e+01
-3.578873157501221147e+00 -7.053909301757812500e-01 -7.090462446212768555e-01 1.300000000000000000e+01
-4.469542980194091797e+00 -8.793200254440307617e-01 -7.214757800102233887e-01 1.100000000000000000e+01
-5.952751159667968750e+00 -1.168962359428405984e+00 -7.448654174804687500e-01 9.000000000000000000e+00
-8.903603553771972656e+00 -1.746817469596863015e+00 -7.938144803047180176e-01 1.000000000000000000e+00
-3.440358352661132812e+01 -6.724775314331054688e+00 -6.118813753128051758e-01 7.000000000000000000e+00
-2.558360576629639116e+00 -4.963681995868682861e-01 -6.982938051223754883e-01 1.900000000000000000e+01
-4.516630554199218750e+01 -8.754899978637695312e+00 8.030550479888916016e-01 5.200000000000000000e+01
-3.009456396102904829e+00 -5.827989578247070312e-01 -7.076960206031799316e-01 1.400000000000000000e+01
-4.518491744995117188e+01 -8.742143630981445312e+00 2.411954879760742188e+00 3.700000000000000000e+01
-3.579386234283446822e+00 -6.925210952758789062e-01 -7.086645960807800293e-01 1.200000000000000000e+01
-4.460947513580322266e+00 -8.614657521247863770e-01 -7.195985317230224609e-01 1.100000000000000000e+01
-5.948998451232910156e+00 -1.146673321723937988e+00 -7.438904643058776855e-01 9.000000000000000000e+00
-8.905734062194824219e+00 -1.714974045753479004e+00 -7.934658527374267578e-01 1.000000000000000000e+00
-3.438756942749022727e+01 -6.597108364105224609e+00 -6.111832857131958008e-01 7.000000000000000000e+00
-2.561975240707397017e+00 -4.877961575984954834e-01 -6.988114118576049805e-01 1.800000000000000000e+01
-4.517301559448242188e+01 -8.592702865600585938e+00 8.026361465454101562e-01 5.200000000000000000e+01
-3.001899957656859907e+00 -5.704713463783264160e-01 -7.054464817047119141e-01 1.600000000000000000e+01
-4.519553756713867188e+01 -8.580640792846679688e+00 2.410908222198485884e+00 3.700000000000000000e+01
-3.577924013137816939e+00 -6.792901158332824707e-01 -7.079013586044311523e-01 1.300000000000000000e+01
-4.456164360046386719e+00 -8.444177508354187012e-01 -7.183470726013183594e-01 1.100000000000000000e+01
-5.960766792297363281e+00 -1.127376079559325950e+00 -7.448654174804687500e-01 9.000000000000000000e+00
-8.884257316589355469e+00 -1.678697824478148970e+00 -7.910255193710327148e-01 2.000000000000000000e+00
-3.441825103759766336e+01 -6.478512763977050781e+00 -6.113228797912597656e-01 7.000000000000000000e+00
-2.578854560852050781e+00 -4.816878437995911200e-01 -7.029525041580200195e-01 1.800000000000000000e+01
-4.517521286010742188e+01 -8.429831504821777344e+00 8.021475076675415039e-01 5.100000000000000000e+01
-2.996210098266602007e+00 -5.585607290267944336e-01 -7.036468982696533203e-01 1.500000000000000000e+01
-4.521735763549804688e+01 -8.421363830566406250e+00 2.410489559173583984e+00 3.700000000000000000e+01
-3.587993621826171875e+00 -6.682345271110534668e-01 -7.094278335571289062e-01 1.300000000000000000e+01
-4.466853141784667969e+00 -8.303017020225524902e-01 -7.195985317230224609e-01 1.100000000000000000e+01
-5.952955245971679688e+00 -1.104389786720276101e+00 -7.434030175209045410e-01 9.000000000000000000e+00
-8.878309249877929688e+00 -1.645497322082519975e+00 -7.899796366691589355e-01 2.000000000000000000e+00
-3.439345932006835938e+01 -6.349617958068847656e+00 -6.104851961135864258e-01 1.400000000000000000e+01
-2.572919368743896040e+00 -4.712907373905181885e-01 -7.008819580078125000e-01 2.000000000000000000e+01
-4.519256210327147727e+01 -8.269929885864257812e+00 8.019380569458007812e-01 5.100000000000000000e+01
-3.000058650970458984e+00 -5.484490990638732910e-01 -7.040967941284179688e-01 1.600000000000000000e+01
-4.519146728515625000e+01 -8.253427505493164062e+00 2.407558679580688032e+00 3.700000000000000000e+01
-3.584510564804077148e+00 -6.546478271484375000e-01 -7.082830071449279785e-01 1.300000000000000000e+01
-4.465837478637695312e+00 -8.139959573745727539e-01 -7.189728021621704102e-01 1.100000000000000000e+01
-5.939196586608886719e+00 -1.080405831336975098e+00 -7.412093281745910645e-01 9.000000000000000000e+00
-8.876157760620117188e+00 -1.613071203231811968e+00 -7.892823815345764160e-01 1.000000000000000000e+00
-3.442328643798828125e+01 -6.230948448181152344e+00 -6.106247901916503906e-01 1.400000000000000000e+01
-2.570745706558227983e+00 -4.616238176822661798e-01 -6.998466849327087402e-01 1.900000000000000000e+01
-4.514635848999022727e+01 -8.098711013793945312e+00 8.006116747856140137e-01 5.100000000000000000e+01
-3.007709264755249023e+00 -5.390048027038574219e-01 -7.054464817047119141e-01 1.500000000000000000e+01
-4.520034027099608664e+01 -8.092109680175781250e+00 2.406512022018433061e+00 3.700000000000000000e+01
-3.579043626785277876e+00 -6.407476663589477539e-01 -7.067565321922302246e-01 1.300000000000000000e+01
-4.474485397338867188e+00 -7.994446158409118652e-01 -7.199113965034484863e-01 1.200000000000000000e+01
-5.929251670837402344e+00 -1.057228326797484907e+00 -7.395032048225402832e-01 9.000000000000000000e+00
-8.854272842407226562e+00 -1.577186226844788042e+00 -7.868420481681823730e-01 2.000000000000000000e+00
-3.443301010131835938e+01 -6.108654975891113281e+00 -6.104153394699096680e-01 7.000000000000000000e+00
-2.560925722122191939e+00 -4.506386518478394110e-01 -6.967408657073974609e-01 1.900000000000000000e+01
-4.516253662109375000e+01 -7.938993930816650391e+00 8.004022836685180664e-01 5.100000000000000000e+01
-3.003814220428466797e+00 -5.274915099143981934e-01 -7.040967941284179688e-01 1.400000000000000000e+01
-4.522437667846679688e+01 -7.933591365814208984e+00 2.406302690505981001e+00 3.700000000000000000e+01
-3.583192110061645952e+00 -6.285898089408874512e-01 -7.071381211280822754e-01 1.200000000000000000e+01
-4.471411228179931641e+00 -7.827989459037780762e-01 -7.189728021621704102e-01 1.100000000000000000e+01
-5.946594238281250000e+00 -1.038916349411010964e+00 -7.412093281745910645e-01 1.100000000000000000e+01
-8.867575645446777344e+00 -1.547639608383178933e+00 -7.875393033027648926e-01 2.000000000000000000e+00
-3.425711059570313211e+01 -5.954181194305419922e+00 -6.069248914718627930e-01 1.300000000000000000e+01
-2.568194627761840820e+00 -4.426810741424561102e-01 -6.982938051223754883e-01 2.100000000000000000e+01
-4.514267730712891336e+01 -7.773154735565186435e+00 7.995645403861999512e-01 5.100000000000000000e+01
-3.001796245574951172e+00 -5.163423418998718262e-01 -7.031970024108886719e-01 1.400000000000000000e+01
-4.522423934936522727e+01 -7.770945072174072266e+00 2.404837131500244141e+00 3.600000000000000000e+01
-3.587299585342406782e+00 -6.164107918739318848e-01 -7.075197696685791016e-01 1.300000000000000000e+01
-4.460487842559813565e+00 -7.648491263389587402e-01 -7.167826890945434570e-01 1.200000000000000000e+01
-5.954098224639892578e+00 -1.018822193145751953e+00 -7.416968345642089844e-01 1.100000000000000000e+01
-8.837573051452636719e+00 -1.510634064674376997e+00 -7.844016551971435547e-01 2.000000000000000000e+00
-3.447087478637695312e+01 -5.867449283599854404e+00 -6.103455424308776855e-01 1.400000000000000000e+01
-2.573534011840819868e+00 -4.343567192554473877e-01 -6.993290781974792480e-01 2.200000000000000000e+01
-4.515770339965820312e+01 -7.613535404205322266e+00 7.993551492691040039e-01 5.100000000000000000e+01
-2.997815370559691939e+00 -5.048900246620178223e-01 -7.018473148345947266e-01 1.300000000000000000e+01
-4.522612380981445312e+01 -7.616952896118164062e+00 2.403581142425537109e+00 3.600000000000000000e+01
-3.597173452377318892e+00 -6.051878929138183594e-01 -7.090462446212768555e-01 1.200000000000000000e+01
-4.457286357879638672e+00 -7.482932806015014648e-01 -7.158440947532653809e-01 1.100000000000000000e+01
-5.939997673034667969e+00 -9.950805306434631348e-01 -7.395032048225402832e-01 9.000000000000000000e+00
-8.858512878417968750e+00 -1.482406616210937944e+00 -7.857961654663085938e-01 2.000000000000000000e+00
-3.443986129760742188e+01 -5.738542556762695312e+00 -6.094380617141723633e-01 7.000000000000000000e+00
-2.576940536499022993e+00 -4.256856143474578857e-01 -6.998466849327087402e-01 2.300000000000000000e+01
-4.517216873168945312e+01 -7.453905582427979404e+00 7.991456985473632812e-01 5.100000000000000000e+01
-3.001482248306273970e+00 -4.947395324707031250e-01 -7.022972106933593750e-01 1.400000000000000000e+01
-4.521432495117188211e+01 -7.444650173187255859e+00 2.401487588882445845e+00 3.600000000000000000e+01
-3.593452453613280806e+00 -5.916708707809448242e-01 -7.079013586044311523e-01 1.200000000000000000e+01
-4.467668056488037109e+00 -7.340108752250671387e-01 -7.170956134796142578e-01 1.100000000000000000e+01
-5.925804615020751953e+00 -9.714497327804565430e-01 -7.373095154762268066e-01 1.100000000000000000e+01
-8.847904205322265625e+00 -1.448899865150452104e+00 -7.844016551971435547e-01 2.000000000000000000e+00
-3.444389343261718750e+01 -5.615715503692626953e+00 -6.091588139533996582e-01 6.000000000000000000e+00
-2.572616815567017046e+00 -4.162122309207916260e-01 -6.982938051223754883e-01 2.200000000000000000e+01
-4.518873977661132812e+01 -7.302792549133300781e+00 7.990060448646545410e-01 5.100000000000000000e+01
-2.997334718704224077e+00 -4.838518798351287842e-01 -7.009474635124206543e-01 1.500000000000000000e+01
-4.517833709716796875e+01 -7.293019771575927734e+00 2.398347616195679155e+00 3.600000000000000000e+01
-3.581827402114868164e+00 -5.775635242462158203e-01 -7.052300572395324707e-01 1.200000000000000000e+01
-4.477878570556640625e+00 -7.204467058181762695e-01 -7.183470726013183594e-01 1.100000000000000000e+01
-5.938793659210205078e+00 -9.533669352531433105e-01 -7.385281920433044434e-01 9.000000000000000000e+00
-8.852660179138183594e+00 -1.419551134109497070e+00 -7.844016551971435547e-01 2.000000000000000000e+00
-3.447812652587891336e+01 -5.503986835479736328e+00 -6.094380617141723633e-01 7.000000000000000000e+00
-2.574054002761840820e+00 -4.072295725345612127e-01 -6.982938051223754883e-01 2.100000000000000000e+01
-4.518235397338867188e+01 -7.140015602111816406e+00 7.984476089477539062e-01 5.100000000000000000e+01
-3.006705045700072798e+00 -4.746016561985015869e-01 -7.027471065521240234e-01 1.200000000000000000e+01
-4.519168090820313211e+01 -7.133405208587645596e+00 2.397719383239746094e+00 3.600000000000000000e+01
-3.574125051498413086e+00 -5.635282993316650391e-01 -7.033219337463378906e-01 1.200000000000000000e+01
-4.472560882568359375e+00 -7.035836577415466309e-01 -7.170956134796142578e-01 1.100000000000000000e+01
-5.932279586791992188e+00 -9.310918450355529785e-01 -7.373095154762268066e-01 1.100000000000000000e+01
-8.841814041137695312e+00 -1.386172294616698997e+00 -7.830072045326232910e-01 2.000000000000000000e+00
-3.469470596313477273e+01 -5.414435863494873047e+00 -6.129285097122192383e-01 1.400000000000000000e+01
-2.571641445159912109e+00 -3.976515531539916992e-01 -6.972585320472717285e-01 2.100000000000000000e+01
-4.514376068115233664e+01 -6.972488880157470703e+00 7.973306179046630859e-01 5.100000000000000000e+01
-3.010269403457642046e+00 -4.644005298614501953e-01 -7.031970024108886719e-01 1.400000000000000000e+01
-4.520568084716796875e+01 -6.965896606445313388e+00 2.397091388702393022e+00 3.600000000000000000e+01
-3.589652776718140093e+00 -5.531417727470397949e-01 -7.059932947158813477e-01 1.300000000000000000e+01
-4.465227127075195312e+00 -6.864664554595947266e-01 -7.155312299728393555e-01 1.100000000000000000e+01
-5.939417839050292969e+00 -9.109805822372436523e-01 -7.377970218658447266e-01 1.100000000000000000e+01
-8.826905250549316406e+00 -1.352283000946044922e+00 -7.812640666961669922e-01 2.000000000000000000e+00
-3.474897766113281250e+01 -5.298721790313720703e+00 -6.135568022727966309e-01 1.400000000000000000e+01
-2.571103572845458984e+00 -3.883838653564453125e-01 -6.967408657073974609e-01 2.000000000000000000e+01
-4.517573547363281250e+01 -6.816058635711669922e+00 7.974702715873718262e-01 5.100000000000000000e+01
-2.992602348327637163e+00 -4.509859085083007812e-01 -6.986979842185974121e-01 1.300000000000000000e+01
-4.520878219604492188e+01 -6.812974452972412109e+00 2.396044731140137163e+00 3.600000000000000000e+01
-3.589620351791381836e+00 -5.403159856796264648e-01 -7.056116461753845215e-01 1.300000000000000000e+01
-4.465642929077148438e+00 -6.705823540687561035e-01 -7.152183651924133301e-01 1.100000000000000000e+01
-5.920966625213623047e+00 -8.870074748992919922e-01 -7.351158857345581055e-01 9.000000000000000000e+00
-8.839453697204589844e+00 -1.322642445564270020e+00 -7.819613218307495117e-01 2.000000000000000000e+00
-3.474352645874022727e+01 -5.173858165740966797e+00 -6.131379604339599609e-01 2.100000000000000000e+01
-2.578177213668822798e+00 -3.802523314952849787e-01 -6.982938051223754883e-01 2.100000000000000000e+01
-4.516759872436522727e+01 -6.653661251068115234e+00 7.969117760658264160e-01 5.100000000000000000e+01
-2.996086359024047852e+00 -4.408206939697266180e-01 -6.991478800773620605e-01 1.300000000000000000e+01
-4.521252822875977273e+01 -6.652217388153076172e+00 2.394998073577880859e+00 3.600000000000000000e+01
-3.575945377349853960e+00 -5.254990458488464355e-01 -7.025586962699890137e-01 1.200000000000000000e+01
-4.471865177154541016e+00 -6.555632948875427246e-01 -7.158440947532653809e-01 1.100000000000000000e+01
-5.912241458892822266e+00 -8.646105527877807617e-01 -7.336534261703491211e-01 9.000000000000000000e+00
-8.836130142211914062e+00 -1.290627121925354004e+00 -7.812640666961669922e-01 2.000000000000000000e+00
-3.476137542724608664e+01 -5.052549362182617188e+00 -6.131379604339599609e-01 2.100000000000000000e+01
-2.577576637268065962e+00 -3.709752857685089111e-01 -6.977761387825012207e-01 2.300000000000000000e+01
-4.517867279052733664e+01 -6.494249343872070312e+00 7.967023253440856934e-01 5.100000000000000000e+01
-3.011109590530395952e+00 -4.322982728481292725e-01 -7.022972106933593750e-01 1.300000000000000000e+01
-4.521175003051757812e+01 -6.490950107574462891e+00 2.393742084503173828e+00 3.600000000000000000e+01
-3.585531473159790039e+00 -5.141280889511108398e-01 -7.040851712226867676e-01 1.200000000000000000e+01
-4.479992866516113281e+00 -6.407886743545532227e-01 -7.167826890945434570e-01 1.100000000000000000e+01
-5.934875488281250000e+00 -8.467715978622436523e-01 -7.360908389091491699e-01 1.100000000000000000e+01
-8.832692146301269531e+00 -1.258651137351989968e+00 -7.805668115615844727e-01 1.000000000000000000e+00
-3.473920440673828125e+01 -4.925564289093017578e+00 -6.124398708343505859e-01 1.400000000000000000e+01
-2.565464258193970171e+00 -3.600958883762360174e-01 -6.941526532173156738e-01 2.200000000000000000e+01
-4.518522262573242188e+01 -6.334285736083984375e+00 7.964231371879577637e-01 5.000000000000000000e+01
-3.008740425109862837e+00 -4.212445020675659180e-01 -7.013973593711853027e-01 1.400000000000000000e+01
-4.521039581298828125e+01 -6.329768657684326172e+00 2.392485857009888139e+00 3.600000000000000000e+01
-3.583415746688843218e+00 -5.010653734207153320e-01 -7.033219337463378906e-01 1.200000000000000000e+01
-4.474376678466796875e+00 -6.240552067756652832e-01 -7.155312299728393555e-01 1.000000000000000000e+01
-5.916167259216308594e+00 -8.230410814285278320e-01 -7.334097027778625488e-01 7.000000000000000000e+00
-8.829137802124023438e+00 -1.226714849472045898e+00 -7.798695564270019531e-01 2.000000000000000000e+00
-3.479580307006835938e+01 -4.809748172760009766e+00 -6.131379604339599609e-01 7.000000000000000000e+00
-2.564791679382324219e+00 -3.508767187595366877e-01 -6.936350464820861816e-01 2.000000000000000000e+01
-4.517932128906250000e+01 -6.172731399536132812e+00 7.959344387054443359e-01 5.000000000000000000e+01
-3.006330728530883789e+00 -4.102125465869904120e-01 -7.004975676536560059e-01 1.300000000000000000e+01
-4.523221588134766336e+01 -6.171916484832763672e+00 2.392485857009888139e+00 3.600000000000000000e+01
-3.583197593688964844e+00 -4.882887601852416992e-01 -7.029403448104858398e-01 1.200000000000000000e+01
-4.468698024749755859e+00 -6.073687672615051270e-01 -7.142797708511352539e-01 1.000000000000000000e+01
-5.917037487030029297e+00 -8.021181225776672363e-01 -7.331659793853759766e-01 9.000000000000000000e+00
-8.821519851684570312e+00 -1.194284081459044966e+00 -7.788237333297729492e-01 1.000000000000000000e+00
-3.484012222290039062e+01 -4.691995143890380859e+00 -6.136265993118286133e-01 1.400000000000000000e+01
-2.577490329742432085e+00 -3.434527814388275146e-01 -6.967408657073974609e-01 2.000000000000000000e+01
-4.518077087402343750e+01 -6.012351036071777344e+00 7.955853939056396484e-01 5.000000000000000000e+01
-2.984563350677489790e+00 -3.966353535652161200e-01 -6.950987577438354492e-01 1.400000000000000000e+01
-4.524661254882813211e+01 -6.005039691925048828e+00 2.392067193984984907e+00 3.600000000000000000e+01
-3.586826324462891069e+00 -4.760363996028900146e-01 -7.033219337463378906e-01 1.200000000000000000e+01
-4.470790863037109375e+00 -5.917664170265197754e-01 -7.142797708511352539e-01 1.000000000000000000e+01
-5.915864944458007812e+00 -7.809393405914306641e-01 -7.326784729957580566e-01 9.000000000000000000e+00
-8.805882453918457031e+00 -1.160879969596863015e+00 -7.770805954933166504e-01 2.000000000000000000e+00
-3.486818695068358664e+01 -4.571911811828613281e+00 -6.138360500335693359e-01 7.000000000000000000e+00
-2.588252544403076172e+00 -3.356959521770476740e-01 -6.993290781974792480e-01 2.100000000000000000e+01
-4.518958282470703125e+01 -5.853062629699707031e+00 7.953759431838989258e-01 5.000000000000000000e+01
-2.993660211563109907e+00 -3.872147798538208008e-01 -6.968983411788940430e-01 1.400000000000000000e+01
-4.519995117187500000e+01 -5.838363647460938388e+00 2.388508319854735884e+00 3.600000000000000000e+01
-3.594307422637939009e+00 -4.642676413059235174e-01 -7.044668197631835938e-01 1.300000000000000000e+01
-4.472829341888427734e+00 -5.761568546295166016e-01 -7.142797708511352539e-01 1.000000000000000000e+01
-5.920524120330811435e+00 -7.605372667312622070e-01 -7.329222559928894043e-01 1.100000000000000000e+01
-8.801976203918457031e+00 -1.129120588302612083e+00 -7.763833403587341309e-01 2.000000000000000000e+00
-1.807370758056640980e+01 -2.312089204788208008e+00 -9.549218416213989258e-01 6.000000000000000000e+00
-3.486409759521483664e+01 -4.447640419006347656e+00 -6.134870052337646484e-01 1.400000000000000000e+01
-2.579825162887572798e+00 -3.254502713680266779e-01 -6.967408657073974609e-01 2.000000000000000000e+01
-4.519783401489257812e+01 -5.693786621093750000e+00 7.951665520668029785e-01 5.000000000000000000e+01
-2.994993686676024947e+00 -3.767625689506530762e-01 -6.968983411788940430e-01 1.400000000000000000e+01
-4.478408432006835938e+01 -5.625784397125244141e+00 2.365480661392211914e+00 3.500000000000000000e+01
-3.574478864669799805e+00 -4.490266144275664728e-01 -7.002689838409423828e-01 1.200000000000000000e+01
-4.478262329101563211e+01 -5.617661476135253906e+00 3.948678016662598100e+00 5.400000000000000000e+01
-4.478733539581298828e+00 -5.610312819480895996e-01 -7.149055004119873047e-01 1.000000000000000000e+01
-5.915263652801513672e+00 -7.388819456100463867e-01 -7.319473028182983398e-01 1.100000000000000000e+01
-8.813772201538085938e+00 -1.099375486373900923e+00 -7.770805954933166504e-01 2.000000000000000000e+00
-3.480399703979492188e+01 -4.316562175750732422e+00 -6.121606230735778809e-01 2.100000000000000000e+01
-2.567523002624512163e+00 -3.147973418235778809e-01 -6.931173801422119141e-01 2.100000000000000000e+01
-4.470136642456054688e+01 -5.472799777984619141e+00 7.860912680625915527e-01 4.900000000000000000e+01
-2.998224735260010210e+00 -3.665422797203063965e-01 -6.973482966423034668e-01 1.400000000000000000e+01
-4.475983428955078125e+01 -5.464099884033203125e+00 2.363177776336669922e+00 3.500000000000000000e+01
-3.583819627761840820e+00 -4.374982118606566828e-01 -7.017954587936401367e-01 1.200000000000000000e+01
-4.478614044189453125e+01 -5.459378242492675781e+00 3.947283506393433061e+00 5.400000000000000000e+01
-4.482625484466552734e+00 -5.456328392028808594e-01 -7.152183651924133301e-01 1.000000000000000000e+01
-5.913865566253662109e+00 -7.177510261535644531e-01 -7.314597964286804199e-01 1.100000000000000000e+01
-8.793820381164550781e+00 -1.065726518630981001e+00 -7.749888896942138672e-01 2.000000000000000000e+00
-3.481091308593750000e+01 -4.194090843200683594e+00 -6.120209693908691406e-01 2.100000000000000000e+01
-2.576279401779174805e+00 -3.067466914653778076e-01 -6.951879262924194336e-01 2.100000000000000000e+01
-4.470034027099608664e+01 -5.314368724822998047e+00 7.857422232627868652e-01 4.900000000000000000e+01
-2.999485969543457031e+00 -3.560743033885955811e-01 -6.973482966423034668e-01 1.400000000000000000e+01
-4.472508239746093750e+01 -5.301477909088134766e+00 2.360351562500000000e+00 3.500000000000000000e+01
-3.571677684783935991e+00 -4.233680367469788153e-01 -6.991241574287414551e-01 1.300000000000000000e+01
-4.477722167968750000e+01 -5.299733638763427734e+00 3.944843292236328125e+00 5.400000000000000000e+01
-4.472732543945313388e+00 -5.285912156105041504e-01 -7.133411765098571777e-01 8.000000000000000000e+00
-5.922249317169188565e+00 -6.978002786636352539e-01 -7.321910262107849121e-01 9.000000000000000000e+00
-8.769784927368164062e+00 -1.031764745712280051e+00 -7.725484967231750488e-01 2.000000000000000000e+00
-3.484520339965820312e+01 -4.074874877929688388e+00 -6.123700141906738281e-01 2.100000000000000000e+01
-2.583091735839844194e+00 -2.984170615673065186e-01 -6.967408657073974609e-01 1.900000000000000000e+01
-4.470669937133789062e+01 -5.156928062438964844e+00 7.855328321456909180e-01 4.900000000000000000e+01
-2.985223054885863814e+00 -3.438182175159453791e-01 -6.937490701675415039e-01 1.400000000000000000e+01
-4.473537826538085938e+01 -5.144413471221923828e+00 2.359932899475098100e+00 3.400000000000000000e+01
-3.592637777328491211e+00 -4.131408631801605225e-01 -7.029403448104858398e-01 1.200000000000000000e+01
-4.479149246215820312e+01 -5.142945289611816406e+00 3.944494724273682085e+00 5.400000000000000000e+01
-4.466700077056884766e+00 -5.120753049850463867e-01 -7.120896577835083008e-01 8.000000000000000000e+00
-5.908870697021484375e+00 -6.753202080726623535e-01 -7.302411198616027832e-01 1.100000000000000000e+01
-8.785210609436035156e+00 -1.002501487731934038e+00 -7.735943794250488281e-01 2.000000000000000000e+00
-3.480755233764647727e+01 -3.947359085083007812e+00 -6.114625334739685059e-01 1.400000000000000000e+01
-2.576438426971435991e+00 -2.885385453701018732e-01 -6.946703195571899414e-01 1.800000000000000000e+01
-4.469660568237304688e+01 -4.997730255126953125e+00 7.850441336631774902e-01 4.900000000000000000e+01
-2.994152069091796875e+00 -3.342605829238892157e-01 -6.955486536026000977e-01 1.300000000000000000e+01
-4.470145416259766336e+01 -4.982473850250244141e+00 2.357211351394652876e+00 3.400000000000000000e+01
-3.576497316360474077e+00 -3.986403644084929865e-01 -6.995058059692382812e-01 1.200000000000000000e+01
-4.479927062988281250e+01 -4.985460281372070312e+00 3.943623065948485884e+00 5.400000000000000000e+01
-4.476313591003417969e+00 -4.973530173301696777e-01 -7.133411765098571777e-01 8.000000000000000000e+00
-5.903299808502197266e+00 -6.538162231445312500e-01 -7.292661666870117188e-01 9.000000000000000000e+00
-8.768853187561035156e+00 -9.696394801139831543e-01 -7.718512415885925293e-01 2.000000000000000000e+00
-3.482112121582031250e+01 -3.825834035873413086e+00 -6.114625334739685059e-01 1.400000000000000000e+01
-2.573588609695435014e+00 -2.791267335414885919e-01 -6.936350464820861816e-01 1.800000000000000000e+01
-4.472968673706054688e+01 -4.843401432037354404e+00 7.853233814239501953e-01 4.900000000000000000e+01
-3.003050327301024947e+00 -3.246448040008544922e-01 -6.973482966423034668e-01 1.400000000000000000e+01
-4.472651672363281250e+01 -4.827263832092285156e+00 2.357630252838135210e+00 3.400000000000000000e+01
-3.566155672073363814e+00 -3.848896324634552002e-01 -6.972160935401916504e-01 1.200000000000000000e+01
-4.480451202392578125e+01 -4.827770709991455078e+00 3.942577123641968218e+00 5.400000000000000000e+01
-4.474094390869140625e+00 -4.813021719455718994e-01 -7.127154469490051270e-01 8.000000000000000000e+00
-5.905546188354492188e+00 -6.332058906555175781e-01 -7.292661666870117188e-01 9.000000000000000000e+00
-8.772184371948242188e+00 -9.390245676040649414e-01 -7.718512415885925293e-01 2.000000000000000000e+00
-3.476665496826171875e+01 -3.697072744369506836e+00 -6.102757453918457031e-01 1.400000000000000000e+01
-2.568783521652222124e+00 -2.695367336273192804e-01 -6.920821070671081543e-01 1.900000000000000000e+01
-4.473040771484375000e+01 -4.685569763183593750e+00 7.850441336631774902e-01 4.900000000000000000e+01
-3.002227067947388139e+00 -3.139575421810150146e-01 -6.968983411788940430e-01 1.500000000000000000e+01
-4.484639358520507812e+01 -4.681893348693847656e+00 2.363073110580443892e+00 3.500000000000000000e+01
-3.571382761001586914e+00 -3.728467822074890137e-01 -6.979793310165405273e-01 1.200000000000000000e+01
-4.476956939697266336e+01 -4.665974617004395419e+00 3.938045024871826172e+00 5.400000000000000000e+01
-4.475747108459472656e+00 -4.656817317008972168e-01 -7.127154469490051270e-01 8.000000000000000000e+00
-5.907720565795898438e+00 -6.125878095626831055e-01 -7.292661666870117188e-01 1.100000000000000000e+01
-8.743700027465820312e+00 -9.051158428192138672e-01 -7.690622806549072266e-01 2.000000000000000000e+00
-3.479526138305664062e+01 -3.577328205108643022e+00 -6.105549931526184082e-01 2.100000000000000000e+01
-2.569708585739136186e+00 -2.605683803558350164e-01 -6.920821070671081543e-01 1.600000000000000000e+01
-2.999426841735839844e+00 -3.030840754508972168e-01 -6.959985494613647461e-01 1.600000000000000000e+01
-3.586335897445679155e+00 -3.617573082447052002e-01 -7.006506323814392090e-01 1.300000000000000000e+01
-4.478162002563477273e+01 -4.509272098541259766e+00 3.937696456909180132e+00 5.400000000000000000e+01
-4.473414421081542969e+00 -4.496605098247528076e-01 -7.120896577835083008e-01 8.000000000000000000e+00
-5.913773536682128906e+00 -5.923579931259155273e-01 -7.297536134719848633e-01 9.000000000000000000e+00
-8.762665748596191406e+00 -8.761749863624572754e-01 -7.704567909240722656e-01 2.000000000000000000e+00
-3.480952453613281250e+01 -3.456045866012572798e+00 -6.105898618698120117e-01 2.100000000000000000e+01
-2.584061145782471147e+00 -2.529140710830687921e-01 -6.957055926322937012e-01 1.900000000000000000e+01
-2.984950304031372070e+00 -2.910990715026854914e-01 -6.923993229866027832e-01 1.600000000000000000e+01
-3.583668708801269975e+00 -3.488560318946837824e-01 -6.998873949050903320e-01 1.200000000000000000e+01
-4.477725601196289062e+01 -4.351000308990479404e+00 3.935953378677368164e+00 5.400000000000000000e+01
-4.474956989288330078e+00 -4.340426325798035223e-01 -7.120896577835083008e-01 8.000000000000000000e+00
-5.909877300262451172e+00 -5.711386203765869141e-01 -7.290223836898803711e-01 1.100000000000000000e+01
-8.757738113403320312e+00 -8.448169827461242676e-01 -7.697595357894897461e-01 2.000000000000000000e+00
-3.482535934448242188e+01 -3.334897994995117188e+00 -6.106597185134887695e-01 2.100000000000000000e+01
-2.581081628799438032e+00 -2.435295432806015015e-01 -6.946703195571899414e-01 2.000000000000000000e+01
-2.991768836975098100e+00 -2.812250256538391113e-01 -6.937490701675415039e-01 1.400000000000000000e+01
-3.563363313674927202e+00 -3.343272209167479914e-01 -6.956896185874938965e-01 1.200000000000000000e+01
-4.480010604858397727e+01 -4.195415496826171875e+00 3.936650514602661133e+00 5.400000000000000000e+01
-4.468577384948729581e+00 -4.176841080188751221e-01 -7.108381986618041992e-01 8.000000000000000000e+00
-5.901952266693115234e+00 -5.495855212211608887e-01 -7.278037071228027344e-01 9.000000000000000000e+00
-8.736827850341796875e+00 -8.120290040969848633e-01 -7.676677703857421875e-01 2.000000000000000000e+00
-3.480293655395507812e+01 -3.210192203521728960e+00 -6.100662946701049805e-01 2.100000000000000000e+01
-2.570331573486328125e+00 -2.339185029268265048e-01 -6.915645003318786621e-01 2.000000000000000000e+01
-3.000447988510131836e+00 -2.720061838626862127e-01 -6.955486536026000977e-01 1.400000000000000000e+01
-3.564452171325684038e+00 -3.225088715553284247e-01 -6.956896185874938965e-01 1.200000000000000000e+01
-4.480583572387695312e+01 -4.046113014221191406e+00 3.935953378677368164e+00 5.400000000000000000e+01
-4.469937801361083984e+00 -4.028634727001190186e-01 -7.108381986618041992e-01 8.000000000000000000e+00
-5.915605068206787109e+00 -5.310758948326110840e-01 -7.292661666870117188e-01 9.000000000000000000e+00
-8.735503196716308594e+00 -7.826966047286987305e-01 -7.673191428184509277e-01 2.000000000000000000e+00
-3.481538391113281250e+01 -3.094940900802611861e+00 -6.101012229919433594e-01 2.100000000000000000e+01
-2.571132421493529829e+00 -2.249449491500853937e-01 -6.915645003318786621e-01 2.000000000000000000e+01
-3.005262136459351030e+00 -2.618693411350250244e-01 -6.964484453201293945e-01 1.400000000000000000e+01
-3.563600540161132812e+00 -3.098945617675781250e-01 -6.953079700469970703e-01 1.200000000000000000e+01
-4.478792572021483664e+01 -3.886930465698242188e+00 3.933164358139038086e+00 5.400000000000000000e+01
-4.475253105163574219e+00 -3.875989317893981934e-01 -7.114639282226562500e-01 8.000000000000000000e+00
-5.893690109252929688e+00 -5.083762407302856445e-01 -7.263413071632385254e-01 9.000000000000000000e+00
-8.706421852111816406e+00 -7.494651675224304199e-01 -7.645301818847656250e-01 3.000000000000000000e+00
-3.481202697753906250e+01 -2.972202777862548828e+00 -6.098569035530090332e-01 2.100000000000000000e+01
-2.573827028274536133e+00 -2.161303013563156128e-01 -6.920821070671081543e-01 2.100000000000000000e+01
-2.998389959335327148e+00 -2.507278621196746826e-01 -6.946488618850708008e-01 1.300000000000000000e+01
-3.566617012023925781e+00 -2.976166307926177979e-01 -6.956896185874938965e-01 1.200000000000000000e+01
-4.478136825561522727e+01 -3.728914499282836914e+00 3.931421279907227007e+00 5.400000000000000000e+01
-4.464767456054688388e+00 -3.709935545921326239e-01 -7.095867395401000977e-01 8.000000000000000000e+00
-5.899385452270507812e+00 -4.881276786327362061e-01 -7.268287539482116699e-01 9.000000000000000000e+00
-8.693099975585937500e+00 -7.177579402923583984e-01 -7.631356716156005859e-01 2.000000000000000000e+00
-3.481023025512695312e+01 -2.849689245223999023e+00 -6.096474528312683105e-01 1.400000000000000000e+01
-2.564937829971313032e+00 -2.063699960708617887e-01 -6.894939541816711426e-01 2.000000000000000000e+01
-2.977879285812377930e+00 -2.385482937097548883e-01 -6.896999478340148926e-01 1.500000000000000000e+01
-3.571547985076903853e+00 -2.854778468608856201e-01 -6.964528560638427734e-01 1.200000000000000000e+01
-4.483383178710938211e+01 -3.575743675231934038e+00 3.934907436370850053e+00 5.400000000000000000e+01
-4.462096691131591797e+00 -3.550929427146912176e-01 -7.089610099792480469e-01 8.000000000000000000e+00
-5.899074554443359375e+00 -4.673752188682556152e-01 -7.265850305557250977e-01 1.100000000000000000e+01
-8.687607765197753906e+00 -6.867809295654296875e-01 -7.624384164810180664e-01 2.000000000000000000e+00
-1.756749534606933949e+01 -1.382591843605041948e+00 -9.235202670097351074e-01 5.000000000000000000e+00
-3.480800628662108664e+01 -2.727224111557006836e+00 -6.094380617141723633e-01 1.400000000000000000e+01
-2.581051826477050781e+00 -1.986011117696762085e-01 -6.936350464820861816e-01 1.800000000000000000e+01
-2.992295026779174805e+00 -2.291938960552216131e-01 -6.928492188453674316e-01 1.400000000000000000e+01
-3.572522878646851030e+00 -2.730090916156768799e-01 -6.964528560638427734e-01 1.200000000000000000e+01
-4.479041290283203125e+01 -3.414981603622436968e+00 3.930026769638061968e+00 5.400000000000000000e+01
-4.463309288024902344e+00 -3.395151495933533270e-01 -7.089610099792480469e-01 8.000000000000000000e+00
-5.892752170562744141e+00 -4.461812674999237061e-01 -7.256100773811340332e-01 1.100000000000000000e+01
-8.697898864746093750e+00 -6.570516824722290039e-01 -7.631356716156005859e-01 2.000000000000000000e+00
-3.478341293334960938e+01 -2.603168010711669922e+00 -6.088446378707885742e-01 2.000000000000000000e+01
-2.570169210433959961e+00 -1.887414306402205866e-01 -6.905292272567749023e-01 1.800000000000000000e+01
-4.496263504028320312e+01 -3.293959856033325195e+00 7.869290113449096680e-01 4.900000000000000000e+01
-2.989189863204956055e+00 -2.184633612632750910e-01 -6.919494271278381348e-01 1.300000000000000000e+01
-3.557789564132689986e+00 -2.593949139118195135e-01 -6.933999061584472656e-01 1.200000000000000000e+01
-4.479808807373046875e+01 -3.258323907852172852e+00 3.929678201675415039e+00 5.400000000000000000e+01
-4.460526466369628906e+00 -3.236473202705382746e-01 -7.083352804183959961e-01 1.000000000000000000e+01
-5.886353969573974609e+00 -4.250371456146240234e-01 -7.246351242065429688e-01 1.100000000000000000e+01
-8.656419754028320312e+00 -6.235371828079223633e-01 -7.593008279800415039e-01 2.000000000000000000e+00
-3.477433776855468750e+01 -2.480454921722412109e+00 -6.085305213928222656e-01 1.300000000000000000e+01
-2.566958189010620117e+00 -1.794991940259932917e-01 -6.894939541816711426e-01 1.800000000000000000e+01
-2.997710227966309038e+00 -2.085688412189483920e-01 -6.937490701675415039e-01 1.400000000000000000e+01
-3.558673381805419922e+00 -2.469743192195892056e-01 -6.933999061584472656e-01 1.200000000000000000e+01
-4.479726409912108664e+01 -3.101104021072388139e+00 3.928632259368896040e+00 5.400000000000000000e+01
-4.459658622741699219e+00 -3.079391121864318848e-01 -7.080224156379699707e-01 1.000000000000000000e+01
-5.887801647186279297e+00 -4.044873416423798163e-01 -7.246351242065429688e-01 1.100000000000000000e+01
-8.626740455627441406e+00 -5.911375284194946289e-01 -7.565118670463562012e-01 2.000000000000000000e+00
-1.738174629211426137e+01 -1.184968590736388938e+00 -9.130530953407287598e-01 5.000000000000000000e+00
-3.476682281494141336e+01 -2.357972145080565962e+00 -6.082512736320495605e-01 1.300000000000000000e+01
-2.563713788986206055e+00 -1.702816933393478116e-01 -6.884586811065673828e-01 2.000000000000000000e+01
-2.994531154632567915e+00 -1.978466659784317017e-01 -6.928492188453674316e-01 1.300000000000000000e+01
-3.565390825271606001e+00 -2.349379956722260077e-01 -6.945447325706481934e-01 1.300000000000000000e+01
-4.478793334960938211e+01 -2.943406820297241211e+00 3.926889181137084961e+00 5.400000000000000000e+01
-4.450850486755371094e+00 -2.917241454124451239e-01 -7.064580321311950684e-01 8.000000000000000000e+00
-5.889177799224854404e+00 -3.839326202869414728e-01 -7.246351242065429688e-01 1.100000000000000000e+01
-8.640680313110351562e+00 -5.617965459823608398e-01 -7.575576901435852051e-01 3.000000000000000000e+00
-3.477883148193358664e+01 -2.236855506896973100e+00 -6.083210706710815430e-01 2.000000000000000000e+01
-2.575860977172852007e+00 -1.620594263076781949e-01 -6.915645003318786621e-01 2.300000000000000000e+01
-2.979644060134888139e+00 -1.864191293716430942e-01 -6.892500519752502441e-01 1.300000000000000000e+01
-3.575986385345458984e+00 -2.231022566556931097e-01 -6.964528560638427734e-01 1.200000000000000000e+01
-4.478998184204102273e+01 -2.786555051803588867e+00 3.926191806793212891e+00 5.400000000000000000e+01
-4.447898387908936435e+00 -2.759413719177246094e-01 -7.058323025703430176e-01 8.000000000000000000e+00
-5.886519432067871094e+00 -3.631287515163422186e-01 -7.241476178169250488e-01 1.100000000000000000e+01
-8.666452407836914062e+00 -5.330994725227355957e-01 -7.596494555473327637e-01 2.000000000000000000e+00
-1.731782722473144887e+01 -1.059203743934630904e+00 -9.092848896980285645e-01 5.000000000000000000e+00
-3.476646804809570312e+01 -2.114227294921875000e+00 -6.079720258712768555e-01 1.300000000000000000e+01
-2.580267906188964844e+00 -1.532961577177048007e-01 -6.925997734069824219e-01 2.000000000000000000e+01
-2.980276584625244141e+00 -1.760170906782149991e-01 -6.892500519752502441e-01 1.400000000000000000e+01
-4.497380447387695312e+01 -2.656182289123535156e+00 2.361084222793579102e+00 3.500000000000000000e+01
-3.564984321594237837e+00 -2.099259346723557074e-01 -6.941631436347961426e-01 1.200000000000000000e+01
-4.481137084960938211e+01 -2.630892515182495117e+00 3.927237749099731001e+00 5.400000000000000000e+01
-4.456722736358642578e+00 -2.608753740787506104e-01 -7.070837616920471191e-01 8.000000000000000000e+00
-5.860006809234619141e+00 -3.409644663333892822e-01 -7.207353115081787109e-01 1.100000000000000000e+01
-8.656326293945312500e+00 -5.021523237228393555e-01 -7.586035728454589844e-01 2.000000000000000000e+00
-1.729350471496582031e+01 -9.971371889114379883e-01 -9.078195095062255859e-01 5.000000000000000000e+00
-3.474169540405272727e+01 -1.991026282310486062e+00 -6.074135303497314453e-01 1.300000000000000000e+01
-2.571142911911011186e+00 -1.437492072582244873e-01 -6.900115609169006348e-01 2.100000000000000000e+01
-2.988655805587768999e+00 -1.660453230142593106e-01 -6.910496354103088379e-01 2.000000000000000000e+01
-4.498279953002929688e+01 -2.499178171157836914e+00 2.361084222793579102e+00 3.500000000000000000e+01
-3.553933858871459961e+00 -1.968291550874710083e-01 -6.918734312057495117e-01 1.200000000000000000e+01
-4.480038452148438211e+01 -2.473357439041138139e+00 3.925494670867919922e+00 5.400000000000000000e+01
-4.461550712585449219e+00 -2.455340027809143066e-01 -7.077094912528991699e-01 8.000000000000000000e+00
-5.861161231994628906e+00 -3.205071389675139826e-01 -7.207353115081787109e-01 1.100000000000000000e+01
-8.630173683166503906e+00 -4.704149067401885986e-01 -7.561632394790649414e-01 2.000000000000000000e+00
-1.719716262817383168e+01 -9.313650727272033691e-01 -9.025859236717224121e-01 5.000000000000000000e+00
-3.472646713256835938e+01 -1.868561029434204102e+00 -6.070296168327331543e-01 2.000000000000000000e+01
-2.563912153244018999e+00 -1.343689411878586093e-01 -6.879410147666931152e-01 2.100000000000000000e+01
-2.998947620391846147e+00 -1.561184972524642944e-01 -6.932991743087768555e-01 2.500000000000000000e+01
-4.499124908447266336e+01 -2.342143774032593218e+00 2.361084222793579102e+00 3.500000000000000000e+01
-3.562441587448120117e+00 -1.848292946815491000e-01 -6.933999061584472656e-01 1.300000000000000000e+01
-4.477691268920897727e+01 -2.315313577651977983e+00 3.922705650329589844e+00 5.400000000000000000e+01
-4.454489707946777344e+00 -2.295521348714827936e-01 -7.064580321311950684e-01 8.000000000000000000e+00
-5.870174407958984375e+00 -3.004517853260039728e-01 -7.217102646827697754e-01 1.100000000000000000e+01
-8.603906631469726562e+00 -4.388661682605742853e-01 -7.537228465080261230e-01 2.000000000000000000e+00
-3.472279357910156250e+01 -1.746829390525818093e+00 -6.068550944328308105e-01 2.000000000000000000e+01
-2.558577060699462891e+00 -1.251352876424788874e-01 -6.863881349563598633e-01 1.900000000000000000e+01
-2.991688489913939986e+00 -1.452712118625640869e-01 -6.914995312690734863e-01 2.100000000000000000e+01
