3.252948284149169922e+00 1.576741337776184082e+00 -5.725501179695129395e-01 1.100000000000000000e+01
3.861793136596679688e+01 1.871023178100585938e+01 5.268898963928222656e+00 3.100000000000000000e+01
4.016304492950438565e+00 1.945017695426940918e+00 -5.479245781898498535e-01 1.000000000000000000e+01
3.431285476684570312e+01 1.661704444885253906e+01 6.038370132446289062e+00 1.300000000000000000e+01
5.286740779876708984e+00 2.559126138687133789e+00 -5.138702392578125000e-01 9.000000000000000000e+00
7.571454048156738281e+00 3.661814451217650923e+00 -4.407734274864196777e-01 2.000000000000000000e+00
1.251358032226563033e+01 6.046607017517089844e+00 -2.425884455442428866e-01 2.000000000000000000e+00
3.603182983398438211e+01 1.740295410156250000e+01 1.072183799743651988e+01 9.000000000000000000e+00
2.050255537033081055e+00 9.876029491424560547e-01 -6.097776889801025391e-01 1.500000000000000000e+01
2.351237058639525923e+00 1.131574034690856934e+00 -6.024188995361328125e-01 1.600000000000000000e+01
2.706863641738892046e+00 1.302143692970276101e+00 -5.838755369186401367e-01 1.200000000000000000e+01
3.259939432144165039e+00 1.566801190376281960e+00 -5.728629827499389648e-01 1.000000000000000000e+01
3.859029769897460938e+01 1.853908729553223012e+01 5.256712436676025391e+00 3.100000000000000000e+01
4.045995235443115234e+00 1.942859292030334029e+00 -5.510931611061096191e-01 8.000000000000000000e+00
5.282624721527099609e+00 2.535545587539672852e+00 -5.126500725746154785e-01 9.000000000000000000e+00
7.597962856292724609e+00 3.643595218658446822e+00 -4.416108131408690851e-01 2.000000000000000000e+00
3.209690475463867188e+01 1.538514900207520064e+01 8.217461585998535156e+00 1.000000000000000000e+01
1.256963062286376953e+01 6.022357940673828125e+00 -2.432865500450134000e-01 2.000000000000000000e+00
3.499222183227539062e+01 1.676546287536621094e+01 1.039676094055175959e+01 8.000000000000000000e+00
2.051947116851807085e+00 9.796078801155090332e-01 -6.092600226402282715e-01 1.600000000000000000e+01
2.360449314117432085e+00 1.125876545906066895e+00 -6.037686467170715332e-01 1.600000000000000000e+01
2.718481063842772993e+00 1.296066641807555930e+00 -5.854020118713378906e-01 1.300000000000000000e+01
3.254688501358031782e+00 1.550315499305725098e+00 -5.709857940673828125e-01 1.000000000000000000e+01
4.065299510955811435e+00 1.934695601463318093e+00 -5.527993440628051758e-01 6.000000000000000000e+00
3.463138198852539062e+01 1.647382736206055043e+01 6.074037551879882812e+00 1.400000000000000000e+01
5.282446861267089844e+00 2.512811183929442915e+00 -5.117785334587097168e-01 9.000000000000000000e+00
7.617850303649902344e+00 3.620480537414550781e+00 -4.420294761657714844e-01 2.000000000000000000e+00
3.206592559814453125e+01 1.523287963867188033e+01 8.195866584777832031e+00 1.000000000000000000e+01
1.257251167297362926e+01 5.969867706298828125e+00 -2.429374903440474909e-01 2.000000000000000000e+00
3.492602920532227273e+01 1.657662963867187855e+01 1.035897350311278942e+01 1.700000000000000000e+01
2.060592889785767046e+00 9.749178886413574219e-01 -6.108129620552062988e-01 1.500000000000000000e+01
2.355556011199951172e+00 1.113466143608093040e+00 -6.015191078186035156e-01 1.500000000000000000e+01
2.731864213943481001e+00 1.290763020515441895e+00 -5.873100757598876953e-01 1.200000000000000000e+01
3.258293867111206055e+00 1.538101792335510032e+00 -5.706729292869567871e-01 9.000000000000000000e+00
4.039710521697998047e+00 1.905251264572143999e+00 -5.484120249748229980e-01 7.000000000000000000e+00
5.301999092102050781e+00 2.499454021453856978e+00 -5.128244161605834961e-01 9.000000000000000000e+00
7.630442142486572266e+00 3.593867301940917969e+00 -4.420294761657714844e-01 2.000000000000000000e+00
3.259141921997070312e+01 1.534330654144286932e+01 8.316440582275390625e+00 1.000000000000000000e+01
1.258241844177245916e+01 5.920836448669433594e+00 -2.427280694246292114e-01 2.000000000000000000e+00
3.485495376586914062e+01 1.640149688720703125e+01 1.032170391082764027e+01 1.700000000000000000e+01
2.076227188110352007e+00 9.734598398208618164e-01 -6.144363880157470703e-01 1.400000000000000000e+01
2.361192941665648970e+00 1.106063604354857954e+00 -6.019690036773681641e-01 1.400000000000000000e+01
2.716794967651367188e+00 1.272061586380005105e+00 -5.831122994422912598e-01 1.200000000000000000e+01
3.274378776550292969e+00 1.531740903854369895e+00 -5.725501179695129395e-01 1.100000000000000000e+01
4.067916870117188388e+00 1.901224493980407937e+00 -5.513368844985961914e-01 1.100000000000000000e+01
3.490304183959960938e+01 1.630523109436035156e+01 6.101569652557373047e+00 1.400000000000000000e+01
5.334158420562744141e+00 2.491894006729125977e+00 -5.150904655456542969e-01 9.000000000000000000e+00
3.351406097412108664e+01 1.564923286437987926e+01 7.189682960510253906e+00 6.100000000000000000e+01
7.642940521240234375e+00 3.567210197448730025e+00 -4.420294761657714844e-01 2.000000000000000000e+00
3.210084533691406250e+01 1.497569274902343928e+01 8.177870750427246094e+00 1.000000000000000000e+01
1.260300922393799006e+01 5.876879692077636719e+00 -2.427280694246292114e-01 5.000000000000000000e+00
3.758160018920897727e+01 1.751660156250000000e+01 1.111006641387938920e+01 1.000000000000000000e+01
2.072772741317749023e+00 9.625888466835021973e-01 -6.123658418655395508e-01 1.600000000000000000e+01
2.359927892684936968e+00 1.094941496849060059e+00 -6.006193161010742188e-01 1.200000000000000000e+01
2.732125520706177202e+00 1.267051339149475098e+00 -5.854020118713378906e-01 1.100000000000000000e+01
3.283555507659912109e+00 1.521390318870543990e+00 -5.731759071350097656e-01 1.200000000000000000e+01
3.407869720458983664e+01 1.578267097473145064e+01 4.611292362213134766e+00 1.900000000000000000e+01
4.065850734710693359e+00 1.882132530212401900e+00 -5.501182079315185547e-01 1.100000000000000000e+01
5.336022853851318359e+00 2.468980073928833008e+00 -5.143932104110717773e-01 9.000000000000000000e+00
3.357119369506835938e+01 1.552629280090332031e+01 7.189682960510253906e+00 6.100000000000000000e+01
7.681344509124755859e+00 3.550906419754027876e+00 -4.434948861598969061e-01 2.000000000000000000e+00
3.218913269042968750e+01 1.487346649169922053e+01 8.186418533325195312e+00 2.100000000000000000e+01
1.264624881744384943e+01 5.840709209442138672e+00 -2.431469261646271030e-01 7.000000000000000000e+00
3.510296249389647727e+01 1.621241188049316051e+01 1.036052608489990057e+01 8.000000000000000000e+00
2.070855379104613814e+00 9.529249668121337891e-01 -6.108129620552062988e-01 1.600000000000000000e+01
2.376129627227783203e+00 1.092395186424254927e+00 -6.037686467170715332e-01 1.100000000000000000e+01
2.747235059738159180e+00 1.262425303459167036e+00 -5.876917243003845215e-01 1.100000000000000000e+01
3.281665325164794922e+00 1.506622552871704102e+00 -5.719243884086608887e-01 1.100000000000000000e+01
4.083221912384033203e+00 1.872894287109375000e+00 -5.515806674957275391e-01 1.100000000000000000e+01
5.339175701141357422e+00 2.447847843170166016e+00 -5.138702392578125000e-01 9.000000000000000000e+00
3.353594970703125000e+01 1.536811828613281072e+01 7.170601844787597656e+00 6.100000000000000000e+01
7.682797431945800781e+00 3.519081354141234907e+00 -4.428668618202208918e-01 2.000000000000000000e+00
3.235602569580078125e+01 1.481374454498291016e+01 8.215662002563476562e+00 1.000000000000000000e+01
1.268110656738281072e+01 5.803186893463134766e+00 -2.434261590242385864e-01 5.000000000000000000e+00
3.507431030273438211e+01 1.604346656799316051e+01 1.033464431762694957e+01 8.000000000000000000e+00
2.068895578384398970e+00 9.432861804962158203e-01 -6.092600226402282715e-01 1.600000000000000000e+01
2.376381635665893999e+00 1.082478642463684082e+00 -6.028688549995422363e-01 1.100000000000000000e+01
2.751625061035155806e+00 1.252828001976012962e+00 -5.876917243003845215e-01 1.100000000000000000e+01
3.285106182098389116e+00 1.494340300559998003e+00 -5.716115236282348633e-01 1.000000000000000000e+01
3.743716812133789062e+01 1.702166175842285156e+01 5.049534320831298828e+00 2.500000000000000000e+01
4.102385044097900391e+00 1.864378929138184038e+00 -5.532867908477783203e-01 1.200000000000000000e+01
5.351315498352050781e+00 2.430843591690063032e+00 -5.142188668251037598e-01 9.000000000000000000e+00
3.367876815795897727e+01 1.529154491424561080e+01 7.189682960510253906e+00 6.100000000000000000e+01
7.702309608459472656e+00 3.495543718338013139e+00 -4.432855546474456787e-01 2.000000000000000000e+00
3.635088729858397727e+01 1.648949432373046875e+01 9.215344429016113281e+00 1.200000000000000000e+01
1.274135398864745916e+01 5.777053356170654297e+00 -2.441940754652023038e-01 2.000000000000000000e+00
2.082739114761352983e+00 9.408304095268249512e-01 -6.123658418655395508e-01 1.600000000000000000e+01
2.373040676116942915e+00 1.070970416069030984e+00 -6.010692119598388672e-01 1.100000000000000000e+01
2.764929533004761186e+00 1.247251749038696067e+00 -5.895997881889343262e-01 1.200000000000000000e+01
3.292103528976439986e+00 1.483675718307494895e+00 -5.719243884086608887e-01 1.100000000000000000e+01
4.112488269805908203e+00 1.851677536964416948e+00 -5.537742972373962402e-01 1.200000000000000000e+01
5.368852615356445312e+00 2.416237592697143999e+00 -5.150904655456542969e-01 1.100000000000000000e+01
7.736323356628417969e+00 3.478464841842650923e+00 -4.445416033267974854e-01 1.000000000000000000e+00
1.279062747955322088e+01 5.745652675628662109e+00 -2.447525411844254095e-01 2.000000000000000000e+00
3.512201309204102273e+01 1.576972484588623047e+01 1.031600952148438033e+01 8.000000000000000000e+00
2.096590518951416016e+00 9.382894039154052734e-01 -6.154716610908508301e-01 1.900000000000000000e+01
2.378543615341186968e+00 1.063475847244262917e+00 -6.015191078186035156e-01 1.200000000000000000e+01
2.760304212570189986e+00 1.233587622642517090e+00 -5.876917243003845215e-01 1.200000000000000000e+01
3.302673578262329102e+00 1.474591135978698953e+00 -5.728629827499389648e-01 1.000000000000000000e+01
3.456764984130858664e+01 1.542666912078857067e+01 4.647852897644042969e+00 1.900000000000000000e+01
4.109862327575683594e+00 1.833267688751220925e+00 -5.525556206703186035e-01 1.300000000000000000e+01
5.389992237091063565e+00 2.403161525726317915e+00 -5.163106322288513184e-01 9.000000000000000000e+00
7.711929798126220703e+00 3.435185194015502930e+00 -4.424481689929962158e-01 2.000000000000000000e+00
1.283983707427979049e+01 5.713978767395020419e+00 -2.453110218048095981e-01 2.000000000000000000e+00
3.458814620971679688e+01 1.539240169525145951e+01 1.014415359497069957e+01 8.000000000000000000e+00
2.091022491455078125e+00 9.270503520965576172e-01 -6.128835082054138184e-01 1.800000000000000000e+01
2.391150236129761186e+00 1.059112668037414995e+00 -6.037686467170715332e-01 1.400000000000000000e+01
2.761003255844116211e+00 1.222355365753174050e+00 -5.869284868240356445e-01 1.300000000000000000e+01
3.318639993667602983e+00 1.467847943305969016e+00 -5.747402310371398926e-01 1.000000000000000000e+01
3.466123199462891336e+01 1.532357025146484020e+01 4.653215408325195312e+00 1.900000000000000000e+01
4.123499393463134766e+00 1.822119712829590066e+00 -5.535305738449096680e-01 1.300000000000000000e+01
3.850722503662108664e+01 1.701583290100098012e+01 6.667862415313720703e+00 1.400000000000000000e+01
5.396525382995604581e+00 2.383527278900146040e+00 -5.161362886428833008e-01 9.000000000000000000e+00
7.742146492004395419e+00 3.416307687759398970e+00 -4.434948861598969061e-01 1.000000000000000000e+00
3.652157211303710938e+01 1.610793113708496094e+01 9.215344429016113281e+00 1.200000000000000000e+01
1.293655490875243963e+01 5.703003883361816406e+00 -2.467770278453826904e-01 2.000000000000000000e+00
3.517197418212891336e+01 1.550535678863525035e+01 1.029944515228270951e+01 8.000000000000000000e+00
2.083313703536986861e+00 9.158120155334472656e-01 -6.097776889801025391e-01 1.700000000000000000e+01
2.396250009536743164e+00 1.052379131317138894e+00 -6.042185425758361816e-01 1.500000000000000000e+01
2.772020339965819868e+00 1.216831922531127930e+00 -5.884549617767333984e-01 1.300000000000000000e+01
3.312380790710449219e+00 1.452654719352721946e+00 -5.728629827499389648e-01 1.000000000000000000e+01
4.132839679718017578e+00 1.810749650001526101e+00 -5.540180206298828125e-01 1.300000000000000000e+01
5.387561321258544922e+00 2.359368562698363814e+00 -5.145674943923950195e-01 9.000000000000000000e+00
7.796755790710449219e+00 3.411181688308715820e+00 -4.460070133209229071e-01 2.000000000000000000e+00
1.299105358123778942e+01 5.678351879119873047e+00 -2.474751174449920932e-01 2.000000000000000000e+00
3.527361679077147727e+01 1.541799640655517933e+01 1.031497383117675959e+01 8.000000000000000000e+00
2.093582630157471147e+00 9.116193652153015137e-01 -6.118482351303100586e-01 1.700000000000000000e+01
2.399909019470214844e+00 1.044008135795593040e+00 -6.042185425758361816e-01 1.600000000000000000e+01
2.778051376342772993e+00 1.207931160926819070e+00 -5.888365507125854492e-01 1.300000000000000000e+01
3.313807725906372070e+00 1.439509391784667969e+00 -5.722372531890869141e-01 1.000000000000000000e+01
3.626977157592772727e+01 1.574796962738036932e+01 4.855031013488770419e+00 2.000000000000000000e+01
4.160987377166748047e+00 1.805795788764954057e+00 -5.569428801536560059e-01 1.300000000000000000e+01
3.636049652099608664e+01 1.577227878570556996e+01 6.277402400970458984e+00 1.400000000000000000e+01
5.421353816986083984e+00 2.351648330688477007e+00 -5.170078873634338379e-01 9.000000000000000000e+00
7.779294490814208984e+00 3.371238470077515093e+00 -4.443322718143463135e-01 2.000000000000000000e+00
3.397749328613281250e+01 1.471745777130126953e+01 8.548589706420898438e+00 1.100000000000000000e+01
1.299978542327881037e+01 5.628203392028808594e+00 -2.472656965255737027e-01 2.000000000000000000e+00
3.694328689575195312e+01 1.598678874969482067e+01 1.078602504730224965e+01 9.000000000000000000e+00
2.100457906723022017e+00 9.054693579673767090e-01 -6.128835082054138184e-01 1.700000000000000000e+01
2.394770145416260210e+00 1.031350970268249956e+00 -6.019690036773681641e-01 1.400000000000000000e+01
2.791476488113402876e+00 1.201622128486633079e+00 -5.907446742057800293e-01 1.400000000000000000e+01
3.322690963745117188e+00 1.428914785385132058e+00 -5.728629827499389648e-01 1.000000000000000000e+01
4.156634807586669922e+00 1.785831212997436968e+00 -5.554804801940917969e-01 1.300000000000000000e+01
5.429936408996582031e+00 2.331762313842772993e+00 -5.170078873634338379e-01 9.000000000000000000e+00
7.802611351013183594e+00 3.347427845001221147e+00 -4.449602961540222168e-01 1.000000000000000000e+00
1.304973411560058949e+01 5.593122959136962891e+00 -2.478241771459578913e-01 2.000000000000000000e+00
2.112489223480225053e+00 9.019246697425842285e-01 -6.154716610908508301e-01 1.600000000000000000e+01
2.403733253479003906e+00 1.025279045104980025e+00 -6.033187508583068848e-01 1.500000000000000000e+01
2.790235996246337891e+00 1.189561009407043013e+00 -5.895997881889343262e-01 1.500000000000000000e+01
3.331293344497681108e+00 1.418855905532836914e+00 -5.734887719154357910e-01 1.000000000000000000e+01
4.162843227386474609e+00 1.771310925483704057e+00 -5.554804801940917969e-01 1.500000000000000000e+01
5.460044384002686435e+00 2.322151422500609907e+00 -5.190995931625366211e-01 9.000000000000000000e+00
7.795866012573242188e+00 3.312361001968383789e+00 -4.439135789871215820e-01 2.000000000000000000e+00
1.308758544921875000e+01 5.555350303649902344e+00 -2.481732219457626065e-01 2.000000000000000000e+00
3.523659515380858664e+01 1.495704746246338068e+01 1.025699901580811080e+01 8.000000000000000000e+00
2.103169202804564986e+00 8.892787694931030273e-01 -6.118482351303100586e-01 1.600000000000000000e+01
2.418068408966064009e+00 1.021432042121886985e+00 -6.060181260108947754e-01 1.500000000000000000e+01
3.709129333496093750e+01 1.566797542572020951e+01 2.110185861587523970e+00 2.300000000000000000e+01
2.794371366500854048e+00 1.179813981056212935e+00 -5.895997881889343262e-01 1.500000000000000000e+01
3.348966360092163086e+00 1.412592768669127974e+00 -5.756788253784179688e-01 1.100000000000000000e+01
4.170830249786376953e+00 1.757539987564086914e+00 -5.557242035865783691e-01 1.300000000000000000e+01
5.453427791595458984e+00 2.296891212463378906e+00 -5.177050828933715820e-01 9.000000000000000000e+00
7.829472064971923828e+00 3.294423341751099077e+00 -4.451696574687957764e-01 2.000000000000000000e+00
1.316957473754882990e+01 5.535979270935058594e+00 -2.493599802255629938e-01 2.000000000000000000e+00
3.524763107299804688e+01 1.481673908233642933e+01 1.024509334564208984e+01 1.700000000000000000e+01
2.106260538101195845e+00 8.819319009780883789e-01 -6.118482351303100586e-01 1.600000000000000000e+01
2.416225671768188032e+00 1.010729074478148970e+00 -6.046684384346008301e-01 1.400000000000000000e+01
2.800283908843994141e+00 1.170809864997863992e+00 -5.899814367294311523e-01 1.300000000000000000e+01
3.346585750579833984e+00 1.397848725318908913e+00 -5.744273662567138672e-01 1.200000000000000000e+01
4.182435512542724609e+00 1.745263814926147017e+00 -5.564554333686828613e-01 1.100000000000000000e+01
5.457734107971191406e+00 2.276307344436645952e+00 -5.173565149307250977e-01 9.000000000000000000e+00
7.844611167907714844e+00 3.268609762191772017e+00 -4.453789889812468927e-01 2.000000000000000000e+00
3.318912506103516336e+01 1.382209587097167969e+01 8.300244331359863281e+00 1.000000000000000000e+01
1.319989585876465021e+01 5.494585990905761719e+00 -2.495694160461426059e-01 2.000000000000000000e+00
3.753302383422852273e+01 1.561580562591552912e+01 1.089265823364257990e+01 1.000000000000000000e+01
2.107389211654663086e+00 8.742022514343261719e-01 -6.113305687904357910e-01 1.500000000000000000e+01
2.428565502166748047e+00 1.006441354751586914e+00 -6.069179177284240723e-01 1.500000000000000000e+01
2.813220024108887163e+00 1.165273904800415039e+00 -5.918895006179809570e-01 1.300000000000000000e+01
3.353028059005736861e+00 1.387498617172240989e+00 -5.747402310371398926e-01 1.000000000000000000e+01
3.644736862182617188e+01 1.507464122772216975e+01 4.842844009399414062e+00 2.000000000000000000e+01
4.202876091003417969e+00 1.737451791763306108e+00 -5.584053397178649902e-01 1.100000000000000000e+01
5.454204559326171875e+00 2.253631114959716797e+00 -5.163106322288513184e-01 9.000000000000000000e+00
7.859099864959716797e+00 3.244102239608765093e+00 -4.455883204936981201e-01 1.000000000000000000e+00
3.307985305786132812e+01 1.364804267883300959e+01 8.261552810668945312e+00 1.000000000000000000e+01
1.328459548950194957e+01 5.478228092193604404e+00 -2.508259713649749756e-01 2.000000000000000000e+00
3.764262008666992188e+01 1.552285575866699041e+01 1.091025829315186080e+01 1.000000000000000000e+01
2.115788936614989790e+00 8.690426945686340332e-01 -6.128835082054138184e-01 1.600000000000000000e+01
2.417640924453734907e+00 9.920397996902465820e-01 -6.033187508583068848e-01 1.800000000000000000e+01
2.822719812393188032e+00 1.157681822776793990e+00 -5.930343866348266602e-01 1.400000000000000000e+01
3.352367162704468218e+00 1.373539209365844949e+00 -5.738016366958618164e-01 1.100000000000000000e+01
4.197892665863037109e+00 1.718258500099181907e+00 -5.569428801536560059e-01 1.100000000000000000e+01
5.482322216033936435e+00 2.242877244949340820e+00 -5.182280540466308594e-01 9.000000000000000000e+00
7.881468772888183594e+00 3.221182823181151900e+00 -4.462163746356964111e-01 2.000000000000000000e+00
3.339428710937500000e+01 1.364155673980713068e+01 8.328138351440429688e+00 1.000000000000000000e+01
1.331104278564452947e+01 5.434846401214599609e+00 -2.509655952453612726e-01 2.000000000000000000e+00
3.764292144775391336e+01 1.536945629119873047e+01 1.089472866058349965e+01 1.000000000000000000e+01
2.129546642303466797e+00 8.660184144973754883e-01 -6.159893274307250977e-01 1.500000000000000000e+01
2.422894477844237837e+00 9.843280911445617676e-01 -6.037686467170715332e-01 1.700000000000000000e+01
2.823105573654174805e+00 1.146344304084778054e+00 -5.922711491584777832e-01 1.300000000000000000e+01
3.364463329315185991e+00 1.364799022674560991e+00 -5.750530958175659180e-01 1.100000000000000000e+01
4.203865051269531250e+00 1.703594684600830078e+00 -5.569428801536560059e-01 1.100000000000000000e+01
5.491964817047119141e+00 2.224474668502808061e+00 -5.184023380279541016e-01 9.000000000000000000e+00
7.911179065704345703e+00 3.201143264770507812e+00 -4.472630918025969904e-01 2.000000000000000000e+00
3.935285186767578125e+01 1.591556549072265980e+01 9.800217628479003906e+00 1.300000000000000000e+01
1.336701202392577947e+01 5.403337478637695312e+00 -2.516637146472930908e-01 2.000000000000000000e+00
3.778855895996093750e+01 1.526756954193115057e+01 1.092061042785645064e+01 1.000000000000000000e+01
2.125388383865356001e+00 8.556936383247375488e-01 -6.139187812805175781e-01 1.800000000000000000e+01
2.438971519470214844e+00 9.809547662734985352e-01 -6.069179177284240723e-01 1.600000000000000000e+01
2.814338922500609907e+00 1.131356954574584961e+00 -5.895997881889343262e-01 1.300000000000000000e+01
3.363707542419434038e+00 1.350838065147399902e+00 -5.741145014762878418e-01 1.100000000000000000e+01
4.230051994323729581e+00 1.697040557861327903e+00 -5.596240162849426270e-01 1.100000000000000000e+01
5.507092952728270596e+00 2.208256721496582031e+00 -5.190995931625366211e-01 9.000000000000000000e+00
7.911180496215820312e+00 3.169052362442017046e+00 -4.466350376605988104e-01 2.000000000000000000e+00
1.337465286254882990e+01 5.352187156677246094e+00 -2.514542639255524237e-01 2.000000000000000000e+00
3.756898117065429688e+01 1.502652072906493963e+01 1.084192943572998047e+01 9.000000000000000000e+00
2.126420021057128906e+00 8.479253649711608887e-01 -6.134011149406433105e-01 1.600000000000000000e+01
2.438590288162231001e+00 9.714191555976867676e-01 -6.060181260108947754e-01 1.500000000000000000e+01
2.825371026992797852e+00 1.124922990798949973e+00 -5.911262631416320801e-01 1.500000000000000000e+01
3.379181861877440962e+00 1.344056606292725053e+00 -5.759916901588439941e-01 1.100000000000000000e+01
4.024516677856445312e+01 1.599922561645507990e+01 5.317646980285645419e+00 3.200000000000000000e+01
4.220897674560546875e+00 1.677139759063720925e+00 -5.576741099357604980e-01 1.100000000000000000e+01
3.506318664550781250e+01 1.393207550048827947e+01 5.975796699523925781e+00 1.300000000000000000e+01
5.503275394439697266e+00 2.185570001602172852e+00 -5.180537104606628418e-01 9.000000000000000000e+00
7.921646118164063388e+00 3.142800569534302202e+00 -4.466350376605988104e-01 2.000000000000000000e+00
1.345181560516357067e+01 5.331383228302001953e+00 -2.525712251663208008e-01 2.000000000000000000e+00
3.767248535156250000e+01 1.492319869995117010e+01 1.085745906829833984e+01 9.000000000000000000e+00
2.131163597106934038e+00 8.412068486213684082e-01 -6.139187812805175781e-01 1.700000000000000000e+01
2.445592164993286133e+00 9.643306136131286621e-01 -6.069179177284240723e-01 1.500000000000000000e+01
2.842066287994385210e+00 1.120092749595642090e+00 -5.937975645065307617e-01 1.600000000000000000e+01
3.372824430465697798e+00 1.327910900115967019e+00 -5.741145014762878418e-01 1.100000000000000000e+01
4.245199680328369141e+00 1.669661521911621094e+00 -5.601115226745605469e-01 1.100000000000000000e+01
5.520142078399658203e+00 2.169991254806518999e+00 -5.189253091812133789e-01 9.000000000000000000e+00
7.951159000396729404e+00 3.122430324554442915e+00 -4.476817548274993896e-01 1.000000000000000000e+00
3.464221191406250000e+01 1.359706306457520064e+01 8.591780662536621094e+00 1.100000000000000000e+01
1.353363704681395951e+01 5.309225082397460938e+00 -2.537579834461212158e-01 2.000000000000000000e+00
3.761283874511718750e+01 1.474788379669188920e+01 1.082536506652832031e+01 9.000000000000000000e+00
2.132287740707397017e+00 8.330596089363098145e-01 -6.134011149406433105e-01 1.600000000000000000e+01
2.436235666275023970e+00 9.508284330368041992e-01 -6.037686467170715332e-01 1.400000000000000000e+01
2.849616765975952148e+00 1.111592173576354980e+00 -5.945608019828796387e-01 1.400000000000000000e+01
3.388482570648192915e+00 1.320432901382446067e+00 -5.759916901588439941e-01 1.100000000000000000e+01
4.249152183532714844e+00 1.654112696647644043e+00 -5.598677396774291992e-01 1.100000000000000000e+01
5.540680885314941406e+00 2.155766248703002930e+00 -5.201454758644104004e-01 9.000000000000000000e+00
7.935947418212890625e+00 3.084526777267456055e+00 -4.462163746356964111e-01 2.000000000000000000e+00
3.575755691528320312e+01 1.389098644256591975e+01 8.856323242187500000e+00 1.200000000000000000e+01
1.360801124572754084e+01 5.283665180206298828e+00 -2.548051476478577215e-01 2.000000000000000000e+00
3.761471557617188211e+01 1.460489368438721058e+01 1.081190681457520064e+01 9.000000000000000000e+00
2.136984348297119141e+00 8.263081908226013184e-01 -6.139187812805175781e-01 1.500000000000000000e+01
2.441357851028441939e+00 9.430207610130310059e-01 -6.042185425758361816e-01 1.200000000000000000e+01
2.849816560745238814e+00 1.100224256515502930e+00 -5.937975645065307617e-01 1.400000000000000000e+01
3.404129505157471147e+00 1.312861680984497070e+00 -5.778689384460449219e-01 1.000000000000000000e+01
4.243786334991455078e+00 1.634988427162169966e+00 -5.584053397178649902e-01 1.100000000000000000e+01
3.532513046264647727e+01 1.360958766937256037e+01 5.995820045471191406e+00 1.300000000000000000e+01
5.551890850067138672e+00 2.137844562530518022e+00 -5.204941034317016602e-01 9.000000000000000000e+00
7.961578845977783203e+00 3.062542676925659180e+00 -4.470537304878234863e-01 1.000000000000000000e+00
3.567850112915039062e+01 1.371713256835938033e+01 8.824830055236816406e+00 1.200000000000000000e+01
1.361517143249512074e+01 5.231828212738037109e+00 -2.545956969261168878e-01 2.000000000000000000e+00
3.726402664184570312e+01 1.431178188323974965e+01 1.069595623016357067e+01 9.000000000000000000e+00
2.150537729263306108e+00 8.233615756034851074e-01 -6.170246005058288574e-01 1.700000000000000000e+01
6.195101928710938211e+01 2.370636367797851918e+01 1.157827496528625044e+00 4.400000000000000000e+01
2.455392360687255859e+00 9.390966296195983887e-01 -6.069179177284240723e-01 1.200000000000000000e+01
2.846114158630371094e+00 1.087963819503783958e+00 -5.922711491584777832e-01 1.300000000000000000e+01
3.415846109390258789e+00 1.304384708404541016e+00 -5.791203975677490234e-01 1.100000000000000000e+01
4.247329711914063388e+00 1.620198965072632058e+00 -5.581616163253784180e-01 1.100000000000000000e+01
5.547779560089111328e+00 2.115163326263428178e+00 -5.194482207298278809e-01 9.000000000000000000e+00
8.001554489135742188e+00 3.047498226165771040e+00 -4.487285017967224121e-01 2.000000000000000000e+00
3.566915512084960938e+01 1.357794380187987926e+01 8.811332702636718750e+00 1.200000000000000000e+01
1.364365959167479936e+01 5.190916538238525391e+00 -2.548051476478577215e-01 2.000000000000000000e+00
3.751464080810546875e+01 1.427295684814452947e+01 1.075496673583984020e+01 9.000000000000000000e+00
2.138946294784545898e+00 8.103742599487304688e-01 -6.128835082054138184e-01 1.500000000000000000e+01
2.467768430709838867e+00 9.339689016342163086e-01 -6.091674566268920898e-01 1.600000000000000000e+01
2.849894523620605025e+00 1.078022360801696999e+00 -5.922711491584777832e-01 1.200000000000000000e+01
3.412986993789672852e+00 1.289660334587096946e+00 -5.778689384460449219e-01 1.000000000000000000e+01
4.271531581878662109e+00 1.612373471260071023e+00 -5.605989694595336914e-01 1.100000000000000000e+01
5.568178176879882812e+00 2.100708007812500000e+00 -5.206683874130249023e-01 9.000000000000000000e+00
8.012143135070800781e+00 3.019549131393433061e+00 -4.487285017967224121e-01 2.000000000000000000e+00
3.626343154907227273e+01 1.365942955017090021e+01 8.946303367614746094e+00 1.200000000000000000e+01
1.368415451049805043e+01 5.151714324951171875e+00 -2.552239894866942804e-01 2.000000000000000000e+00
3.731356811523438211e+01 1.404011535644531072e+01 1.068249702453612926e+01 9.000000000000000000e+00
2.141762018203734907e+00 8.029029965400695801e-01 -6.128835082054138184e-01 1.500000000000000000e+01
2.456413745880126953e+00 9.198817610740661621e-01 -6.055682301521301270e-01 1.400000000000000000e+01
2.866510868072510210e+00 1.072885155677794966e+00 -5.949424505233764648e-01 1.300000000000000000e+01
3.411916971206665039e+00 1.275663495063781960e+00 -5.769302845001220703e-01 1.200000000000000000e+01
4.278993129730224609e+00 1.598147749900818093e+00 -5.608426928520202637e-01 1.100000000000000000e+01
5.562410831451416016e+00 2.076381206512451172e+00 -5.194482207298278809e-01 9.000000000000000000e+00
8.015149116516113281e+00 2.988771915435791016e+00 -4.483098089694976807e-01 2.000000000000000000e+00
3.558047485351563211e+01 1.326054286956786932e+01 8.766342163085937500e+00 1.100000000000000000e+01
1.369830608367919922e+01 5.102520465850830078e+00 -2.551541924476624090e-01 2.000000000000000000e+00
2.151796817779541016e+00 7.981092333793640137e-01 -6.149540543556213379e-01 1.600000000000000000e+01
2.457782506942749023e+00 9.106246232986450195e-01 -6.051183342933654785e-01 1.600000000000000000e+01
2.879443883895874023e+00 1.066281437873840110e+00 -5.968505144119262695e-01 1.400000000000000000e+01
3.429317951202393022e+00 1.268543243408202903e+00 -5.791203975677490234e-01 1.000000000000000000e+01
4.282683849334716797e+00 1.582513570785522017e+00 -5.605989694595336914e-01 1.100000000000000000e+01
5.571494102478027344e+00 2.057642459869385210e+00 -5.196225643157958984e-01 9.000000000000000000e+00
8.003046989440917969e+00 2.952480077743529829e+00 -4.470537304878234863e-01 1.000000000000000000e+00
3.568139648437500000e+01 1.315648746490479049e+01 8.779839515686035156e+00 1.100000000000000000e+01
1.373479652404784979e+01 5.061587810516357422e+00 -2.555032372474669855e-01 2.000000000000000000e+00
3.733091354370117188e+01 1.374989891052245916e+01 1.065972137451172053e+01 9.000000000000000000e+00
2.152893781661986861e+00 7.895519733428955078e-01 -6.144363880157470703e-01 1.500000000000000000e+01
2.466593027114868164e+00 9.036213159561157227e-01 -6.064680218696594238e-01 1.500000000000000000e+01
2.870427846908568892e+00 1.050995469093322976e+00 -5.941792130470275879e-01 1.300000000000000000e+01
3.437654733657836914e+00 1.257322669029236062e+00 -5.797461271286010742e-01 1.000000000000000000e+01
4.284726142883300781e+00 1.565443634986876997e+00 -5.601115226745605469e-01 1.100000000000000000e+01
5.623914718627929688e+00 2.053609609603881836e+00 -5.238060355186462402e-01 9.000000000000000000e+00
8.043836593627929688e+00 2.934078216552733931e+00 -4.487285017967224121e-01 2.000000000000000000e+00
1.376828670501708984e+01 5.016690254211425781e+00 -2.557824552059174139e-01 2.000000000000000000e+00
3.723347473144531250e+01 1.356659698486327947e+01 1.061830997467041016e+01 9.000000000000000000e+00
2.155636787414550781e+00 7.820321321487426758e-01 -6.144363880157470703e-01 1.600000000000000000e+01
2.477060794830321822e+00 8.976615667343139648e-01 -6.082676649093627930e-01 1.500000000000000000e+01
2.877770662307738814e+00 1.042306542396544966e+00 -5.949424505233764648e-01 1.200000000000000000e+01
3.443880319595336914e+00 1.245987415313720925e+00 -5.800589919090270996e-01 9.000000000000000000e+00
4.306966781616210938e+00 1.556550025939940962e+00 -5.623051524162292480e-01 1.200000000000000000e+01
5.612309932708740234e+00 2.027197360992432085e+00 -5.220628976821899414e-01 9.000000000000000000e+00
8.057786941528320312e+00 2.907337903976439986e+00 -4.489378333091735840e-01 1.000000000000000000e+00
1.386472702026367010e+01 4.997076511383056641e+00 -2.572484612464904785e-01 2.000000000000000000e+00
3.697033309936522727e+01 1.331742858886718928e+01 1.052927684783936080e+01 9.000000000000000000e+00
2.150945425033568892e+00 7.722682952880859375e-01 -6.123658418655395508e-01 1.600000000000000000e+01
2.483692646026610884e+00 8.907581567764282227e-01 -6.091674566268920898e-01 1.500000000000000000e+01
2.883059501647949219e+00 1.033420324325561968e+00 -5.953240394592285156e-01 1.300000000000000000e+01
3.457291841506958008e+00 1.237889766693115012e+00 -5.816233158111572266e-01 1.000000000000000000e+01
4.312104701995849609e+00 1.542258977890015093e+00 -5.623051524162292480e-01 1.200000000000000000e+01
5.594611644744873047e+00 1.999856710433959961e+00 -5.197968482971191406e-01 9.000000000000000000e+00
8.086193084716796875e+00 2.887317419052124023e+00 -4.499845504760742188e-01 1.000000000000000000e+00
3.667983627319335938e+01 1.308996391296387074e+01 8.991293907165527344e+00 1.200000000000000000e+01
1.388122177124023082e+01 4.951071739196777344e+00 -2.572484612464904785e-01 2.000000000000000000e+00
3.714299774169921875e+01 1.324794483184813920e+01 1.056654644012450994e+01 9.000000000000000000e+00
2.142704963684082031e+00 7.608766555786132812e-01 -6.092600226402282715e-01 1.400000000000000000e+01
2.484950065612792969e+00 8.814315795898437500e-01 -6.087175607681274414e-01 1.400000000000000000e+01
2.886649131774901900e+00 1.023350238800049050e+00 -5.953240394592285156e-01 1.300000000000000000e+01
3.448557376861571822e+00 1.221198201179503950e+00 -5.794332623481750488e-01 9.000000000000000000e+00
4.313718795776367188e+00 1.525873541831969993e+00 -5.618176460266113281e-01 1.100000000000000000e+01
5.616586208343505859e+00 1.985628485679626021e+00 -5.211913585662841797e-01 9.000000000000000000e+00
8.088688850402832031e+00 2.856413602828979048e+00 -4.495658576488494873e-01 1.000000000000000000e+00
3.667752838134766336e+01 1.294498443603515980e+01 8.979596138000488281e+00 1.200000000000000000e+01
1.391727733612061080e+01 4.909239292144775391e+00 -2.575975060462952215e-01 2.000000000000000000e+00
2.163575172424315962e+00 7.597935199737548828e-01 -6.144363880157470703e-01 1.500000000000000000e+01
2.475139617919921875e+00 8.682367205619812012e-01 -6.055682301521301270e-01 1.600000000000000000e+01
2.906877994537353960e+00 1.019113421440124956e+00 -5.987586379051208496e-01 1.300000000000000000e+01
3.456527948379517046e+00 1.210458874702454057e+00 -5.800589919090270996e-01 9.000000000000000000e+00
4.319018840789794922e+00 1.510806560516356978e+00 -5.618176460266113281e-01 1.100000000000000000e+01
5.638529300689697266e+00 1.971271038055419922e+00 -5.225858092308044434e-01 6.000000000000000000e+00
8.113695144653320312e+00 2.833429336547852007e+00 -4.504032433032990057e-01 2.000000000000000000e+00
3.652009963989257812e+01 1.274623966217041016e+01 8.930107116699218750e+00 1.200000000000000000e+01
1.396076297760009943e+01 4.869849681854248047e+00 -2.580861747264862061e-01 2.000000000000000000e+00
2.169864177703856978e+00 7.535040974617004395e-01 -6.154716610908508301e-01 1.600000000000000000e+01
2.485519647598267046e+00 8.621461391448974609e-01 -6.073678731918334961e-01 1.300000000000000000e+01
2.902997970581055132e+00 1.006388187408447044e+00 -5.972321629524230957e-01 1.300000000000000000e+01
3.475665092468262163e+00 1.203557014465332031e+00 -5.825619697570800781e-01 9.000000000000000000e+00
4.329894542694091797e+00 1.497667908668518066e+00 -5.625488758087158203e-01 1.100000000000000000e+01
5.637843608856201172e+00 1.948973059654236062e+00 -5.218886137008666992e-01 3.000000000000000000e+00
8.115984916687011719e+00 2.802482366561890093e+00 -4.499845504760742188e-01 2.000000000000000000e+00
1.395499229431151988e+01 4.813263416290283203e+00 -2.576673328876494806e-01 2.000000000000000000e+00
2.174308300018310991e+00 7.465525865554809570e-01 -6.159893274307250977e-01 1.500000000000000000e+01
2.495887517929077148e+00 8.559935688972473145e-01 -6.091674566268920898e-01 1.300000000000000000e+01
2.895349979400635210e+00 9.924291372299194336e-01 -5.949424505233764648e-01 1.300000000000000000e+01
3.476107358932495117e+00 1.190137624740601030e+00 -5.819361805915832520e-01 9.000000000000000000e+00
4.336974143981933594e+00 1.483186960220336914e+00 -5.627925992012023926e-01 1.100000000000000000e+01
5.642726898193359375e+00 1.928637027740478960e+00 -5.217142701148986816e-01 8.000000000000000000e+00
8.171081542968750000e+00 2.789622306823730025e+00 -4.524966776371002197e-01 2.000000000000000000e+00
1.402848815917968928e+01 4.783885002136229581e+00 -2.587144672870635986e-01 2.000000000000000000e+00
2.165925025939940962e+00 7.352324724197387695e-01 -6.128835082054138184e-01 1.600000000000000000e+01
2.500705718994141069e+00 8.479018211364746094e-01 -6.096173524856567383e-01 1.300000000000000000e+01
2.904374837875366211e+00 9.842067360877990723e-01 -5.960872769355773926e-01 1.400000000000000000e+01
3.476498365402222124e+00 1.176729798316956010e+00 -5.813104510307312012e-01 9.000000000000000000e+00
3.632765960693358664e+01 1.228916740417479936e+01 4.708787918090820312e+00 2.000000000000000000e+01
4.342124938964843750e+00 1.468039035797118919e+00 -5.627925992012023926e-01 1.100000000000000000e+01
5.647537231445313388e+00 1.908290743827820046e+00 -5.215399861335754395e-01 9.000000000000000000e+00
3.588043594360352273e+01 1.211694526672362926e+01 7.361411094665527344e+00 6.200000000000000000e+01
8.188338279724121094e+00 2.763637781143188032e+00 -4.529153704643250067e-01 2.000000000000000000e+00
3.690270233154296875e+01 1.244781875610351918e+01 8.991293907165527344e+00 1.200000000000000000e+01
1.406026077270507990e+01 4.739997863769531250e+00 -2.589937150478363037e-01 2.000000000000000000e+00
2.179211616516112837e+00 7.321157455444335938e-01 -6.159893274307250977e-01 1.600000000000000000e+01
2.505204677581787109e+00 8.406614065170288086e-01 -6.100672483444213867e-01 1.200000000000000000e+01
2.918620586395264116e+00 9.788230061531066895e-01 -5.983769893646240234e-01 1.400000000000000000e+01
3.483924150466918945e+00 1.167057156562804954e+00 -5.819361805915832520e-01 9.000000000000000000e+00
4.358010768890380859e+00 1.458169937133789062e+00 -5.642550587654113770e-01 1.100000000000000000e+01
5.666731357574462891e+00 1.894962072372436968e+00 -5.227601528167724609e-01 8.000000000000000000e+00
8.181825637817382812e+00 2.732837677001953125e+00 -4.520779848098754883e-01 2.000000000000000000e+00
3.897124099731445312e+01 1.300934982299805043e+01 9.485285758972167969e+00 1.200000000000000000e+01
1.410163974761963068e+01 4.704662799835205078e+00 -2.594823837280272882e-01 2.000000000000000000e+00
2.185420751571654829e+00 7.257220745086669922e-01 -6.170246005058288574e-01 1.700000000000000000e+01
2.493326663970946822e+00 8.270034790039062500e-01 -6.064680218696594238e-01 1.300000000000000000e+01
2.925746679306029829e+00 9.698646664619445801e-01 -5.991402268409729004e-01 1.300000000000000000e+01
3.491727352142333984e+00 1.156130671501159890e+00 -5.825619697570800781e-01 9.000000000000000000e+00
4.355535030364990234e+00 1.440455555915832964e+00 -5.632801055908203125e-01 1.100000000000000000e+01
5.678986549377441406e+00 1.877045750617980957e+00 -5.232830643653869629e-01 9.000000000000000000e+00
8.198901176452636719e+00 2.706765651702880859e+00 -4.524966776371002197e-01 1.000000000000000000e+00
3.901641464233397727e+01 1.287323474884033025e+01 9.485285758972167969e+00 1.200000000000000000e+01
1.413316917419433949e+01 4.660420417785645419e+00 -2.597616314887999933e-01 2.000000000000000000e+00
3.527534866333007812e+01 1.163206577301025035e+01 9.952627182006835938e+00 8.000000000000000000e+00
2.189776182174683061e+00 7.186915278434753418e-01 -6.175422668457031250e-01 1.500000000000000000e+01
2.498049974441527876e+00 8.189021348953247070e-01 -6.069179177284240723e-01 1.200000000000000000e+01
2.916054487228393999e+00 9.553673267364501953e-01 -5.964689254760742188e-01 1.300000000000000000e+01
3.503251314163208008e+00 1.146392703056335005e+00 -5.838134288787841797e-01 9.000000000000000000e+00
4.360537052154541016e+00 1.425243139266967995e+00 -5.632801055908203125e-01 1.100000000000000000e+01
5.698761463165283203e+00 1.861541628837585005e+00 -5.245032310485839844e-01 8.000000000000000000e+00
8.215894699096679688e+00 2.680607795715332031e+00 -4.529153704643250067e-01 2.000000000000000000e+00
3.921674346923828125e+01 1.278771114349365057e+01 9.523077964782714844e+00 1.200000000000000000e+01
1.418737602233887074e+01 4.623449802398681641e+00 -2.604597210884094238e-01 2.000000000000000000e+00
3.678148651123046875e+01 1.198652648925781072e+01 1.036570262908936080e+01 8.000000000000000000e+00
2.192271709442139116e+00 7.110434174537658691e-01 -6.175422668457031250e-01 1.500000000000000000e+01
2.517578363418579102e+00 8.155825138092041016e-01 -6.109670400619506836e-01 1.200000000000000000e+01
2.919371604919434038e+00 9.451825618743896484e-01 -5.964689254760742188e-01 1.300000000000000000e+01
3.510990619659423828e+00 1.135372638702393022e+00 -5.844391584396362305e-01 9.000000000000000000e+00
4.367374420166015625e+00 1.410623431205749956e+00 -5.635238289833068848e-01 1.000000000000000000e+01
5.699536800384520596e+00 1.839801669120789018e+00 -5.239803194999694824e-01 9.000000000000000000e+00
8.236607551574707031e+00 2.655589818954468218e+00 -4.535433948040009100e-01 1.000000000000000000e+00
1.426433849334716975e+01 4.593513011932373047e+00 -2.615766823291779120e-01 2.000000000000000000e+00
3.680678558349608664e+01 1.184571647644042969e+01 1.036052608489990057e+01 8.000000000000000000e+00
2.181862592697143999e+00 6.992594599723815918e-01 -6.139187812805175781e-01 1.500000000000000000e+01
2.522265911102294922e+00 8.073836565017700195e-01 -6.114169359207153320e-01 1.300000000000000000e+01
2.922653198242187944e+00 9.349862933158874512e-01 -5.964689254760742188e-01 1.300000000000000000e+01
3.511169195175170898e+00 1.121907591819762962e+00 -5.838134288787841797e-01 1.000000000000000000e+01
3.657035064697266336e+01 1.167812061309813920e+01 4.713662624359130859e+00 2.000000000000000000e+01
4.381727218627929688e+00 1.398387551307678001e+00 -5.647425651550292969e-01 1.100000000000000000e+01
3.651021957397460938e+01 1.164487648010254084e+01 6.069657325744628906e+00 1.400000000000000000e+01
5.698331356048583984e+00 1.817473769187927024e+00 -5.232830643653869629e-01 8.000000000000000000e+00
8.249632835388183594e+00 2.628035068511962891e+00 -4.537527263164520264e-01 2.000000000000000000e+00
1.427266407012938920e+01 4.541267871856688565e+00 -2.614370584487915039e-01 2.000000000000000000e+00
2.195340394973754883e+00 6.951380968093872070e-01 -6.170246005058288574e-01 1.600000000000000000e+01
2.515778541564940962e+00 7.956362962722778320e-01 -6.091674566268920898e-01 1.300000000000000000e+01
2.929642915725708008e+00 9.259619712829589844e-01 -5.972321629524230957e-01 1.300000000000000000e+01
3.503761529922484907e+00 1.106076598167418990e+00 -5.819361805915832520e-01 9.000000000000000000e+00
3.666768646240233664e+01 1.156831359863281072e+01 4.720974445343017578e+00 2.000000000000000000e+01
4.392261505126953125e+00 1.384874701499938965e+00 -5.654737353324890137e-01 1.100000000000000000e+01
5.721743106842041016e+00 1.802960872650146040e+00 -5.248518586158752441e-01 8.000000000000000000e+00
8.277807235717773438e+00 2.605218410491942915e+00 -4.547994732856749933e-01 2.000000000000000000e+00
3.919235229492188211e+01 1.232722568511963068e+01 9.485285758972167969e+00 1.200000000000000000e+01
1.431513595581055043e+01 4.499814510345458984e+00 -2.619257271289824884e-01 2.000000000000000000e+00
3.477639007568358664e+01 1.093159770965575994e+01 9.767830848693847656e+00 1.500000000000000000e+01
2.201561212539672852e+00 6.882399320602416992e-01 -6.180598735809326172e-01 1.600000000000000000e+01
2.513097286224364790e+00 7.846677303314208984e-01 -6.078177690505981445e-01 1.100000000000000000e+01
2.942387819290161133e+00 9.181421399116516113e-01 -5.991402268409729004e-01 1.300000000000000000e+01
3.513449668884276900e+00 1.094990491867064986e+00 -5.828748345375061035e-01 1.000000000000000000e+01
4.393517017364501953e+00 1.367586970329284890e+00 -5.649862885475158691e-01 1.000000000000000000e+01
5.718800544738770419e+00 1.779018402099608931e+00 -5.239803194999694824e-01 9.000000000000000000e+00
8.291114807128906250e+00 2.576046228408813032e+00 -4.550088047981262207e-01 1.000000000000000000e+00
3.887994003295897727e+01 1.207254219055175959e+01 9.398904800415039062e+00 1.200000000000000000e+01
1.433153247833251953e+01 4.447316646575927734e+00 -2.619257271289824884e-01 2.000000000000000000e+00
3.401177215576171875e+01 1.054792118072509943e+01 9.541623115539550781e+00 7.000000000000000000e+00
2.205796003341674805e+00 6.811208128929138184e-01 -6.185775399208068848e-01 1.400000000000000000e+01
2.515820980072021040e+00 7.758905887603759766e-01 -6.078177690505981445e-01 1.100000000000000000e+01
2.943698644638061968e+00 9.072874188423156738e-01 -5.987586379051208496e-01 1.300000000000000000e+01
3.521026372909545898e+00 1.083881855010986106e+00 -5.835005640983581543e-01 1.000000000000000000e+01
3.627519226074218750e+01 1.115970611572265980e+01 4.660039901733398438e+00 2.000000000000000000e+01
4.394469261169433594e+00 1.351075768470763938e+00 -5.644987821578979492e-01 1.300000000000000000e+01
5.724976062774658203e+00 1.759045243263245073e+00 -5.239803194999694824e-01 9.000000000000000000e+00
8.311512947082519531e+00 2.550604820251464844e+00 -4.556368291378021240e-01 1.000000000000000000e+00
3.902618026733397727e+01 1.196875000000000000e+01 9.424099922180175781e+00 1.200000000000000000e+01
1.435844135284424006e+01 4.400779247283936435e+00 -2.621351480484008789e-01 2.000000000000000000e+00
3.364570999145507812e+01 1.030579185485840021e+01 9.428777694702148438e+00 7.000000000000000000e+00
2.206194877624512163e+00 6.732385158538818359e-01 -6.180598735809326172e-01 1.600000000000000000e+01
2.520244121551514116e+00 7.681117057800292969e-01 -6.082676649093627930e-01 1.200000000000000000e+01
2.942934989929199219e+00 8.963766694068908691e-01 -5.979954004287719727e-01 1.300000000000000000e+01
3.535940647125244141e+00 1.075649261474608931e+00 -5.853777527809143066e-01 1.000000000000000000e+01
4.400824546813964844e+00 1.337072730064392090e+00 -5.647425651550292969e-01 1.100000000000000000e+01
5.740309715270996094e+00 1.742945194244384988e+00 -5.248518586158752441e-01 1.100000000000000000e+01
8.350505828857421875e+00 2.532302618026732954e+00 -4.573116004467009943e-01 3.000000000000000000e+00
3.922603988647460938e+01 1.188787651062012074e+01 9.462791442871093750e+00 1.200000000000000000e+01
1.437295532226563033e+01 4.353140830993652344e+00 -2.621351480484008789e-01 2.000000000000000000e+00
3.386460113525391336e+01 1.025012779235840021e+01 9.480541229248046875e+00 7.000000000000000000e+00
2.197433233261107954e+00 6.621890068054199219e-01 -6.149540543556213379e-01 1.400000000000000000e+01
2.534106492996215820e+00 7.626794576644897461e-01 -6.109670400619506836e-01 1.200000000000000000e+01
2.944165945053101030e+00 8.855329751968383789e-01 -5.976137518882751465e-01 1.300000000000000000e+01
3.535890102386475053e+00 1.062163352966309038e+00 -5.847520232200622559e-01 1.100000000000000000e+01
4.414971828460693359e+00 1.324555039405822976e+00 -5.659612417221069336e-01 1.000000000000000000e+01
5.752084255218505859e+00 1.724613785743712935e+00 -5.253748297691345215e-01 9.000000000000000000e+00
8.363121032714843750e+00 2.504284381866455078e+00 -4.575209319591522217e-01 1.000000000000000000e+00
3.936064529418945312e+01 1.177881336212158025e+01 9.485285758972167969e+00 1.200000000000000000e+01
1.435740947723389027e+01 4.293776035308837891e+00 -2.615766823291779120e-01 2.000000000000000000e+00
3.450728607177733664e+01 1.031330585479735973e+01 9.650326728820800781e+00 7.000000000000000000e+00
2.201468706130981001e+00 6.554496288299560547e-01 -6.154716610908508301e-01 1.500000000000000000e+01
2.542225360870360884e+00 7.559381723403930664e-01 -6.123167872428894043e-01 1.200000000000000000e+01
2.945204257965087891e+00 8.752056956291198730e-01 -5.972321629524230957e-01 1.200000000000000000e+01
3.533711671829224077e+00 1.048745989799499956e+00 -5.838134288787841797e-01 1.100000000000000000e+01
3.714756011962891336e+01 1.101771450042724965e+01 4.757535457611083984e+00 2.000000000000000000e+01
4.438372611999511719e+00 1.315548539161681907e+00 -5.683985948562622070e-01 1.100000000000000000e+01
