6.316767692565917969e+00 5.270408153533936435e+00 -4.311436116695404053e-01 2.000000000000000000e+00
1.032115459442139027e+01 8.605367660522460938e+00 -2.345603406429291049e-01 2.000000000000000000e+00
3.607212829589843750e+01 3.007550239562987926e+01 1.258430004119873047e+01 1.400000000000000000e+01
1.726155638694762962e+00 1.435118794441222922e+00 -6.014954447746276855e-01 2.000000000000000000e+01
1.983078002929687944e+00 1.647552728652954102e+00 -5.952205061912536621e-01 1.300000000000000000e+01
2.276034355163574219e+00 1.890271306037903054e+00 -5.750983357429504395e-01 9.000000000000000000e+00
2.728533029556273970e+00 2.264467477798461914e+00 -5.615997314453125000e-01 1.000000000000000000e+01
3.375336170196533203e+00 2.799273967742919922e+00 -5.384187698364257812e-01 9.000000000000000000e+00
4.377555370330811435e+00 3.629157066345214844e+00 -4.974849820137023926e-01 9.000000000000000000e+00
6.356658935546875000e+00 5.266164779663085938e+00 -4.326090216636658270e-01 2.000000000000000000e+00
3.614267730712891336e+01 2.993171310424805043e+01 1.083409309387207031e+01 1.300000000000000000e+01
1.032340431213379084e+01 8.546334266662597656e+00 -2.339320629835129062e-01 2.000000000000000000e+00
1.730905055999756081e+00 1.429386854171752930e+00 -6.014954447746276855e-01 1.800000000000000000e+01
1.981015324592590110e+00 1.634765863418579102e+00 -5.929709672927856445e-01 1.300000000000000000e+01
2.286833524703979048e+00 1.886461257934570090e+00 -5.762431621551513672e-01 1.200000000000000000e+01
2.723833322525023970e+00 2.245354890823363814e+00 -5.590967535972595215e-01 1.000000000000000000e+01
3.384600400924683061e+00 2.788065433502196822e+00 -5.384187698364257812e-01 9.000000000000000000e+00
4.389565944671630859e+00 3.614620447158813032e+00 -4.974849820137023926e-01 9.000000000000000000e+00
6.358664989471436435e+00 5.232365608215332031e+00 -4.315623044967650812e-01 2.000000000000000000e+00
1.036713314056395951e+01 8.524754524230957031e+00 -2.342811077833175937e-01 2.000000000000000000e+00
3.642224121093750000e+01 2.994951629638671875e+01 1.263502788543700994e+01 1.400000000000000000e+01
1.735884070396422896e+00 1.423336148262023926e+00 -6.014954447746276855e-01 1.800000000000000000e+01
1.982187628746032937e+00 1.624135613441467063e+00 -5.916212797164916992e-01 1.300000000000000000e+01
2.299479961395264116e+00 1.883443236351012962e+00 -5.777696371078491211e-01 1.400000000000000000e+01
2.739297628402709961e+00 2.242089033126831055e+00 -5.606611371040344238e-01 1.000000000000000000e+01
3.385092496871947798e+00 2.768693447113037109e+00 -5.369563102722167969e-01 9.000000000000000000e+00
4.403699398040770596e+00 3.600537300109862837e+00 -4.976592957973480225e-01 9.000000000000000000e+00
6.364517211914063388e+00 5.200028419494628906e+00 -4.307249188423156738e-01 2.000000000000000000e+00
1.040921878814697088e+01 8.498631477355957031e+00 -2.345603406429291049e-01 2.000000000000000000e+00
3.623542785644531250e+01 2.957396316528319957e+01 1.253253555297851918e+01 1.300000000000000000e+01
1.747082591056823953e+00 1.421841859817505105e+00 -6.035659909248352051e-01 1.800000000000000000e+01
1.985103249549865945e+00 1.614400506019592063e+00 -5.907214879989624023e-01 1.200000000000000000e+01
2.298750877380371094e+00 1.868810415267943892e+00 -5.758615732192993164e-01 1.300000000000000000e+01
2.745963573455810991e+00 2.230788469314575195e+00 -5.603482723236083984e-01 1.000000000000000000e+01
3.395217418670653853e+00 2.756267786026000977e+00 -5.369563102722167969e-01 9.000000000000000000e+00
4.426148891448974609e+00 3.591905593872069868e+00 -4.987051486968994141e-01 1.100000000000000000e+01
6.402148723602294922e+00 5.191762447357177734e+00 -4.319809973239899237e-01 2.000000000000000000e+00
3.675689697265625000e+01 2.979702949523926137e+01 1.092407321929931996e+01 1.300000000000000000e+01
1.044029808044433949e+01 8.460422515869140625e+00 -2.345603406429291049e-01 2.000000000000000000e+00
3.644950866699218750e+01 2.953730201721191051e+01 1.257084083557129084e+01 1.400000000000000000e+01
1.746024727821350098e+00 1.410878062248229980e+00 -6.014954447746276855e-01 1.900000000000000000e+01
1.993758797645569070e+00 1.609910011291503906e+00 -5.916212797164916992e-01 1.200000000000000000e+01
2.305260181427001953e+00 1.860774874687195046e+00 -5.758615732192993164e-01 1.400000000000000000e+01
2.761421680450439009e+00 2.227390766143798828e+00 -5.619125962257385254e-01 1.000000000000000000e+01
3.401726961135863814e+00 2.741908073425292969e+00 -5.364688634872436523e-01 9.000000000000000000e+00
4.434005260467529297e+00 3.572683334350585938e+00 -4.981822371482849121e-01 1.100000000000000000e+01
6.426455020904541016e+00 5.174393653869628906e+00 -4.323996603488922119e-01 1.000000000000000000e+00
3.686068344116210938e+01 2.966854095458984020e+01 1.092407321929931996e+01 1.300000000000000000e+01
1.048534679412841975e+01 8.436463356018066406e+00 -2.349093854427337924e-01 2.000000000000000000e+00
1.741897940635680930e+00 1.397521138191222922e+00 -5.983896255493164062e-01 2.000000000000000000e+01
2.008488893508911133e+00 1.610254406929015891e+00 -5.943207144737243652e-01 1.200000000000000000e+01
2.317869424819945845e+00 1.857627749443053977e+00 -5.773880481719970703e-01 1.500000000000000000e+01
2.769179821014403853e+00 2.217737913131713867e+00 -5.619125962257385254e-01 9.000000000000000000e+00
3.415926933288574219e+00 2.733738183975220171e+00 -5.372000932693481445e-01 1.000000000000000000e+01
4.449561119079589844e+00 3.559673309326171875e+00 -4.985308349132537842e-01 9.000000000000000000e+00
6.419517517089843750e+00 5.131975173950195312e+00 -4.307249188423156738e-01 2.000000000000000000e+00
1.053348064422607067e+01 8.414788246154785156e+00 -2.353282421827316007e-01 2.000000000000000000e+00
1.752809762954711914e+00 1.396246910095215066e+00 -6.004601716995239258e-01 1.900000000000000000e+01
2.006474018096923828e+00 1.597165465354918990e+00 -5.920711755752563477e-01 1.100000000000000000e+01
2.322803258895874023e+00 1.848303198814392090e+00 -5.770063996315002441e-01 1.400000000000000000e+01
2.761442661285399947e+00 2.195763826370238814e+00 -5.587838888168334961e-01 9.000000000000000000e+00
3.439436197280883789e+00 2.732912063598632812e+00 -5.393937230110168457e-01 1.000000000000000000e+01
4.463519573211669922e+00 3.545358896255493164e+00 -4.987051486968994141e-01 9.000000000000000000e+00
6.453036308288574219e+00 5.121952533721923828e+00 -4.317716360092163086e-01 2.000000000000000000e+00
1.052832126617431996e+01 8.350629806518554688e+00 -2.345603406429291049e-01 2.000000000000000000e+00
3.764981842041016336e+01 2.986228179931640980e+01 1.287624740600585938e+01 1.400000000000000000e+01
1.763490319252013938e+00 1.395221233367919922e+00 -6.025307178497314453e-01 1.900000000000000000e+01
2.010230779647827148e+00 1.589294314384460005e+00 -5.916212797164916992e-01 1.300000000000000000e+01
2.336621046066284180e+00 1.846676945686340110e+00 -5.789144635200500488e-01 1.400000000000000000e+01
2.781110763549805132e+00 2.196388959884643999e+00 -5.612868666648864746e-01 9.000000000000000000e+00
3.445363521575928178e+00 2.719031810760498047e+00 -5.389062166213989258e-01 1.000000000000000000e+01
4.462738037109375000e+00 3.520665645599364790e+00 -4.973106682300568182e-01 1.300000000000000000e+01
6.466848850250244141e+00 5.098052501678466797e+00 -4.315623044967650812e-01 2.000000000000000000e+00
1.060307979583740057e+01 8.352794647216796875e+00 -2.356074899435043057e-01 2.000000000000000000e+00
1.771388292312622070e+00 1.391443729400634988e+00 -6.035659909248352051e-01 1.800000000000000000e+01
2.014233350753784180e+00 1.581064462661742942e+00 -5.911713838577270508e-01 1.100000000000000000e+01
2.341508388519287109e+00 1.837297439575195090e+00 -5.785328745841979980e-01 1.400000000000000000e+01
2.791869640350341797e+00 2.189105272293090820e+00 -5.619125962257385254e-01 9.000000000000000000e+00
3.442333221435546875e+00 2.697194099426269975e+00 -5.369563102722167969e-01 9.000000000000000000e+00
4.467157840728759766e+00 3.498923540115356001e+00 -4.964390993118286133e-01 1.100000000000000000e+01
6.497187137603759766e+00 5.085295677185058594e+00 -4.323996603488922119e-01 2.000000000000000000e+00
1.061012077331542969e+01 8.298484802246093750e+00 -2.351188212633132935e-01 2.000000000000000000e+00
3.851788330078125000e+01 3.011512756347655895e+01 1.310090255737305043e+01 1.500000000000000000e+01
1.764047622680664062e+00 1.375747680664062944e+00 -5.994248986244201660e-01 1.700000000000000000e+01
2.022814035415648970e+00 1.576419591903686968e+00 -5.920711755752563477e-01 1.200000000000000000e+01
2.338615179061890093e+00 1.821873545646667036e+00 -5.762431621551513672e-01 1.400000000000000000e+01
2.802611351013184038e+00 2.181773424148560014e+00 -5.625383257865905762e-01 9.000000000000000000e+00
3.451727151870727983e+00 2.685161828994750977e+00 -5.369563102722167969e-01 9.000000000000000000e+00
4.476198196411132812e+00 3.480862855911254883e+00 -4.960905015468596857e-01 1.100000000000000000e+01
6.502281665802001953e+00 5.052781581878662109e+00 -4.315623044967650812e-01 2.000000000000000000e+00
1.058848094940186080e+01 8.222151756286621094e+00 -2.340018600225448886e-01 2.000000000000000000e+00
1.771894097328186035e+00 1.371947050094604048e+00 -6.004601716995239258e-01 1.700000000000000000e+01
2.040634632110596147e+00 1.578889131546020952e+00 -5.956704020500183105e-01 1.100000000000000000e+01
2.352725028991699219e+00 1.819704771041869895e+00 -5.781512856483459473e-01 1.300000000000000000e+01
2.813336133956909180e+00 2.174393177032471147e+00 -5.631640553474426270e-01 9.000000000000000000e+00
3.467363357543944868e+00 2.677950143814086914e+00 -5.379312634468078613e-01 9.000000000000000000e+00
4.493052959442138672e+00 3.468869447708129883e+00 -4.966134130954741877e-01 1.100000000000000000e+01
6.526205062866210938e+00 5.034933567047119141e+00 -4.319809973239899237e-01 2.000000000000000000e+00
3.900893783569335938e+01 3.008433532714844105e+01 1.137307548522949041e+01 1.400000000000000000e+01
1.067729759216308949e+01 8.231535911560058594e+00 -2.353282421827316007e-01 2.000000000000000000e+00
1.779257893562316895e+00 1.368729472160338911e+00 -6.014954447746276855e-01 2.000000000000000000e+01
2.033224821090697798e+00 1.562969207763672097e+00 -5.920711755752563477e-01 1.200000000000000000e+01
2.359987020492554155e+00 1.813500761985779031e+00 -5.785328745841979980e-01 1.200000000000000000e+01
2.807619333267211914e+00 2.155919551849364790e+00 -5.606611371040344238e-01 9.000000000000000000e+00
3.478909015655518022e+00 2.669460773468018022e+00 -5.384187698364257812e-01 9.000000000000000000e+00
4.518156528472900391e+00 3.465650558471680132e+00 -4.981822371482849121e-01 9.000000000000000000e+00
6.557842254638671875e+00 5.026556015014648438e+00 -4.330277144908905029e-01 2.000000000000000000e+00
1.072215557098389027e+01 8.212543487548828125e+00 -2.357470989227294922e-01 2.000000000000000000e+00
1.785560131072998047e+00 1.363682985305785911e+00 -6.020131111145019531e-01 1.900000000000000000e+01
2.032471656799315962e+00 1.551133275032043013e+00 -5.902715921401977539e-01 1.200000000000000000e+01
2.370985507965087891e+00 1.808824181556702104e+00 -5.796777009963989258e-01 1.200000000000000000e+01
2.818269729614257812e+00 2.148501157760620117e+00 -5.612868666648864746e-01 1.000000000000000000e+01
3.486626863479613814e+00 2.656097888946533203e+00 -5.381750464439392090e-01 9.000000000000000000e+00
4.552417755126953125e+00 3.466757297515869141e+00 -5.006225705146789551e-01 9.000000000000000000e+00
6.559454441070556641e+00 4.991539478302001953e+00 -4.319809973239899237e-01 2.000000000000000000e+00
1.072210597991943004e+01 8.153278350830078125e+00 -2.351188212633132935e-01 2.000000000000000000e+00
1.794927597045897993e+00 1.360943436622620073e+00 -6.035659909248352051e-01 1.800000000000000000e+01
2.045639991760253906e+00 1.549913525581360085e+00 -5.925210714340209961e-01 1.300000000000000000e+01
2.366329908370972124e+00 1.792239546775818093e+00 -5.770063996315002441e-01 1.200000000000000000e+01
2.833627700805664062e+00 2.144611120223999023e+00 -5.628511905670166016e-01 1.000000000000000000e+01
3.489544153213500977e+00 2.639121532440185991e+00 -5.372000932693481445e-01 7.000000000000000000e+00
4.561312675476074219e+00 3.448442220687866211e+00 -5.002739429473876953e-01 9.000000000000000000e+00
6.605523109436035156e+00 4.990283012390136719e+00 -4.338650703430175781e-01 2.000000000000000000e+00
1.080476379394531072e+01 8.156765937805175781e+00 -2.363055795431137085e-01 2.000000000000000000e+00
1.799667239189147949e+00 1.354669690132140891e+00 -6.035659909248352051e-01 1.800000000000000000e+01
2.052595138549805132e+00 1.543934822082519975e+00 -5.929709672927856445e-01 1.100000000000000000e+01
2.367864131927489790e+00 1.780429005622863992e+00 -5.758615732192993164e-01 1.000000000000000000e+01
2.839517354965209961e+00 2.133520126342772993e+00 -5.625383257865905762e-01 1.000000000000000000e+01
3.500322580337523970e+00 2.628116607666016069e+00 -5.374438166618347168e-01 9.000000000000000000e+00
4.590850353240966797e+00 3.445655345916748047e+00 -5.021913647651672363e-01 1.100000000000000000e+01
6.635684490203857422e+00 4.976781845092773438e+00 -4.347024559974669855e-01 2.000000000000000000e+00
1.083317089080811080e+01 8.119001388549804688e+00 -2.363055795431137085e-01 2.000000000000000000e+00
1.795099973678589089e+00 1.341440916061400923e+00 -6.004601716995239258e-01 1.800000000000000000e+01
2.057971954345703125e+00 1.536760568618773970e+00 -5.929709672927856445e-01 1.100000000000000000e+01
2.385077476501464844e+00 1.780373454093933105e+00 -5.785328745841979980e-01 1.100000000000000000e+01
2.856447696685791016e+00 2.130681991577147993e+00 -5.644155740737915039e-01 9.000000000000000000e+00
3.519024610519409180e+00 2.623000144958496094e+00 -5.389062166213989258e-01 9.000000000000000000e+00
4.574092388153076172e+00 3.408181667327880859e+00 -4.990537762641906738e-01 8.000000000000000000e+00
3.186470985412598012e+01 2.373392486572265980e+01 7.723185062408447266e+00 6.300000000000000000e+01
6.636996746063232422e+00 4.941660881042479581e+00 -4.336557388305664062e-01 1.000000000000000000e+00
3.139817810058594105e+01 2.336940002441405895e+01 9.036283493041992188e+00 1.200000000000000000e+01
1.086144542694091975e+01 8.081136703491210938e+00 -2.363055795431137085e-01 2.000000000000000000e+00
3.216653442382813211e+01 2.392383766174316051e+01 1.074150848388672053e+01 9.000000000000000000e+00
1.805977582931518999e+00 1.339770793914794922e+00 -6.025307178497314453e-01 1.800000000000000000e+01
2.063323736190795898e+00 1.529567480087280051e+00 -5.929709672927856445e-01 1.200000000000000000e+01
2.391277551651000977e+00 1.772037148475646973e+00 -5.785328745841979980e-01 1.100000000000000000e+01
2.847992658615111861e+00 2.108942508697510210e+00 -5.612868666648864746e-01 9.000000000000000000e+00
3.531350612640380859e+00 2.613061904907227007e+00 -5.393937230110168457e-01 9.000000000000000000e+00
4.595571994781494141e+00 3.399303197860718218e+00 -5.000996589660644531e-01 9.000000000000000000e+00
6.657418251037597656e+00 4.920837879180908203e+00 -4.338650703430175781e-01 1.000000000000000000e+00
3.149523544311523082e+01 2.327123832702637074e+01 9.040782928466796875e+00 1.200000000000000000e+01
1.086385154724120916e+01 8.024165153503417969e+00 -2.357470989227294922e-01 2.000000000000000000e+00
3.222653579711914062e+01 2.379419708251953125e+01 1.073374366760254084e+01 1.900000000000000000e+01
1.810643315315247026e+00 1.333458542823791948e+00 -6.025307178497314453e-01 1.700000000000000000e+01
2.060802698135375977e+00 1.516580581665039062e+00 -5.907214879989624023e-01 1.200000000000000000e+01
2.399029970169066939e+00 1.764842629432678001e+00 -5.789144635200500488e-01 1.200000000000000000e+01
2.852153778076171875e+00 2.096648454666138139e+00 -5.606611371040344238e-01 1.100000000000000000e+01
3.538850545883179155e+00 2.599544286727904829e+00 -5.391499996185302734e-01 9.000000000000000000e+00
4.639528274536132812e+00 3.406825780868529829e+00 -5.035858750343322754e-01 9.000000000000000000e+00
6.655231475830078125e+00 4.883390426635742188e+00 -4.326090216636658270e-01 2.000000000000000000e+00
3.153227615356444957e+01 2.312888526916503906e+01 9.028185844421386719e+00 1.200000000000000000e+01
1.091759681701659979e+01 8.005113601684570312e+00 -2.363055795431137085e-01 2.000000000000000000e+00
3.232342147827147727e+01 2.369183921813964844e+01 1.073840236663818004e+01 9.000000000000000000e+00
1.823084473609924094e+00 1.332830786705017090e+00 -6.051189303398132324e-01 1.900000000000000000e+01
2.067657470703125000e+00 1.510527372360229048e+00 -5.911713838577270508e-01 1.100000000000000000e+01
2.408346652984619141e+00 1.758773326873779075e+00 -5.796777009963989258e-01 1.200000000000000000e+01
2.859454870223999023e+00 2.086679697036743164e+00 -5.606611371040344238e-01 1.100000000000000000e+01
3.674948120117188211e+01 2.680800819396973012e+01 5.585271835327148438e+00 3.900000000000000000e+01
3.549507141113280806e+00 2.588345050811768022e+00 -5.393937230110168457e-01 9.000000000000000000e+00
4.585380554199218750e+00 3.342491388320922852e+00 -4.964390993118286133e-01 9.000000000000000000e+00
6.672236919403076172e+00 4.860129833221436435e+00 -4.326090216636658270e-01 2.000000000000000000e+00
3.160021591186523082e+01 2.300949859619140980e+01 9.024586677551269531e+00 1.200000000000000000e+01
1.091960525512694957e+01 7.948126316070556641e+00 -2.357470989227294922e-01 2.000000000000000000e+00
3.226533508300781250e+01 2.347657012939453125e+01 1.069181442260742010e+01 9.000000000000000000e+00
1.827957272529602051e+00 1.326139926910399947e+00 -6.051189303398132324e-01 2.100000000000000000e+01
2.076335430145264116e+00 1.505226492881774902e+00 -5.920711755752563477e-01 1.100000000000000000e+01
2.403648853302001953e+00 1.741870284080504927e+00 -5.770063996315002441e-01 1.100000000000000000e+01
2.881483316421508789e+00 2.086612462997436968e+00 -5.634769201278686523e-01 1.300000000000000000e+01
3.554145336151123047e+00 2.571826934814453125e+00 -5.386624932289123535e-01 1.000000000000000000e+01
4.688003063201904297e+00 3.391054868698120117e+00 -5.062005519866943359e-01 9.000000000000000000e+00
6.719141483306884766e+00 4.856702327728270596e+00 -4.344930946826934814e-01 2.000000000000000000e+00
3.177279281616210938e+01 2.295743751525878906e+01 9.049780845642089844e+00 1.200000000000000000e+01
1.095514774322509943e+01 7.912734031677246094e+00 -2.358867228031157892e-01 2.000000000000000000e+00
3.185534095764160156e+01 2.300862121582030895e+01 1.052927684783936080e+01 9.000000000000000000e+00
1.823169469833374023e+00 1.312977313995361106e+00 -6.020131111145019531e-01 1.900000000000000000e+01
2.087903976440430132e+00 1.502522587776184082e+00 -5.938707590103149414e-01 1.100000000000000000e+01
2.412901878356934038e+00 1.735762357711791992e+00 -5.777696371078491211e-01 1.100000000000000000e+01
2.882333517074584961e+00 2.071929693222045898e+00 -5.622254610061645508e-01 1.400000000000000000e+01
3.569550037384033203e+00 2.564037322998046875e+00 -5.396374464035034180e-01 1.000000000000000000e+01
4.694956302642822266e+00 3.371183872222899947e+00 -5.056776404380798340e-01 9.000000000000000000e+00
6.726317405700683594e+00 4.826232433319091797e+00 -4.338650703430175781e-01 1.000000000000000000e+00
1.101195430755615057e+01 7.895418643951416016e+00 -2.365150153636932095e-01 2.000000000000000000e+00
1.829084753990172896e+00 1.308048009872436968e+00 -6.025307178497314453e-01 1.800000000000000000e+01
2.092875003814696822e+00 1.495590686798095925e+00 -5.938707590103149414e-01 1.200000000000000000e+01
2.426632165908813032e+00 1.733457207679748979e+00 -5.796777009963989258e-01 1.200000000000000000e+01
2.884365081787108931e+00 2.058917045593262163e+00 -5.612868666648864746e-01 1.200000000000000000e+01
3.578033208847045898e+00 2.552186250686645952e+00 -5.396374464035034180e-01 1.000000000000000000e+01
3.146252822875976918e+01 2.244200325012207031e+01 6.120967864990234375e+00 1.400000000000000000e+01
4.707731723785400391e+00 3.356752872467041016e+00 -5.058519244194030762e-01 6.000000000000000000e+00
6.745537757873535156e+00 4.806218147277832031e+00 -4.340744316577910822e-01 2.000000000000000000e+00
1.102830123901367010e+01 7.851899623870849609e+00 -2.363055795431137085e-01 2.000000000000000000e+00
1.843091249465941939e+00 1.308364987373352051e+00 -6.056365370750427246e-01 1.900000000000000000e+01
2.088546276092528853e+00 1.481511116027832031e+00 -5.911713838577270508e-01 1.300000000000000000e+01
2.429465293884276900e+00 1.722705006599426047e+00 -5.789144635200500488e-01 1.200000000000000000e+01
2.896369695663452148e+00 2.052262306213378906e+00 -5.622254610061645508e-01 1.300000000000000000e+01
3.586920022964477983e+00 2.539680957794189009e+00 -5.396374464035034180e-01 1.000000000000000000e+01
3.164131355285644887e+01 2.239500808715819957e+01 6.139739990234375000e+00 1.400000000000000000e+01
4.743814468383789062e+00 3.357564926147460938e+00 -5.084666013717651367e-01 9.000000000000000000e+00
6.759012222290039062e+00 4.780336380004882812e+00 -4.338650703430175781e-01 2.000000000000000000e+00
1.108830356597900035e+01 7.836438179016113281e+00 -2.370036840438843051e-01 2.000000000000000000e+00
3.205035781860352273e+01 2.264256668090819957e+01 1.051478290557860973e+01 9.000000000000000000e+00
1.852612495422363059e+00 1.304938316345215066e+00 -6.071894764900207520e-01 1.900000000000000000e+01
2.100336551666260210e+00 1.478332877159119096e+00 -5.929709672927856445e-01 1.300000000000000000e+01
2.438974380493164062e+00 1.716048359870911089e+00 -5.796777009963989258e-01 1.200000000000000000e+01
2.915184020996094194e+00 2.049585819244385210e+00 -5.644155740737915039e-01 1.100000000000000000e+01
3.262335205078125000e+01 2.292807579040526988e+01 4.895978927612304688e+00 2.100000000000000000e+01
3.584834337234497070e+00 2.518529176712036133e+00 -5.379312634468078613e-01 9.000000000000000000e+00
4.760980129241943359e+00 3.343590736389160156e+00 -5.089895129203796387e-01 6.000000000000000000e+00
6.789566516876220703e+00 4.764709472656250000e+00 -4.347024559974669855e-01 2.000000000000000000e+00
3.142976188659667969e+01 2.204825592041015980e+01 8.863521575927734375e+00 1.200000000000000000e+01
1.110057830810547053e+01 7.784263610839843750e+00 -2.366546243429183960e-01 2.000000000000000000e+00
3.149967956542969105e+01 2.208910179138183949e+01 1.030876255035400035e+01 8.000000000000000000e+00
1.844490289688109907e+00 1.289607882499695046e+00 -6.030483841896057129e-01 1.900000000000000000e+01
2.103886604309082031e+00 1.469876289367676003e+00 -5.925210714340209961e-01 1.300000000000000000e+01
2.440120935440063032e+00 1.704151988029479980e+00 -5.785328745841979980e-01 1.100000000000000000e+01
2.922320604324340820e+00 2.039397478103638139e+00 -5.644155740737915039e-01 1.100000000000000000e+01
3.605001688003540039e+00 2.513948678970336914e+00 -5.396374464035034180e-01 1.000000000000000000e+01
3.186557769775390980e+01 2.221320152282714844e+01 6.152254581451416016e+00 1.400000000000000000e+01
4.775891304016113281e+00 3.329230070114136186e+00 -5.093381404876708984e-01 8.000000000000000000e+00
6.786490917205811435e+00 4.727281570434570312e+00 -4.334463775157927912e-01 2.000000000000000000e+00
3.023354339599609020e+01 2.105201148986816051e+01 8.505399703979492188e+00 1.100000000000000000e+01
1.114409542083740057e+01 7.756891727447509766e+00 -2.370036840438843051e-01 2.000000000000000000e+00
3.249699783325195312e+01 2.261124610900878906e+01 1.060795783996582031e+01 9.000000000000000000e+00
1.844219207763672097e+00 1.279857277870178001e+00 -6.014954447746276855e-01 2.000000000000000000e+01
2.113808631896973100e+00 1.465854883193969949e+00 -5.938707590103149414e-01 1.400000000000000000e+01
2.449281454086304155e+00 1.697860956192017046e+00 -5.792961120605468750e-01 1.100000000000000000e+01
2.932669162750244141e+00 2.031433820724486861e+00 -5.650413036346435547e-01 1.100000000000000000e+01
3.618651628494263139e+00 2.504739046096802202e+00 -5.403686761856079102e-01 1.000000000000000000e+01
4.782567977905273438e+00 3.309137821197510210e+00 -5.088152289390563965e-01 1.100000000000000000e+01
6.825950622558593750e+00 4.719465255737304688e+00 -4.349117875099182129e-01 2.000000000000000000e+00
3.036776161193848012e+01 2.098845100402832031e+01 8.522495269775390625e+00 1.100000000000000000e+01
1.116123294830322088e+01 7.711124420166015625e+00 -2.367942482233046930e-01 2.000000000000000000e+00
3.256226730346679688e+01 2.249676895141601918e+01 1.060485172271729049e+01 9.000000000000000000e+00
1.851857423782349077e+00 1.275603652000427024e+00 -6.025307178497314453e-01 1.700000000000000000e+01
2.118912696838378906e+00 1.458467364311218040e+00 -5.938707590103149414e-01 1.400000000000000000e+01
2.453575849533081055e+00 1.688188195228577104e+00 -5.789144635200500488e-01 1.000000000000000000e+01
2.928348064422606978e+00 2.013350486755371094e+00 -5.628511905670166016e-01 1.100000000000000000e+01
3.632281303405762163e+00 2.495464563369750977e+00 -5.410999059677124023e-01 1.000000000000000000e+01
4.825294971466063565e+00 3.313853979110718218e+00 -5.121271610260009766e-01 9.000000000000000000e+00
6.839089393615722656e+00 4.693349361419677734e+00 -4.347024559974669855e-01 2.000000000000000000e+00
3.044405364990234020e+01 2.088452529907226918e+01 8.523395538330078125e+00 1.100000000000000000e+01
1.117818641662598012e+01 7.665331840515136719e+00 -2.365848273038864136e-01 2.000000000000000000e+00
3.240867614746093750e+01 2.221561622619628906e+01 1.052824115753174006e+01 9.000000000000000000e+00
1.862233281135559082e+00 1.274143099784851074e+00 -6.046012639999389648e-01 1.700000000000000000e+01
2.115440607070922852e+00 1.446304082870482954e+00 -5.916212797164916992e-01 1.200000000000000000e+01
2.466971635818481001e+00 1.686010479927062988e+00 -5.808225870132446289e-01 1.200000000000000000e+01
2.939552545547484907e+00 2.007483005523682085e+00 -5.637897849082946777e-01 1.100000000000000000e+01
3.265701675415039062e+01 2.229381370544433949e+01 4.855031013488770419e+00 2.000000000000000000e+01
3.631904602050780806e+00 2.478446483612060991e+00 -5.398811697959899902e-01 9.000000000000000000e+00
4.822515010833740234e+00 3.289696455001831055e+00 -5.107326507568359375e-01 9.000000000000000000e+00
6.827394962310791016e+00 4.653841495513916016e+00 -4.330277144908905029e-01 2.000000000000000000e+00
3.058359336853026988e+01 2.083925628662109020e+01 8.544091224670410156e+00 1.100000000000000000e+01
1.122204494476318004e+01 7.643685817718505859e+00 -2.370036840438843051e-01 2.000000000000000000e+00
3.255108642578125000e+01 2.217156219482421875e+01 1.055308818817139027e+01 9.000000000000000000e+00
1.869865775108336958e+00 1.269805550575255904e+00 -6.056365370750427246e-01 1.800000000000000000e+01
2.125313758850098100e+00 1.442193746566772017e+00 -5.929709672927856445e-01 1.400000000000000000e+01
2.469592571258544922e+00 1.675184726715087891e+00 -5.800593495368957520e-01 1.100000000000000000e+01
2.949812412261962891e+00 1.999426484107970969e+00 -5.644155740737915039e-01 1.100000000000000000e+01
3.642177581787108931e+00 2.466866731643677202e+00 -5.401249527931213379e-01 1.000000000000000000e+01
3.177898406982421875e+01 2.151598930358887074e+01 6.078417778015136719e+00 1.400000000000000000e+01
4.855416297912597656e+00 3.287364006042480025e+00 -5.129987001419067383e-01 6.000000000000000000e+00
6.853523731231688565e+00 4.636696338653563565e+00 -4.336557388305664062e-01 2.000000000000000000e+00
3.064646530151366832e+01 2.072582244873046875e+01 8.541391372680664062e+00 1.100000000000000000e+01
1.126191139221191051e+01 7.613426208496093750e+00 -2.372829169034957886e-01 2.000000000000000000e+00
1.869480967521667036e+00 1.260031580924988015e+00 -6.040836572647094727e-01 1.900000000000000000e+01
2.136800289154053178e+00 1.439120650291443093e+00 -5.947706103324890137e-01 1.300000000000000000e+01
2.468910694122314009e+00 1.662168383598328081e+00 -5.785328745841979980e-01 1.100000000000000000e+01
2.955134630203247070e+00 1.988014817237854004e+00 -5.641027092933654785e-01 1.000000000000000000e+01
3.654061317443848100e+00 2.456353187561035156e+00 -5.406123995780944824e-01 1.000000000000000000e+01
3.190917587280273082e+01 2.145016098022460938e+01 6.089680671691895419e+00 1.400000000000000000e+01
4.860246658325195312e+00 3.265950441360474077e+00 -5.123014450073242188e-01 9.000000000000000000e+00
6.876299381256104404e+00 4.617198467254638672e+00 -4.340744316577910822e-01 1.000000000000000000e+00
3.219752120971679688e+01 2.161137390136719105e+01 8.952602386474609375e+00 1.200000000000000000e+01
1.130170345306395951e+01 7.582982063293457031e+00 -2.375621497631072998e-01 2.000000000000000000e+00
1.864233613014220969e+00 1.247053503990172896e+00 -6.009778380393981934e-01 1.700000000000000000e+01
2.138570547103881836e+00 1.429487109184264915e+00 -5.938707590103149414e-01 1.100000000000000000e+01
2.477962493896483931e+00 1.655721545219420943e+00 -5.792961120605468750e-01 1.100000000000000000e+01
2.957127571105957031e+00 1.974396705627440962e+00 -5.631640553474426270e-01 1.000000000000000000e+01
3.662613153457642046e+00 2.443583011627196822e+00 -5.406123995780944824e-01 1.000000000000000000e+01
3.190169525146484020e+01 2.128383064270019887e+01 6.074037551879882812e+00 1.400000000000000000e+01
4.878247737884520596e+00 3.253386974334716797e+00 -5.129987001419067383e-01 9.000000000000000000e+00
6.882402420043945312e+00 4.586521625518798828e+00 -4.334463775157927912e-01 2.000000000000000000e+00
3.206192398071289062e+01 2.135839843750000000e+01 8.894114494323730469e+00 1.200000000000000000e+01
1.130147266387938920e+01 7.525751590728759766e+00 -2.370036840438843051e-01 2.000000000000000000e+00
1.878232121467590110e+00 1.246949553489685059e+00 -6.040836572647094727e-01 1.700000000000000000e+01
2.138675689697266069e+00 1.418781518936157005e+00 -5.925210714340209961e-01 1.200000000000000000e+01
2.490271568298339844e+00 1.651401877403259055e+00 -5.808225870132446289e-01 1.100000000000000000e+01
2.960708141326903853e+00 1.961880087852478027e+00 -5.625383257865905762e-01 9.000000000000000000e+00
3.681051492691040039e+00 2.437358856201171875e+00 -5.420748591423034668e-01 1.000000000000000000e+01
4.882928848266601562e+00 3.231940031051636186e+00 -5.123014450073242188e-01 9.000000000000000000e+00
6.908365726470947266e+00 4.569080352783203125e+00 -4.340744316577910822e-01 2.000000000000000000e+00
3.208101272583007812e+01 2.120981025695801137e+01 8.878818511962890625e+00 1.200000000000000000e+01
1.134102058410645064e+01 7.495076656341552734e+00 -2.372829169034957886e-01 2.000000000000000000e+00
3.294773101806641336e+01 2.177456474304198863e+01 1.058207511901854936e+01 9.000000000000000000e+00
1.885799646377563032e+00 1.242511510848999023e+00 -6.051189303398132324e-01 1.700000000000000000e+01
2.140359878540039062e+00 1.409164309501647949e+00 -5.916212797164916992e-01 1.100000000000000000e+01
2.497660875320435014e+00 1.643778443336487038e+00 -5.812041759490966797e-01 1.300000000000000000e+01
2.969188928604125977e+00 1.952618718147278054e+00 -5.628511905670166016e-01 1.000000000000000000e+01
3.502833557128906250e+01 2.302682304382323863e+01 5.147029876708984375e+00 2.800000000000000000e+01
3.681242227554320845e+00 2.419044017791748047e+00 -5.408561229705810547e-01 9.000000000000000000e+00
4.895845890045166016e+00 3.215969800949097124e+00 -5.124757885932922363e-01 8.000000000000000000e+00
3.163366127014160156e+01 2.077152824401855113e+01 7.356068611145020419e+00 6.200000000000000000e+01
6.927612304687500000e+00 4.547130107879638672e+00 -4.342837631702423096e-01 2.000000000000000000e+00
3.240903091430664062e+01 2.126447105407714844e+01 8.949003219604492188e+00 1.200000000000000000e+01
1.139052391052245916e+01 7.470797538757324219e+00 -2.377715855836868009e-01 2.000000000000000000e+00
3.314040756225585938e+01 2.172780418395996094e+01 1.061830997467041016e+01 9.000000000000000000e+00
1.886891603469849077e+00 1.233806729316710982e+00 -6.040836572647094727e-01 1.800000000000000000e+01
2.155053853988647017e+00 1.408079981803894043e+00 -5.943207144737243652e-01 1.000000000000000000e+01
2.498452425003052202e+00 1.631829261779784934e+00 -5.800593495368957520e-01 1.400000000000000000e+01
2.977640867233275923e+00 1.943322062492371050e+00 -5.631640553474426270e-01 1.000000000000000000e+01
3.679687261581420898e+00 2.399673223495482954e+00 -5.393937230110168457e-01 1.000000000000000000e+01
4.913718223571777344e+00 3.203212499618529829e+00 -5.131729841232299805e-01 9.000000000000000000e+00
6.946789741516113281e+00 4.525100708007813388e+00 -4.344930946826934814e-01 2.000000000000000000e+00
3.255491256713867188e+01 2.119799995422362926e+01 8.968798637390136719e+00 1.200000000000000000e+01
1.145340251922607067e+01 7.454990386962890625e+00 -2.385394871234894076e-01 2.000000000000000000e+00
1.894428014755249023e+00 1.229315996170043945e+00 -6.051189303398132324e-01 2.000000000000000000e+01
2.163226127624512163e+00 1.402669310569762962e+00 -5.952205061912536621e-01 1.100000000000000000e+01
2.512370586395264116e+00 1.628437280654907005e+00 -5.819674134254455566e-01 1.400000000000000000e+01
2.997670173645019975e+00 1.941507101058959961e+00 -5.656670331954956055e-01 9.000000000000000000e+00
3.708039760589600053e+00 2.399756669998168945e+00 -5.423185825347900391e-01 1.000000000000000000e+01
3.302867507934570312e+01 2.136720657348633168e+01 6.230472087860107422e+00 1.400000000000000000e+01
4.916505336761474609e+00 3.180629968643188032e+00 -5.123014450073242188e-01 9.000000000000000000e+00
3.089426612854003906e+01 1.997875022888183949e+01 7.151521205902099609e+00 6.100000000000000000e+01
6.979315757751464844e+00 4.511666774749755859e+00 -4.355398416519165039e-01 2.000000000000000000e+00
1.145583915710449041e+01 7.399775028228759766e+00 -2.380508184432983121e-01 2.000000000000000000e+00
3.260273361206054688e+01 2.105938339233398082e+01 1.039986705780028942e+01 8.000000000000000000e+00
1.888962268829345925e+00 1.216420054435729980e+00 -6.020131111145019531e-01 1.800000000000000000e+01
2.164831638336182085e+00 1.393000721931457964e+00 -5.943207144737243652e-01 1.100000000000000000e+01
2.509783744812012163e+00 1.614347100257873979e+00 -5.800593495368957520e-01 1.400000000000000000e+01
2.992796897888184038e+00 1.923555135726928933e+00 -5.634769201278686523e-01 8.000000000000000000e+00
3.718064069747924805e+00 2.387871265411376953e+00 -5.425623059272766113e-01 1.000000000000000000e+01
3.318245315551757812e+01 2.131093597412109020e+01 6.246115207672119141e+00 1.400000000000000000e+01
4.924224376678466797e+00 3.161295890808105025e+00 -5.119528174400329590e-01 9.000000000000000000e+00
6.984935283660888672e+00 4.480806350708007812e+00 -4.349117875099182129e-01 2.000000000000000000e+00
1.148159980773925959e+01 7.359741687774658203e+00 -2.380508184432983121e-01 2.000000000000000000e+00
3.385030746459960938e+01 2.169815444946289062e+01 1.077360153198242010e+01 9.000000000000000000e+00
1.899708271026611106e+00 1.213979959487915039e+00 -6.040836572647094727e-01 1.800000000000000000e+01
2.176250696182250977e+00 1.389630675315856934e+00 -5.961202979087829590e-01 1.100000000000000000e+01
2.530297517776488814e+00 1.615083217620850053e+00 -5.834938883781433105e-01 1.400000000000000000e+01
2.997827768325806108e+00 1.912034273147583008e+00 -5.631640553474426270e-01 7.000000000000000000e+00
3.601596069335938211e+01 2.296237564086914062e+01 5.244525432586669922e+00 3.000000000000000000e+01
3.726376771926879883e+00 2.374878168106079102e+00 -5.425623059272766113e-01 1.000000000000000000e+01
4.950352668762207031e+00 3.153722524642943892e+00 -5.135216116905212402e-01 8.000000000000000000e+00
7.010643005371093750e+00 4.462832450866699219e+00 -4.355398416519165039e-01 2.000000000000000000e+00
3.104880523681640980e+01 1.975742340087890980e+01 8.496401786804199219e+00 1.100000000000000000e+01
1.153421688079833984e+01 7.336791038513183594e+00 -2.386092990636826117e-01 2.000000000000000000e+00
3.267760467529296875e+01 2.077786254882812855e+01 1.037605571746825994e+01 8.000000000000000000e+00
1.908617377281188965e+00 1.210778236389159934e+00 -6.056365370750427246e-01 1.900000000000000000e+01
2.164387702941894975e+00 1.371973037719727007e+00 -5.916212797164916992e-01 1.100000000000000000e+01
2.524030685424805132e+00 1.599327921867371050e+00 -5.808225870132446289e-01 1.300000000000000000e+01
3.004151821136475053e+00 1.902082681655884011e+00 -5.631640553474426270e-01 7.000000000000000000e+00
3.597449111938477273e+01 2.276850318908691051e+01 5.227463722229003906e+00 3.000000000000000000e+01
3.725843906402587891e+00 2.357201337814331055e+00 -5.413436293601989746e-01 9.000000000000000000e+00
4.960783958435058594e+00 3.137289285659790039e+00 -5.135216116905212402e-01 9.000000000000000000e+00
7.025403499603270596e+00 4.439559936523438388e+00 -4.355398416519165039e-01 2.000000000000000000e+00
3.111415290832519887e+01 1.965435218811035156e+01 8.496401786804199219e+00 1.100000000000000000e+01
1.159568119049072088e+01 7.321990013122558594e+00 -2.393772006034851074e-01 2.000000000000000000e+00
3.261204528808593750e+01 2.059258651733398082e+01 1.033464431762694957e+01 8.000000000000000000e+00
1.921006679534912109e+00 1.209254264831542969e+00 -6.082247495651245117e-01 1.700000000000000000e+01
2.179060935974121094e+00 1.370635032653809038e+00 -5.943207144737243652e-01 1.100000000000000000e+01
2.539570093154906782e+00 1.596777796745300071e+00 -5.831122994422912598e-01 1.300000000000000000e+01
3.007427692413330078e+00 1.889482855796813965e+00 -5.625383257865905762e-01 9.000000000000000000e+00
3.717236757278441939e+00 2.333626747131348100e+00 -5.389062166213989258e-01 9.000000000000000000e+00
4.968329429626464844e+00 3.117835760116577148e+00 -5.131729841232299805e-01 8.000000000000000000e+00
7.037473678588867188e+00 4.412887573242188388e+00 -4.353304803371428888e-01 2.000000000000000000e+00
3.100094032287598012e+01 1.943177604675292969e+01 8.446911811828613281e+00 1.100000000000000000e+01
1.160083389282226918e+01 7.268727779388427734e+00 -2.389583438634871881e-01 2.000000000000000000e+00
3.253311920166016336e+01 2.038425636291503906e+01 1.028702163696289062e+01 8.000000000000000000e+00
1.918662190437316895e+00 1.198447585105895996e+00 -6.061542034149169922e-01 1.900000000000000000e+01
2.187138319015502930e+00 1.365083932876586914e+00 -5.952205061912536621e-01 1.100000000000000000e+01
2.528471946716309038e+00 1.577511191368103027e+00 -5.792961120605468750e-01 1.300000000000000000e+01
3.032444238662720171e+00 1.890468835830688032e+00 -5.659798979759216309e-01 1.300000000000000000e+01
3.158377647399901988e+01 1.968212127685546875e+01 4.569369316101074219e+00 1.900000000000000000e+01
3.745579242706298828e+00 2.333232164382935014e+00 -5.418310761451721191e-01 9.000000000000000000e+00
3.132363128662109020e+01 1.951241683959960938e+01 5.845017433166503906e+00 1.300000000000000000e+01
4.979182720184326172e+00 3.100474119186400923e+00 -5.131729841232299805e-01 9.000000000000000000e+00
7.076575756072998047e+00 4.403067111968994141e+00 -4.367958903312683105e-01 2.000000000000000000e+00
3.121751022338866832e+01 1.941607284545898082e+01 8.487402915954589844e+00 1.100000000000000000e+01
1.164651489257813033e+01 7.240859031677246094e+00 -2.393772006034851074e-01 2.000000000000000000e+00
3.278153610229492188e+01 2.037297058105469105e+01 1.034189128875732067e+01 8.000000000000000000e+00
1.916265606880187988e+00 1.187672019004821999e+00 -6.040836572647094727e-01 2.000000000000000000e+01
2.205144166946411133e+00 1.365649342536926047e+00 -5.988197326660156250e-01 1.100000000000000000e+01
2.543978691101074219e+00 1.574875950813293013e+00 -5.815858244895935059e-01 1.400000000000000000e+01
3.035664796829224077e+00 1.877793788909912109e+00 -5.653541684150695801e-01 1.400000000000000000e+01
3.174008369445801137e+01 1.962604141235351918e+01 4.582043647766113281e+00 1.900000000000000000e+01
3.760455131530762163e+00 2.324318170547484907e+00 -5.428060293197631836e-01 9.000000000000000000e+00
3.136468887329101918e+01 1.937878990173339844e+01 5.839385509490966797e+00 1.300000000000000000e+01
4.993364810943604404e+00 3.085169076919556108e+00 -5.135216116905212402e-01 9.000000000000000000e+00
3.096844863891601918e+01 1.912650299072265980e+01 7.075197696685791016e+00 6.100000000000000000e+01
7.068109512329101562e+00 4.363649368286132812e+00 -4.353304803371428888e-01 2.000000000000000000e+00
3.125524520874023082e+01 1.928856468200683949e+01 8.479305267333984375e+00 1.100000000000000000e+01
1.169214248657226918e+01 7.212759971618652344e+00 -2.397960573434829989e-01 2.000000000000000000e+00
3.268472671508789062e+01 2.015499114990234020e+01 1.028909206390381037e+01 8.000000000000000000e+00
1.928627610206604004e+00 1.186035633087157981e+00 -6.066718697547912598e-01 2.100000000000000000e+01
2.199935674667357954e+00 1.351822137832642046e+00 -5.961202979087829590e-01 1.100000000000000000e+01
2.551133394241333008e+00 1.567013740539551003e+00 -5.819674134254455566e-01 1.300000000000000000e+01
3.032099723815917969e+00 1.860986113548279031e+00 -5.634769201278686523e-01 1.400000000000000000e+01
3.185239219665526988e+01 1.954211807250976918e+01 4.588380813598632812e+00 1.900000000000000000e+01
3.771929979324340820e+00 2.313253164291381836e+00 -5.432935357093811035e-01 9.000000000000000000e+00
3.142877769470214844e+01 1.927467346191405895e+01 5.839385509490966797e+00 1.300000000000000000e+01
4.995610713958740234e+00 3.062513589859008789e+00 -5.126500725746154785e-01 8.000000000000000000e+00
3.260184097290039062e+01 1.997843360900878906e+01 7.432392120361328125e+00 6.200000000000000000e+01
7.096923828125000000e+00 4.347296714782714844e+00 -4.361678659915924072e-01 1.000000000000000000e+00
3.149190139770508168e+01 1.928314399719237926e+01 8.525195121765136719e+00 1.100000000000000000e+01
1.171724796295166016e+01 7.171902656555175781e+00 -2.397960573434829989e-01 2.000000000000000000e+00
3.254724884033203125e+01 1.991373825073241832e+01 1.022387027740479049e+01 8.000000000000000000e+00
1.934405088424683061e+00 1.180302500724792036e+00 -6.071894764900207520e-01 2.000000000000000000e+01
2.192993879318236861e+00 1.337033629417418990e+00 -5.929709672927856445e-01 1.300000000000000000e+01
2.559940814971923828e+00 1.560142517089843972e+00 -5.827306509017944336e-01 1.300000000000000000e+01
3.047013044357299805e+00 1.855527877807616965e+00 -5.650413036346435547e-01 1.100000000000000000e+01
3.778285980224608931e+00 2.299040794372559038e+00 -5.430498123168945312e-01 1.000000000000000000e+01
5.014781475067138672e+00 3.050233840942382812e+00 -5.135216116905212402e-01 9.000000000000000000e+00
7.105228424072265625e+00 4.318347930908203125e+00 -4.357491731643676758e-01 2.000000000000000000e+00
3.176220703125000000e+01 1.929654121398926137e+01 8.580082893371582031e+00 1.100000000000000000e+01
1.176613998413085938e+01 7.145490169525145596e+00 -2.402847260236740112e-01 2.000000000000000000e+00
1.943471074104309082e+00 1.176544427871704102e+00 -6.087424159049987793e-01 2.100000000000000000e+01
2.195980310440063032e+00 1.328361868858336958e+00 -5.925210714340209961e-01 1.100000000000000000e+01
2.565371036529541016e+00 1.551197052001952903e+00 -5.827306509017944336e-01 1.300000000000000000e+01
3.055162191390991211e+00 1.845901966094970925e+00 -5.653541684150695801e-01 1.100000000000000000e+01
3.412907791137695312e+01 2.061235618591308949e+01 4.895491600036621094e+00 2.100000000000000000e+01
3.776091575622559038e+00 2.279682159423828125e+00 -5.415873527526855469e-01 1.000000000000000000e+01
5.010045528411865234e+00 3.023445606231689009e+00 -5.119528174400329590e-01 9.000000000000000000e+00
7.120258808135986328e+00 4.293519973754882812e+00 -4.357491731643676758e-01 2.000000000000000000e+00
3.181268119812012074e+01 1.917549324035644887e+01 8.575584411621093750e+00 1.100000000000000000e+01
1.179443645477294922e+01 7.106439113616943359e+00 -2.403545379638671875e-01 2.000000000000000000e+00
3.349284744262695312e+01 2.018026733398437855e+01 1.047751235961914062e+01 9.000000000000000000e+00
1.949222326278686968e+00 1.170747876167296919e+00 -6.092600226402282715e-01 2.000000000000000000e+01
2.210629224777222124e+00 1.326705217361449973e+00 -5.952205061912536621e-01 1.100000000000000000e+01
2.560668945312500000e+00 1.536172986030579057e+00 -5.804409384727478027e-01 1.200000000000000000e+01
3.064975738525391069e+00 1.837257504463196023e+00 -5.659798979759216309e-01 1.300000000000000000e+01
3.408843231201171875e+01 2.042575645446776988e+01 4.879404544830322266e+00 2.100000000000000000e+01
3.792541027069091797e+00 2.271587371826171875e+00 -5.428060293197631836e-01 9.000000000000000000e+00
3.162889480590819957e+01 1.894450187683105113e+01 5.839385509490966797e+00 1.300000000000000000e+01
5.018859386444091797e+00 3.004915237426757812e+00 -5.117785334587097168e-01 9.000000000000000000e+00
7.152342319488525391e+00 4.278892993927001953e+00 -4.367958903312683105e-01 2.000000000000000000e+00
1.183290195465088068e+01 7.073433399200438565e+00 -2.406337857246398926e-01 2.000000000000000000e+00
3.368598937988281250e+01 2.012872123718262074e+01 1.051478290557860973e+01 9.000000000000000000e+00
1.938361048698425071e+00 1.155036568641663042e+00 -6.046012639999389648e-01 2.200000000000000000e+01
2.218595743179320845e+00 1.320974469184875044e+00 -5.961202979087829590e-01 1.400000000000000000e+01
3.717116928100585938e+01 2.212330818176269887e+01 2.266984224319458008e+00 3.000000000000000000e+01
2.572763681411743164e+00 1.531241536140441895e+00 -5.819674134254455566e-01 1.300000000000000000e+01
3.066276788711547852e+00 1.823518395423888938e+00 -5.650413036346435547e-01 1.200000000000000000e+01
3.398889160156250000e+01 2.020520401000976918e+01 4.855031013488770419e+00 2.000000000000000000e+01
3.808979988098144975e+00 2.263405561447143999e+00 -5.440247654914855957e-01 1.000000000000000000e+01
5.041308879852294922e+00 2.994500398635863814e+00 -5.129987001419067383e-01 8.000000000000000000e+00
7.198150157928466797e+00 4.272249698638916016e+00 -4.386799931526184082e-01 2.000000000000000000e+00
3.234465789794921875e+01 1.918958473205566051e+01 8.682661056518554688e+00 1.100000000000000000e+01
1.185752105712890980e+01 7.032085895538330078e+00 -2.406337857246398926e-01 2.000000000000000000e+00
1.942381143569946067e+00 1.148263454437256081e+00 -6.046012639999389648e-01 2.100000000000000000e+01
2.226548910140991211e+00 1.315204381942749023e+00 -5.970200896263122559e-01 1.400000000000000000e+01
2.574712038040161133e+00 1.520255208015441895e+00 -5.812041759490966797e-01 1.300000000000000000e+01
3.072623252868651900e+00 1.812803983688354048e+00 -5.650413036346435547e-01 1.100000000000000000e+01
3.827117919921875000e+00 2.256144523620605025e+00 -5.454871654510498047e-01 1.000000000000000000e+01
3.176364898681640980e+01 1.871768760681151988e+01 5.839385509490966797e+00 1.300000000000000000e+01
5.046581268310546875e+00 2.973850250244141069e+00 -5.124757885932922363e-01 9.000000000000000000e+00
3.322296905517578125e+01 1.956982421875000000e+01 7.494977474212645596e+00 6.300000000000000000e+01
7.182039737701416016e+00 4.228856563568115234e+00 -4.367958903312683105e-01 2.000000000000000000e+00
1.191301918029784979e+01 7.008904933929443359e+00 -2.412620633840560913e-01 2.000000000000000000e+00
3.731933212280272727e+01 2.194768714904785156e+01 1.160078716278075994e+01 1.100000000000000000e+01
1.954709529876708984e+00 1.146362781524657981e+00 -6.071894764900207520e-01 2.000000000000000000e+01
2.215994358062744141e+00 1.298557043075561968e+00 -5.929709672927856445e-01 1.300000000000000000e+01
2.586779117584228960e+00 1.515227675437927024e+00 -5.827306509017944336e-01 1.300000000000000000e+01
3.078932523727416992e+00 1.802067518234252930e+00 -5.650413036346435547e-01 1.100000000000000000e+01
3.207304382324218750e+01 1.876450920104980113e+01 4.562544345855712891e+00 1.900000000000000000e+01
3.822974920272827148e+00 2.235756635665893999e+00 -5.437809824943542480e-01 1.000000000000000000e+01
3.182554435729980113e+01 1.861225128173828125e+01 5.839385509490966797e+00 1.300000000000000000e+01
