-4.247001647949218750e+00 -2.039381027221680132e+00 -7.461923956871032715e-01 1.200000000000000000e+01
-5.714740276336669922e+00 -2.741724729537963867e+00 -7.782576084136962891e-01 7.000000000000000000e+00
-8.795668601989746094e+00 -4.217954158782958984e+00 -8.534290194511413574e-01 1.000000000000000000e+00
-1.201756095886229936e+01 -5.757850646972656250e+00 -6.983709931373596191e-01 1.200000000000000000e+01
-4.705831909179688211e+01 -2.252637481689453125e+01 -9.106665849685668945e-01 1.400000000000000000e+01
-2.421944856643677202e+00 -1.155208468437195046e+00 -7.189993262290954590e-01 2.000000000000000000e+01
-2.825270175933837891e+00 -1.346374392509460005e+00 -7.225427627563476562e-01 1.200000000000000000e+01
-3.396008014678955078e+00 -1.617630600929260032e+00 -7.311800718307495117e-01 1.200000000000000000e+01
-4.254094600677490234e+00 -2.024543762207030806e+00 -7.461923956871032715e-01 1.100000000000000000e+01
-5.733239650726318359e+00 -2.726022005081177202e+00 -7.794763445854187012e-01 9.000000000000000000e+00
-8.803140640258789062e+00 -4.183804988861083984e+00 -8.527317643165588379e-01 1.000000000000000000e+00
-1.207547473907471058e+01 -5.733856678009033203e+00 -7.005690932273864746e-01 1.200000000000000000e+01
-4.702103805541992188e+01 -2.230711936950683949e+01 -9.084326624870300293e-01 1.400000000000000000e+01
-2.431202173233031782e+00 -1.149224042892456055e+00 -7.205522060394287109e-01 2.100000000000000000e+01
-2.835239171981811968e+00 -1.339000701904297097e+00 -7.238925099372863770e-01 1.100000000000000000e+01
-3.398083209991455078e+00 -1.604090332984924094e+00 -7.304168343544006348e-01 1.200000000000000000e+01
-4.261135578155517578e+00 -2.009681940078734907e+00 -7.461923956871032715e-01 1.100000000000000000e+01
-5.749903202056884766e+00 -2.709377288818358931e+00 -7.804512977600097656e-01 8.000000000000000000e+00
-8.828505516052246094e+00 -4.158144474029541016e+00 -8.537776470184326172e-01 1.000000000000000000e+00
-1.221468925476074041e+01 -5.747796535491943359e+00 -7.074774503707885742e-01 1.600000000000000000e+01
-4.705518341064453125e+01 -2.212243080139160156e+01 -9.075949192047119141e-01 1.400000000000000000e+01
-2.428201436996459961e+00 -1.137452602386475053e+00 -7.184816598892211914e-01 2.100000000000000000e+01
-2.850485801696776900e+00 -1.334051966667175071e+00 -7.265918850898742676e-01 1.200000000000000000e+01
-3.398326873779296875e+00 -1.589723348617553933e+00 -7.292720079421997070e-01 1.200000000000000000e+01
-4.264545440673828125e+00 -1.993122816085814986e+00 -7.455666661262512207e-01 1.200000000000000000e+01
-5.752130985260009766e+00 -2.685930252075194868e+00 -7.794763445854187012e-01 9.000000000000000000e+00
-8.806858062744140625e+00 -4.110448837280273438e+00 -8.502914309501647949e-01 1.000000000000000000e+00
-1.227993202209473012e+01 -5.726226329803466797e+00 -7.100942730903625488e-01 1.200000000000000000e+01
-4.704148864746093750e+01 -2.191581726074219105e+01 -9.058496952056884766e-01 1.400000000000000000e+01
-2.426900148391724077e+00 -1.126529574394226074e+00 -7.169287800788879395e-01 2.000000000000000000e+01
-2.849821567535399947e+00 -1.321634173393249956e+00 -7.252421975135803223e-01 1.200000000000000000e+01
-3.410980224609375000e+00 -1.581153988838196023e+00 -7.307984232902526855e-01 1.200000000000000000e+01
-4.257136821746826172e+00 -1.971583485603332964e+00 -7.430636882781982422e-01 1.200000000000000000e+01
-5.754265308380126953e+00 -2.662500858306885210e+00 -7.785013914108276367e-01 9.000000000000000000e+00
-8.828386306762695312e+00 -4.083027362823486328e+00 -8.509886860847473145e-01 1.000000000000000000e+00
-1.244307708740234020e+01 -5.749508857727050781e+00 -7.183633446693420410e-01 8.000000000000000000e+00
-4.711770248413085938e+01 -2.175148010253905895e+01 -9.058496952056884766e-01 1.400000000000000000e+01
-2.437838077545166016e+00 -1.121280193328856978e+00 -7.189993262290954590e-01 1.900000000000000000e+01
-2.840251684188843218e+00 -1.305168867111206055e+00 -7.216429710388183594e-01 1.300000000000000000e+01
-3.409342288970946822e+00 -1.565960049629210982e+00 -7.292720079421997070e-01 1.200000000000000000e+01
-4.267583847045898438e+00 -1.958359003067017046e+00 -7.436894178390502930e-01 1.100000000000000000e+01
-5.767133235931395596e+00 -2.644053220748900923e+00 -7.789888381958007812e-01 9.000000000000000000e+00
-8.831717491149902344e+00 -4.047205448150634766e+00 -8.499428033828735352e-01 1.000000000000000000e+00
-1.250665473937987926e+01 -5.725993633270263672e+00 -7.208754420280456543e-01 8.000000000000000000e+00
-4.710241699218750000e+01 -2.154528427124023082e+01 -9.041044712066650391e-01 1.400000000000000000e+01
-2.441737174987792969e+00 -1.112763762474060059e+00 -7.189993262290954590e-01 2.000000000000000000e+01
-2.851884603500366211e+00 -1.298476576805114968e+00 -7.234426140785217285e-01 1.200000000000000000e+01
-3.409427165985106978e+00 -1.551609992980957031e+00 -7.281271219253540039e-01 1.100000000000000000e+01
-4.281586647033691406e+00 -1.946720838546752930e+00 -7.449409365653991699e-01 1.100000000000000000e+01
-5.756446361541748047e+00 -2.614875078201293945e+00 -7.763077020645141602e-01 1.100000000000000000e+01
-8.882073402404785156e+00 -4.032826423645020419e+00 -8.534290194511413574e-01 1.000000000000000000e+00
-1.258113193511963068e+01 -5.707054615020751953e+00 -7.240155935287475586e-01 8.000000000000000000e+00
-4.704983901977539062e+01 -2.132295417785644887e+01 -9.016610980033874512e-01 1.400000000000000000e+01
-2.442085266113280806e+00 -1.102643728256226030e+00 -7.179640531539916992e-01 1.900000000000000000e+01
-2.859952449798583984e+00 -1.290116429328918013e+00 -7.243424057960510254e-01 1.200000000000000000e+01
-3.418401956558227983e+00 -1.541313409805298074e+00 -7.288903594017028809e-01 1.100000000000000000e+01
-4.284753799438476562e+00 -1.930140852928162065e+00 -7.443152070045471191e-01 1.200000000000000000e+01
-5.767349243164063388e+00 -2.595580101013184038e+00 -7.765514850616455078e-01 1.100000000000000000e+01
-8.859756469726562500e+00 -3.985450267791748047e+00 -8.499428033828735352e-01 1.000000000000000000e+00
-1.262830257415770951e+01 -5.675384521484375000e+00 -7.255856990814208984e-01 1.200000000000000000e+01
-4.711304092407227273e+01 -2.115367507934569957e+01 -9.014517068862915039e-01 1.400000000000000000e+01
-2.437102079391479048e+00 -1.090168356895446999e+00 -7.153758406639099121e-01 2.200000000000000000e+01
-2.862659215927124023e+00 -1.279330372810363992e+00 -7.238925099372863770e-01 1.100000000000000000e+01
-3.420176267623900923e+00 -1.527770161628722922e+00 -7.281271219253540039e-01 1.100000000000000000e+01
-4.280641555786132812e+00 -1.910342335700988992e+00 -7.424379587173461914e-01 1.100000000000000000e+01
-5.772747993469238281e+00 -2.573815584182738814e+00 -7.760639786720275879e-01 9.000000000000000000e+00
-8.884533882141113281e+00 -3.959365844726562944e+00 -8.509886860847473145e-01 1.000000000000000000e+00
-1.269730091094971058e+01 -5.653202533721923828e+00 -7.284118533134460449e-01 8.000000000000000000e+00
-4.723409652709960938e+01 -2.101022148132323863e+01 -9.023592472076416016e-01 1.400000000000000000e+01
-2.438748836517333984e+00 -1.081723332405090110e+00 -7.148581743240356445e-01 2.000000000000000000e+01
-2.872009038925170898e+00 -1.272699236869812012e+00 -7.252421975135803223e-01 1.200000000000000000e+01
-3.430344104766846147e+00 -1.519403100013732910e+00 -7.292720079421997070e-01 1.200000000000000000e+01
-4.279396533966063565e+00 -1.893687486648560014e+00 -7.411864995956420898e-01 1.100000000000000000e+01
-5.777174472808837891e+00 -2.554062128067017046e+00 -7.755764722824096680e-01 9.000000000000000000e+00
-8.860480308532714844e+00 -3.915328979492187944e+00 -8.475024700164794922e-01 1.000000000000000000e+00
-1.277529335021973012e+01 -5.639903545379638672e+00 -7.318660020828247070e-01 1.200000000000000000e+01
-4.718643188476563211e+01 -2.081169700622558949e+01 -9.001951217651367188e-01 1.400000000000000000e+01
-5.144501876831054688e+01 -2.268995666503905895e+01 1.506585693359375000e+01 1.900000000000000000e+01
-2.453121900558472124e+00 -1.077866673469543013e+00 -7.179640531539916992e-01 1.900000000000000000e+01
-2.860374689102172852e+00 -1.255616664886475053e+00 -7.211930751800537109e-01 1.200000000000000000e+01
-3.439222574234008789e+00 -1.508997321128844993e+00 -7.300352454185485840e-01 1.200000000000000000e+01
-4.289598941802979404e+00 -1.880324125289916992e+00 -7.418122291564941406e-01 1.100000000000000000e+01
-5.786054611206054688e+00 -2.533880472183227983e+00 -7.755764722824096680e-01 9.000000000000000000e+00
-8.877743721008300781e+00 -3.885974168777465820e+00 -8.478510379791259766e-01 1.000000000000000000e+00
-1.284248065948485973e+01 -5.616081237792968750e+00 -7.345874905586242676e-01 1.200000000000000000e+01
-5.159157180786132812e+01 -2.252908134460448863e+01 1.508449172973632990e+01 1.900000000000000000e+01
-2.456869363784790039e+00 -1.069297075271606001e+00 -7.179640531539916992e-01 1.900000000000000000e+01
-2.864740133285522017e+00 -1.245624423027039018e+00 -7.211930751800537109e-01 1.200000000000000000e+01
-3.431864976882935014e+00 -1.491505265235901101e+00 -7.273638844490051270e-01 1.100000000000000000e+01
-4.296136379241943359e+00 -1.865339159965514915e+00 -7.418122291564941406e-01 1.200000000000000000e+01
-5.782116413116455078e+00 -2.508138179779053178e+00 -7.738703489303588867e-01 1.100000000000000000e+01
-8.865662574768066406e+00 -3.843865633010863814e+00 -8.454107046127319336e-01 1.000000000000000000e+00
-1.292431831359862926e+01 -5.598208904266357422e+00 -7.381463050842285156e-01 1.700000000000000000e+01
-5.264665222167968750e+01 -2.279314994812012074e+01 1.324466800689697088e+01 1.900000000000000000e+01
-4.726083374023438211e+01 -2.045158958435058949e+01 -8.988687396049499512e-01 1.400000000000000000e+01
-2.453490734100341797e+00 -1.057655572891234907e+00 -7.158935070037841797e-01 2.000000000000000000e+01
-2.872650384902954102e+00 -1.237158656120300071e+00 -7.220928668975830078e-01 1.300000000000000000e+01
-3.440657138824462891e+00 -1.481069207191467063e+00 -7.281271219253540039e-01 1.300000000000000000e+01
-4.318953514099121094e+00 -1.857355117797852007e+00 -7.446280717849731445e-01 1.200000000000000000e+01
-5.028986740112304688e+01 -2.161663055419921875e+01 6.721094131469726562e+00 5.800000000000000000e+01
-5.794483661651611328e+00 -2.489506721496582031e+00 -7.743577957153320312e-01 1.100000000000000000e+01
-8.879026412963867188e+00 -3.812895298004149947e+00 -8.454107046127319336e-01 1.000000000000000000e+00
-1.294011020660400035e+01 -5.551486015319824219e+00 -7.379369735717773438e-01 1.200000000000000000e+01
-5.279037094116210938e+01 -2.263688850402832031e+01 1.326086425781250000e+01 1.900000000000000000e+01
-2.453979969024658203e+00 -1.046711087226867898e+00 -7.148581743240356445e-01 1.900000000000000000e+01
-2.888136148452758789e+00 -1.230702996253967063e+00 -7.247923016548156738e-01 1.200000000000000000e+01
-3.437287330627440962e+00 -1.464000582695007102e+00 -7.262190580368041992e-01 1.200000000000000000e+01
-4.313329696655273438e+00 -1.835343837738037109e+00 -7.424379587173461914e-01 1.100000000000000000e+01
-5.800346374511718750e+00 -2.465686082839965820e+00 -7.738703489303588867e-01 1.100000000000000000e+01
-8.900936126708984375e+00 -3.781890630722045898e+00 -8.461079597473144531e-01 1.000000000000000000e+00
-1.300177764892577947e+01 -5.518927097320556641e+00 -7.402397394180297852e-01 1.200000000000000000e+01
-5.094989776611328125e+01 -2.160596275329589844e+01 1.482877826690674006e+01 1.900000000000000000e+01
-2.457618713378905806e+00 -1.038138747215270996e+00 -7.148581743240356445e-01 1.600000000000000000e+01
-2.883437395095825195e+00 -1.216825723648071067e+00 -7.225427627563476562e-01 1.200000000000000000e+01
-3.449612379074097124e+00 -1.455045342445373979e+00 -7.277455329895019531e-01 1.200000000000000000e+01
-4.316069602966308594e+00 -1.818742156028748003e+00 -7.418122291564941406e-01 1.100000000000000000e+01
-5.819895267486572266e+00 -2.450045347213745117e+00 -7.753327488899230957e-01 1.100000000000000000e+01
-8.895718574523925781e+00 -3.743070363998413086e+00 -8.443648219108581543e-01 1.000000000000000000e+00
-1.306331062316895064e+01 -5.491310119628906250e+00 -7.426472306251525879e-01 1.700000000000000000e+01
-2.460867881774901900e+00 -1.030412793159485085e+00 -7.148581743240356445e-01 1.400000000000000000e+01
-2.880054712295531782e+00 -1.204753041267395020e+00 -7.207431793212890625e-01 1.200000000000000000e+01
-3.454166412353516069e+00 -1.444200873374938965e+00 -7.277455329895019531e-01 1.200000000000000000e+01
-4.316293716430664062e+00 -1.802889823913573997e+00 -7.408736348152160645e-01 1.200000000000000000e+01
-5.820235729217529297e+00 -2.428691625595093218e+00 -7.743577957153320312e-01 1.100000000000000000e+01
-8.933177947998046875e+00 -3.725842475891112837e+00 -8.468052148818969727e-01 1.000000000000000000e+00
-1.311737060546875000e+01 -5.465607166290283203e+00 -7.447406649589538574e-01 2.100000000000000000e+01
-2.476941585540771040e+00 -1.026995897293091042e+00 -7.184816598892211914e-01 1.400000000000000000e+01
-2.886043071746826172e+00 -1.195438146591186968e+00 -7.211930751800537109e-01 1.300000000000000000e+01
-3.453744888305664062e+00 -1.429881811141967995e+00 -7.266006469726562500e-01 1.100000000000000000e+01
-4.324386119842529297e+00 -1.788567185401916948e+00 -7.411864995956420898e-01 1.100000000000000000e+01
-5.083627319335938211e+01 -2.101550674438476918e+01 6.754242897033691406e+00 5.800000000000000000e+01
-5.802992820739746094e+00 -2.397747516632080078e+00 -7.709454894065856934e-01 1.100000000000000000e+01
-8.898249626159667969e+00 -3.674863576889038086e+00 -8.422731161117553711e-01 1.000000000000000000e+00
-1.310867404937743963e+01 -5.408359527587890625e+00 -7.431705594062805176e-01 1.700000000000000000e+01
-2.487838029861450195e+00 -1.020843982696532981e+00 -7.205522060394287109e-01 1.300000000000000000e+01
-2.895814418792725053e+00 -1.187069654464721902e+00 -7.225427627563476562e-01 1.300000000000000000e+01
-3.448062419891356978e+00 -1.412747621536255105e+00 -7.243109345436096191e-01 1.200000000000000000e+01
-4.343709468841552734e+00 -1.777943491935729980e+00 -7.433765530586242676e-01 1.200000000000000000e+01
-5.813579559326171875e+00 -2.377213716506958008e+00 -7.711892127990722656e-01 1.100000000000000000e+01
-8.893216133117675781e+00 -3.634687423706055132e+00 -8.405299782752990723e-01 1.000000000000000000e+00
-1.319127750396729049e+01 -5.385946750640869141e+00 -7.467294335365295410e-01 1.200000000000000000e+01
-2.482437372207642046e+00 -1.008517980575561968e+00 -7.179640531539916992e-01 1.500000000000000000e+01
-2.908968925476074219e+00 -1.180618405342102051e+00 -7.247923016548156738e-01 1.100000000000000000e+01
-3.460249900817871094e+00 -1.403654932975769043e+00 -7.258374094963073730e-01 1.100000000000000000e+01
-4.331581592559813565e+00 -1.755351305007935014e+00 -7.402479052543640137e-01 1.200000000000000000e+01
-5.823682308197020596e+00 -2.357650995254517046e+00 -7.714329361915588379e-01 1.100000000000000000e+01
-8.879992485046386719e+00 -3.593159437179564986e+00 -8.380896449089050293e-01 1.000000000000000000e+00
-1.323036575317382990e+01 -5.348101139068604404e+00 -7.478808164596557617e-01 1.200000000000000000e+01
-2.485768079757689986e+00 -1.000280380249022993e+00 -7.179640531539916992e-01 1.100000000000000000e+01
-2.902019262313843218e+00 -1.166604280471801980e+00 -7.220928668975830078e-01 1.200000000000000000e+01
-3.466707229614257812e+00 -1.392904520034790039e+00 -7.262190580368041992e-01 1.200000000000000000e+01
-4.331879138946533203e+00 -1.738770127296447976e+00 -7.393093109130859375e-01 1.100000000000000000e+01
-5.838838100433349609e+00 -2.341281175613402876e+00 -7.724078893661499023e-01 1.100000000000000000e+01
-8.917750358581542969e+00 -3.574069499969481978e+00 -8.405299782752990723e-01 1.000000000000000000e+00
-1.339636135101318004e+01 -5.363587379455566406e+00 -7.562545537948608398e-01 8.000000000000000000e+00
-5.103964614868164062e+01 -2.041440200805664062e+01 1.472939205169677912e+01 1.900000000000000000e+01
-2.494628667831420898e+00 -9.937421083450317383e-01 -7.195169329643249512e-01 1.100000000000000000e+01
-2.891588687896728960e+00 -1.150702953338623047e+00 -7.184936404228210449e-01 1.100000000000000000e+01
-3.478845119476317915e+00 -1.383697390556335005e+00 -7.277455329895019531e-01 1.200000000000000000e+01
-4.347101211547851562e+00 -1.727285504341125044e+00 -7.408736348152160645e-01 1.200000000000000000e+01
-5.828524589538574219e+00 -2.313561916351317915e+00 -7.699705362319946289e-01 1.100000000000000000e+01
-5.224950408935546875e+01 -2.072924804687500000e+01 8.902997970581054688e+00 2.800000000000000000e+01
-8.930171966552734375e+00 -3.542918920516968218e+00 -8.405299782752990723e-01 1.000000000000000000e+00
-1.334444618225098012e+01 -5.288828849792479581e+00 -7.522770166397094727e-01 8.000000000000000000e+00
-4.843769454956054688e+01 -1.917784118652344105e+01 -9.093402028083801270e-01 1.400000000000000000e+01
-5.125069427490233664e+01 -2.029158592224121094e+01 1.476976776123047053e+01 1.900000000000000000e+01
-2.508865356445312944e+00 -9.892801046371459961e-01 -7.226227521896362305e-01 1.100000000000000000e+01
-2.895587921142578125e+00 -1.140602350234984907e+00 -7.184936404228210449e-01 1.100000000000000000e+01
-3.470866680145264116e+00 -1.366510987281799094e+00 -7.250741720199584961e-01 1.100000000000000000e+01
-4.353103637695313388e+00 -1.712100863456726074e+00 -7.408736348152160645e-01 1.200000000000000000e+01
-5.818089008331298828e+00 -2.285943269729613814e+00 -7.675331234931945801e-01 1.100000000000000000e+01
-8.912812232971191406e+00 -3.500072956085205078e+00 -8.377410173416137695e-01 1.000000000000000000e+00
-1.358222389221191051e+01 -5.328285694122313565e+00 -7.646282911300659180e-01 8.000000000000000000e+00
-4.845221328735352273e+01 -1.898821449279785156e+01 -9.083628654479980469e-01 1.400000000000000000e+01
-5.102983093261718750e+01 -1.999837303161621094e+01 1.468591022491455078e+01 1.900000000000000000e+01
-2.508703947067261186e+00 -9.791117906570434570e-01 -7.215874791145324707e-01 1.300000000000000000e+01
-2.910445451736450195e+00 -1.134735226631164995e+00 -7.211930751800537109e-01 1.100000000000000000e+01
-3.466469049453734907e+00 -1.350822925567626953e+00 -7.231661081314086914e-01 1.100000000000000000e+01
-4.368257522583007812e+00 -1.700478196144104004e+00 -7.424379587173461914e-01 1.200000000000000000e+01
-5.811232089996337891e+00 -2.259864568710327148e+00 -7.655832171440124512e-01 1.500000000000000000e+01
-8.928689956665039062e+00 -3.470383644104003906e+00 -8.380896449089050293e-01 1.000000000000000000e+00
-1.367335224151610973e+01 -5.309035778045654297e+00 -7.687105536460876465e-01 1.700000000000000000e+01
-4.866361999511718750e+01 -1.887537384033203125e+01 -9.110854268074035645e-01 1.400000000000000000e+01
-5.197458267211914062e+01 -2.014917755126953125e+01 1.493644714355468928e+01 1.900000000000000000e+01
-2.508502244949340820e+00 -9.689565896987915039e-01 -7.205522060394287109e-01 1.300000000000000000e+01
-2.914388656616210938e+00 -1.124568939208983931e+00 -7.211930751800537109e-01 1.100000000000000000e+01
-3.472995042800902876e+00 -1.339420914649962935e+00 -7.235476970672607422e-01 1.200000000000000000e+01
-4.368637084960938388e+00 -1.683089256286621094e+00 -7.414993643760681152e-01 1.200000000000000000e+01
-5.859842777252197266e+00 -2.255252122879027876e+00 -7.709454894065856934e-01 1.100000000000000000e+01
-8.937029838562011719e+00 -3.437764883041381836e+00 -8.377410173416137695e-01 1.000000000000000000e+00
-1.379247665405273082e+01 -5.299960136413574219e+00 -7.743628025054931641e-01 1.700000000000000000e+01
-5.434811401367188211e+01 -2.087317085266112926e+01 1.344082546234131037e+01 1.900000000000000000e+01
-4.887855911254882812e+01 -1.876272201538085938e+01 -9.138777852058410645e-01 1.400000000000000000e+01
-5.140987777709960938e+01 -1.973440170288085938e+01 1.475527381896973012e+01 1.900000000000000000e+01
-2.506455659866333008e+00 -9.581249952316284180e-01 -7.189993262290954590e-01 1.400000000000000000e+01
-2.912834882736206055e+00 -1.112303495407104048e+00 -7.198433876037597656e-01 1.200000000000000000e+01
-3.477649211883544922e+00 -1.327289700508117898e+00 -7.235476970672607422e-01 1.100000000000000000e+01
-4.356027603149414062e+00 -1.660792350769042969e+00 -7.383706569671630859e-01 1.200000000000000000e+01
-5.871389389038085938e+00 -2.236196756362915039e+00 -7.714329361915588379e-01 1.100000000000000000e+01
-8.941527366638183594e+00 -3.403712749481201172e+00 -8.370437622070312500e-01 1.000000000000000000e+00
-1.381836032867431996e+01 -5.254622936248779297e+00 -7.747815251350402832e-01 2.600000000000000000e+01
-5.453722763061522727e+01 -2.072764205932616832e+01 1.346961879730224965e+01 1.900000000000000000e+01
-4.894375610351563211e+01 -1.859198951721191051e+01 -9.138777852058410645e-01 1.400000000000000000e+01
-2.509619235992432085e+00 -9.498080611228942871e-01 -7.189993262290954590e-01 2.500000000000000000e+01
-2.914684534072875977e+00 -1.101948857307434082e+00 -7.193934917449951172e-01 1.100000000000000000e+01
-3.489377737045288086e+00 -1.318525910377501997e+00 -7.250741720199584961e-01 1.100000000000000000e+01
-4.368903636932373047e+00 -1.649128556251526101e+00 -7.396221756935119629e-01 1.200000000000000000e+01
-5.863913536071777344e+00 -2.211111068725585938e+00 -7.694830298423767090e-01 1.100000000000000000e+01
-8.949036598205566406e+00 -3.372637510299683061e+00 -8.366951346397399902e-01 1.000000000000000000e+00
-1.386374664306640980e+01 -5.219326019287109375e+00 -7.763515710830688477e-01 1.700000000000000000e+01
-4.924472045898438211e+01 -1.851968383789062855e+01 -9.183456301689147949e-01 1.400000000000000000e+01
-2.516537666320800781e+00 -9.423970580101013184e-01 -7.200345993041992188e-01 1.600000000000000000e+01
-2.909387111663817915e+00 -1.088354110717772993e+00 -7.171439528465270996e-01 1.300000000000000000e+01
-3.490281105041503906e+00 -1.304962635040282981e+00 -7.243109345436096191e-01 1.100000000000000000e+01
-4.376483917236328125e+00 -1.634559273719788042e+00 -7.399350404739379883e-01 1.100000000000000000e+01
-5.864156246185302734e+00 -2.187853097915648970e+00 -7.685080766677856445e-01 1.100000000000000000e+01
-8.927151679992675781e+00 -3.328848838806151900e+00 -8.335575461387634277e-01 1.000000000000000000e+00
-1.384632015228270951e+01 -5.157654285430908203e+00 -7.743628025054931641e-01 1.300000000000000000e+01
-4.938777923583983664e+01 -1.837696266174316051e+01 -9.198116064071655273e-01 1.400000000000000000e+01
-5.125519561767578125e+01 -1.906163597106933949e+01 1.465278148651123047e+01 1.800000000000000000e+01
-2.507455587387084961e+00 -9.280334711074829102e-01 -7.164111137390136719e-01 1.400000000000000000e+01
-2.924511671066284180e+00 -1.081229448318481001e+00 -7.198433876037597656e-01 1.300000000000000000e+01
-3.475008964538574219e+00 -1.284066081047058105e+00 -7.201131582260131836e-01 1.000000000000000000e+01
-4.386434078216552734e+00 -1.619110822677612083e+00 -7.405607700347900391e-01 1.100000000000000000e+01
-5.865063667297363281e+00 -2.162573337554932085e+00 -7.675331234931945801e-01 1.100000000000000000e+01
-8.902478218078613281e+00 -3.280767679214477983e+00 -8.300712704658508301e-01 1.000000000000000000e+00
-1.397098255157471058e+01 -5.143089294433593750e+00 -7.802244424819946289e-01 1.300000000000000000e+01
-5.138240814208983664e+01 -1.888468360900878906e+01 1.466831016540526988e+01 1.800000000000000000e+01
-2.492538928985596147e+00 -9.126330018043518066e-01 -7.112347483634948730e-01 1.500000000000000000e+01
-2.928267955780028853e+00 -1.071014404296875000e+00 -7.198433876037597656e-01 1.300000000000000000e+01
-3.488689661026000977e+00 -1.275298476219177024e+00 -7.220212221145629883e-01 1.100000000000000000e+01
-4.390203952789306641e+00 -1.603111982345581055e+00 -7.402479052543640137e-01 1.200000000000000000e+01
-5.880036354064941406e+00 -2.144808292388916016e+00 -7.685080766677856445e-01 1.100000000000000000e+01
-8.883926391601562500e+00 -3.238753557205200195e+00 -8.272823095321655273e-01 1.000000000000000000e+00
-1.415962886810302912e+01 -5.156482219696044922e+00 -7.897495627403259277e-01 9.000000000000000000e+00
-5.130266189575195312e+01 -1.866250228881835938e+01 -9.529013633728027344e-01 1.400000000000000000e+01
-2.499342203140258789e+00 -9.052426218986511230e-01 -7.122700214385986328e-01 1.800000000000000000e+01
-2.922826290130614790e+00 -1.057471394538878950e+00 -7.175938487052917480e-01 1.400000000000000000e+01
-3.500504970550537109e+00 -1.265783309936522993e+00 -7.235476970672607422e-01 1.100000000000000000e+01
-4.395772933959960938e+00 -1.587777495384216087e+00 -7.402479052543640137e-01 1.200000000000000000e+01
-5.887487411499023438e+00 -2.124269962310791016e+00 -7.685080766677856445e-01 1.100000000000000000e+01
-8.925165176391601562e+00 -3.218537092208861861e+00 -8.300712704658508301e-01 1.000000000000000000e+00
-1.419257450103759943e+01 -5.112439632415770596e+00 -7.905869483947753906e-01 9.000000000000000000e+00
-5.148007965087891336e+01 -1.853396987915039062e+01 1.263190174102783025e+01 1.700000000000000000e+01
-5.254224395751953125e+01 -1.890601348876953125e+01 1.496232891082764027e+01 1.900000000000000000e+01
-2.509761571884154829e+00 -8.991189599037170410e-01 -7.143405675888061523e-01 2.300000000000000000e+01
-2.915490865707397017e+00 -1.043322801589966042e+00 -7.148944735527038574e-01 1.400000000000000000e+01
-3.512296438217163086e+00 -1.256201148033142090e+00 -7.250741720199584961e-01 1.100000000000000000e+01
-4.393847465515136719e+00 -1.569765329360961914e+00 -7.389963865280151367e-01 1.200000000000000000e+01
-5.891127586364746094e+00 -2.102371454238892046e+00 -7.680206298828125000e-01 1.100000000000000000e+01
-8.921333312988281250e+00 -3.182008266448975053e+00 -8.286768198013305664e-01 1.000000000000000000e+00
-1.453393745422362926e+01 -5.178160667419433594e+00 -8.085905313491821289e-01 9.000000000000000000e+00
-5.261118698120117188e+01 -1.871331024169921875e+01 1.496232891082764027e+01 1.900000000000000000e+01
-2.512573719024658203e+00 -8.912298679351806641e-01 -7.143405675888061523e-01 2.300000000000000000e+01
-2.922427892684936968e+00 -1.035460114479064941e+00 -7.157942652702331543e-01 1.300000000000000000e+01
-3.501420497894287109e+00 -1.239917993545532005e+00 -7.220212221145629883e-01 1.100000000000000000e+01
-4.398757457733154297e+00 -1.555953979492187944e+00 -7.389963865280151367e-01 1.200000000000000000e+01
-5.882729530334472656e+00 -2.078562974929810014e+00 -7.660706639289855957e-01 1.100000000000000000e+01
-8.935043334960937500e+00 -3.155292272567749023e+00 -8.290254473686218262e-01 1.000000000000000000e+00
-1.460852241516112926e+01 -5.153071880340576172e+00 -8.118353486061096191e-01 1.300000000000000000e+01
-2.510200500488280806e+00 -8.805355429649353027e-01 -7.127876281738281250e-01 2.300000000000000000e+01
-2.929702758789062944e+00 -1.026541352272033913e+00 -7.166940569877624512e-01 1.400000000000000000e+01
-3.505727291107178178e+00 -1.227688193321228027e+00 -7.220212221145629883e-01 1.100000000000000000e+01
-4.404161930084229404e+00 -1.540589928627013938e+00 -7.389963865280151367e-01 1.200000000000000000e+01
-5.878705501556395596e+00 -2.054086923599243164e+00 -7.646082639694213867e-01 1.100000000000000000e+01
-4.964447402954102273e+01 -1.733662605285644887e+01 8.328571319580078125e+00 2.100000000000000000e+01
-8.915906906127929688e+00 -3.113574028015137163e+00 -8.262364268302917480e-01 1.000000000000000000e+00
-1.469808197021484020e+01 -5.127044200897216797e+00 -8.158128857612609863e-01 1.300000000000000000e+01
-2.502610683441162109e+00 -8.670958876609802246e-01 -7.096818089485168457e-01 2.300000000000000000e+01
-2.942830562591553178e+00 -1.018471360206604004e+00 -7.189435958862304688e-01 1.300000000000000000e+01
-3.510415315628052202e+00 -1.214218139648437944e+00 -7.220212221145629883e-01 1.100000000000000000e+01
-4.410045146942138672e+00 -1.523667812347412109e+00 -7.389963865280151367e-01 1.200000000000000000e+01
-5.894054889678955078e+00 -2.034089803695679155e+00 -7.655832171440124512e-01 1.100000000000000000e+01
-8.912728309631347656e+00 -3.074119329452515093e+00 -8.248419761657714844e-01 1.000000000000000000e+00
-1.480074691772460938e+01 -5.099195480346679688e+00 -8.204184770584106445e-01 1.300000000000000000e+01
-2.511105060577393022e+00 -8.602330684661865234e-01 -7.112347483634948730e-01 2.400000000000000000e+01
-2.935305118560791016e+00 -1.004407286643981934e+00 -7.162441611289978027e-01 1.300000000000000000e+01
-3.509059429168701172e+00 -1.200051307678223100e+00 -7.208763957023620605e-01 1.100000000000000000e+01
-4.407859325408936435e+00 -1.505710363388061968e+00 -7.377449274063110352e-01 1.200000000000000000e+01
-5.912392139434813565e+00 -2.017349481582642046e+00 -7.670456767082214355e-01 1.100000000000000000e+01
-8.904546737670898438e+00 -3.036558628082274947e+00 -8.230988383293151855e-01 1.000000000000000000e+00
-1.486761093139648082e+01 -5.064243316650390625e+00 -8.231399059295654297e-01 1.300000000000000000e+01
-2.521113157272338867e+00 -8.548213243484497070e-01 -7.133052945137023926e-01 2.100000000000000000e+01
-2.932908773422241211e+00 -9.933054447174072266e-01 -7.148944735527038574e-01 1.300000000000000000e+01
-3.522110223770142046e+00 -1.192168593406677024e+00 -7.227844595909118652e-01 1.100000000000000000e+01
-4.401340007781982422e+00 -1.488059282302856001e+00 -7.358677387237548828e-01 1.200000000000000000e+01
-5.898012161254882812e+00 -1.991778731346129927e+00 -7.643645405769348145e-01 9.000000000000000000e+00
-8.898940086364746094e+00 -3.003472089767456055e+00 -8.217043280601501465e-01 1.000000000000000000e+00
-1.502350044250487926e+01 -5.064725399017333984e+00 -8.308856487274169922e-01 1.300000000000000000e+01
-5.222018814086914062e+01 -1.759432983398437855e+01 1.272188186645507990e+01 1.700000000000000000e+01
-2.525913476943970171e+00 -8.466297388076782227e-01 -7.138229012489318848e-01 1.900000000000000000e+01
-2.934510231018065962e+00 -9.824429750442504883e-01 -7.144445776939392090e-01 1.300000000000000000e+01
-3.509494066238402876e+00 -1.174260258674622026e+00 -7.193499207496643066e-01 1.200000000000000000e+01
-4.421495437622070312e+00 -1.477695822715759055e+00 -7.383706569671630859e-01 1.200000000000000000e+01
-5.884216308593750000e+00 -1.964264512062072976e+00 -7.616834044456481934e-01 1.100000000000000000e+01
-8.924489974975585938e+00 -2.977435111999512163e+00 -8.230988383293151855e-01 1.000000000000000000e+00
-1.505435180664063033e+01 -5.016672611236572266e+00 -8.316183686256408691e-01 9.000000000000000000e+00
-2.512348890304564986e+00 -8.323395252227783203e-01 -7.091642022132873535e-01 1.900000000000000000e+01
-2.947172164916992188e+00 -9.752546548843383789e-01 -7.166940569877624512e-01 1.400000000000000000e+01
-3.511707544326781782e+00 -1.161386251449584961e+00 -7.189682722091674805e-01 1.100000000000000000e+01
-4.426626682281494141e+00 -1.462252855300903098e+00 -7.383706569671630859e-01 1.200000000000000000e+01
-5.898577690124511719e+00 -1.946200728416443093e+00 -7.626583576202392578e-01 1.100000000000000000e+01
-8.923476219177246094e+00 -2.942521095275878906e+00 -8.220529556274414062e-01 1.000000000000000000e+00
-1.521404743194580078e+01 -5.010952949523925781e+00 -8.394687175750732422e-01 1.400000000000000000e+01
-2.517075061798096147e+00 -8.241658806800842285e-01 -7.096818089485168457e-01 1.800000000000000000e+01
-2.952410697937012163e+00 -9.655669331550598145e-01 -7.171439528465270996e-01 1.300000000000000000e+01
-3.515740156173706055e+00 -1.149121046066283958e+00 -7.189682722091674805e-01 1.100000000000000000e+01
-4.435459613800048828e+00 -1.448018193244934082e+00 -7.389963865280151367e-01 1.200000000000000000e+01
-5.909110069274902344e+00 -1.926829814910888894e+00 -7.631458044052124023e-01 1.100000000000000000e+01
-8.933692932128906250e+00 -2.911354303359984907e+00 -8.220529556274414062e-01 1.000000000000000000e+00
-1.534729671478270951e+01 -4.995524406433104581e+00 -8.458537459373474121e-01 1.400000000000000000e+01
-2.518240690231322798e+00 -8.143404126167297363e-01 -7.091642022132873535e-01 1.900000000000000000e+01
-2.948512315750122070e+00 -9.523435235023498535e-01 -7.153443694114685059e-01 1.300000000000000000e+01
-3.512454986572266069e+00 -1.133815169334412065e+00 -7.174417972564697266e-01 1.200000000000000000e+01
-4.418176174163818359e+00 -1.424477815628051980e+00 -7.352420091629028320e-01 1.200000000000000000e+01
-5.424359512329102273e+01 -1.747839355468750000e+01 6.997493743896484375e+00 6.100000000000000000e+01
-5.910463809967041016e+00 -1.903333425521851030e+00 -7.624146342277526855e-01 1.100000000000000000e+01
-8.940510749816894531e+00 -2.877370357513428178e+00 -8.217043280601501465e-01 3.000000000000000000e+00
-1.541113758087158025e+01 -4.953909397125244141e+00 -8.483658432960510254e-01 1.400000000000000000e+01
-2.528428554534912109e+00 -8.078970909118652344e-01 -7.112347483634948730e-01 1.900000000000000000e+01
-2.944392681121826172e+00 -9.396755695343017578e-01 -7.135447263717651367e-01 1.300000000000000000e+01
-3.531354665756226030e+00 -1.126320004463196023e+00 -7.204947471618652344e-01 1.200000000000000000e+01
-4.426886081695556641e+00 -1.410246014595031960e+00 -7.358677387237548828e-01 1.200000000000000000e+01
-5.918963432312011719e+00 -1.883292317390441895e+00 -7.626583576202392578e-01 9.000000000000000000e+00
-8.946702003479003906e+00 -2.844937086105347124e+00 -8.213557004928588867e-01 1.000000000000000000e+00
-1.530270099639892933e+01 -4.860182762145996094e+00 -8.414574861526489258e-01 9.000000000000000000e+00
-2.529251575469971147e+00 -7.989261746406555176e-01 -7.107170820236206055e-01 1.800000000000000000e+01
-2.954926252365111861e+00 -9.322516918182373047e-01 -7.153443694114685059e-01 1.200000000000000000e+01
-3.533197879791260210e+00 -1.114013075828552024e+00 -7.201131582260131836e-01 1.200000000000000000e+01
-4.431538105010986328e+00 -1.395558118820189986e+00 -7.358677387237548828e-01 1.200000000000000000e+01
-5.906239509582520419e+00 -1.857697963714600053e+00 -7.602209448814392090e-01 7.000000000000000000e+00
-8.944683074951171875e+00 -2.811668395996094194e+00 -8.203098773956298828e-01 1.000000000000000000e+00
-1.526156711578368963e+01 -4.791462421417236328e+00 -8.383173346519470215e-01 9.000000000000000000e+00
-3.217032241821289062e+01 -1.008773422241210938e+01 -5.884951353073120117e-01 6.000000000000000000e+00
-2.528336763381958008e+00 -7.889416813850402832e-01 -7.096818089485168457e-01 1.800000000000000000e+01
-2.956301927566527876e+00 -9.213515520095825195e-01 -7.148944735527038574e-01 1.300000000000000000e+01
-3.522069692611693892e+00 -1.097002506256103960e+00 -7.170602083206176758e-01 1.200000000000000000e+01
-4.440155029296875000e+00 -1.381254315376281960e+00 -7.364934682846069336e-01 1.200000000000000000e+01
-5.916479587554931641e+00 -1.838248014450073020e+00 -7.607084512710571289e-01 7.000000000000000000e+00
-8.946831703186035156e+00 -2.778065204620360884e+00 -8.196126222610473633e-01 3.000000000000000000e+00
-1.583522701263427912e+01 -4.910909175872802734e+00 -8.688815236091613770e-01 1.000000000000000000e+01
-3.237343597412108664e+01 -1.002744388580322088e+01 -5.915667414665222168e-01 6.000000000000000000e+00
-2.527246952056885210e+00 -7.794144153594970703e-01 -7.086465358734130859e-01 1.900000000000000000e+01
-2.955616235733031782e+00 -9.103957414627075195e-01 -7.139946222305297852e-01 1.400000000000000000e+01
-3.529440641403197798e+00 -1.086472034454345925e+00 -7.178234457969665527e-01 1.200000000000000000e+01
-4.429605960845947266e+00 -1.361878514289855957e+00 -7.339904904365539551e-01 1.200000000000000000e+01
-5.924440383911132812e+00 -1.819200873374938965e+00 -7.609521746635437012e-01 9.000000000000000000e+00
-8.948376655578613281e+00 -2.746043205261230025e+00 -8.189153671264648438e-01 1.000000000000000000e+00
-1.596218109130859020e+01 -4.892316341400145596e+00 -8.749524950981140137e-01 1.500000000000000000e+01
-3.247916793823242188e+01 -9.942276954650878906e+00 -5.928931236267089844e-01 1.300000000000000000e+01
-2.533648252487183061e+00 -7.717137336730957031e-01 -7.096818089485168457e-01 1.900000000000000000e+01
-2.962504863739014116e+00 -9.012075066566467285e-01 -7.148944735527038574e-01 1.400000000000000000e+01
-3.542603492736815962e+00 -1.077000617980957031e+00 -7.197315096855163574e-01 1.100000000000000000e+01
-4.430552482604979581e+00 -1.345260143280029075e+00 -7.333647608757019043e-01 1.200000000000000000e+01
-5.930754661560058594e+00 -1.798509597778320090e+00 -7.609521746635437012e-01 9.000000000000000000e+00
-8.938839912414550781e+00 -2.709012031555175781e+00 -8.171722292900085449e-01 1.000000000000000000e+00
-1.629266548156737926e+01 -4.931459426879882812e+00 -8.921186923980712891e-01 5.000000000000000000e+00
-3.260938262939453125e+01 -9.857774734497070312e+00 -5.946384072303771973e-01 6.000000000000000000e+00
-2.531042337417602983e+00 -7.603121995925903320e-01 -7.081289291381835938e-01 1.900000000000000000e+01
-2.943544864654541016e+00 -8.831057548522949219e-01 -7.094956040382385254e-01 1.400000000000000000e+01
-3.542951822280883789e+00 -1.062262535095215066e+00 -7.189682722091674805e-01 1.100000000000000000e+01
-4.428115844726563388e+00 -1.325971603393554910e+00 -7.321133017539978027e-01 1.200000000000000000e+01
-5.931910991668701172e+00 -1.774017572402954102e+00 -7.602209448814392090e-01 9.000000000000000000e+00
-8.956811904907226562e+00 -2.676951646804810014e+00 -8.178694844245910645e-01 1.000000000000000000e+00
-1.650286293029785156e+01 -4.925990104675292969e+00 -9.025859236717224121e-01 1.100000000000000000e+01
-2.542941331863402876e+00 -7.542191743850708008e-01 -7.107170820236206055e-01 2.000000000000000000e+01
-2.961557388305664062e+00 -8.772532939910888672e-01 -7.130948305130004883e-01 1.400000000000000000e+01
-3.531578063964844194e+00 -1.045430660247802956e+00 -7.159153223037719727e-01 1.200000000000000000e+01
-4.432717323303222656e+00 -1.310506463050842063e+00 -7.321133017539978027e-01 1.200000000000000000e+01
-5.926644325256347656e+00 -1.749927759170532005e+00 -7.587585449218750000e-01 7.000000000000000000e+00
-5.334482574462891336e+01 -1.574071216583251953e+01 8.809137344360351562e+00 2.700000000000000000e+01
-8.962279319763183594e+00 -2.644542455673218218e+00 -8.175208568572998047e-01 3.000000000000000000e+00
-1.664640045166015980e+01 -4.905616760253906250e+00 -9.094942212104797363e-01 1.100000000000000000e+01
-2.541590690612792969e+00 -7.451395988464355469e-01 -7.096818089485168457e-01 1.900000000000000000e+01
-2.971779584884643999e+00 -8.701353669166564941e-01 -7.148944735527038574e-01 1.300000000000000000e+01
-3.540497779846190962e+00 -1.035984754562377930e+00 -7.170602083206176758e-01 1.200000000000000000e+01
-4.451981067657470703e+00 -1.301006913185120073e+00 -7.346162199974060059e-01 1.200000000000000000e+01
-5.937829494476318359e+00 -1.732968449592590110e+00 -7.594897747039794922e-01 7.000000000000000000e+00
-8.932289123535156250e+00 -2.605216503143310991e+00 -8.140346407890319824e-01 3.000000000000000000e+00
-1.674993705749512074e+01 -4.878989696502686435e+00 -9.143091440200805664e-01 5.000000000000000000e+00
-2.536753177642821822e+00 -7.341151237487792969e-01 -7.076112627983093262e-01 2.000000000000000000e+01
-2.971054553985596147e+00 -8.586744666099548340e-01 -7.139946222305297852e-01 1.400000000000000000e+01
-3.542206287384033203e+00 -1.023075103759766069e+00 -7.166785597801208496e-01 1.200000000000000000e+01
-4.437515258789063388e+00 -1.279983997344970925e+00 -7.314875721931457520e-01 1.200000000000000000e+01
-5.934304714202880859e+00 -1.709483504295348899e+00 -7.582710385322570801e-01 7.000000000000000000e+00
-8.956645965576171875e+00 -2.578430652618408203e+00 -8.154291510581970215e-01 1.000000000000000000e+00
-1.655188179016112926e+01 -4.758683681488037109e+00 -9.025859236717224121e-01 5.000000000000000000e+00
-2.533854007720946822e+00 -7.232218980789184570e-01 -7.060583829879760742e-01 2.200000000000000000e+01
-2.974181890487670898e+00 -8.477792143821716309e-01 -7.139946222305297852e-01 1.400000000000000000e+01
-3.549708604812622070e+00 -1.011161088943481001e+00 -7.174417972564697266e-01 1.200000000000000000e+01
-4.434576988220214844e+00 -1.261549115180969016e+00 -7.302360534667968750e-01 1.200000000000000000e+01
-5.938621044158936435e+00 -1.687179207801819070e+00 -7.580273151397705078e-01 5.000000000000000000e+00
-8.935370445251464844e+00 -2.536878824234008789e+00 -8.126401305198669434e-01 1.000000000000000000e+00
-1.680363655090332031e+01 -4.764454364776611328e+00 -9.153558611869812012e-01 1.100000000000000000e+01
-2.540081977844237837e+00 -7.154201269149780273e-01 -7.070936560630798340e-01 2.100000000000000000e+01
-2.963991403579711914e+00 -8.336986303329467773e-01 -7.108453512191772461e-01 1.500000000000000000e+01
-3.549436569213867188e+00 -9.977015852928161621e-01 -7.166785597801208496e-01 1.200000000000000000e+01
-4.427542209625244141e+00 -1.242858648300170898e+00 -7.283588647842407227e-01 1.100000000000000000e+01
-5.944474220275878906e+00 -1.666439294815063032e+00 -7.580273151397705078e-01 7.000000000000000000e+00
-8.971030235290527344e+00 -2.513197660446166992e+00 -8.150805234909057617e-01 1.000000000000000000e+00
-1.686248016357421875e+01 -4.717607975006104404e+00 -9.176586270332336426e-01 5.000000000000000000e+00
-3.331101989746093750e+01 -9.306871414184570312e+00 -6.037136316299438477e-01 6.000000000000000000e+00
-2.555469036102294922e+00 -7.106159329414367676e-01 -7.107170820236206055e-01 2.000000000000000000e+01
-2.970495223999022993e+00 -8.249079585075378418e-01 -7.117451429367065430e-01 1.500000000000000000e+01
-3.543266773223876953e+00 -9.833008050918579102e-01 -7.147704958915710449e-01 1.200000000000000000e+01
-4.437350273132324219e+00 -1.229752182960510032e+00 -7.292974591255187988e-01 1.200000000000000000e+01
-5.936575412750244141e+00 -1.643011093139647993e+00 -7.563211321830749512e-01 7.000000000000000000e+00
-8.960111618041992188e+00 -2.478123903274536133e+00 -8.133373856544494629e-01 1.000000000000000000e+00
-1.698584175109862926e+01 -4.691440582275390625e+00 -9.235202670097351074e-01 5.000000000000000000e+00
-2.543029785156250000e+00 -6.976028084754943848e-01 -7.065759897232055664e-01 2.000000000000000000e+01
-4.516844177246093750e+01 -1.238211059570313033e+01 8.175055980682373047e-01 5.400000000000000000e+01
-2.977115631103516069e+00 -8.155637383460998535e-01 -7.126449346542358398e-01 1.500000000000000000e+01
-4.518491363525391336e+01 -1.237814807891846058e+01 2.455289125442504883e+00 3.900000000000000000e+01
-3.556145429611206055e+00 -9.735184311866760254e-01 -7.166785597801208496e-01 1.200000000000000000e+01
-4.447332382202148438e+00 -1.215818166732788086e+00 -7.302360534667968750e-01 1.200000000000000000e+01
-5.944189548492431641e+00 -1.622801423072814941e+00 -7.565648555755615234e-01 5.000000000000000000e+00
-8.980240821838378906e+00 -2.449978590011597124e+00 -8.143832683563232422e-01 1.000000000000000000e+00
-1.688263893127441051e+01 -4.599570274353027344e+00 -9.170306324958801270e-01 1.100000000000000000e+01
-4.513231277465820312e+01 -1.227909660339354936e+01 -8.164235949516296387e-01 1.200000000000000000e+01
-2.543584585189818892e+00 -6.882172226905822754e-01 -7.060583829879760742e-01 2.100000000000000000e+01
-4.515347671508789062e+01 -1.220870971679688033e+01 8.164584636688232422e-01 5.400000000000000000e+01
-2.989350557327270952e+00 -8.077082633972167969e-01 -7.148944735527038574e-01 1.400000000000000000e+01
-4.517771530151367188e+01 -1.220680236816406072e+01 2.452567577362060991e+00 3.900000000000000000e+01
-3.548149585723876953e+00 -9.580286145210266113e-01 -7.143889069557189941e-01 1.100000000000000000e+01
-4.440105915069580078e+00 -1.197201132774353027e+00 -7.283588647842407227e-01 1.100000000000000000e+01
-5.949818134307861328e+00 -1.602042436599731001e+00 -7.565648555755615234e-01 7.000000000000000000e+00
-8.954106330871582031e+00 -2.409298419952393022e+00 -8.112456798553466797e-01 1.000000000000000000e+00
-1.694488334655762074e+01 -4.553049564361572266e+00 -9.195427298545837402e-01 1.100000000000000000e+01
-4.510536956787108664e+01 -1.210282421112061080e+01 -8.151670098304748535e-01 1.200000000000000000e+01
-2.544104814529418945e+00 -6.788361668586730957e-01 -7.055407166481018066e-01 2.000000000000000000e+01
-4.514558029174804688e+01 -1.203762531280517933e+01 8.155509233474731445e-01 5.400000000000000000e+01
-2.986502647399901900e+00 -7.957633137702941895e-01 -7.135447263717651367e-01 1.500000000000000000e+01
-4.515057373046875000e+01 -1.203051662445068004e+01 2.448799371719359907e+00 3.800000000000000000e+01
-3.562855005264281782e+00 -9.486683011054992676e-01 -7.166785597801208496e-01 1.200000000000000000e+01
-4.428985118865966797e+00 -1.177634239196776900e+00 -7.258559465408325195e-01 1.100000000000000000e+01
-5.953455448150634766e+00 -1.580754518508910911e+00 -7.563211321830749512e-01 7.000000000000000000e+00
-8.974016189575195312e+00 -2.381093740463256836e+00 -8.122915029525756836e-01 1.000000000000000000e+00
-1.738541412353515980e+01 -4.606411457061767578e+00 -9.425705671310424805e-01 6.000000000000000000e+00
-2.555800437927246094e+00 -6.724091172218322754e-01 -7.081289291381835938e-01 2.100000000000000000e+01
-4.513703918457031250e+01 -1.186674499511718928e+01 8.146434426307678223e-01 5.300000000000000000e+01
-2.979838371276855025e+00 -7.828578352928161621e-01 -7.112952470779418945e-01 1.400000000000000000e+01
-4.517890930175781250e+01 -1.186089324951172053e+01 2.447962045669556108e+00 3.800000000000000000e+01
-3.558549165725708008e+00 -9.342317581176757812e-01 -7.151521444320678711e-01 1.200000000000000000e+01
-4.444533824920654297e+00 -1.165172576904297097e+00 -7.277331352233886719e-01 1.100000000000000000e+01
-5.947414398193359375e+00 -1.556947112083435059e+00 -7.548587322235107422e-01 7.000000000000000000e+00
-8.943722724914550781e+00 -2.339669466018677202e+00 -8.088052868843078613e-01 1.000000000000000000e+00
-1.770284461975098012e+01 -4.624445438385009766e+00 -9.588993787765502930e-01 1.900000000000000000e+01
-3.368743515014647727e+01 -8.787477493286132812e+00 -6.076927781105041504e-01 6.000000000000000000e+00
-2.560001850128173828e+00 -6.639686226844787598e-01 -7.086465358734130859e-01 1.900000000000000000e+01
-4.515108871459960938e+01 -1.170209121704101918e+01 8.141547441482543945e-01 5.300000000000000000e+01
-2.986325979232788086e+00 -7.734286189079284668e-01 -7.121950387954711914e-01 1.400000000000000000e+01
-4.516202926635742188e+01 -1.168810462951659979e+01 2.444821834564208984e+00 3.800000000000000000e+01
-3.557987451553345171e+00 -9.208206534385681152e-01 -7.143889069557189941e-01 1.300000000000000000e+01
-4.440923690795898438e+00 -1.147674083709717019e+00 -7.264816761016845703e-01 1.100000000000000000e+01
-5.945124626159667969e+00 -1.534193158149719016e+00 -7.538837790489196777e-01 7.000000000000000000e+00
-8.971128463745117188e+00 -2.313410758972167969e+00 -8.105484247207641602e-01 1.000000000000000000e+00
-1.780398178100585938e+01 -4.584537029266357422e+00 -9.635049700736999512e-01 1.200000000000000000e+01
-3.376825714111328125e+01 -8.682781219482421875e+00 -6.086003184318542480e-01 6.000000000000000000e+00
-2.558674812316894975e+00 -6.536249518394470215e-01 -7.076112627983093262e-01 2.000000000000000000e+01
-4.515879821777343750e+01 -1.152762222290039062e+01 8.135264515876770020e-01 5.300000000000000000e+01
-2.991028785705565962e+00 -7.629596590995788574e-01 -7.126449346542358398e-01 1.300000000000000000e+01
-4.519295120239257812e+01 -1.151953887939452947e+01 2.444193840026855025e+00 3.800000000000000000e+01
-3.553728818893433061e+00 -9.058340787887573242e-01 -7.128624320030212402e-01 1.200000000000000000e+01
-4.447014808654785156e+00 -1.131876826286315918e+00 -7.267945408821105957e-01 1.200000000000000000e+01
-5.943012237548828125e+00 -1.510437011718750000e+00 -7.529088258743286133e-01 7.000000000000000000e+00
-8.967960357666015625e+00 -2.277571916580200195e+00 -8.095025420188903809e-01 1.000000000000000000e+00
