1.710020303726196067e+00 2.390293598175048828e+00 -5.712821483612060547e-01 1.000000000000000000e+01
2.037644386291503906e+00 2.846151351928710938e+00 -5.544037222862243652e-01 9.000000000000000000e+00
2.519209861755371094e+00 3.516201257705688032e+00 -5.311065912246704102e-01 9.000000000000000000e+00
3.277714252471923828e+00 4.573202133178710938e+00 -4.922556281089783270e-01 9.000000000000000000e+00
4.710979461669921875e+00 6.568109512329101562e+00 -4.236072301864624023e-01 1.000000000000000000e+00
7.926836490631104404e+00 1.104355812072754084e+01 -2.372829169034957886e-01 2.000000000000000000e+00
1.304758310317992942e+00 1.812423706054687944e+00 -5.983896255493164062e-01 2.100000000000000000e+01
1.494502782821655051e+00 2.074467897415161133e+00 -5.902715921401977539e-01 1.600000000000000000e+01
1.719501495361327903e+00 2.385902643203734907e+00 -5.716637372970581055e-01 1.100000000000000000e+01
2.047566890716553178e+00 2.839021444320679155e+00 -5.544037222862243652e-01 9.000000000000000000e+00
2.539600610733031782e+00 3.518653631210327148e+00 -5.328127741813659668e-01 7.000000000000000000e+00
3.286659955978393999e+00 4.552040576934813565e+00 -4.912097752094268799e-01 9.000000000000000000e+00
4.738556861877441406e+00 6.558100700378417969e+00 -4.240259230136870783e-01 2.000000000000000000e+00
7.964165687561035156e+00 1.101420021057129084e+01 -2.372480183839797974e-01 2.000000000000000000e+00
1.307359695434570090e+00 1.803394675254821999e+00 -5.968367457389831543e-01 2.000000000000000000e+01
1.501373767852782981e+00 2.069500446319580078e+00 -5.902715921401977539e-01 1.400000000000000000e+01
1.728557109832763894e+00 2.381776332855225053e+00 -5.720453858375549316e-01 1.100000000000000000e+01
2.047683477401732954e+00 2.819429397583007812e+00 -5.519008040428161621e-01 9.000000000000000000e+00
2.546586513519287109e+00 3.503789663314818892e+00 -5.318378210067749023e-01 9.000000000000000000e+00
3.305252075195312944e+00 4.545951366424561435e+00 -4.917326867580413818e-01 8.000000000000000000e+00
4.776729583740234375e+00 6.564960956573486328e+00 -4.254913330078125000e-01 2.000000000000000000e+00
7.986521244049072266e+00 1.096833133697509943e+01 -2.368291616439819058e-01 2.000000000000000000e+00
1.320482730865478960e+00 1.808180928230286089e+00 -5.999425649642944336e-01 2.000000000000000000e+01
1.501689553260803001e+00 2.054806947708129883e+00 -5.875721573829650879e-01 1.300000000000000000e+01
1.738019227981566939e+00 2.377312898635863814e+00 -5.724269747734069824e-01 1.100000000000000000e+01
2.062178373336791992e+00 2.818641424179077148e+00 -5.531522631645202637e-01 9.000000000000000000e+00
2.557628870010375977e+00 3.493277311325072798e+00 -5.315940976142883301e-01 9.000000000000000000e+00
3.319922924041748047e+00 4.532778739929199219e+00 -4.915584027767180841e-01 6.000000000000000000e+00
4.794893264770507812e+00 6.541803359985351562e+00 -4.250726401805878241e-01 2.000000000000000000e+00
8.034220695495605469e+00 1.095328521728515980e+01 -2.371083945035933893e-01 2.000000000000000000e+00
1.329076051712035911e+00 1.806672811508178933e+00 -6.009778380393981934e-01 2.000000000000000000e+01
1.515784978866576926e+00 2.058968544006348100e+00 -5.902715921401977539e-01 1.400000000000000000e+01
1.743978619575500044e+00 2.368069887161254883e+00 -5.716637372970581055e-01 1.100000000000000000e+01
2.081380128860474077e+00 2.824147224426269975e+00 -5.556552410125732422e-01 9.000000000000000000e+00
2.569807052612305132e+00 3.484328269958496094e+00 -5.315940976142883301e-01 9.000000000000000000e+00
3.346370935440063032e+00 4.535591602325438565e+00 -4.931271970272064209e-01 8.000000000000000000e+00
4.836680889129638672e+00 6.550734519958496094e+00 -4.267473816871643066e-01 2.000000000000000000e+00
8.096173286437988281e+00 1.095734024047851918e+01 -2.378064841032027921e-01 2.000000000000000000e+00
1.335374355316162109e+00 1.802022457122802956e+00 -6.009778380393981934e-01 2.000000000000000000e+01
1.524123668670654075e+00 2.055230140686035156e+00 -5.907214879989624023e-01 1.500000000000000000e+01
1.749894618988037109e+00 2.358814477920531782e+00 -5.709004998207092285e-01 1.100000000000000000e+01
2.088870763778686968e+00 2.813692569732666016e+00 -5.550295114517211914e-01 9.000000000000000000e+00
2.573667049407958984e+00 3.464182376861571822e+00 -5.298879146575927734e-01 7.000000000000000000e+00
3.362182617187500000e+00 4.523882865905761719e+00 -4.931271970272064209e-01 8.000000000000000000e+00
4.871437072753906250e+00 6.549837589263916016e+00 -4.277940988540648859e-01 2.000000000000000000e+00
8.105717658996582031e+00 1.089051342010498047e+01 -2.369687706232070923e-01 2.000000000000000000e+00
1.333255410194396973e+00 1.786746144294738992e+00 -5.973543524742126465e-01 2.200000000000000000e+01
1.532096624374390093e+00 2.051726102828979048e+00 -5.911713838577270508e-01 1.300000000000000000e+01
1.760056972503662109e+00 2.356144189834595171e+00 -5.716637372970581055e-01 1.100000000000000000e+01
2.091093301773070845e+00 2.797257184982299805e+00 -5.531522631645202637e-01 9.000000000000000000e+00
2.597031831741333008e+00 3.471524000167847124e+00 -5.323252677917480469e-01 7.000000000000000000e+00
3.356871843338013139e+00 4.485590934753417969e+00 -4.901638925075531006e-01 8.000000000000000000e+00
4.888341426849365234e+00 6.527252674102783203e+00 -4.273754060268402100e-01 2.000000000000000000e+00
8.124997138977050781e+00 1.084117126464843928e+01 -2.364801019430161078e-01 2.000000000000000000e+00
1.342966437339782937e+00 1.786714076995850053e+00 -5.989072918891906738e-01 2.300000000000000000e+01
1.536906242370605025e+00 2.043251037597655806e+00 -5.902715921401977539e-01 1.400000000000000000e+01
1.767090320587157981e+00 2.348417520523070845e+00 -5.712821483612060547e-01 1.200000000000000000e+01
2.096091747283935991e+00 2.783628702163695845e+00 -5.519008040428161621e-01 9.000000000000000000e+00
2.616301774978638139e+00 3.471949815750122070e+00 -5.337877273559570312e-01 9.000000000000000000e+00
3.390499114990233931e+00 4.497710704803466797e+00 -4.927785694599152166e-01 8.000000000000000000e+00
4.915906906127929688e+00 6.516527175903320312e+00 -4.277940988540648859e-01 2.000000000000000000e+00
8.165200233459472656e+00 1.081593608856200994e+01 -2.365499138832092008e-01 2.000000000000000000e+00
1.352693319320678933e+00 1.786635994911194070e+00 -6.004601716995239258e-01 2.200000000000000000e+01
1.536968111991882102e+00 2.028554201126099077e+00 -5.875721573829650879e-01 1.400000000000000000e+01
1.777648806571960005e+00 2.345364093780518022e+00 -5.720453858375549316e-01 1.100000000000000000e+01
2.114151954650878906e+00 2.787312030792235884e+00 -5.540908575057983398e-01 1.000000000000000000e+01
2.623604536056518999e+00 3.456471204757689986e+00 -5.328127741813659668e-01 7.000000000000000000e+00
3.401358842849731001e+00 4.479501247406005859e+00 -4.920813143253325861e-01 8.000000000000000000e+00
4.921706676483154297e+00 6.477064132690429688e+00 -4.263286888599395752e-01 1.000000000000000000e+00
8.217430114746093750e+00 1.080646896362305043e+01 -2.369687706232070923e-01 2.000000000000000000e+00
1.356578707695007102e+00 1.778831124305725098e+00 -5.994248986244201660e-01 2.200000000000000000e+01
1.546404242515563965e+00 2.026275157928466797e+00 -5.884719491004943848e-01 1.300000000000000000e+01
1.783442139625549094e+00 2.336023807525635210e+00 -5.712821483612060547e-01 1.100000000000000000e+01
2.121470212936400923e+00 2.776776075363159180e+00 -5.534651279449462891e-01 1.000000000000000000e+01
2.628419637680054155e+00 3.437830209732056108e+00 -5.313503146171569824e-01 7.000000000000000000e+00
3.425447225570679155e+00 4.478678703308104581e+00 -4.933015108108521063e-01 8.000000000000000000e+00
4.949141502380371094e+00 6.466188907623291016e+00 -4.267473816871643066e-01 2.000000000000000000e+00
8.245373725891113281e+00 1.076501846313476918e+01 -2.366895377635956088e-01 2.000000000000000000e+00
1.360116839408874956e+00 1.771258234977721946e+00 -5.983896255493164062e-01 2.400000000000000000e+01
1.560239553451538086e+00 2.030407190322875977e+00 -5.911713838577270508e-01 1.300000000000000000e+01
1.793571949005126953e+00 2.333209753036499023e+00 -5.720453858375549316e-01 1.100000000000000000e+01
2.133075475692749023e+00 2.772857189178466797e+00 -5.540908575057983398e-01 1.000000000000000000e+01
2.648281812667847124e+00 3.440106153488159180e+00 -5.330564975738525391e-01 9.000000000000000000e+00
3.435417652130126953e+00 4.460980892181395596e+00 -4.926042556762694757e-01 9.000000000000000000e+00
4.982748985290527344e+00 6.465561389923095703e+00 -4.277940988540648859e-01 2.000000000000000000e+00
8.278584480285644531e+00 1.073445034027099965e+01 -2.366197258234024048e-01 2.000000000000000000e+00
4.306072616577147727e+01 5.583481216430664062e+01 1.889327239990234020e+01 4.100000000000000000e+01
1.366291403770446999e+00 1.766499757766724077e+00 -5.983896255493164062e-01 2.100000000000000000e+01
1.570895791053771973e+00 2.029571771621704102e+00 -5.925210714340209961e-01 1.300000000000000000e+01
1.796897649765015093e+00 2.320725440979003906e+00 -5.705189108848571777e-01 1.100000000000000000e+01
2.139111757278441939e+00 2.760710000991820845e+00 -5.531522631645202637e-01 9.000000000000000000e+00
2.660274028778076172e+00 3.430840969085692915e+00 -5.330564975738525391e-01 9.000000000000000000e+00
3.439978122711182085e+00 4.434792995452880859e+00 -4.910354614257813055e-01 9.000000000000000000e+00
4.993040561676025391e+00 6.432351589202880859e+00 -4.267473816871643066e-01 2.000000000000000000e+00
8.323364257812500000e+00 1.071496200561523082e+01 -2.368291616439819058e-01 2.000000000000000000e+00
1.372449398040771040e+00 1.761719822883605957e+00 -5.983896255493164062e-01 2.100000000000000000e+01
1.574376225471497026e+00 2.019465208053588867e+00 -5.911713838577270508e-01 1.300000000000000000e+01
1.809816956520081010e+00 2.320631504058837891e+00 -5.720453858375549316e-01 1.100000000000000000e+01
2.148735523223876953e+00 2.753226280212401900e+00 -5.531522631645202637e-01 1.000000000000000000e+01
2.672233581542969194e+00 3.421533823013306108e+00 -5.330564975738525391e-01 9.000000000000000000e+00
3.464024066925048828e+00 4.433748722076416016e+00 -4.922556281089783270e-01 8.000000000000000000e+00
5.015463352203369141e+00 6.414883613586425781e+00 -4.267473816871643066e-01 2.000000000000000000e+00
8.341000556945800781e+00 1.066064453125000000e+01 -2.362706810235976895e-01 2.000000000000000000e+00
1.385745882987976074e+00 1.766037225723267046e+00 -6.014954447746276855e-01 2.200000000000000000e+01
1.571787834167480025e+00 2.001695871353148970e+00 -5.875721573829650879e-01 1.300000000000000000e+01
1.815480947494507058e+00 2.311212062835692915e+00 -5.712821483612060547e-01 1.100000000000000000e+01
2.163216114044189009e+00 2.751920938491820845e+00 -5.544037222862243652e-01 1.000000000000000000e+01
2.679251432418822798e+00 3.405944347381591797e+00 -5.320815443992614746e-01 9.000000000000000000e+00
3.490568637847899947e+00 4.435721397399902344e+00 -4.938244521617888849e-01 8.000000000000000000e+00
5.032882213592529297e+00 6.391060829162597656e+00 -4.263286888599395752e-01 2.000000000000000000e+00
8.378162384033203125e+00 1.063146400451659979e+01 -2.362706810235976895e-01 2.000000000000000000e+00
1.390119910240172896e+00 1.757672905921936035e+00 -6.004601716995239258e-01 2.100000000000000000e+01
1.583090305328368919e+00 2.000230073928833008e+00 -5.889218449592590332e-01 1.300000000000000000e+01
1.826779365539551003e+00 2.307302713394165039e+00 -5.720453858375549316e-01 1.200000000000000000e+01
2.178673505783081055e+00 2.749787807464600053e+00 -5.556552410125732422e-01 9.000000000000000000e+00
2.687376260757445845e+00 3.389409780502318892e+00 -5.311065912246704102e-01 9.000000000000000000e+00
3.496431827545166016e+00 4.408236980438232422e+00 -4.922556281089783270e-01 6.000000000000000000e+00
5.057384967803955078e+00 6.371688842773438388e+00 -4.263286888599395752e-01 2.000000000000000000e+00
8.418922424316406250e+00 1.059921550750732067e+01 -2.362706810235976895e-01 2.000000000000000000e+00
1.392635941505431907e+00 1.748276710510253906e+00 -5.989072918891906738e-01 1.900000000000000000e+01
1.588848114013672097e+00 1.993167996406554954e+00 -5.884719491004943848e-01 1.400000000000000000e+01
1.832374095916748047e+00 2.297842025756835938e+00 -5.712821483612060547e-01 1.200000000000000000e+01
2.193187475204468218e+00 2.748342037200928178e+00 -5.569067001342773438e-01 9.000000000000000000e+00
2.700429916381835938e+00 3.381559610366820845e+00 -5.313503146171569824e-01 9.000000000000000000e+00
3.513041496276855025e+00 4.397562026977539062e+00 -4.924299418926239014e-01 9.000000000000000000e+00
5.084584236145020419e+00 6.360236644744873047e+00 -4.267473816871643066e-01 2.000000000000000000e+00
8.448373794555664062e+00 1.056039428710938033e+01 -2.360612452030181885e-01 2.000000000000000000e+00
1.400843143463134988e+00 1.746662974357604980e+00 -5.999425649642944336e-01 2.000000000000000000e+01
1.600327968597412109e+00 1.993967294692992942e+00 -5.902715921401977539e-01 1.400000000000000000e+01
1.841213107109070046e+00 2.293283939361571822e+00 -5.716637372970581055e-01 1.200000000000000000e+01
2.192391157150268999e+00 2.728734731674193892e+00 -5.544037222862243652e-01 9.000000000000000000e+00
2.717848062515258789e+00 3.380321264266968218e+00 -5.325690507888793945e-01 9.000000000000000000e+00
3.520112752914429155e+00 4.376573085784912109e+00 -4.913840889930725098e-01 8.000000000000000000e+00
5.118170261383056641e+00 6.358899116516113281e+00 -4.277940988540648859e-01 2.000000000000000000e+00
8.460767745971679688e+00 1.050428867340088068e+01 -2.354329675436019897e-01 2.000000000000000000e+00
1.404503703117371050e+00 1.738756895065308061e+00 -5.989072918891906738e-01 2.000000000000000000e+01
1.607278466224669966e+00 1.988368988037108931e+00 -5.902715921401977539e-01 1.400000000000000000e+01
1.855379104614258035e+00 2.294475793838500977e+00 -5.735718607902526855e-01 1.300000000000000000e+01
2.195689916610718218e+00 2.713387250900268999e+00 -5.528393983840942383e-01 1.000000000000000000e+01
2.733378887176514116e+00 3.375441789627075195e+00 -5.333002209663391113e-01 9.000000000000000000e+00
3.539130926132202148e+00 4.368903160095214844e+00 -4.919070005416870117e-01 6.000000000000000000e+00
5.132789611816406250e+00 6.331685543060302734e+00 -4.271660745143889826e-01 2.000000000000000000e+00
8.497383117675781250e+00 1.047469139099120916e+01 -2.354329675436019897e-01 2.000000000000000000e+00
4.455288314819335938e+01 5.490057754516602273e+01 1.894503593444823863e+01 4.100000000000000000e+01
1.410261869430541992e+00 1.734089732170104980e+00 -5.989072918891906738e-01 1.800000000000000000e+01
1.606482863426208052e+00 1.973959445953368919e+00 -5.875721573829650879e-01 1.400000000000000000e+01
1.865456700325011985e+00 2.291355609893798828e+00 -5.743350982666015625e-01 1.100000000000000000e+01
2.208418846130371094e+00 2.710685491561890093e+00 -5.537779927253723145e-01 1.000000000000000000e+01
2.743302822113037109e+00 3.364820480346680132e+00 -5.330564975738525391e-01 9.000000000000000000e+00
3.556117773056029829e+00 4.360230922698974609e+00 -4.922556281089783270e-01 8.000000000000000000e+00
5.149969577789306641e+00 6.309988021850585938e+00 -4.268520474433898926e-01 3.000000000000000000e+00
8.542191505432128906e+00 1.045884513854979936e+01 -2.357122004032135010e-01 2.000000000000000000e+00
1.421202898025512917e+00 1.735134601593018022e+00 -6.009778380393981934e-01 1.700000000000000000e+01
1.617069482803344949e+00 1.972861170768738015e+00 -5.889218449592590332e-01 1.500000000000000000e+01
1.868464469909667969e+00 2.278757333755493164e+00 -5.728086233139038086e-01 1.100000000000000000e+01
2.217867374420166016e+00 2.702960252761840820e+00 -5.537779927253723145e-01 9.000000000000000000e+00
2.757550954818726030e+00 3.358292341232299805e+00 -5.335440039634704590e-01 9.000000000000000000e+00
3.572580814361571822e+00 4.349330902099609375e+00 -4.924299418926239014e-01 9.000000000000000000e+00
5.184646606445313388e+00 6.307401657104492188e+00 -4.278987646102905273e-01 3.000000000000000000e+00
8.573566436767578125e+00 1.042278671264648082e+01 -2.355725765228270929e-01 2.000000000000000000e+00
1.422032713890075906e+00 1.724450349807739036e+00 -5.989072918891906738e-01 1.500000000000000000e+01
1.629804491996764915e+00 1.975003123283386008e+00 -5.911713838577270508e-01 1.400000000000000000e+01
1.874760985374450906e+00 2.271034717559814009e+00 -5.724269747734069824e-01 1.200000000000000000e+01
2.235625267028809038e+00 2.706251144409180132e+00 -5.559681057929992676e-01 1.100000000000000000e+01
2.761083364486693892e+00 3.339949607849121094e+00 -5.320815443992614746e-01 9.000000000000000000e+00
3.597141742706298828e+00 4.349742889404296875e+00 -4.938244521617888849e-01 9.000000000000000000e+00
5.199167251586914062e+00 6.282480716705322266e+00 -4.273754060268402100e-01 2.000000000000000000e+00
8.602980613708496094e+00 1.038813781738281072e+01 -2.354329675436019897e-01 2.000000000000000000e+00
1.425575017929076926e+00 1.716503739356995073e+00 -5.978720188140869141e-01 1.800000000000000000e+01
1.640425443649291992e+00 1.973798155784606934e+00 -5.925210714340209961e-01 1.500000000000000000e+01
1.887697339057921919e+00 2.270515441894530806e+00 -5.739534497261047363e-01 1.200000000000000000e+01
2.242531299591064009e+00 2.695393800735474077e+00 -5.553423762321472168e-01 1.000000000000000000e+01
2.775265455245972124e+00 3.333342313766479048e+00 -5.325690507888793945e-01 9.000000000000000000e+00
3.604652881622314009e+00 4.327974319458007812e+00 -4.927785694599152166e-01 9.000000000000000000e+00
5.213393211364746094e+00 6.255088806152343750e+00 -4.267473816871643066e-01 2.000000000000000000e+00
8.616134643554687500e+00 1.033040237426757990e+01 -2.348046749830245972e-01 2.000000000000000000e+00
1.431856751441956010e+00 1.711267232894897017e+00 -5.978720188140869141e-01 1.700000000000000000e+01
1.643895506858825906e+00 1.963290095329284890e+00 -5.911713838577270508e-01 1.400000000000000000e+01
1.897267222404479980e+00 2.265086412429810014e+00 -5.743350982666015625e-01 1.300000000000000000e+01
2.243512630462646040e+00 2.676559209823607954e+00 -5.531522631645202637e-01 9.000000000000000000e+00
2.787464141845703125e+00 3.323148250579833984e+00 -5.325690507888793945e-01 9.000000000000000000e+00
3.619210720062255859e+00 4.313207626342773438e+00 -4.926042556762694757e-01 9.000000000000000000e+00
5.218303203582763672e+00 6.214525222778320312e+00 -4.252819716930388849e-01 2.000000000000000000e+00
8.643648147583007812e+00 1.028650569915770951e+01 -2.345254421234131137e-01 2.000000000000000000e+00
1.439066290855407937e+00 1.707735896110534890e+00 -5.983896255493164062e-01 1.600000000000000000e+01
1.641944766044616921e+00 1.947111606597899947e+00 -5.880220532417297363e-01 1.200000000000000000e+01
1.903896450996398926e+00 2.256949186325072798e+00 -5.739534497261047363e-01 1.200000000000000000e+01
2.255390405654906782e+00 2.671730518341064009e+00 -5.537779927253723145e-01 9.000000000000000000e+00
2.809295415878295898e+00 3.325529336929320845e+00 -5.345189571380615234e-01 9.000000000000000000e+00
3.638102531433105025e+00 4.305113315582275391e+00 -4.931271970272064209e-01 9.000000000000000000e+00
5.234805583953857422e+00 6.190171718597412109e+00 -4.248632788658142090e-01 2.000000000000000000e+00
8.718255043029785156e+00 1.030206489562987926e+01 -2.355725765228270929e-01 2.000000000000000000e+00
1.451268672943115012e+00 1.710066914558411089e+00 -6.009778380393981934e-01 1.700000000000000000e+01
1.651254415512084961e+00 1.944338917732238992e+00 -5.889218449592590332e-01 1.200000000000000000e+01
1.906678557395935059e+00 2.244304895401000977e+00 -5.724269747734069824e-01 1.200000000000000000e+01
2.269820690155028853e+00 2.669861316680908203e+00 -5.550295114517211914e-01 9.000000000000000000e+00
2.810595989227294922e+00 3.303607225418090820e+00 -5.325690507888793945e-01 9.000000000000000000e+00
3.654399394989014116e+00 4.293904781341552734e+00 -4.933015108108521063e-01 9.000000000000000000e+00
5.246021270751953125e+00 6.159696578979492188e+00 -4.240259230136870783e-01 2.000000000000000000e+00
8.754162788391113281e+00 1.027156925201416016e+01 -2.355725765228270929e-01 2.000000000000000000e+00
1.457229137420654075e+00 1.704990625381469949e+00 -6.009778380393981934e-01 1.700000000000000000e+01
1.661831259727478027e+00 1.943006038665771040e+00 -5.902715921401977539e-01 1.300000000000000000e+01
1.909395694732666016e+00 2.231668710708618164e+00 -5.709004998207092285e-01 1.200000000000000000e+01
2.279126405715941939e+00 2.661921977996826172e+00 -5.550295114517211914e-01 9.000000000000000000e+00
2.827276945114136186e+00 3.299806118011475053e+00 -5.335440039634704590e-01 9.000000000000000000e+00
3.675848722457886186e+00 4.288686275482177734e+00 -4.941730499267578125e-01 8.000000000000000000e+00
5.272692203521729404e+00 6.147411346435546875e+00 -4.244446158409119207e-01 2.000000000000000000e+00
8.730052947998046875e+00 1.017114830017090021e+01 -2.339669615030288974e-01 2.000000000000000000e+00
3.738311386108397727e+01 4.353867340087891336e+01 1.537643909454346058e+01 2.000000000000000000e+01
1.455314993858336958e+00 1.691362619400023970e+00 -5.978720188140869141e-01 1.700000000000000000e+01
1.673351526260375977e+00 1.943391442298888938e+00 -5.920711755752563477e-01 1.200000000000000000e+01
1.924473285675049050e+00 2.234249591827393022e+00 -5.731902122497558594e-01 1.200000000000000000e+01
2.293100118637084961e+00 2.660334587097167969e+00 -5.562809705734252930e-01 9.000000000000000000e+00
2.843390226364136186e+00 3.296424865722655806e+00 -5.345189571380615234e-01 9.000000000000000000e+00
3.674431085586547852e+00 4.258371829986572266e+00 -4.920813143253325861e-01 9.000000000000000000e+00
5.306101799011229581e+00 6.145009517669677734e+00 -4.254913330078125000e-01 2.000000000000000000e+00
8.784652709960937500e+00 1.016635227203368963e+01 -2.345254421234131137e-01 2.000000000000000000e+00
1.456149578094481978e+00 1.680432319641113059e+00 -5.958014130592346191e-01 1.600000000000000000e+01
1.678848385810852051e+00 1.936066269874572976e+00 -5.916212797164916992e-01 1.200000000000000000e+01
1.932260513305664062e+00 2.227518320083618164e+00 -5.731902122497558594e-01 1.200000000000000000e+01
2.302372455596923828e+00 2.652313947677611861e+00 -5.562809705734252930e-01 9.000000000000000000e+00
2.854879617691040039e+00 3.286479473114014116e+00 -5.345189571380615234e-01 9.000000000000000000e+00
3.704955339431763139e+00 4.263566493988037109e+00 -4.941730499267578125e-01 8.000000000000000000e+00
5.317034721374511719e+00 6.114393234252929688e+00 -4.246539473533629816e-01 2.000000000000000000e+00
8.775454521179199219e+00 1.008433723449707031e+01 -2.333386689424515048e-01 2.000000000000000000e+00
3.640287399291992188e+01 4.183246231079102273e+01 1.485880184173583984e+01 1.900000000000000000e+01
1.472462654113769975e+00 1.686726689338684082e+00 -5.999425649642944336e-01 1.700000000000000000e+01
1.676958560943603960e+00 1.919626712799072044e+00 -5.884719491004943848e-01 1.000000000000000000e+01
1.942995667457581010e+00 2.223377943038939986e+00 -5.739534497261047363e-01 1.300000000000000000e+01
2.304275751113892046e+00 2.634935617446898970e+00 -5.544037222862243652e-01 9.000000000000000000e+00
2.859062194824219194e+00 3.267030715942382812e+00 -5.330564975738525391e-01 9.000000000000000000e+00
3.712683200836182085e+00 4.240963935852050781e+00 -4.931271970272064209e-01 8.000000000000000000e+00
5.355202674865722656e+00 6.112892150878906250e+00 -4.259100258350371759e-01 2.000000000000000000e+00
8.857176780700683594e+00 1.010323047637938920e+01 -2.345254421234131137e-01 2.000000000000000000e+00
3.648171234130858664e+01 4.159941864013671875e+01 1.482567214965819957e+01 1.900000000000000000e+01
1.480892419815063032e+00 1.684478282928467019e+00 -6.009778380393981934e-01 1.800000000000000000e+01
1.686223506927490012e+00 1.916687607765197976e+00 -5.893717408180236816e-01 9.000000000000000000e+00
1.948150753974914995e+00 2.213634490966796875e+00 -5.731902122497558594e-01 1.200000000000000000e+01
2.317376136779785156e+00 2.631323337554932085e+00 -5.553423762321472168e-01 9.000000000000000000e+00
2.865198850631713867e+00 3.251073837280272993e+00 -5.320815443992614746e-01 9.000000000000000000e+00
3.726146697998046875e+00 4.226483821868895596e+00 -4.929528832435607910e-01 6.000000000000000000e+00
5.376508235931395596e+00 6.094161510467529297e+00 -4.259100258350371759e-01 2.000000000000000000e+00
8.868566513061523438e+00 1.004526805877686080e+01 -2.338971495628356934e-01 2.000000000000000000e+00
1.483909606933593972e+00 1.676664948463439941e+00 -5.999425649642944336e-01 1.800000000000000000e+01
1.699030399322509988e+00 1.918379545211791992e+00 -5.916212797164916992e-01 7.000000000000000000e+00
1.950273036956787109e+00 2.201284170150756836e+00 -5.716637372970581055e-01 1.100000000000000000e+01
2.332641601562500000e+00 2.631014823913574219e+00 -5.569067001342773438e-01 9.000000000000000000e+00
2.881233692169189009e+00 3.247494220733643022e+00 -5.330564975738525391e-01 9.000000000000000000e+00
3.750721931457519975e+00 4.226025104522705078e+00 -4.943473637104033869e-01 6.000000000000000000e+00
5.401992797851563388e+00 6.082272052764892578e+00 -4.263286888599395752e-01 2.000000000000000000e+00
8.925741195678710938e+00 1.004270839691161932e+01 -2.345254421234131137e-01 2.000000000000000000e+00
3.679996490478516336e+01 4.139056015014647727e+01 1.484016609191895064e+01 1.900000000000000000e+01
1.479470133781433105e+00 1.659937500953674094e+00 -5.958014130592346191e-01 1.600000000000000000e+01
1.708310604095458984e+00 1.915345788002013938e+00 -5.925210714340209961e-01 6.000000000000000000e+00
1.968401432037353960e+00 2.206182479858397993e+00 -5.747166872024536133e-01 1.300000000000000000e+01
2.339179992675780806e+00 2.619909286499022993e+00 -5.562809705734252930e-01 9.000000000000000000e+00
2.892552137374877930e+00 3.237416982650756836e+00 -5.330564975738525391e-01 9.000000000000000000e+00
3.764122962951660156e+00 4.211421489715576172e+00 -4.941730499267578125e-01 9.000000000000000000e+00
5.441831588745117188e+00 6.084220409393311435e+00 -4.277940988540648859e-01 2.000000000000000000e+00
8.942070960998535156e+00 9.990630149841308594e+00 -2.340367734432219904e-01 2.000000000000000000e+00
1.487836241722106934e+00 1.657638430595397949e+00 -5.968367457389831543e-01 1.700000000000000000e+01
1.711079478263854980e+00 1.905021667480468972e+00 -5.911713838577270508e-01 8.000000000000000000e+00
1.973466157913208008e+00 2.196377277374268022e+00 -5.739534497261047363e-01 1.200000000000000000e+01
2.345669507980347124e+00 2.608790159225463867e+00 -5.556552410125732422e-01 9.000000000000000000e+00
2.909146308898925781e+00 3.233203172683715820e+00 -5.340314507484436035e-01 9.000000000000000000e+00
3.772136211395264116e+00 4.190852165222167969e+00 -4.933015108108521063e-01 6.000000000000000000e+00
5.438976287841796875e+00 6.038475036621093750e+00 -4.259100258350371759e-01 2.000000000000000000e+00
9.011700630187988281e+00 9.997974395751953125e+00 -2.349442988634108942e-01 2.000000000000000000e+00
1.503976702690124956e+00 1.663900136947632058e+00 -6.009778380393981934e-01 1.800000000000000000e+01
1.703339099884032981e+00 1.883139729499816895e+00 -5.862224698066711426e-01 9.000000000000000000e+00
1.985072612762450950e+00 2.193842411041260210e+00 -5.750983357429504395e-01 1.200000000000000000e+01
2.358739137649536133e+00 2.604979276657104048e+00 -5.565938353538513184e-01 9.000000000000000000e+00
2.912416934967041016e+00 3.214202404022216797e+00 -5.325690507888793945e-01 9.000000000000000000e+00
3.790756225585937944e+00 4.182088375091552734e+00 -4.938244521617888849e-01 8.000000000000000000e+00
5.446602821350097656e+00 6.004659652709960938e+00 -4.248632788658142090e-01 3.000000000000000000e+00
9.018321037292480469e+00 9.935362815856933594e+00 -2.342112958431243896e-01 2.000000000000000000e+00
1.510786294937134011e+00 1.660332441329956055e+00 -6.014954447746276855e-01 1.600000000000000000e+01
1.712198495864867942e+00 1.880362629890441895e+00 -5.871222615242004395e-01 9.000000000000000000e+00
1.988370537757873979e+00 2.182893514633179155e+00 -5.739534497261047363e-01 1.300000000000000000e+01
2.371356725692749023e+00 2.601522684097290039e+00 -5.575324296951293945e-01 9.000000000000000000e+00
2.925735235214232954e+00 3.207460165023804155e+00 -5.330564975738525391e-01 9.000000000000000000e+00
3.803260564804077148e+00 4.168022632598876953e+00 -4.936501383781433105e-01 8.000000000000000000e+00
5.479952335357666016e+00 6.001313686370849609e+00 -4.259100258350371759e-01 2.000000000000000000e+00
9.018843650817871094e+00 9.869973182678222656e+00 -2.333735823631286899e-01 2.000000000000000000e+00
1.515267610549926980e+00 1.653624415397644043e+00 -6.009778380393981934e-01 1.800000000000000000e+01
1.726654171943664995e+00 1.882992267608643022e+00 -5.898216366767883301e-01 1.200000000000000000e+01
1.993323922157288042e+00 2.173045873641968218e+00 -5.731902122497558594e-01 1.200000000000000000e+01
2.383095026016234907e+00 2.596139669418334961e+00 -5.581581592559814453e-01 9.000000000000000000e+00
2.939599275588988814e+00 3.200151681900023970e+00 -5.335440039634704590e-01 9.000000000000000000e+00
3.817786693572998047e+00 4.154721736907958984e+00 -4.936501383781433105e-01 6.000000000000000000e+00
5.511682510375976562e+00 5.993909835815429688e+00 -4.267473816871643066e-01 2.000000000000000000e+00
3.862267303466796875e+01 4.198713302612304688e+01 1.317088413238525035e+01 1.900000000000000000e+01
9.069490432739257812e+00 9.856089591979980469e+00 -2.337924391031264981e-01 2.000000000000000000e+00
1.513170003890990989e+00 1.639806628227234109e+00 -5.978720188140869141e-01 1.900000000000000000e+01
1.738504648208617942e+00 1.882680416107177956e+00 -5.916212797164916992e-01 1.600000000000000000e+01
1.998232841491698997e+00 2.163190364837646040e+00 -5.724269747734069824e-01 1.200000000000000000e+01
2.382756471633911133e+00 2.577651500701903853e+00 -5.559681057929992676e-01 8.000000000000000000e+00
2.958839893341064009e+00 3.198614358901977983e+00 -5.350064039230346680e-01 9.000000000000000000e+00
3.825500011444091797e+00 4.134057998657226562e+00 -4.927785694599152166e-01 6.000000000000000000e+00
5.532571792602539062e+00 5.974634170532226562e+00 -4.267473816871643066e-01 1.000000000000000000e+00
9.103838920593261719e+00 9.824371337890625000e+00 -2.337924391031264981e-01 2.000000000000000000e+00
1.521514892578125000e+00 1.637344956398010032e+00 -5.989072918891906738e-01 1.900000000000000000e+01
1.738430619239806907e+00 1.869465112686157005e+00 -5.893717408180236816e-01 1.400000000000000000e+01
2.012457609176636186e+00 2.163389444351195845e+00 -5.743350982666015625e-01 1.200000000000000000e+01
2.390393733978271040e+00 2.567872524261475053e+00 -5.556552410125732422e-01 9.000000000000000000e+00
2.967281103134154829e+00 3.185361623764038086e+00 -5.345189571380615234e-01 1.000000000000000000e+01
3.842623949050902876e+00 4.123594284057617188e+00 -4.931271970272064209e-01 8.000000000000000000e+00
5.534323692321777344e+00 5.934835433959960938e+00 -4.252819716930388849e-01 1.000000000000000000e+00
9.143534660339355469e+00 9.798380851745605469e+00 -2.339320629835129062e-01 2.000000000000000000e+00
1.532500982284545898e+00 1.637666225433350053e+00 -6.009778380393981934e-01 2.000000000000000000e+01
1.746277689933777078e+00 1.864807844161987083e+00 -5.898216366767883301e-01 1.300000000000000000e+01
2.024023532867432085e+00 2.160649776458739790e+00 -5.754799246788024902e-01 1.300000000000000000e+01
2.399342775344849077e+00 2.559512853622436968e+00 -5.556552410125732422e-01 9.000000000000000000e+00
2.975665807723999023e+00 3.172088861465454102e+00 -5.340314507484436035e-01 9.000000000000000000e+00
3.877445220947266069e+00 4.131948947906494141e+00 -4.957418739795684814e-01 6.000000000000000000e+00
5.555006504058837891e+00 5.915481090545654297e+00 -4.252819716930388849e-01 1.000000000000000000e+00
3.959393692016602273e+01 4.214851760864257812e+01 1.335084533691406072e+01 1.900000000000000000e+01
9.166726112365722656e+00 9.754746437072753906e+00 -2.336528152227402011e-01 2.000000000000000000e+00
1.539533019065856934e+00 1.633712768554687944e+00 -6.014954447746276855e-01 1.900000000000000000e+01
1.751439452171325906e+00 1.857283115386962891e+00 -5.893717408180236816e-01 1.600000000000000000e+01
2.027511596679687944e+00 2.149287223815917969e+00 -5.743350982666015625e-01 1.200000000000000000e+01
2.416398525238037109e+00 2.559740543365478960e+00 -5.575324296951293945e-01 9.000000000000000000e+00
2.983994007110596147e+00 3.158796548843383789e+00 -5.335440039634704590e-01 9.000000000000000000e+00
3.878160238265991211e+00 4.103908061981201172e+00 -4.939987361431121826e-01 4.000000000000000000e+00
5.589344501495361328e+00 5.910565853118895596e+00 -4.263286888599395752e-01 2.000000000000000000e+00
9.225461959838867188e+00 9.748832702636718750e+00 -2.342811077833175937e-01 2.000000000000000000e+00
3.971640777587891336e+01 4.195489883422852273e+01 1.547996711730957031e+01 2.000000000000000000e+01
1.538294315338134988e+00 1.621590733528136985e+00 -5.989072918891906738e-01 1.700000000000000000e+01
1.758930563926696999e+00 1.852878212928771973e+00 -5.898216366767883301e-01 1.500000000000000000e+01
2.031924009323120117e+00 2.139704704284667969e+00 -5.735718607902526855e-01 1.200000000000000000e+01
2.428955793380736861e+00 2.556009292602539062e+00 -5.584710240364074707e-01 1.000000000000000000e+01
2.999924182891846147e+00 3.154637813568114790e+00 -5.345189571380615234e-01 9.000000000000000000e+00
3.897240877151488814e+00 4.096799373626708984e+00 -4.946959912776947021e-01 6.000000000000000000e+00
5.595142841339111328e+00 5.877532482147216797e+00 -4.252819716930388849e-01 1.000000000000000000e+00
9.238429069519042969e+00 9.697916030883789062e+00 -2.337924391031264981e-01 2.000000000000000000e+00
1.541276574134827104e+00 1.613417387008666992e+00 -5.978720188140869141e-01 1.700000000000000000e+01
1.770773887634276900e+00 1.852361679077147993e+00 -5.916212797164916992e-01 1.500000000000000000e+01
2.046164989471435991e+00 2.139693498611450195e+00 -5.754799246788024902e-01 1.200000000000000000e+01
2.433765888214110884e+00 2.543233633041381836e+00 -5.575324296951293945e-01 9.000000000000000000e+00
3.013663768768310991e+00 3.147014379501343218e+00 -5.350064039230346680e-01 9.000000000000000000e+00
3.897735118865966797e+00 4.068782806396484375e+00 -4.929528832435607910e-01 6.000000000000000000e+00
5.634974956512451172e+00 5.878150939941406250e+00 -4.267473816871643066e-01 2.000000000000000000e+00
9.277762413024902344e+00 9.671381950378417969e+00 -2.339320629835129062e-01 2.000000000000000000e+00
1.549577593803405984e+00 1.610811948776244895e+00 -5.989072918891906738e-01 1.800000000000000000e+01
1.777229070663451926e+00 1.846169233322143999e+00 -5.916212797164916992e-01 1.500000000000000000e+01
2.053621292114257812e+00 2.132537841796875000e+00 -5.754799246788024902e-01 1.100000000000000000e+01
2.435775041580200195e+00 2.527610540390015093e+00 -5.559681057929992676e-01 1.000000000000000000e+01
3.026008367538452148e+00 3.137904405593872070e+00 -5.352501273155212402e-01 1.000000000000000000e+01
3.920213699340819868e+00 4.063755989074707031e+00 -4.939987361431121826e-01 9.000000000000000000e+00
5.641587734222412109e+00 5.844076156616210938e+00 -4.257006645202637274e-01 2.000000000000000000e+00
9.336473464965820312e+00 9.664825439453125000e+00 -2.345603406429291049e-01 2.000000000000000000e+00
1.560567617416382058e+00 1.610943317413330078e+00 -6.009778380393981934e-01 1.700000000000000000e+01
1.782306194305419922e+00 1.838555097579956055e+00 -5.911713838577270508e-01 1.400000000000000000e+01
2.066519737243651900e+00 2.130994081497191939e+00 -5.770063996315002441e-01 1.200000000000000000e+01
2.451461553573607954e+00 2.526180744171143022e+00 -5.575324296951293945e-01 9.000000000000000000e+00
3.031411409378052202e+00 3.121626138687133789e+00 -5.342751741409301758e-01 1.000000000000000000e+01
3.935763359069824219e+00 4.051476478576660156e+00 -4.941730499267578125e-01 8.000000000000000000e+00
5.659168720245361328e+00 5.821483135223388672e+00 -4.254913330078125000e-01 2.000000000000000000e+00
9.358998298645019531e+00 9.620708465576171875e+00 -2.342811077833175937e-01 2.000000000000000000e+00
1.571296095848083052e+00 1.611291766166687012e+00 -6.030483841896057129e-01 1.700000000000000000e+01
1.784310221672058105e+00 1.828450560569762962e+00 -5.898216366767883301e-01 1.200000000000000000e+01
2.066718101501464844e+00 2.117105245590209961e+00 -5.750983357429504395e-01 1.200000000000000000e+01
2.466727018356322798e+00 2.525102853775023970e+00 -5.590967535972595215e-01 1.000000000000000000e+01
3.036195993423461914e+00 3.105878591537476030e+00 -5.333002209663391113e-01 1.000000000000000000e+01
3.946390867233275923e+00 4.035553455352783203e+00 -4.938244521617888849e-01 8.000000000000000000e+00
5.681236267089843750e+00 5.805539608001708984e+00 -4.257006645202637274e-01 1.000000000000000000e+00
9.368464469909667969e+00 9.566761016845703125e+00 -2.337226271629332941e-01 2.000000000000000000e+00
1.567435979843140093e+00 1.596148610115051047e+00 -5.994248986244201660e-01 1.600000000000000000e+01
1.792047739028931108e+00 1.823601007461548074e+00 -5.902715921401977539e-01 1.400000000000000000e+01
2.063085079193114790e+00 2.098677635192871094e+00 -5.720453858375549316e-01 1.100000000000000000e+01
2.471370458602904829e+00 2.512252330780028853e+00 -5.581581592559814453e-01 9.000000000000000000e+00
3.051196813583374023e+00 3.099505186080933061e+00 -5.340314507484436035e-01 1.000000000000000000e+01
3.967443227767943892e+00 4.028851509094238281e+00 -4.946959912776947021e-01 6.000000000000000000e+00
5.715485572814941406e+00 5.799899101257324219e+00 -4.267473816871643066e-01 2.000000000000000000e+00
9.404609680175781250e+00 9.536848068237304688e+00 -2.337924391031264981e-01 2.000000000000000000e+00
1.566482543945312944e+00 1.583525896072387917e+00 -5.968367457389831543e-01 1.600000000000000000e+01
1.804203391075134055e+00 1.822560191154479980e+00 -5.920711755752563477e-01 1.300000000000000000e+01
2.079051733016968218e+00 2.099472045898437944e+00 -5.743350982666015625e-01 1.200000000000000000e+01
2.480561733245850053e+00 2.503177404403686968e+00 -5.581581592559814453e-01 9.000000000000000000e+00
3.066729784011840820e+00 3.092529773712158203e+00 -5.347626805305480957e-01 1.000000000000000000e+01
3.980779886245727983e+00 4.012868881225585938e+00 -4.945216774940490723e-01 9.000000000000000000e+00
5.745147228240966797e+00 5.787416458129882812e+00 -4.273754060268402100e-01 1.000000000000000000e+00
9.459231376647949219e+00 9.522175788879394531e+00 -2.342811077833175937e-01 2.000000000000000000e+00
1.578817605972290039e+00 1.584891438484191895e+00 -5.994248986244201660e-01 1.600000000000000000e+01
1.807802677154541016e+00 1.813490986824036089e+00 -5.911713838577270508e-01 1.200000000000000000e+01
2.090526580810546875e+00 2.096372604370117188e+00 -5.754799246788024902e-01 1.300000000000000000e+01
2.478121519088745117e+00 2.483317136764525923e+00 -5.556552410125732422e-01 9.000000000000000000e+00
3.084519624710083008e+00 3.088829278945922852e+00 -5.359813570976257324e-01 1.000000000000000000e+01
3.987722873687744141e+00 3.991900920867919922e+00 -4.936501383781433105e-01 6.000000000000000000e+00
5.779434204101563388e+00 5.781452178955078125e+00 -4.284221231937407892e-01 1.000000000000000000e+00
9.534839630126953125e+00 9.531511306762695312e+00 -2.353282421827316007e-01 2.000000000000000000e+00
1.588168382644653098e+00 1.583739519119262917e+00 -6.009778380393981934e-01 1.500000000000000000e+01
1.808284997940063032e+00 1.801983952522278054e+00 -5.893717408180236816e-01 1.100000000000000000e+01
2.107203006744385210e+00 2.099127531051636186e+00 -5.781512856483459473e-01 1.300000000000000000e+01
2.496142864227294922e+00 2.484841346740723100e+00 -5.578452944755554199e-01 1.000000000000000000e+01
3.098967552185059038e+00 3.082783699035644975e+00 -5.367125868797302246e-01 1.000000000000000000e+01
4.012240409851074219e+00 3.989894390106201172e+00 -4.950446188449860174e-01 8.000000000000000000e+00
5.775907516479492188e+00 5.739729881286621094e+00 -4.267473816871643066e-01 1.000000000000000000e+00
9.543691635131835938e+00 9.477295875549316406e+00 -2.347697764635086060e-01 2.000000000000000000e+00
1.590941548347472922e+00 1.575467467308043990e+00 -5.999425649642944336e-01 1.500000000000000000e+01
1.815949320793152078e+00 1.797031641006469949e+00 -5.898216366767883301e-01 1.200000000000000000e+01
2.108934640884398970e+00 2.086236476898192915e+00 -5.766248106956481934e-01 1.300000000000000000e+01
2.497777223587036133e+00 2.469169378280640093e+00 -5.562809705734252930e-01 9.000000000000000000e+00
3.099823951721190962e+00 3.062181949615478960e+00 -5.350064039230346680e-01 1.000000000000000000e+01
4.026143550872802734e+00 3.975864648818970171e+00 -4.950446188449860174e-01 9.000000000000000000e+00
5.807280540466308594e+00 5.730756282806395596e+00 -4.275847673416138250e-01 1.000000000000000000e+00
9.579563140869140625e+00 9.446732521057128906e+00 -2.348395884037018100e-01 2.000000000000000000e+00
1.593676447868346946e+00 1.567195415496825950e+00 -5.989072918891906738e-01 1.500000000000000000e+01
1.824990868568419966e+00 1.793413639068603960e+00 -5.907214879989624023e-01 1.200000000000000000e+01
2.110602140426636186e+00 2.073358774185181108e+00 -5.750983357429504395e-01 1.300000000000000000e+01
2.517658233642578125e+00 2.471505880355834961e+00 -5.587838888168334961e-01 9.000000000000000000e+00
3.106242895126343218e+00 3.047172546386719194e+00 -5.342751741409301758e-01 1.000000000000000000e+01
4.037152290344238281e+00 3.958996534347534180e+00 -4.946959912776947021e-01 6.000000000000000000e+00
5.867190837860107422e+00 5.749591350555419922e+00 -4.305155873298645020e-01 1.000000000000000000e+00
9.601050376892089844e+00 9.402043342590332031e+00 -2.345603406429291049e-01 2.000000000000000000e+00
1.599137306213378906e+00 1.561622858047484907e+00 -5.989072918891906738e-01 1.800000000000000000e+01
1.835424065589905007e+00 1.791115283966064009e+00 -5.920711755752563477e-01 1.100000000000000000e+01
2.122042417526245117e+00 2.070091724395751953e+00 -5.762431621551513672e-01 1.300000000000000000e+01
2.517783164978026900e+00 2.454429149627685991e+00 -5.569067001342773438e-01 1.000000000000000000e+01
3.125392198562622070e+00 3.044622182846068892e+00 -5.357376337051391602e-01 1.000000000000000000e+01
4.046664714813232422e+00 3.940710067749022993e+00 -4.941730499267578125e-01 8.000000000000000000e+00
5.858597755432128906e+00 5.701217651367188388e+00 -4.284221231937407892e-01 1.000000000000000000e+00
9.662483215332031250e+00 9.396354675292968750e+00 -2.352584451436995905e-01 2.000000000000000000e+00
1.601262569427490012e+00 1.553900599479675071e+00 -5.978720188140869141e-01 1.600000000000000000e+01
1.835446119308471902e+00 1.779913783073425071e+00 -5.902715921401977539e-01 1.100000000000000000e+01
2.124306440353393999e+00 2.059315443038939986e+00 -5.750983357429504395e-01 1.300000000000000000e+01
2.525481462478638139e+00 2.446507215499877930e+00 -5.569067001342773438e-01 9.000000000000000000e+00
3.140646696090697798e+00 3.040311336517333984e+00 -5.367125868797302246e-01 1.000000000000000000e+01
4.060456752777099609e+00 3.929363250732421875e+00 -4.943473637104033869e-01 8.000000000000000000e+00
5.862122535705566406e+00 5.668900012969970703e+00 -4.273754060268402100e-01 1.000000000000000000e+00
9.677575111389160156e+00 9.352056503295898438e+00 -2.349093854427337924e-01 2.000000000000000000e+00
1.613632321357727051e+00 1.555004239082335982e+00 -6.004601716995239258e-01 1.600000000000000000e+01
1.837436914443969949e+00 1.769440770149230957e+00 -5.889218449592590332e-01 1.200000000000000000e+01
2.138553857803345171e+00 2.058695316314696822e+00 -5.770063996315002441e-01 1.400000000000000000e+01
2.531158924102783203e+00 2.434937953948975053e+00 -5.562809705734252930e-01 9.000000000000000000e+00
3.151240348815917969e+00 3.029330015182495117e+00 -5.367125868797302246e-01 1.000000000000000000e+01
4.077021121978759766e+00 3.917926788330078125e+00 -4.946959912776947021e-01 8.000000000000000000e+00
5.867468833923339844e+00 5.634569168090820312e+00 -4.263286888599395752e-01 2.000000000000000000e+00
9.724589347839355469e+00 9.332063674926757812e+00 -2.352584451436995905e-01 2.000000000000000000e+00
1.623237609863281028e+00 1.553369164466857910e+00 -6.020131111145019531e-01 1.800000000000000000e+01
1.846418976783751997e+00 1.765709877014159934e+00 -5.898216366767883301e-01 1.200000000000000000e+01
2.141469717025756836e+00 2.047147989273070845e+00 -5.758615732192993164e-01 1.300000000000000000e+01
2.545356512069702148e+00 2.431545734405518022e+00 -5.575324296951293945e-01 9.000000000000000000e+00
3.156051874160767046e+00 3.012828826904296875e+00 -5.357376337051391602e-01 1.000000000000000000e+01
4.092113971710205078e+00 3.905046939849853960e+00 -4.948703050613402765e-01 9.000000000000000000e+00
5.901555538177490234e+00 5.627837181091308594e+00 -4.273754060268402100e-01 2.000000000000000000e+00
9.702094078063964844e+00 9.245639801025390625e+00 -2.339320629835129062e-01 2.000000000000000000e+00
1.617446899414062944e+00 1.537047266960144043e+00 -5.978720188140869141e-01 1.500000000000000000e+01
1.859636664390563965e+00 1.765963435173034890e+00 -5.920711755752563477e-01 1.300000000000000000e+01
2.147178649902344194e+00 2.038308858871459961e+00 -5.754799246788024902e-01 1.400000000000000000e+01
2.556694746017456055e+00 2.425364971160889116e+00 -5.581581592559814453e-01 1.000000000000000000e+01
3.163668155670166016e+00 2.999062299728393999e+00 -5.352501273155212402e-01 1.000000000000000000e+01
4.105720043182373047e+00 3.890738964080810991e+00 -4.948703050613402765e-01 8.000000000000000000e+00
5.926965236663818359e+00 5.612695693969726562e+00 -4.277940988540648859e-01 2.000000000000000000e+00
9.748832702636718750e+00 9.225461959838867188e+00 -2.342811077833175937e-01 2.000000000000000000e+00
1.625612378120421919e+00 1.534043788909912109e+00 -5.989072918891906738e-01 1.600000000000000000e+01
1.867207527160644975e+00 1.760798335075377974e+00 -5.925210714340209961e-01 1.200000000000000000e+01
2.159994840621947798e+00 2.036188125610352007e+00 -5.770063996315002441e-01 1.300000000000000000e+01
2.565145492553710938e+00 2.416425704956055132e+00 -5.581581592559814453e-01 9.000000000000000000e+00
3.182790040969849077e+00 2.996164798736571822e+00 -5.367125868797302246e-01 1.000000000000000000e+01
4.117825508117675781e+00 3.875018119812012163e+00 -4.946959912776947021e-01 9.000000000000000000e+00
5.961071014404296875e+00 5.605654716491699219e+00 -4.288408160209655762e-01 2.000000000000000000e+00
9.780976295471191406e+00 9.191375732421875000e+00 -2.342811077833175937e-01 2.000000000000000000e+00
1.633776664733886941e+00 1.531001925468445046e+00 -5.999425649642944336e-01 1.600000000000000000e+01
1.870497584342956987e+00 1.751605749130249023e+00 -5.916212797164916992e-01 1.200000000000000000e+01
2.168522596359252930e+00 2.029977560043334961e+00 -5.773880481719970703e-01 1.200000000000000000e+01
2.572122097015380859e+00 2.406107425689696822e+00 -5.578452944755554199e-01 1.000000000000000000e+01
3.193229198455810991e+00 2.985036373138428178e+00 -5.367125868797302246e-01 1.000000000000000000e+01
4.135693550109863281e+00 3.864701747894287109e+00 -4.952189326286315918e-01 9.000000000000000000e+00
5.966004371643066406e+00 5.571181297302246094e+00 -4.277940988540648859e-01 2.000000000000000000e+00
9.813000679016113281e+00 9.157177925109863281e+00 -2.342811077833175937e-01 2.000000000000000000e+00
1.636016607284545898e+00 1.522943139076232910e+00 -5.989072918891906738e-01 1.700000000000000000e+01
1.869161725044250044e+00 1.738756895065308061e+00 -5.893717408180236816e-01 1.100000000000000000e+01
2.180993080139160156e+00 2.028123140335083008e+00 -5.789144635200500488e-01 1.300000000000000000e+01
2.569957494735718218e+00 2.388151884078979048e+00 -5.556552410125732422e-01 9.000000000000000000e+00
