6.063427448272705078e+00 9.701183438301086426e-01 -5.372279882431030273e-01 9.000000000000000000e+00
8.904872894287109375e+00 1.421547651290893999e+00 -4.725936949253082275e-01 3.000000000000000000e+00
3.331376647949218750e+01 5.312149524688720703e+00 7.788255214691162109e+00 9.000000000000000000e+00
1.599589729309082031e+01 2.547812461853026900e+00 -2.827289700508118231e-01 2.000000000000000000e+00
3.723180770874022727e+01 5.923586845397949219e+00 1.010170745849609020e+01 8.000000000000000000e+00
2.308952569961547852e+00 3.644629716873168945e-01 -6.263421177864074707e-01 1.800000000000000000e+01
5.940695953369141336e+01 9.366628646850585938e+00 1.049762248992919922e+00 6.300000000000000000e+01
2.569892644882202148e+00 4.047324061393737793e-01 -6.006193161010742188e-01 7.000000000000000000e+00
3.799989700317382812e+01 5.977807044982910156e+00 2.015980958938599077e+00 2.200000000000000000e+01
3.093349456787108931e+00 4.866183400154113770e-01 -6.086806654930114746e-01 1.100000000000000000e+01
3.692211627960205078e+00 5.795054435729980469e-01 -5.919480323791503906e-01 1.100000000000000000e+01
3.945613479614257812e+01 6.185720920562744141e+00 4.903778553009033203e+00 2.100000000000000000e+01
4.718626976013183594e+00 7.389172315597534180e-01 -5.864352583885192871e-01 1.100000000000000000e+01
3.818096160888671875e+01 5.978979110717773438e+00 6.120967864990234375e+00 1.400000000000000000e+01
6.086461544036865234e+00 9.520261287689208984e-01 -5.389711260795593262e-01 9.000000000000000000e+00
3.461046600341796875e+01 5.407477855682373047e+00 6.809209823608398438e+00 5.900000000000000000e+01
8.913727760314941406e+00 1.391071200370789018e+00 -4.728030264377593994e-01 1.000000000000000000e+00
3.357471847534179688e+01 5.233648777008056641e+00 7.844943046569824219e+00 9.000000000000000000e+00
1.602050018310546875e+01 2.494421958923339844e+00 -2.830082178115844727e-01 2.000000000000000000e+00
3.488045120239257812e+01 5.430952072143554688e+00 9.458801269531250000e+00 7.000000000000000000e+00
2.312119960784912109e+00 3.566955626010894775e-01 -6.268597245216369629e-01 1.900000000000000000e+01
2.446095943450928178e+00 3.764901757240294855e-01 -5.713756680488586426e-01 9.000000000000000000e+00
3.789419174194335938e+01 5.825703620910645419e+00 2.009282112121582031e+00 2.100000000000000000e+01
3.087267398834228960e+00 4.746243059635161798e-01 -6.071542501449584961e-01 1.100000000000000000e+01
3.723368072509766336e+01 5.717507362365722656e+00 3.295707225799560991e+00 4.800000000000000000e+01
3.696164608001708984e+00 5.669131278991699219e-01 -5.922608971595764160e-01 1.000000000000000000e+01
3.869260406494141336e+01 5.927711963653563565e+00 4.806282997131347656e+00 2.000000000000000000e+01
4.713328361511229581e+00 7.212405800819396973e-01 -5.854603052139282227e-01 9.000000000000000000e+00
3.687478637695313211e+01 5.636048793792724609e+00 5.908216953277587891e+00 1.300000000000000000e+01
6.105503559112548828e+00 9.331828355789184570e-01 -5.403655767440795898e-01 9.000000000000000000e+00
8.950119972229003906e+00 1.364765167236327903e+00 -4.744777679443358820e-01 1.000000000000000000e+00
3.364287185668945312e+01 5.124048233032226562e+00 7.856640338897705078e+00 9.000000000000000000e+00
1.601329421997069957e+01 2.436078786849976030e+00 -2.827289700508118231e-01 2.000000000000000000e+00
3.494596099853516336e+01 5.310037136077880859e+00 9.471223831176757812e+00 7.000000000000000000e+00
2.315261363983153853e+00 3.489104509353638250e-01 -6.273773908615112305e-01 1.700000000000000000e+01
4.010800552368164062e+01 6.037127494812011719e+00 7.079743146896362305e-01 3.600000000000000000e+01
2.428124427795410156e+00 3.650521636009215753e-01 -5.668766498565673828e-01 9.000000000000000000e+00
3.823821258544921875e+01 5.742033481597900391e+00 2.026448249816894975e+00 2.200000000000000000e+01
3.079197883605957031e+00 4.623871147632598877e-01 -6.052461266517639160e-01 1.000000000000000000e+01
3.709578323364257812e+01 5.563860893249511719e+00 3.281762361526488814e+00 4.700000000000000000e+01
3.711796045303345171e+00 5.560563206672668457e-01 -5.944509506225585938e-01 1.100000000000000000e+01
3.671055984497070312e+01 5.492980480194091797e+00 4.557669639587402344e+00 1.900000000000000000e+01
4.731523513793945312e+00 7.071309089660644531e-01 -5.874102115631103516e-01 9.000000000000000000e+00
6.100841522216796875e+00 9.106883406639099121e-01 -5.396683812141418457e-01 9.000000000000000000e+00
8.970632553100585938e+00 1.335868477821350098e+00 -4.753151535987854004e-01 1.000000000000000000e+00
3.340226364135742188e+01 4.968163967132568359e+00 7.796353816986083984e+00 9.000000000000000000e+00
1.609686279296875000e+01 2.391333341598511186e+00 -2.840553820133209229e-01 2.000000000000000000e+00
3.919789123535156250e+01 5.823197841644287109e+00 1.061830997467041016e+01 9.000000000000000000e+00
2.297352313995360884e+00 3.380144536495208740e-01 -6.222009658813476562e-01 1.800000000000000000e+01
5.950178527832031250e+01 8.744017601013183594e+00 1.049762248992919922e+00 6.300000000000000000e+01
2.469873428344727007e+00 3.625171184539794922e-01 -5.763245820999145508e-01 1.000000000000000000e+01
3.086620569229125977e+00 4.524902105331420898e-01 -6.063910126686096191e-01 1.100000000000000000e+01
3.723487377166748047e+00 5.445255041122436523e-01 -5.960153341293334961e-01 1.100000000000000000e+01
3.730699920654296875e+01 5.449152946472167969e+00 4.629328727722167969e+00 1.900000000000000000e+01
4.733963012695313388e+00 6.906105279922485352e-01 -5.874102115631103516e-01 9.000000000000000000e+00
6.107926368713378906e+00 8.899614214897155762e-01 -5.400170087814331055e-01 9.000000000000000000e+00
8.995006561279296875e+00 1.307419896125793013e+00 -4.763618707656859796e-01 1.000000000000000000e+00
3.398638916015625000e+01 4.933848381042479581e+00 7.928624629974365234e+00 9.000000000000000000e+00
1.611302947998046875e+01 2.336277961730957031e+00 -2.841949760913848877e-01 2.000000000000000000e+00
3.494776535034179688e+01 5.060957431793212891e+00 9.461906433105468750e+00 7.000000000000000000e+00
2.306109428405762163e+00 3.314937949180603027e-01 -6.242715120315551758e-01 1.700000000000000000e+01
2.447913885116577148e+00 3.510055243968964178e-01 -5.709257721900939941e-01 1.000000000000000000e+01
3.886953735351563211e+01 5.566565990447998047e+00 2.057849884033203125e+00 2.200000000000000000e+01
3.090047597885131836e+00 4.425304234027863104e-01 -6.067726016044616699e-01 1.100000000000000000e+01
3.715494871139525923e+00 5.307782292366027832e-01 -5.944509506225585938e-01 1.100000000000000000e+01
3.688466262817382812e+01 5.262601375579833984e+00 4.574731349945068359e+00 1.900000000000000000e+01
4.736227035522460938e+00 6.749083399772644043e-01 -5.874102115631103516e-01 9.000000000000000000e+00
6.106899261474609375e+00 8.691404461860656738e-01 -5.396683812141418457e-01 9.000000000000000000e+00
3.507047653198242188e+01 4.985023021697998047e+00 6.885533332824707031e+00 6.000000000000000000e+01
8.999292373657226562e+00 1.277584195137023926e+00 -4.763618707656859796e-01 1.000000000000000000e+00
3.399098587036132812e+01 4.819477081298828125e+00 7.925925254821777344e+00 9.000000000000000000e+00
1.617216682434082031e+01 2.290122270584106001e+00 -2.851025164127349854e-01 2.000000000000000000e+00
2.320644617080688032e+00 3.253193199634552002e-01 -6.278949975967407227e-01 1.900000000000000000e+01
2.445264339447021040e+00 3.419188261032103937e-01 -5.700259804725646973e-01 1.000000000000000000e+01
3.101295471191405806e+00 4.330991208553314209e-01 -6.086806654930114746e-01 1.100000000000000000e+01
3.721238136291503906e+00 5.183505415916442871e-01 -5.950766801834106445e-01 9.000000000000000000e+00
3.680450057983397727e+01 5.120141506195068359e+00 4.562544345855712891e+00 1.900000000000000000e+01
4.740520477294921875e+00 6.586449146270751953e-01 -5.876539945602416992e-01 9.000000000000000000e+00
6.127656936645507812e+00 8.502826690673828125e-01 -5.412371754646301270e-01 9.000000000000000000e+00
8.995783805847167969e+00 1.245067715644835982e+00 -4.759431779384613037e-01 1.000000000000000000e+00
3.375665283203125000e+01 4.666108608245849609e+00 7.867438316345214844e+00 9.000000000000000000e+00
1.621175575256348012e+01 2.238032341003417969e+00 -2.856609821319580078e-01 2.000000000000000000e+00
3.539392471313477273e+01 4.886129856109619141e+00 9.573716163635253906e+00 7.000000000000000000e+00
2.312195777893065962e+00 3.159092068672180176e-01 -6.253067851066589355e-01 1.700000000000000000e+01
5.939053726196289062e+01 8.103814125061035156e+00 1.046271800994873047e+00 6.300000000000000000e+01
2.452235698699951172e+00 3.341705501079558771e-01 -5.713756680488586426e-01 1.000000000000000000e+01
3.093061685562133789e+00 4.209472239017487127e-01 -6.067726016044616699e-01 1.000000000000000000e+01
3.728897094726562944e+00 5.061549544334411621e-01 -5.960153341293334961e-01 1.100000000000000000e+01
3.690083312988281250e+01 5.002305030822753906e+00 4.572294235229492188e+00 1.900000000000000000e+01
4.736889362335205078e+00 6.412944197654724121e-01 -5.869227647781372070e-01 9.000000000000000000e+00
6.126638889312744141e+00 8.283540606498718262e-01 -5.408885478973388672e-01 9.000000000000000000e+00
9.000074386596679688e+00 1.213658928871155007e+00 -4.759431779384613037e-01 1.000000000000000000e+00
1.622739601135253906e+01 2.182495355606079102e+00 -2.858006060123444159e-01 2.000000000000000000e+00
3.548351669311522727e+01 4.772337436676025391e+00 9.593386650085449219e+00 7.000000000000000000e+00
2.317114353179932085e+00 3.083458542823792059e-01 -6.263421177864074707e-01 1.700000000000000000e+01
5.941846466064453125e+01 7.896452426910400391e+00 1.046271800994873047e+00 6.300000000000000000e+01
2.459182739257812944e+00 3.263777792453765869e-01 -5.727253556251525879e-01 1.000000000000000000e+01
3.094512224197388139e+00 4.101478457450867254e-01 -6.067726016044616699e-01 1.200000000000000000e+01
3.728682756423950195e+00 4.928767085075377863e-01 -5.957024693489074707e-01 1.000000000000000000e+01
3.709125518798828125e+01 4.896328449249267578e+00 4.593742847442626953e+00 1.900000000000000000e+01
4.754843235015869141e+00 6.268312931060791016e-01 -5.888726711273193359e-01 9.000000000000000000e+00
6.127517700195313388e+00 8.067030310630798340e-01 -5.407142043113708496e-01 9.000000000000000000e+00
9.016138076782226562e+00 1.183795452117919922e+00 -4.765712320804595947e-01 1.000000000000000000e+00
1.629439926147460938e+01 2.133626699447631836e+00 -2.868477404117584229e-01 2.000000000000000000e+00
3.569615554809570312e+01 4.667801380157470703e+00 9.646185874938964844e+00 7.000000000000000000e+00
2.308597326278686968e+00 2.990150153636931818e-01 -6.237539052963256836e-01 1.600000000000000000e+01
5.944566726684570312e+01 7.688995361328125000e+00 1.046271800994873047e+00 6.300000000000000000e+01
2.381066799163817915e+00 3.075564205646514893e-01 -5.542793869972229004e-01 1.000000000000000000e+01
3.111501932144165039e+00 4.013527631759644110e-01 -6.098255515098571777e-01 1.000000000000000000e+01
3.732339859008789062e+00 4.801101982593535822e-01 -5.960153341293334961e-01 1.000000000000000000e+01
3.715143585205078125e+01 4.772390365600585938e+00 4.599105358123779297e+00 1.900000000000000000e+01
4.757002353668212891e+00 6.102299690246582031e-01 -5.888726711273193359e-01 9.000000000000000000e+00
3.696146392822266336e+01 4.734872817993164062e+00 5.901959419250488281e+00 1.300000000000000000e+01
6.134248733520507812e+00 7.858154177665710449e-01 -5.410628318786621094e-01 9.000000000000000000e+00
9.036064147949218750e+00 1.154340744018554910e+00 -4.774085879325867254e-01 3.000000000000000000e+00
3.419027709960938211e+01 4.361680984497070312e+00 7.957418441772460938e+00 9.000000000000000000e+00
1.628984642028808949e+01 2.075219392776488814e+00 -2.866383194923400879e-01 2.000000000000000000e+00
2.317293643951416016e+00 2.919205129146575928e-01 -6.258244514465332031e-01 1.600000000000000000e+01
2.099828481674193892e+00 2.637808024883270264e-01 -4.885936975479125977e-01 4.600000000000000000e+01
3.886168289184570312e+01 4.874921321868895596e+00 2.052616119384766069e+00 2.200000000000000000e+01
3.114831924438477007e+00 3.907335102558135986e-01 -6.102071404457092285e-01 1.100000000000000000e+01
3.728112697601317915e+00 4.663434326648712158e-01 -5.950766801834106445e-01 9.000000000000000000e+00
3.715211105346679688e+01 4.640710353851318359e+00 4.597155570983886719e+00 1.900000000000000000e+01
4.778801918029785156e+00 5.960782766342163086e-01 -5.913100838661193848e-01 9.000000000000000000e+00
3.668373107910156250e+01 4.569200515747070312e+00 5.855029106140136719e+00 1.300000000000000000e+01
6.142885684967041016e+00 7.651368975639343262e-01 -5.415858030319213867e-01 9.000000000000000000e+00
9.044002532958984375e+00 1.123284339904784934e+00 -4.776179492473601740e-01 1.000000000000000000e+00
3.536178207397460938e+01 4.385741233825683594e+00 8.226460456848144531e+00 1.000000000000000000e+01
1.630095863342285156e+01 2.018836021423339844e+00 -2.867081463336945135e-01 5.000000000000000000e+00
3.677389526367188211e+01 4.554361820220947266e+00 9.928815841674804688e+00 8.000000000000000000e+00
2.270360231399536133e+00 2.779607772827147882e-01 -6.128835082054138184e-01 1.900000000000000000e+01
5.949789428710938211e+01 7.273802280426025391e+00 1.046271800994873047e+00 6.300000000000000000e+01
2.089130163192749023e+00 2.550325989723206122e-01 -4.858942627906798761e-01 5.100000000000000000e+01
3.116176843643188032e+00 3.798583447933197021e-01 -6.102071404457092285e-01 1.200000000000000000e+01
3.737561464309691939e+00 4.542804062366486151e-01 -5.963281989097595215e-01 1.000000000000000000e+01
3.711684417724608664e+01 4.504778385162354404e+00 4.590817928314208984e+00 1.900000000000000000e+01
4.763117313385009766e+00 5.772440433502197266e-01 -5.891163945198059082e-01 9.000000000000000000e+00
6.155408859252929688e+00 7.448863387107849121e-01 -5.424573421478271484e-01 9.000000000000000000e+00
9.103389739990234375e+00 1.098407030105591042e+00 -4.805487394332885742e-01 1.000000000000000000e+00
1.639923477172851918e+01 1.972909927368164062e+00 -2.883137464523314875e-01 5.000000000000000000e+00
3.680491256713867188e+01 4.427815437316895419e+00 9.932957649230957031e+00 8.000000000000000000e+00
2.066054105758666992e+00 2.456306219100951871e-01 -5.574962496757507324e-01 4.600000000000000000e+01
2.113229990005493164e+00 2.504912614822388250e-01 -4.912931025028228760e-01 3.400000000000000000e+01
3.109685420989989790e+00 3.680555224418640137e-01 -6.086806654930114746e-01 1.100000000000000000e+01
3.731277465820312944e+00 4.403051435947418213e-01 -5.950766801834106445e-01 1.000000000000000000e+01
3.769223785400391336e+01 4.441159248352050781e+00 4.660039901733398438e+00 2.000000000000000000e+01
4.778903961181640625e+00 5.622377991676330566e-01 -5.908225774765014648e-01 9.000000000000000000e+00
6.177759647369384766e+00 7.257199287414550781e-01 -5.442004799842834473e-01 8.000000000000000000e+00
9.123037338256835938e+00 1.068482279777527078e+00 -4.813861250877379816e-01 8.000000000000000000e+00
3.601091384887695312e+01 4.211195945739746094e+00 8.370429039001464844e+00 1.000000000000000000e+01
1.645368957519530895e+01 1.921219944953918013e+00 -2.891514599323273260e-01 2.000000000000000000e+00
3.613394546508789062e+01 4.212798595428466797e+00 9.747642517089843750e+00 7.000000000000000000e+00
2.057303190231322798e+00 2.373103946447371881e-01 -5.549080371856689453e-01 5.300000000000000000e+01
3.940586471557617188e+01 4.531537532806395596e+00 2.078784227371215820e+00 2.200000000000000000e+01
3.103149414062500000e+00 3.563026487827301025e-01 -6.071542501449584961e-01 1.200000000000000000e+01
3.750454664230347124e+00 4.292996823787689209e-01 -5.978925228118896484e-01 1.000000000000000000e+01
4.784781932830811435e+00 5.460029840469360352e-01 -5.913100838661193848e-01 9.000000000000000000e+00
6.176295757293701172e+00 7.037000060081481934e-01 -5.438518524169921875e-01 9.000000000000000000e+00
9.108851432800292969e+00 1.034601807594299094e+00 -4.804440736770629883e-01 1.000000000000000000e+01
1.649208831787109020e+01 1.867373943328856978e+00 -2.897099554538726807e-01 2.000000000000000000e+00
3.640494155883789062e+01 4.122076034545898438e+00 9.817006111145019531e+00 7.000000000000000000e+00
2.056199312210083008e+00 2.299129515886307040e-01 -5.543903708457946777e-01 8.000000000000000000e+00
2.109117031097412109e+00 2.350845336914063055e-01 -4.899433851242064875e-01 1.000000000000000000e+02
3.936586380004882812e+01 4.387763023376464844e+00 2.075853347778319868e+00 2.200000000000000000e+01
3.118032693862915039e+00 3.469884395599365234e-01 -6.098255515098571777e-01 1.300000000000000000e+01
3.742113590240478960e+00 4.151165485382080078e-01 -5.963281989097595215e-01 1.100000000000000000e+01
4.810335159301757812e+00 5.319157838821411133e-01 -5.942349433898925781e-01 1.100000000000000000e+01
6.166832447052001953e+00 6.808246374130249023e-01 -5.428059697151184082e-01 9.000000000000000000e+00
9.237479209899902344e+00 1.016563534736633079e+00 -4.870384037494658869e-01 1.000000000000000000e+00
3.609754562377929688e+01 3.966076374053955078e+00 8.383925437927246094e+00 1.100000000000000000e+01
1.659391975402832031e+01 1.820260763168334961e+00 -2.913853824138640802e-01 2.000000000000000000e+00
3.605040359497070312e+01 3.954529047012329102e+00 9.717619895935058594e+00 7.000000000000000000e+00
2.133814334869385210e+00 2.310528010129928866e-01 -5.750958919525146484e-01 4.000000000000000000e+00
2.106049776077270952e+00 2.273026853799819946e-01 -4.890435934066771906e-01 1.000000000000000000e+02
3.121176958084106001e+00 3.363126814365386963e-01 -6.102071404457092285e-01 1.300000000000000000e+01
3.747467994689940962e+00 4.024735093116760254e-01 -5.969539284706115723e-01 1.100000000000000000e+01
3.888146972656250000e+01 4.168958187103270596e+00 4.801408290863037109e+00 2.000000000000000000e+01
4.827953338623046875e+00 5.168116688728332520e-01 -5.961848497390747070e-01 9.000000000000000000e+00
6.185020446777343750e+00 6.609879732131958008e-01 -5.442004799842834473e-01 9.000000000000000000e+00
9.189334869384765625e+00 9.788123965263366699e-01 -4.843169450759888250e-01 3.000000000000000000e+00
3.589801025390625000e+01 3.817380905151367188e+00 8.334436416625976562e+00 1.000000000000000000e+01
1.660017204284667969e+01 1.762326002120971902e+00 -2.913853824138640802e-01 2.000000000000000000e+00
3.604736709594727273e+01 3.820538520812987837e+00 9.712961196899414062e+00 1.500000000000000000e+01
2.171113252639770952e+00 2.274269908666610995e-01 -5.849310159683227539e-01 1.200000000000000000e+01
2.099077701568603960e+00 2.191404402256011963e-01 -4.872439801692963202e-01 1.000000000000000000e+02
3.124284505844116211e+00 3.256192207336425781e-01 -6.105887889862060547e-01 1.300000000000000000e+01
3.752779722213745117e+00 3.897981047630310059e-01 -5.975796580314636230e-01 1.100000000000000000e+01
3.893527603149414062e+01 4.037305831909179688e+00 4.806282997131347656e+00 2.000000000000000000e+01
4.821829795837402344e+00 4.991382062435150146e-01 -5.952098965644836426e-01 1.100000000000000000e+01
6.189271926879882812e+00 6.395990252494812012e-01 -5.443747639656066895e-01 9.000000000000000000e+00
9.224483489990234375e+00 9.500034451484680176e-01 -4.859916865825653076e-01 1.000000000000000000e+00
3.583357620239257812e+01 3.684078216552733931e+00 8.316440582275390625e+00 1.000000000000000000e+01
1.667783546447753906e+01 1.711719870567321999e+00 -2.926419377326964777e-01 2.000000000000000000e+00
3.622383499145507812e+01 3.711423397064208984e+00 9.756959915161132812e+00 7.000000000000000000e+00
2.148791551589965820e+00 2.178873866796494085e-01 -5.787193775177001953e-01 7.000000000000000000e+00
5.943717193603516336e+01 6.016447067260742188e+00 1.042781233787537065e+00 6.300000000000000000e+01
2.105609416961669922e+00 2.127661854028702060e-01 -4.885936975479125977e-01 1.000000000000000000e+02
3.131207227706909180e+00 3.158480226993560791e-01 -6.117336153984069824e-01 1.300000000000000000e+01
3.754051685333251953e+00 3.773512840270996094e-01 -5.975796580314636230e-01 1.100000000000000000e+01
4.825433731079101562e+00 4.833435416221619207e-01 -5.954536199569702148e-01 1.100000000000000000e+01
3.629174804687500000e+01 3.635192871093750000e+00 5.776812076568604404e+00 1.300000000000000000e+01
6.201271057128906250e+00 6.200622916221618652e-01 -5.452463030815124512e-01 6.000000000000000000e+00
9.251432418823242188e+00 9.217849969863891602e-01 -4.872477650642395020e-01 1.000000000000000000e+00
3.584559631347656250e+01 3.565229654312133789e+00 8.316440582275390625e+00 1.000000000000000000e+01
1.670331954956055043e+01 1.658380389213562012e+00 -2.929910123348236084e-01 2.000000000000000000e+00
3.652046585083007812e+01 3.619478702545166016e+00 9.833570480346679688e+00 1.500000000000000000e+01
2.120698928833007812e+00 2.075626701116561890e-01 -5.709547996520996094e-01 4.000000000000000000e+00
5.945781326293945312e+01 5.808936119079589844e+00 1.042781233787537065e+00 6.300000000000000000e+01
2.110218286514281782e+00 2.057932466268538874e-01 -4.894934892654418945e-01 1.000000000000000000e+02
3.960549926757813211e+01 3.862417459487915039e+00 2.085483074188231978e+00 2.300000000000000000e+01
3.128382444381713867e+00 3.045357167720795233e-01 -6.109703779220581055e-01 1.300000000000000000e+01
3.765176773071289062e+00 3.651984333992003839e-01 -5.991439819335937500e-01 1.100000000000000000e+01
4.831043243408203125e+00 4.668785929679871161e-01 -5.959410667419433594e-01 1.100000000000000000e+01
6.223229885101318359e+00 6.003251075744628906e-01 -5.469894409179687500e-01 9.000000000000000000e+00
9.397736549377441406e+00 9.032437205314636230e-01 -4.947841167449951172e-01 2.000000000000000000e+00
1.675678062438964844e+01 1.604639768600464089e+00 -2.938287258148192804e-01 2.000000000000000000e+00
3.650979995727539062e+01 3.489770650863647017e+00 9.827359199523925781e+00 7.000000000000000000e+00
2.132950544357299805e+00 2.012475878000259122e-01 -5.740606188774108887e-01 4.000000000000000000e+00
5.947772598266602273e+01 5.601354122161865234e+00 1.042781233787537065e+00 6.300000000000000000e+01
2.118684530258179155e+00 1.991554498672485074e-01 -4.912931025028228760e-01 6.700000000000000000e+01
3.119653224945067915e+00 2.926968038082122803e-01 -6.090623140335083008e-01 1.200000000000000000e+01
3.760528326034545898e+00 3.515017628669738770e-01 -5.982053875923156738e-01 1.100000000000000000e+01
4.852408885955811435e+00 4.518527984619141180e-01 -5.983784794807434082e-01 1.100000000000000000e+01
6.201481342315673828e+00 5.763857364654541016e-01 -5.448976755142211914e-01 8.000000000000000000e+00
9.281507492065429688e+00 8.593855500221252441e-01 -4.885038137435913086e-01 1.000000000000000000e+00
1.678617477416991832e+01 1.548341870307921919e+00 -2.942475676536560059e-01 2.000000000000000000e+00
3.720215606689453125e+01 3.431493997573852983e+00 1.001060295104979936e+01 8.000000000000000000e+00
2.147107601165771040e+00 1.950242519378662109e-01 -5.776841044425964355e-01 6.000000000000000000e+00
5.949691772460938211e+01 5.393703937530517578e+00 1.042781233787537065e+00 6.300000000000000000e+01
3.963150024414063211e+01 3.585827112197875977e+00 2.085483074188231978e+00 2.300000000000000000e+01
3.132387638092041016e+00 2.828648090362548828e-01 -6.113520264625549316e-01 1.300000000000000000e+01
3.749927759170531782e+00 3.373110890388488770e-01 -5.963281989097595215e-01 1.100000000000000000e+01
4.873728275299072266e+00 4.366835355758666992e-01 -6.008158922195434570e-01 1.100000000000000000e+01
6.219331264495849609e+00 5.561546683311462402e-01 -5.462921857833862305e-01 9.000000000000000000e+00
9.328216552734375000e+00 8.308801651000976562e-01 -4.908066093921660822e-01 1.000000000000000000e+00
3.918081283569335938e+01 3.483009099960327148e+00 9.081274032592773438e+00 1.200000000000000000e+01
1.686716842651366832e+01 1.496453046798706055e+00 -2.955739498138427734e-01 2.000000000000000000e+00
2.103511095046997070e+00 1.836634278297424039e-01 -5.657784342765808105e-01 8.000000000000000000e+00
5.951538085937500000e+01 5.185987949371337891e+00 1.042781233787537065e+00 6.300000000000000000e+01
2.104491949081420898e+00 1.830088943243027011e-01 -4.876938760280609131e-01 1.000000000000000000e+00
3.139223575592041016e+00 2.724382579326630194e-01 -6.124968528747558594e-01 1.300000000000000000e+01
3.768794775009154829e+00 3.257502913475037176e-01 -5.991439819335937500e-01 1.000000000000000000e+01
4.861378669738770419e+00 4.184766113758087158e-01 -5.991097092628479004e-01 9.000000000000000000e+00
6.237115383148193359e+00 5.358060002326965332e-01 -5.476866960525512695e-01 8.000000000000000000e+00
9.323100090026855469e+00 7.976325154304504395e-01 -4.903879165649414062e-01 1.000000000000000000e+00
1.687228965759276988e+01 1.437566518783568892e+00 -2.955739498138427734e-01 2.000000000000000000e+00
3.852642059326171875e+01 3.282559633255004883e+00 1.036052608489990057e+01 8.000000000000000000e+00
2.100289106369018999e+00 1.759970486164093018e-01 -5.647431612014770508e-01 1.500000000000000000e+01
5.953312301635742188e+01 4.978209018707275391e+00 1.042781233787537065e+00 6.300000000000000000e+01
2.128421783447266069e+00 1.776063293218612948e-01 -4.930927157402039129e-01 1.000000000000000000e+00
3.134285926818848100e+00 2.609899044036865234e-01 -6.113520264625549316e-01 1.300000000000000000e+01
3.791563510894774947e+00 3.143883347511292059e-01 -6.025855541229248047e-01 1.100000000000000000e+01
4.058943176269531250e+01 3.358455896377563032e+00 5.000786781311035156e+00 2.400000000000000000e+01
4.866766452789306641e+00 4.018313884735106867e-01 -5.995971560478210449e-01 9.000000000000000000e+00
6.238947391510009766e+00 5.140311121940612793e-01 -5.476866960525512695e-01 8.000000000000000000e+00
9.325827598571777344e+00 7.650839686393737793e-01 -4.903879165649414062e-01 1.000000000000000000e+00
1.694496726989746094e+01 1.384198069572448953e+00 -2.967607080936431885e-01 2.000000000000000000e+00
3.853819274902343750e+01 3.141331195831298828e+00 1.036052608489990057e+01 8.000000000000000000e+00
2.087381839752196822e+00 1.679467409849166870e-01 -5.611196756362915039e-01 1.700000000000000000e+01
5.954930114746093750e+01 4.780762672424316406e+00 1.042781233787537065e+00 6.300000000000000000e+01
2.113458871841431108e+00 1.693023741245270053e-01 -4.894934892654418945e-01 1.000000000000000000e+00
3.133177280426024947e+00 2.504383921623229980e-01 -6.109703779220581055e-01 1.200000000000000000e+01
3.784708738327025923e+00 3.011865019798278809e-01 -6.013340950012207031e-01 1.100000000000000000e+01
4.875987529754638672e+00 3.863175213336945135e-01 -6.005721092224121094e-01 9.000000000000000000e+00
6.230687141418457031e+00 4.925541579723358154e-01 -5.468151569366455078e-01 8.000000000000000000e+00
9.312384605407714844e+00 7.329005599021911621e-01 -4.895505309104918878e-01 1.000000000000000000e+00
1.696142578125000000e+01 1.328936100006103960e+00 -2.969701588153839111e-01 2.000000000000000000e+00
3.860950469970703125e+01 3.025073528289794922e+00 1.037709045410156072e+01 8.000000000000000000e+00
2.055210590362548828e+00 1.581398397684097012e-01 -5.523198246955871582e-01 1.600000000000000000e+01
2.104321718215941939e+00 1.611798703670501987e-01 -4.872439801692963202e-01 1.000000000000000000e+00
3.134032487869263139e+00 2.395000308752059937e-01 -6.109703779220581055e-01 2.000000000000000000e+01
3.785737037658690962e+00 2.879735827445983887e-01 -6.013340950012207031e-01 1.200000000000000000e+01
3.957018661499022727e+01 3.003080129623413086e+00 4.872580051422119141e+00 2.100000000000000000e+01
4.893141746520996094e+00 3.704938292503356934e-01 -6.025220155715942383e-01 9.000000000000000000e+00
3.873344802856445312e+01 2.925979852676392046e+00 6.152254581451416016e+00 1.400000000000000000e+01
6.216474533081054688e+00 4.696013629436492920e-01 -5.454206466674804688e-01 6.000000000000000000e+00
9.314886093139648438e+00 7.003898620605468750e-01 -4.895505309104918878e-01 1.000000000000000000e+00
4.388121032714843750e+01 3.291742801666260210e+00 1.015923976898193004e+01 1.300000000000000000e+01
1.704572677612305043e+01 1.275691032409667969e+00 -2.983663380146027166e-01 2.000000000000000000e+00
3.887462997436522727e+01 2.902529001235961914e+00 1.044541931152343928e+01 8.000000000000000000e+00
2.044190168380736861e+00 1.501159369945526123e-01 -5.492140054702758789e-01 1.900000000000000000e+01
2.163178205490111861e+00 1.580947488546370905e-01 -5.007410645484924316e-01 1.000000000000000000e+00
3.148555755615233931e+00 2.295580655336380005e-01 -6.136417388916015625e-01 1.800000000000000000e+01
3.774898052215576172e+00 2.738994061946868896e-01 -5.994568467140197754e-01 1.100000000000000000e+01
4.898365020751953125e+00 3.536972403526306152e-01 -6.030095219612121582e-01 9.000000000000000000e+00
3.874293899536132812e+01 2.797518968582152876e+00 6.152254581451416016e+00 1.400000000000000000e+01
6.247884273529052734e+00 4.500461220741271973e-01 -5.480353236198425293e-01 7.000000000000000000e+00
9.329227447509765625e+00 6.687273383140563965e-01 -4.901785552501677912e-01 1.000000000000000000e+00
1.708996772766112926e+01 1.219028115272521973e+00 -2.990644276142119806e-01 2.000000000000000000e+00
3.885706329345703125e+01 2.771675825119018999e+00 1.043817234039306996e+01 8.000000000000000000e+00
2.108297348022460938e+00 1.474265158176422119e-01 -5.662960410118103027e-01 2.000000000000000000e+01
5.959609985351563211e+01 4.156913280487061435e+00 1.042781233787537065e+00 6.300000000000000000e+01
2.105395793914794922e+00 1.464851200580596924e-01 -4.872439801692963202e-01 1.000000000000000000e+00
3.163047552108765093e+00 2.195176333189010898e-01 -6.163130402565002441e-01 2.000000000000000000e+01
3.775830984115601030e+00 2.607208788394927979e-01 -5.994568467140197754e-01 1.100000000000000000e+01
4.891648292541503906e+00 3.360523879528046209e-01 -6.020345687866210938e-01 9.000000000000000000e+00
6.265319347381591797e+00 4.293238222599030096e-01 -5.494297742843627930e-01 9.000000000000000000e+00
9.343461036682128906e+00 6.369732618331909180e-01 -4.908066093921660822e-01 1.000000000000000000e+00
3.914748382568358664e+01 2.661943435668944868e+00 9.058778762817382812e+00 1.200000000000000000e+01
1.714599227905273082e+01 1.162883758544922097e+00 -2.999719679355620783e-01 2.000000000000000000e+00
3.896333312988281250e+01 2.635758161544799805e+00 1.046405410766601918e+01 9.000000000000000000e+00
2.114582061767578125e+00 1.404503881931304932e-01 -5.678489804267883301e-01 5.600000000000000000e+01
5.961024856567382812e+01 3.948858499526977983e+00 1.042781233787537065e+00 6.300000000000000000e+01
2.129228353500366211e+00 1.406766921281815130e-01 -4.926428198814392090e-01 1.000000000000000000e+00
3.155958652496337891e+00 2.079588472843169888e-01 -6.147865653038024902e-01 1.800000000000000000e+01
3.790516138076781782e+00 2.484435588121413907e-01 -6.016469597816467285e-01 1.700000000000000000e+01
4.884868144989013672e+00 3.184587359428405762e-01 -6.010596156120300293e-01 9.000000000000000000e+00
3.915576171875000000e+01 2.552677869796752930e+00 6.214828491210938388e+00 1.400000000000000000e+01
6.252862453460693359e+00 4.065462946891785223e-01 -5.482096076011657715e-01 6.000000000000000000e+00
9.381503105163574219e+00 6.066746115684509277e-01 -4.926906824111937921e-01 1.000000000000000000e+00
1.716591262817383168e+01 1.104052782058716042e+00 -3.002511858940125067e-01 2.000000000000000000e+00
3.886004257202147727e+01 2.499345064163208008e+00 1.043403053283691051e+01 8.000000000000000000e+00
2.105419158935546875e+00 1.324617564678192139e-01 -5.652607679367065430e-01 6.400000000000000000e+01
5.962366867065429688e+01 3.740755796432495117e+00 1.042781233787537065e+00 6.300000000000000000e+01
2.129706382751464844e+00 1.332434266805649081e-01 -4.926428198814392090e-01 1.000000000000000000e+00
5.950249099731445312e+01 3.712301731109619141e+00 3.124456644058227983e+00 6.300000000000000000e+01
3.150786876678466797e+00 1.965744942426682074e-01 -6.136417388916015625e-01 1.900000000000000000e+01
3.793331861495972124e+00 2.353329807519912997e-01 -6.019598245620727539e-01 2.000000000000000000e+01
4.901800632476806641e+00 3.023832142353057861e-01 -6.030095219612121582e-01 9.000000000000000000e+00
3.913330841064453125e+01 2.407207250595093218e+00 6.209822654724121094e+00 1.400000000000000000e+01
6.278106689453125000e+00 3.861851692199707031e-01 -5.503013730049133301e-01 9.000000000000000000e+00
9.399511337280273438e+00 5.748987793922424316e-01 -4.935280680656433105e-01 1.000000000000000000e+00
3.932461547851563211e+01 2.398307323455810991e+00 9.095670700073242188e+00 1.200000000000000000e+01
1.724950218200683949e+01 1.048981070518494096e+00 -3.016473948955535889e-01 2.000000000000000000e+00
2.105868816375731978e+00 1.251116544008255005e-01 -5.652607679367065430e-01 5.500000000000000000e+01
2.122377157211304155e+00 1.253489851951599121e-01 -4.908432066440582275e-01 1.000000000000000000e+00
5.951508712768554688e+01 3.504576683044434038e+00 3.124456644058227983e+00 6.300000000000000000e+01
3.155373573303223100e+00 1.858058124780654907e-01 -6.144049763679504395e-01 2.000000000000000000e+01
3.800046205520629883e+00 2.224366515874862948e-01 -6.028984189033508301e-01 1.700000000000000000e+01
4.922643661499023438e+00 2.864239811897277832e-01 -6.054468750953674316e-01 9.000000000000000000e+00
6.293339729309082031e+00 3.650758266448975164e-01 -5.515215396881103516e-01 7.000000000000000000e+00
9.425388336181640625e+00 5.434644818305969238e-01 -4.947841167449951172e-01 2.000000000000000000e+00
3.939111328125000000e+01 2.264379262924193892e+00 9.109168052673339844e+00 1.200000000000000000e+01
1.724507331848144887e+01 9.883050322532653809e-01 -3.015077710151671808e-01 2.000000000000000000e+00
4.156127548217772727e+01 2.381852626800537109e+00 1.115458297729492010e+01 1.000000000000000000e+01
2.098577260971068892e+00 1.173286885023117065e-01 -5.631902217864990234e-01 4.800000000000000000e+01
2.103344440460205078e+00 1.168587207794189037e-01 -4.863441884517670233e-01 1.000000000000000000e+00
5.952695846557617188e+01 3.296808958053588867e+00 3.124456644058227983e+00 6.300000000000000000e+01
3.161883831024169922e+00 1.751160621643066129e-01 -6.155498027801513672e-01 2.000000000000000000e+01
3.788965225219727007e+00 2.085193693637847900e-01 -6.010212302207946777e-01 1.700000000000000000e+01
4.901809692382813388e+00 2.680467069149016779e-01 -6.027657985687255859e-01 1.100000000000000000e+01
6.294576168060302734e+00 3.431057631969451904e-01 -5.515215396881103516e-01 9.000000000000000000e+00
9.427227973937988281e+00 5.105604529380798340e-01 -4.947841167449951172e-01 2.000000000000000000e+00
1.740816116333008168e+01 9.366980195045471191e-01 -3.043001592159271240e-01 2.000000000000000000e+00
2.110549211502075195e+00 1.106092035770415982e-01 -5.662960410118103027e-01 3.600000000000000000e+01
2.057032823562622070e+00 1.070845276117324968e-01 -4.755465388298035223e-01 1.000000000000000000e+00
5.953810501098632812e+01 3.089000940322875977e+00 3.124456644058227983e+00 6.300000000000000000e+01
3.172278881072998047e+00 1.645865738391875943e-01 -6.174579262733459473e-01 2.200000000000000000e+01
3.797560930252075195e+00 1.956987977027893066e-01 -6.022726893424987793e-01 1.600000000000000000e+01
4.918575763702392578e+00 2.517463266849517822e-01 -6.047157049179077148e-01 1.100000000000000000e+01
3.918793487548828125e+01 1.998889684677124023e+00 6.214828491210938388e+00 1.400000000000000000e+01
6.303694248199462891e+00 3.215374648571013849e-01 -5.522187948226928711e-01 9.000000000000000000e+00
9.428953170776367188e+00 4.776501655578612726e-01 -4.947841167449951172e-01 2.000000000000000000e+00
1.741132545471191051e+01 8.759264945983886719e-01 -3.043001592159271240e-01 2.000000000000000000e+00
2.112852096557617188e+00 1.033357083797454973e-01 -5.668137073516845703e-01 2.500000000000000000e+01
5.957022094726563211e+01 2.903048038482666016e+00 1.041036009788512962e+00 6.300000000000000000e+01
1.987322092056273970e+00 9.650091081857681274e-02 -4.593500494956970215e-01 2.000000000000000000e+00
3.163029193878173828e+00 1.530378609895705899e-01 -6.155498027801513672e-01 1.800000000000000000e+01
3.798220872879027876e+00 1.824416369199753085e-01 -6.022726893424987793e-01 1.600000000000000000e+01
4.907527446746826172e+00 2.340084761381149014e-01 -6.032532453536987305e-01 1.200000000000000000e+01
4.234777069091796875e+01 2.011885404586791992e+00 6.714793205261229581e+00 1.400000000000000000e+01
6.326670169830322266e+00 3.005715608596801758e-01 -5.541362166404724121e-01 9.000000000000000000e+00
9.430562973022460938e+00 4.447340667247772217e-01 -4.947841167449951172e-01 2.000000000000000000e+00
1.737832260131835938e+01 8.134613037109375000e-01 -3.036718666553496759e-01 2.000000000000000000e+00
2.109340190887451172e+00 9.578457474708557129e-02 -5.657784342765808105e-01 8.000000000000000000e+00
5.948010635375977273e+01 2.690573215484619141e+00 1.039290785789489968e+00 6.300000000000000000e+01
2.007114410400391069e+00 9.044048935174942017e-02 -4.638490676879882812e-01 1.000000000000000000e+00
3.153737783432006836e+00 1.415557414293288907e-01 -6.136417388916015625e-01 1.300000000000000000e+01
3.808701753616333008e+00 1.696216911077499112e-01 -6.038370132446289062e-01 1.600000000000000000e+01
4.906331062316895419e+00 2.167889475822449008e-01 -6.030095219612121582e-01 1.100000000000000000e+01
4.219665908813477273e+01 1.857103586196898970e+00 6.689763545989990234e+00 1.400000000000000000e+01
6.301804542541503906e+00 2.773467004299163818e-01 -5.518701672554016113e-01 9.000000000000000000e+00
9.559761047363281250e+00 4.173881709575653076e-01 -5.014831423759460449e-01 2.000000000000000000e+00
1.745697212219237926e+01 7.560827136039733887e-01 -3.049982488155364990e-01 2.000000000000000000e+00
2.161775827407836914e+00 9.060525894165039062e-02 -5.797546505928039551e-01 1.000000000000000000e+00
5.948913574218750000e+01 2.482932567596435991e+00 1.039290785789489968e+00 6.300000000000000000e+01
2.085300207138061968e+00 8.667080104351043701e-02 -4.818451702594757080e-01 1.000000000000000000e+00
5.956718826293945312e+01 2.465361356735229048e+00 3.124456644058227983e+00 6.300000000000000000e+01
3.171866893768310991e+00 1.312769353389739990e-01 -6.170762777328491211e-01 1.300000000000000000e+01
3.811244487762451172e+00 1.564068049192428866e-01 -6.041498780250549316e-01 1.400000000000000000e+01
4.920942306518554688e+00 2.002262622117995938e-01 -6.047157049179077148e-01 1.100000000000000000e+01
6.310697555541992188e+00 2.556702196598052979e-01 -5.525674223899841309e-01 9.000000000000000000e+00
9.433438301086425781e+00 3.788860142230988104e-01 -4.947841167449951172e-01 2.000000000000000000e+00
1.747948646545410156e+01 6.959374547004699707e-01 -3.053472936153411865e-01 2.000000000000000000e+00
2.192663908004761186e+00 8.423365652561187744e-02 -5.065897703170776367e-01 4.000000000000000000e+00
5.957423782348632812e+01 2.288611412048339844e+00 3.124456644058227983e+00 6.300000000000000000e+01
3.170301675796508789e+00 1.212365776300430020e-01 -6.166946887969970703e-01 1.300000000000000000e+01
3.807769060134888139e+00 1.442830860614776889e-01 -6.035241484642028809e-01 1.600000000000000000e+01
4.937416553497313565e+00 1.853614896535873136e-01 -6.066656112670898438e-01 1.100000000000000000e+01
6.315451622009277344e+00 2.359921485185622891e-01 -5.529160499572753906e-01 9.000000000000000000e+00
9.454540252685546875e+00 3.499870002269744873e-01 -4.958308637142180841e-01 2.000000000000000000e+00
1.752155303955078125e+01 6.424862146377563477e-01 -3.060454130172728937e-01 2.000000000000000000e+00
2.085103273391724077e+00 7.354214787483215332e-02 -5.590491294860839844e-01 1.000000000000000000e+00
2.183207035064696822e+00 7.623926550149917603e-02 -5.043402910232543945e-01 5.100000000000000000e+01
3.172667741775513139e+00 1.102375909686088978e-01 -6.170762777328491211e-01 1.300000000000000000e+01
3.814172029495238814e+00 1.311943233013153076e-01 -6.044628024101257324e-01 1.100000000000000000e+01
4.914226055145263672e+00 1.673149913549422940e-01 -6.037407517433166504e-01 1.100000000000000000e+01
6.336149215698242188e+00 2.146201580762862882e-01 -5.546591281890869141e-01 9.000000000000000000e+00
9.407796859741210938e+00 3.153763711452484131e-01 -4.933187365531920832e-01 3.000000000000000000e+00
1.754767227172851918e+01 5.821162462234497070e-01 -3.064642548561096191e-01 2.000000000000000000e+00
2.083427906036376953e+00 6.583834439516067505e-02 -5.585315227508544922e-01 2.500000000000000000e+01
2.304234504699707031e+00 7.201092690229415894e-02 -5.322341918945312500e-01 2.500000000000000000e+01
3.169125795364379883e+00 9.848647564649581909e-02 -6.163130402565002441e-01 1.300000000000000000e+01
3.816601753234862837e+00 1.172744780778885026e-01 -6.047756671905517578e-01 1.000000000000000000e+01
4.916790485382080078e+00 1.493625938892365057e-01 -6.039844751358032227e-01 1.100000000000000000e+01
6.344859123229979581e+00 1.916361600160599032e-01 -5.553563833236694336e-01 9.000000000000000000e+00
9.456803321838378906e+00 2.823233306407927912e-01 -4.958308637142180841e-01 2.000000000000000000e+00
1.762564468383789062e+01 5.200379490852355957e-01 -3.077906370162963867e-01 3.000000000000000000e+00
2.097162723541260210e+00 5.894536897540091774e-02 -5.621549487113952637e-01 5.400000000000000000e+01
5.959523010253906250e+01 1.654236078262329102e+00 3.124456644058227983e+00 6.300000000000000000e+01
3.167487859725952148e+00 8.736943453550338745e-02 -6.159314513206481934e-01 1.200000000000000000e+01
3.832785129547119141e+00 1.043815538287163058e-01 -6.072785854339599609e-01 1.000000000000000000e+01
4.915297508239746094e+00 1.321455389261246005e-01 -6.037407517433166504e-01 1.100000000000000000e+01
6.349472999572753906e+00 1.695937067270278931e-01 -5.557050108909606934e-01 7.000000000000000000e+00
9.477696418762207031e+00 2.498375326395035068e-01 -4.968775808811187744e-01 2.000000000000000000e+00
1.764334297180176137e+01 4.589257836341857910e-01 -3.080698847770690918e-01 3.000000000000000000e+00
2.159156084060668945e+00 5.314571037888526917e-02 -5.787193775177001953e-01 7.200000000000000000e+01
2.478068113327025923e+00 6.012991815805435181e-02 -5.722754597663879395e-01 2.000000000000000000e+00
3.157960176467895952e+00 7.607589662075042725e-02 -6.140233278274536133e-01 1.300000000000000000e+01
3.815352678298950195e+00 9.058004617691040039e-02 -6.044628024101257324e-01 1.100000000000000000e+01
4.939543724060058594e+00 1.155442073941231051e-01 -6.066656112670898438e-01 1.100000000000000000e+01
6.367952823638916016e+00 1.478450745344161987e-01 -5.572738051414489746e-01 9.000000000000000000e+00
9.506464958190917969e+00 2.173919230699538907e-01 -4.983429610729218084e-01 2.000000000000000000e+00
1.769681739807128906e+01 3.985067009925841730e-01 -3.089773952960968018e-01 3.000000000000000000e+00
2.331224918365478960e+00 4.923925921320915222e-02 -6.247891783714294434e-01 5.200000000000000000e+01
2.478262901306151900e+00 5.147947743535041809e-02 -5.722754597663879395e-01 5.000000000000000000e+00
3.171946287155150923e+00 6.533510982990264893e-02 -6.166946887969970703e-01 1.300000000000000000e+01
3.811695575714110884e+00 7.718145102262496948e-02 -6.038370132446289062e-01 1.200000000000000000e+01
4.922054290771484375e+00 9.794583171606063843e-02 -6.044719219207763672e-01 9.000000000000000000e+00
6.356478214263916016e+00 1.253801137208938876e-01 -5.562279224395751953e-01 7.000000000000000000e+00
9.479209899902343750e+00 1.836651712656021118e-01 -4.968775808811187744e-01 2.000000000000000000e+00
1.779006958007812855e+01 3.384807109832764227e-01 -3.105830252170562744e-01 3.000000000000000000e+00
2.356485605239868164e+00 4.195543378591536782e-02 -6.315184831619262695e-01 5.200000000000000000e+01
2.437502622604370117e+00 4.254676774144172668e-02 -5.628275275230407715e-01 7.000000000000000000e+00
3.181960344314575195e+00 5.498579889535903931e-02 -6.186027526855468750e-01 1.200000000000000000e+01
3.821806192398070845e+00 6.470818817615509033e-02 -6.054013967514038086e-01 1.300000000000000000e+01
4.924336910247802734e+00 8.165608346462249756e-02 -6.047157049179077148e-01 1.100000000000000000e+01
6.372796058654785156e+00 1.045620739459991039e-01 -5.576224327087402344e-01 7.000000000000000000e+00
9.511718750000000000e+00 1.527430713176727017e-01 -4.985523223876953125e-01 4.000000000000000000e+00
1.783108329772948863e+01 2.801130414009094238e-01 -3.112811148166655939e-01 3.000000000000000000e+00
2.360481023788452148e+00 3.378480300307273865e-02 -6.325537562370300293e-01 4.600000000000000000e+01
2.455173254013061968e+00 3.428291156888008118e-02 -5.668766498565673828e-01 7.000000000000000000e+00
5.956044769287108664e+01 8.316748142242431641e-01 3.121735095977783203e+00 6.300000000000000000e+01
3.184095859527587891e+00 4.390541836619377136e-02 -6.189844012260437012e-01 1.200000000000000000e+01
3.845710992813109907e+00 5.168575793504714966e-02 -6.091558337211608887e-01 1.000000000000000000e+01
4.916652202606201172e+00 6.436250358819961548e-02 -6.037407517433166504e-01 1.100000000000000000e+01
6.393044471740722656e+00 8.257354795932769775e-02 -5.593655705451965332e-01 7.000000000000000000e+00
9.520182609558105469e+00 1.196404397487639965e-01 -4.989710152149199884e-01 4.000000000000000000e+00
1.783195304870605113e+01 2.178692370653151911e-01 -3.112811148166655939e-01 3.000000000000000000e+00
2.356720924377440962e+00 2.550317160785197865e-02 -6.315184831619262695e-01 4.700000000000000000e+01
2.486456155776977983e+00 2.603905834257603039e-02 -5.740751028060913086e-01 5.000000000000000000e+00
3.172450780868529829e+00 3.266928344964981079e-02 -6.166946887969970703e-01 1.300000000000000000e+01
3.837966918945312944e+00 3.818280249834060669e-02 -6.079043149948120117e-01 1.100000000000000000e+01
4.924787044525145596e+00 4.727601632475852966e-02 -6.047157049179077148e-01 1.100000000000000000e+01
6.385324478149414062e+00 6.018204614520072937e-02 -5.586683154106140137e-01 7.000000000000000000e+00
9.564479827880859375e+00 8.680684864521026611e-02 -5.012738108634948730e-01 4.000000000000000000e+00
1.788059616088866832e+01 1.560415923595427912e-01 -3.121188282966613770e-01 3.000000000000000000e+00
2.351000308990478960e+00 1.723404042422771107e-02 -6.299655437469482422e-01 5.900000000000000000e+01
2.515762090682982954e+00 1.756361871957778931e-02 -5.808236002922058105e-01 1.000000000000000000e+00
5.961672973632813211e+01 4.162100553512573242e-01 3.124456644058227983e+00 6.300000000000000000e+01
3.188251256942749023e+00 2.170207351446152080e-02 -6.197476387023925781e-01 1.300000000000000000e+01
3.855854988098144975e+00 2.490037120878696095e-02 -6.107201576232910156e-01 1.100000000000000000e+01
4.934847354888916016e+00 3.014564141631126057e-02 -6.059343814849853516e-01 9.000000000000000000e+00
6.397449493408203125e+00 3.796367719769477844e-02 -5.597141981124877930e-01 9.000000000000000000e+00
9.532769203186035156e+00 5.324157699942588806e-02 -4.995990395545958918e-01 4.000000000000000000e+00
1.793302154541015980e+01 9.389794617891311646e-02 -3.130263686180114746e-01 3.000000000000000000e+00
2.345250606536864790e+00 9.005160070955753326e-03 -6.284126639366149902e-01 5.200000000000000000e+01
2.476833581924438032e+00 8.645815774798393250e-03 -5.718255639076232910e-01 1.000000000000000000e+00
3.186344385147095171e+00 1.056635659188031977e-02 -6.193659901618957520e-01 1.300000000000000000e+01
3.830238580703734907e+00 1.136458013206720005e-02 -6.066528558731079102e-01 1.000000000000000000e+01
4.940877914428710938e+00 1.293521746993065054e-02 -6.066656112670898438e-01 1.100000000000000000e+01
6.411489963531494141e+00 1.566625572741031994e-02 -5.609343647956848145e-01 9.000000000000000000e+00
9.564852714538574219e+00 2.003261074423789978e-02 -5.012738108634948730e-01 4.000000000000000000e+00
2.356858968734741211e+00 8.226989884860813618e-04 -6.315184831619262695e-01 4.400000000000000000e+01
4.046047210693358664e+01 -7.061684969812631607e-03 2.120443582534790039e+00 2.400000000000000000e+01
3.192251443862915039e+00 -5.571530200541019440e-04 -6.205108761787414551e-01 1.400000000000000000e+01
