6.334855556488037109e+00 5.261166572570800781e+00 -4.315623044967650812e-01 2.000000000000000000e+00
1.035604095458984020e+01 8.594697952270507812e+00 -2.349093854427337924e-01 2.000000000000000000e+00
1.727918982505797896e+00 1.429966926574707031e+00 -6.009778380393981934e-01 1.800000000000000000e+01
1.968790173530579057e+00 1.628146171569823997e+00 -5.898216366767883301e-01 1.400000000000000000e+01
2.284856796264647993e+00 1.888854980468750000e+00 -5.762431621551513672e-01 1.100000000000000000e+01
2.721480607986450195e+00 2.248206138610839844e+00 -5.590967535972595215e-01 1.000000000000000000e+01
3.375555515289307085e+00 2.786553382873535156e+00 -5.374438166618347168e-01 9.000000000000000000e+00
4.394998550415039062e+00 3.626824140548706055e+00 -4.985308349132537842e-01 9.000000000000000000e+00
6.334691047668457031e+00 5.223773479461669922e+00 -4.303062260150908869e-01 2.000000000000000000e+00
3.624959564208983664e+01 2.988185882568359020e+01 1.084578990936278942e+01 1.300000000000000000e+01
1.038597869873047053e+01 8.558496475219726562e+00 -2.349093854427337924e-01 2.000000000000000000e+00
3.633942794799804688e+01 2.993461608886719105e+01 1.261535835266112926e+01 1.400000000000000000e+01
1.735885143280029075e+00 1.426379680633544922e+00 -6.020131111145019531e-01 1.700000000000000000e+01
1.977473616600037065e+00 1.623737215995789018e+00 -5.907214879989624023e-01 1.400000000000000000e+01
2.297506332397460938e+00 1.885850191116333008e+00 -5.777696371078491211e-01 1.400000000000000000e+01
2.730839014053345171e+00 2.239945411682128906e+00 -5.594096183776855469e-01 1.100000000000000000e+01
3.385261774063109907e+00 2.774753570556641069e+00 -5.374438166618347168e-01 9.000000000000000000e+00
4.396843910217285156e+00 3.602621316909790039e+00 -4.973106682300568182e-01 9.000000000000000000e+00
6.355977535247802734e+00 5.204160213470458984e+00 -4.305155873298645020e-01 2.000000000000000000e+00
1.040031337738036932e+01 8.509527206420898438e+00 -2.345603406429291049e-01 2.000000000000000000e+00
1.737859845161437988e+00 1.417869091033935991e+00 -6.009778380393981934e-01 1.900000000000000000e+01
1.992191672325134055e+00 1.624212980270385964e+00 -5.934208631515502930e-01 1.100000000000000000e+01
2.302553176879882812e+00 1.876578688621520996e+00 -5.773880481719970703e-01 1.400000000000000000e+01
2.749362945556641069e+00 2.239131450653076172e+00 -5.615997314453125000e-01 1.000000000000000000e+01
3.450633621215820312e+01 2.809257507324219105e+01 5.463402748107910156e+00 3.600000000000000000e+01
3.394926786422729048e+00 2.762919902801514116e+00 -5.374438166618347168e-01 9.000000000000000000e+00
4.424848079681395596e+00 3.599825143814086914e+00 -4.990537762641906738e-01 1.100000000000000000e+01
6.405099391937255859e+00 5.207139968872070312e+00 -4.326090216636658270e-01 2.000000000000000000e+00
1.042995452880859020e+01 8.473171234130859375e+00 -2.345603406429291049e-01 2.000000000000000000e+00
3.639156341552733664e+01 2.955353546142578125e+01 1.256152343750000000e+01 1.400000000000000000e+01
1.736794114112854004e+00 1.406930088996886985e+00 -5.989072918891906738e-01 1.800000000000000000e+01
1.997849106788635032e+00 1.617249011993407981e+00 -5.934208631515502930e-01 1.200000000000000000e+01
2.309089660644530806e+00 1.868529796600342019e+00 -5.773880481719970703e-01 1.300000000000000000e+01
2.757162094116210938e+00 2.229520559310913086e+00 -5.615997314453125000e-01 1.000000000000000000e+01
3.401462554931641069e+00 2.748557329177856001e+00 -5.369563102722167969e-01 9.000000000000000000e+00
4.431187152862548828e+00 3.579349756240845171e+00 -4.983565509319304865e-01 1.100000000000000000e+01
6.401479244232177734e+00 5.167187213897705078e+00 -4.311436116695404053e-01 2.000000000000000000e+00
1.045946788787841975e+01 8.436712265014648438e+00 -2.345603406429291049e-01 2.000000000000000000e+00
1.747716069221497026e+00 1.405702114105225053e+00 -6.009778380393981934e-01 2.000000000000000000e+01
2.003482103347777876e+00 1.610265374183655007e+00 -5.934208631515502930e-01 1.100000000000000000e+01
2.317128419876099077e+00 1.861687898635864036e+00 -5.777696371078491211e-01 1.300000000000000000e+01
2.754145383834838867e+00 2.211225748062133789e+00 -5.594096183776855469e-01 1.000000000000000000e+01
3.485643386840820312e+01 2.797524452209473012e+01 5.487776756286621094e+00 3.700000000000000000e+01
3.421874523162841797e+00 2.745362997055054155e+00 -5.386624932289123535e-01 1.000000000000000000e+01
4.460751533508300781e+00 3.577572107315063032e+00 -5.002739429473876953e-01 9.000000000000000000e+00
6.438179016113281250e+00 5.159799098968505859e+00 -4.323996603488922119e-01 2.000000000000000000e+00
1.052943515777588068e+01 8.432651519775390625e+00 -2.354678660631180087e-01 2.000000000000000000e+00
1.752612233161926047e+00 1.399592876434325950e+00 -6.009778380393981934e-01 2.000000000000000000e+01
1.996905326843261941e+00 1.593538045883178933e+00 -5.898216366767883301e-01 1.200000000000000000e+01
2.325147628784180132e+00 1.854812502861022949e+00 -5.781512856483459473e-01 1.400000000000000000e+01
2.763391971588135210e+00 2.202829837799071822e+00 -5.597225427627563477e-01 1.000000000000000000e+01
3.428331375122069868e+00 2.730927944183350053e+00 -5.381750464439392090e-01 1.000000000000000000e+01
4.466978073120117188e+00 3.557014942169189009e+00 -4.995767176151276190e-01 9.000000000000000000e+00
6.434270858764648438e+00 5.119884014129638672e+00 -4.309342503547667902e-01 2.000000000000000000e+00
1.054941558837890980e+01 8.388378143310546875e+00 -2.352584451436995905e-01 2.000000000000000000e+00
3.766471862792968750e+01 2.994913864135741832e+01 1.289384746551514027e+01 1.400000000000000000e+01
1.766569614410399947e+00 1.400667905807494895e+00 -6.040836572647094727e-01 2.000000000000000000e+01
2.011620283126831055e+00 1.593819022178649902e+00 -5.925210714340209961e-01 1.200000000000000000e+01
2.326990842819213867e+00 1.843028187751770020e+00 -5.770063996315002441e-01 1.400000000000000000e+01
2.778809070587158203e+00 2.199300050735474077e+00 -5.612868666648864746e-01 9.000000000000000000e+00
3.428501367568970171e+00 2.711555719375609907e+00 -5.367125868797302246e-01 1.000000000000000000e+01
4.463737487792968750e+00 3.529044151306151900e+00 -4.978336095809937079e-01 1.300000000000000000e+01
6.474043846130371094e+00 5.114726543426513672e+00 -4.323996603488922119e-01 1.000000000000000000e+00
1.053468513488770064e+01 8.316807746887207031e+00 -2.342811077833175937e-01 2.000000000000000000e+00
1.760580539703368919e+00 1.386435627937316895e+00 -6.004601716995239258e-01 1.900000000000000000e+01
2.016894340515137163e+00 1.587139368057250977e+00 -5.925210714340209961e-01 1.200000000000000000e+01
2.331546783447266069e+00 1.834087610244750977e+00 -5.766248106956481934e-01 1.400000000000000000e+01
2.790745973587036133e+00 2.193735361099243164e+00 -5.622254610061645508e-01 1.000000000000000000e+01
3.442157506942749023e+00 2.703850269317626953e+00 -5.374438166618347168e-01 1.000000000000000000e+01
4.461312770843505859e+00 3.503148078918457031e+00 -4.962647855281829834e-01 1.100000000000000000e+01
6.478399276733398438e+00 5.083366394042968750e+00 -4.315623044967650812e-01 2.000000000000000000e+00
1.062200450897216975e+01 8.328715324401855469e+00 -2.356074899435043057e-01 2.000000000000000000e+00
1.757799863815308061e+00 1.374332189559936968e+00 -5.978720188140869141e-01 1.800000000000000000e+01
2.031635999679564986e+00 1.587288022041321023e+00 -5.952205061912536621e-01 1.200000000000000000e+01
2.339482069015502930e+00 1.827146172523498979e+00 -5.770063996315002441e-01 1.400000000000000000e+01
2.796829223632812944e+00 2.182765245437622070e+00 -5.619125962257385254e-01 9.000000000000000000e+00
3.456270694732666016e+00 2.695480585098267046e+00 -5.381750464439392090e-01 1.000000000000000000e+01
4.465657234191895419e+00 3.481428861618041992e+00 -4.953932464122772217e-01 1.100000000000000000e+01
6.518161773681640625e+00 5.077905654907226562e+00 -4.330277144908905029e-01 2.000000000000000000e+00
1.064470100402832031e+01 8.286673545837402344e+00 -2.354678660631180087e-01 2.000000000000000000e+00
1.773028492927551047e+00 1.376789450645446999e+00 -6.014954447746276855e-01 1.600000000000000000e+01
2.035348892211914062e+00 1.579347491264343040e+00 -5.947706103324890137e-01 1.200000000000000000e+01
2.351733207702637163e+00 1.824191331863403098e+00 -5.785328745841979980e-01 1.300000000000000000e+01
2.797807216644287109e+00 2.168637990951538086e+00 -5.606611371040344238e-01 1.000000000000000000e+01
3.466759681701660156e+00 2.685220003128052202e+00 -5.384187698364257812e-01 1.000000000000000000e+01
4.481903553009033203e+00 3.470260381698607954e+00 -4.959161877632141113e-01 1.100000000000000000e+01
6.525487422943115234e+00 5.048929691314697266e+00 -4.323996603488922119e-01 1.000000000000000000e+00
1.066579437255859020e+01 8.246436119079589844e+00 -2.353282421827316007e-01 2.000000000000000000e+00
1.777823567390441895e+00 1.370591998100280984e+00 -6.014954447746276855e-01 1.900000000000000000e+01
2.036218166351317915e+00 1.568665385246277078e+00 -5.934208631515502930e-01 1.100000000000000000e+01
2.364308357238769975e+00 1.820762634277343972e+00 -5.800593495368957520e-01 1.300000000000000000e+01
2.808490991592406782e+00 2.161267995834351030e+00 -5.612868666648864746e-01 9.000000000000000000e+00
3.474538087844849077e+00 2.671892404556273970e+00 -5.381750464439392090e-01 1.000000000000000000e+01
4.514524459838867188e+00 3.470380067825316939e+00 -4.981822371482849121e-01 9.000000000000000000e+00
6.530400276184082031e+00 5.016386985778808594e+00 -4.315623044967650812e-01 1.000000000000000000e+00
1.071354961395264027e+01 8.223767280578613281e+00 -2.357470989227294922e-01 2.000000000000000000e+00
1.790028214454651101e+00 1.370561122894287109e+00 -6.040836572647094727e-01 1.900000000000000000e+01
2.041409015655518022e+00 1.561904430389404075e+00 -5.934208631515502930e-01 1.200000000000000000e+01
2.365654945373535156e+00 1.809334158897399902e+00 -5.789144635200500488e-01 1.200000000000000000e+01
2.820351123809814009e+00 2.155541419982910156e+00 -5.622254610061645508e-01 1.000000000000000000e+01
3.583080291748046875e+01 2.737490463256835938e+01 5.536524295806884766e+00 3.800000000000000000e+01
3.481801748275756836e+00 2.659150838851929155e+00 -5.379312634468078613e-01 9.000000000000000000e+00
4.551345825195313388e+00 3.474734783172606978e+00 -5.009711980819702148e-01 9.000000000000000000e+00
6.581933498382568359e+00 5.021355152130126953e+00 -4.338650703430175781e-01 2.000000000000000000e+00
1.072803974151610973e+01 8.178495407104492188e+00 -2.354678660631180087e-01 2.000000000000000000e+00
3.594239425659179688e+01 2.740059852600098012e+01 1.211014270782471058e+01 1.200000000000000000e+01
1.791725516319274902e+00 1.361966252326965110e+00 -6.030483841896057129e-01 1.800000000000000000e+01
2.043744802474976030e+00 1.552411556243896040e+00 -5.925210714340209961e-01 1.100000000000000000e+01
2.368829250335692915e+00 1.798690915107727051e+00 -5.781512856483459473e-01 1.200000000000000000e+01
2.832579135894774947e+00 2.149265527725220171e+00 -5.631640553474426270e-01 9.000000000000000000e+00
3.484735488891602007e+00 2.642183542251586914e+00 -5.369563102722167969e-01 9.000000000000000000e+00
4.522163391113281250e+00 3.427535533905028853e+00 -4.964390993118286133e-01 9.000000000000000000e+00
6.596237182617188388e+00 4.995937824249267578e+00 -4.336557388305664062e-01 2.000000000000000000e+00
1.076927852630615057e+01 8.150651931762695312e+00 -2.357470989227294922e-01 2.000000000000000000e+00
1.791842699050903098e+00 1.352212667465209961e+00 -6.014954447746276855e-01 1.900000000000000000e+01
2.055375099182128906e+00 1.549961328506469949e+00 -5.943207144737243652e-01 1.100000000000000000e+01
2.365687131881713867e+00 1.783320546150207964e+00 -5.758615732192993164e-01 1.000000000000000000e+01
2.838486433029174805e+00 2.138176202774047852e+00 -5.628511905670166016e-01 1.000000000000000000e+01
3.633819580078125000e+01 2.736291313171387074e+01 5.585271835327148438e+00 3.900000000000000000e+01
3.505038976669311968e+00 2.638360023498535156e+00 -5.386624932289123535e-01 7.000000000000000000e+00
4.585045337677001953e+00 3.450063467025756836e+00 -5.020170807838439941e-01 9.000000000000000000e+00
6.623214244842529297e+00 4.980083942413330078e+00 -4.342837631702423096e-01 2.000000000000000000e+00
1.079126930236816051e+01 8.108205795288085938e+00 -2.356074899435043057e-01 2.000000000000000000e+00
3.662086105346679688e+01 2.751571464538573863e+01 1.227371692657471058e+01 1.300000000000000000e+01
1.796551823616028054e+00 1.345949649810791016e+00 -6.014954447746276855e-01 1.900000000000000000e+01
2.063892841339110884e+00 1.545113086700439009e+00 -5.952205061912536621e-01 1.100000000000000000e+01
2.379756689071654829e+00 1.780933380126952903e+00 -5.777696371078491211e-01 1.100000000000000000e+01
2.838022947311400923e+00 2.122339963912963867e+00 -5.612868666648864746e-01 1.000000000000000000e+01
3.518997669219971147e+00 2.629673957824707031e+00 -5.393937230110168457e-01 9.000000000000000000e+00
4.609829902648925781e+00 3.443576574325561968e+00 -5.034115910530090332e-01 9.000000000000000000e+00
6.630954265594482422e+00 4.949766159057617188e+00 -4.336557388305664062e-01 1.000000000000000000e+00
1.081950664520264027e+01 8.070487976074218750e+00 -2.356074899435043057e-01 2.000000000000000000e+00
3.217445373535156250e+01 2.399083328247069957e+01 1.075393104553223012e+01 9.000000000000000000e+00
1.799689054489135964e+00 1.338517427444458008e+00 -6.009778380393981934e-01 1.700000000000000000e+01
2.058325290679932085e+00 1.529762268066406028e+00 -5.920711755752563477e-01 1.300000000000000000e+01
2.393838644027709961e+00 1.778469800949096902e+00 -5.796777009963989258e-01 1.000000000000000000e+01
2.848586082458496094e+00 2.114775419235229048e+00 -5.619125962257385254e-01 1.000000000000000000e+01
3.528155565261840820e+00 2.617374420166016069e+00 -5.393937230110168457e-01 9.000000000000000000e+00
4.601017475128173828e+00 3.412035942077637163e+00 -5.011455416679382324e-01 9.000000000000000000e+00
6.632144927978515625e+00 4.914698123931884766e+00 -4.326090216636658270e-01 1.000000000000000000e+00
3.148243904113769887e+01 2.332129859924316051e+01 9.045282363891601562e+00 1.200000000000000000e+01
1.087975215911865057e+01 8.056471824645996094e+00 -2.363055795431137085e-01 2.000000000000000000e+00
3.219794082641602273e+01 2.384262084960937855e+01 1.073529624938965021e+01 9.000000000000000000e+00
1.813675165176392046e+00 1.339112162590027078e+00 -6.040836572647094727e-01 1.800000000000000000e+01
2.065220832824707031e+00 1.523725032806396040e+00 -5.925210714340209961e-01 1.100000000000000000e+01
2.396872043609619141e+00 1.767772197723388894e+00 -5.789144635200500488e-01 1.200000000000000000e+01
2.854360580444335938e+00 2.103647232055664062e+00 -5.615997314453125000e-01 1.000000000000000000e+01
3.530876874923706055e+00 2.600334405899047852e+00 -5.384187698364257812e-01 9.000000000000000000e+00
4.633758068084716797e+00 3.411310434341431108e+00 -5.034115910530090332e-01 8.000000000000000000e+00
6.665348529815673828e+00 4.903352737426757812e+00 -4.336557388305664062e-01 2.000000000000000000e+00
3.152283477783203125e+01 2.318124580383301137e+01 9.033584594726562500e+00 1.200000000000000000e+01
1.088847446441650035e+01 8.004232406616210938e+00 -2.358867228031157892e-01 2.000000000000000000e+00
3.228097152709960938e+01 2.373008346557616832e+01 1.073529624938965021e+01 9.000000000000000000e+00
1.805873513221740945e+00 1.323636651039123979e+00 -5.999425649642944336e-01 1.700000000000000000e+01
2.070526838302611861e+00 1.516506791114806907e+00 -5.925210714340209961e-01 1.100000000000000000e+01
2.398275852203369141e+00 1.755915522575377974e+00 -5.777696371078491211e-01 1.200000000000000000e+01
2.872846126556396040e+00 2.101835489273070845e+00 -5.637897849082946777e-01 1.100000000000000000e+01
3.546342134475708008e+00 2.592679738998413086e+00 -5.393937230110168457e-01 9.000000000000000000e+00
4.589336395263671875e+00 3.353968858718872070e+00 -4.973106682300568182e-01 9.000000000000000000e+00
6.682423591613770419e+00 4.880056858062744141e+00 -4.336557388305664062e-01 2.000000000000000000e+00
3.156893348693848012e+01 2.304579162597655895e+01 9.023686408996582031e+00 1.200000000000000000e+01
1.090988636016846058e+01 7.961461067199707031e+00 -2.357470989227294922e-01 2.000000000000000000e+00
3.234800338745117188e+01 2.360586929321289062e+01 1.073011970520020064e+01 9.000000000000000000e+00
1.808920741081238015e+00 1.316188335418700950e+00 -5.994248986244201660e-01 1.900000000000000000e+01
2.088417291641234907e+00 1.518437981605530007e+00 -5.961202979087829590e-01 1.100000000000000000e+01
2.401214361190795898e+00 1.745224714279175027e+00 -5.770063996315002441e-01 1.100000000000000000e+01
2.873772144317626953e+00 2.087151288986206055e+00 -5.625383257865905762e-01 1.200000000000000000e+01
3.664957427978516336e+01 2.660793304443359020e+01 5.560898303985595703e+00 3.800000000000000000e+01
3.560190439224243164e+00 2.583782672882080078e+00 -5.401249527931213379e-01 1.000000000000000000e+01
4.625206470489501953e+00 3.355478286743164062e+00 -4.999253451824188232e-01 9.000000000000000000e+00
6.689715385437011719e+00 4.849667549133300781e+00 -4.330277144908905029e-01 2.000000000000000000e+00
3.172808456420898082e+01 2.299263000488280895e+01 9.046181678771972656e+00 1.200000000000000000e+01
1.093761062622069957e+01 7.923329830169677734e+00 -2.357470989227294922e-01 2.000000000000000000e+00
3.184911346435546875e+01 2.306338500976562855e+01 1.053652286529541016e+01 9.000000000000000000e+00
1.818431377410888894e+00 1.312942028045654075e+00 -6.009778380393981934e-01 2.000000000000000000e+01
2.087647199630736861e+00 1.506212592124938965e+00 -5.943207144737243652e-01 1.100000000000000000e+01
2.415556430816649947e+00 1.742154240608215110e+00 -5.789144635200500488e-01 1.200000000000000000e+01
2.879800081253052202e+00 2.075449466705321822e+00 -5.622254610061645508e-01 1.300000000000000000e+01
3.569636583328247070e+00 2.570716619491577148e+00 -5.401249527931213379e-01 1.000000000000000000e+01
4.703769683837890625e+00 3.386229753494263139e+00 -5.070720911026000977e-01 9.000000000000000000e+00
6.739871978759765625e+00 4.848442554473876953e+00 -4.351211488246917725e-01 2.000000000000000000e+00
3.197668647766112926e+01 2.299451065063476918e+01 9.092971801757812500e+00 1.200000000000000000e+01
1.099255752563476918e+01 7.901863098144531250e+00 -2.363055795431137085e-01 2.000000000000000000e+00
3.189491653442383168e+01 2.292726325988769887e+01 1.052513504028319957e+01 9.000000000000000000e+00
1.833994746208190918e+00 1.314464330673217995e+00 -6.046012639999389648e-01 1.900000000000000000e+01
2.083386182785034180e+00 1.492108106613158958e+00 -5.916212797164916992e-01 1.100000000000000000e+01
2.426411867141724077e+00 1.737140297889709029e+00 -5.800593495368957520e-01 1.200000000000000000e+01
2.883813858032227007e+00 2.063085794448852983e+00 -5.615997314453125000e-01 1.300000000000000000e+01
3.576973438262939009e+00 2.557086229324340820e+00 -5.398811697959899902e-01 1.000000000000000000e+01
3.160364913940430043e+01 2.258430099487305043e+01 6.152254581451416016e+00 1.400000000000000000e+01
4.715561389923095703e+00 3.369789838790893999e+00 -5.070720911026000977e-01 6.000000000000000000e+00
6.740500926971436435e+00 4.813279628753662109e+00 -4.340744316577910822e-01 2.000000000000000000e+00
1.100379562377930043e+01 7.851829051971436435e+00 -2.359565347433089932e-01 2.000000000000000000e+00
1.838343620300292969e+00 1.308375358581542969e+00 -6.046012639999389648e-01 2.100000000000000000e+01
2.091498851776123047e+00 1.487449884414673074e+00 -5.925210714340209961e-01 1.400000000000000000e+01
2.422558546066284180e+00 1.722259163856505904e+00 -5.777696371078491211e-01 1.200000000000000000e+01
2.897081136703491211e+00 2.058087348937987837e+00 -5.628511905670166016e-01 1.300000000000000000e+01
3.574102401733397993e+00 2.537166833877563032e+00 -5.381750464439392090e-01 1.000000000000000000e+01
3.151336669921875000e+01 2.237055969238280895e+01 6.120967864990234375e+00 1.400000000000000000e+01
4.739708900451660156e+00 3.363358020782471147e+00 -5.084666013717651367e-01 9.000000000000000000e+00
3.160956382751464844e+01 2.242225837707519887e+01 7.533139228820800781e+00 6.300000000000000000e+01
6.749908447265625000e+00 4.786279678344726562e+00 -4.336557388305664062e-01 1.000000000000000000e+00
3.240591812133789062e+01 2.297015190124512074e+01 9.170354843139648438e+00 1.200000000000000000e+01
1.107872104644775035e+01 7.849978923797607422e+00 -2.370036840438843051e-01 2.000000000000000000e+00
1.835010409355164018e+00 1.296376943588257058e+00 -6.020131111145019531e-01 2.000000000000000000e+01
2.095086336135863814e+00 1.479016304016113059e+00 -5.920711755752563477e-01 1.300000000000000000e+01
2.430159568786621094e+00 1.714924335479736106e+00 -5.781512856483459473e-01 1.200000000000000000e+01
2.909090518951416016e+00 2.051377296447753906e+00 -5.637897849082946777e-01 1.100000000000000000e+01
3.251991653442382812e+01 2.292328071594237926e+01 4.885254383087158203e+00 2.100000000000000000e+01
3.591050624847412109e+00 2.530392646789550781e+00 -5.393937230110168457e-01 1.000000000000000000e+01
4.759564399719238281e+00 3.352529764175415039e+00 -5.093381404876708984e-01 9.000000000000000000e+00
6.773107528686523438e+00 4.767287254333496094e+00 -4.340744316577910822e-01 2.000000000000000000e+00
3.141169738769530895e+01 2.210108947753905895e+01 8.867120742797851562e+00 1.200000000000000000e+01
1.107334232330322088e+01 7.788250923156738281e+00 -2.363055795431137085e-01 2.000000000000000000e+00
3.215222167968750000e+01 2.260534286499023082e+01 1.053134727478026988e+01 9.000000000000000000e+00
1.837717652320862038e+00 1.289175271987915039e+00 -6.014954447746276855e-01 1.900000000000000000e+01
2.111149549484252930e+00 1.479890704154968040e+00 -5.952205061912536621e-01 1.400000000000000000e+01
2.434225320816040039e+00 1.705729603767395020e+00 -5.777696371078491211e-01 1.200000000000000000e+01
2.922349691390991211e+00 2.046251296997069868e+00 -5.650413036346435547e-01 1.100000000000000000e+01
3.601048231124877930e+00 2.519608259201049805e+00 -5.396374464035034180e-01 1.000000000000000000e+01
3.182675933837890980e+01 2.226878356933594105e+01 6.152254581451416016e+00 1.400000000000000000e+01
4.772288322448729581e+00 3.337869882583618164e+00 -5.095124840736389160e-01 8.000000000000000000e+00
6.801975727081298828e+00 4.753953933715820312e+00 -4.349117875099182129e-01 2.000000000000000000e+00
3.024836158752441051e+01 2.113295936584473012e+01 8.518896102905273438e+00 1.100000000000000000e+01
1.112533950805664062e+01 7.769807338714599609e+00 -2.368640601634978970e-01 2.000000000000000000e+00
3.243292999267578125e+01 2.264235877990723012e+01 1.059863948822020951e+01 9.000000000000000000e+00
1.850133419036865012e+00 1.288272142410278098e+00 -6.040836572647094727e-01 1.900000000000000000e+01
2.114702701568603960e+00 1.471399426460265891e+00 -5.947706103324890137e-01 1.200000000000000000e+01
2.440164566040039062e+00 1.697222113609313965e+00 -5.777696371078491211e-01 1.100000000000000000e+01
2.918120145797729048e+00 2.028146266937255859e+00 -5.628511905670166016e-01 1.300000000000000000e+01
3.609821557998656782e+00 2.507023096084595171e+00 -5.396374464035034180e-01 1.000000000000000000e+01
3.190429878234862926e+01 2.215755271911621094e+01 6.152254581451416016e+00 1.400000000000000000e+01
4.782274246215820312e+00 3.320055007934569868e+00 -5.093381404876708984e-01 9.000000000000000000e+00
6.815246582031250000e+00 4.727904796600341797e+00 -4.347024559974669855e-01 2.000000000000000000e+00
3.032194519042969105e+01 2.102724266052246094e+01 8.518896102905273438e+00 1.100000000000000000e+01
1.115896701812743963e+01 7.735482215881347656e+00 -2.370036840438843051e-01 2.000000000000000000e+00
3.253082275390625000e+01 2.254221343994140980e+01 1.060485172271729049e+01 9.000000000000000000e+00
1.848262190818787065e+00 1.277412652969359907e+00 -6.020131111145019531e-01 1.800000000000000000e+01
2.100584030151367188e+00 1.450719714164734109e+00 -5.893717408180236816e-01 1.300000000000000000e+01
2.462230443954468218e+00 1.699847817420959029e+00 -5.815858244895935059e-01 1.200000000000000000e+01
2.926807880401610884e+00 2.019069433212279829e+00 -5.631640553474426270e-01 1.200000000000000000e+01
3.189791870117187855e+01 2.199668502807616832e+01 4.757535457611083984e+00 2.000000000000000000e+01
3.613647460937500000e+00 2.491027116775513139e+00 -5.389062166213989258e-01 9.000000000000000000e+00
4.805318355560302734e+00 3.311254978179932085e+00 -5.105583667755126953e-01 9.000000000000000000e+00
3.029890632629394887e+01 2.087061119079589844e+01 7.151521205902099609e+00 6.100000000000000000e+01
6.820193290710449219e+00 4.696157455444335938e+00 -4.339697360992432196e-01 3.000000000000000000e+00
3.041121101379394887e+01 2.093232154846191051e+01 8.523395538330078125e+00 1.100000000000000000e+01
1.117931079864501953e+01 7.691949367523193359e+00 -2.368640601634978970e-01 2.000000000000000000e+00
3.246215820312500000e+01 2.233565902709960938e+01 1.055826377868651988e+01 9.000000000000000000e+00
1.862268209457397017e+00 1.277510166168212891e+00 -6.051189303398132324e-01 1.800000000000000000e+01
2.110457181930541992e+00 1.446683883666991965e+00 -5.907214879989624023e-01 1.300000000000000000e+01
2.458431959152222124e+00 1.684584259986876997e+00 -5.792961120605468750e-01 1.100000000000000000e+01
2.937097787857056108e+00 2.011072874069213867e+00 -5.637897849082946777e-01 1.100000000000000000e+01
3.256095504760742188e+01 2.228660392761230113e+01 4.844793796539306641e+00 2.000000000000000000e+01
3.615767478942871094e+00 2.473914146423339844e+00 -5.379312634468078613e-01 9.000000000000000000e+00
3.279184341430664062e+01 2.243623352050780895e+01 6.293045520782470703e+00 1.400000000000000000e+01
4.826714515686035156e+00 3.301209688186645952e+00 -5.116041898727416992e-01 9.000000000000000000e+00
6.848087310791015625e+00 4.680210590362548828e+00 -4.347024559974669855e-01 2.000000000000000000e+00
3.052914810180664062e+01 2.085681915283203125e+01 8.535992622375488281e+00 1.100000000000000000e+01
1.121269798278808949e+01 7.657390117645263672e+00 -2.370036840438843051e-01 2.000000000000000000e+00
3.247679519653320312e+01 2.217078208923339844e+01 1.053652286529541016e+01 9.000000000000000000e+00
1.863743901252747026e+00 1.268501996994018999e+00 -6.040836572647094727e-01 1.800000000000000000e+01
2.125413656234741211e+00 1.445514440536499023e+00 -5.934208631515502930e-01 1.400000000000000000e+01
2.458095550537108931e+00 1.671147227287292036e+00 -5.777696371078491211e-01 1.100000000000000000e+01
2.942815065383911133e+00 1.999184250831604004e+00 -5.634769201278686523e-01 1.000000000000000000e+01
3.303983688354492188e+01 2.243699455261230113e+01 4.903778553009033203e+00 2.100000000000000000e+01
3.634665012359619141e+00 2.467334747314453125e+00 -5.393937230110168457e-01 9.000000000000000000e+00
3.172979164123535156e+01 2.153926658630371094e+01 6.074037551879882812e+00 1.400000000000000000e+01
4.827241420745849609e+00 3.275665521621704102e+00 -5.103840231895446777e-01 9.000000000000000000e+00
6.855276584625244141e+00 4.648354053497313565e+00 -4.340744316577910822e-01 1.000000000000000000e+00
3.057957649230957031e+01 2.072728919982910156e+01 8.528794288635253906e+00 1.100000000000000000e+01
1.123406696319580078e+01 7.611755371093750000e+00 -2.368640601634978970e-01 2.000000000000000000e+00
1.864958882331847922e+00 1.259825825691222922e+00 -6.030483841896057129e-01 1.900000000000000000e+01
2.136907339096068892e+00 1.442447781562804954e+00 -5.952205061912536621e-01 1.400000000000000000e+01
2.473678350448607954e+00 1.669145345687865989e+00 -5.800593495368957520e-01 1.200000000000000000e+01
2.954689025878905806e+00 1.992212772369384988e+00 -5.644155740737915039e-01 1.100000000000000000e+01
3.651486873626708984e+00 2.460178375244141069e+00 -5.406123995780944824e-01 1.000000000000000000e+01
3.182490730285644887e+01 2.143386077880859020e+01 6.077166080474854404e+00 1.400000000000000000e+01
4.856823921203613281e+00 3.271038293838500977e+00 -5.123014450073242188e-01 9.000000000000000000e+00
6.884716510772705078e+00 4.633317470550537109e+00 -4.349117875099182129e-01 2.000000000000000000e+00
3.225571441650391336e+01 2.169946479797362926e+01 8.975096702575683594e+00 1.200000000000000000e+01
1.126720619201659979e+01 7.576958656311035156e+00 -2.370036840438843051e-01 2.000000000000000000e+00
1.867521882057189941e+00 1.252558469772339089e+00 -6.025307178497314453e-01 1.600000000000000000e+01
2.141679048538208008e+00 1.435353636741637962e+00 -5.952205061912536621e-01 1.200000000000000000e+01
2.475937843322753906e+00 1.658747792243957964e+00 -5.792961120605468750e-01 1.200000000000000000e+01
2.949788808822631836e+00 1.974711418151855025e+00 -5.622254610061645508e-01 1.000000000000000000e+01
3.662925004959106001e+00 2.450263500213623047e+00 -5.410999059677124023e-01 1.000000000000000000e+01
4.870956897735595703e+00 3.257129430770874023e+00 -5.126500725746154785e-01 9.000000000000000000e+00
6.893400669097900391e+00 4.606022834777832031e+00 -4.344930946826934814e-01 1.000000000000000000e+00
3.209414291381835938e+01 2.143651962280273082e+01 8.910311698913574219e+00 1.200000000000000000e+01
1.128561782836914062e+01 7.535111904144287109e+00 -2.368640601634978970e-01 2.000000000000000000e+00
3.125095939636230113e+01 2.086544799804687855e+01 1.006857872009276988e+01 8.000000000000000000e+00
1.879923462867737038e+00 1.251384258270263894e+00 -6.051189303398132324e-01 1.700000000000000000e+01
3.243893432617188211e+01 2.158503532409667969e+01 6.801202893257141113e-01 3.300000000000000000e+01
2.133695602416992188e+00 1.419234871864319070e+00 -5.916212797164916992e-01 1.100000000000000000e+01
2.484982490539550781e+00 1.652269005775452104e+00 -5.800593495368957520e-01 1.200000000000000000e+01
2.959954500198363814e+00 1.966588973999022993e+00 -5.628511905670166016e-01 1.000000000000000000e+01
3.674763441085814986e+00 2.439658403396606001e+00 -5.415873527526855469e-01 1.000000000000000000e+01
3.197006607055664062e+01 2.121673965454101918e+01 6.077166080474854404e+00 1.400000000000000000e+01
4.877316474914550781e+00 3.236801624298096147e+00 -5.121271610260009766e-01 9.000000000000000000e+00
6.906107425689697266e+00 4.579724788665770596e+00 -4.342837631702423096e-01 2.000000000000000000e+00
1.132518672943115057e+01 7.504508495330811435e+00 -2.371432930231094083e-01 2.000000000000000000e+00
3.287659454345703125e+01 2.177705001831055043e+01 1.056654644012450994e+01 9.000000000000000000e+00
1.887503981590270996e+00 1.246944189071655051e+00 -6.061542034149169922e-01 1.500000000000000000e+01
2.141889333724976030e+00 1.413925409317017046e+00 -5.925210714340209961e-01 1.100000000000000000e+01
2.495650768280028853e+00 1.646828651428223100e+00 -5.812041759490966797e-01 1.300000000000000000e+01
2.966801166534423828e+00 1.956244826316833052e+00 -5.628511905670166016e-01 1.000000000000000000e+01
3.500017547607421875e+01 2.306960105895996094e+01 5.147029876708984375e+00 2.800000000000000000e+01
3.668338298797606978e+00 2.416986703872681108e+00 -5.393937230110168457e-01 9.000000000000000000e+00
4.895241260528563565e+00 3.224140405654906782e+00 -5.128244161605834961e-01 9.000000000000000000e+00
3.163285636901855113e+01 2.082635498046875000e+01 7.361792564392089844e+00 6.200000000000000000e+01
6.918715000152587891e+00 4.553394317626953125e+00 -4.340744316577910822e-01 2.000000000000000000e+00
3.230488204956054688e+01 2.125263977050780895e+01 8.927407264709472656e+00 1.200000000000000000e+01
1.135799694061278942e+01 7.469325542449951172e+00 -2.372829169034957886e-01 2.000000000000000000e+00
3.305192947387695312e+01 2.173584175109862926e+01 1.059967517852783025e+01 9.000000000000000000e+00
1.891845107078552024e+00 1.240347981452941895e+00 -6.061542034149169922e-01 1.800000000000000000e+01
2.146811723709106001e+00 1.406440258026123047e+00 -5.925210714340209961e-01 1.100000000000000000e+01
2.488244771957397017e+00 1.629502534866333008e+00 -5.781512856483459473e-01 1.300000000000000000e+01
2.973611593246459961e+00 1.945876836776732954e+00 -5.628511905670166016e-01 1.000000000000000000e+01
3.688382863998413086e+00 2.411771774291992188e+00 -5.410999059677124023e-01 1.000000000000000000e+01
4.918139934539794922e+00 3.214663982391356978e+00 -5.140445828437805176e-01 9.000000000000000000e+00
6.971355438232421875e+00 4.553243160247802734e+00 -4.363771975040435791e-01 2.000000000000000000e+00
3.248003768920897727e+01 2.120579719543457031e+01 8.955301284790039062e+00 1.200000000000000000e+01
1.141079425811767933e+01 7.447119712829589844e+00 -2.378413975238800049e-01 2.000000000000000000e+00
3.442575836181641336e+01 2.245899772644042969e+01 1.101378536224365057e+01 1.000000000000000000e+01
1.888066887855530007e+00 1.228468775749206987e+00 -6.035659909248352051e-01 1.900000000000000000e+01
2.164778470993041992e+00 1.407435536384582964e+00 -5.961202979087829590e-01 1.000000000000000000e+01
2.502148389816284180e+00 1.626156210899353027e+00 -5.800593495368957520e-01 1.400000000000000000e+01
2.987012624740601030e+00 1.939788699150085005e+00 -5.641027092933654785e-01 1.000000000000000000e+01
3.698444366455078125e+00 2.399962663650513139e+00 -5.413436293601989746e-01 1.000000000000000000e+01
4.905929565429688388e+00 3.182297229766846147e+00 -5.116041898727416992e-01 8.000000000000000000e+00
6.980502605438232422e+00 4.524535655975341797e+00 -4.359585046768187921e-01 2.000000000000000000e+00
1.144679069519042969e+01 7.413765430450438565e+00 -2.380508184432983121e-01 2.000000000000000000e+00
3.255427932739257812e+01 2.108449554443359020e+01 1.039262008666992010e+01 8.000000000000000000e+00
1.893966436386107954e+00 1.222918629646301047e+00 -6.040836572647094727e-01 1.900000000000000000e+01
2.169678211212158203e+00 1.399870514869689941e+00 -5.961202979087829590e-01 1.100000000000000000e+01
2.511109352111815962e+00 1.619540452957153098e+00 -5.808225870132446289e-01 1.300000000000000000e+01
2.988784313201903853e+00 1.926139950752258079e+00 -5.631640553474426270e-01 9.000000000000000000e+00
3.710137128829956055e+00 2.389187574386597124e+00 -5.418310761451721191e-01 9.000000000000000000e+00
3.316011810302733664e+01 2.134567260742187855e+01 6.246115207672119141e+00 1.400000000000000000e+01
4.932085990905761719e+00 3.174858570098876953e+00 -5.131729841232299805e-01 9.000000000000000000e+00
3.098409461975098012e+01 1.993728446960448863e+01 7.161824703216552734e+00 6.100000000000000000e+01
6.976096630096436435e+00 4.487175941467285156e+00 -4.347024559974669855e-01 2.000000000000000000e+00
3.079144096374512074e+01 1.979812431335448863e+01 8.451411247253417969e+00 1.100000000000000000e+01
1.149615001678466975e+01 7.388900279998779297e+00 -2.385394871234894076e-01 2.000000000000000000e+00
3.269310379028320312e+01 2.100471687316894887e+01 1.041229057312012074e+01 8.000000000000000000e+00
1.901476860046386941e+00 1.218384504318237083e+00 -6.051189303398132324e-01 1.800000000000000000e+01
2.161422014236450195e+00 1.383882164955138938e+00 -5.925210714340209961e-01 1.100000000000000000e+01
2.529975891113280806e+00 1.619231700897217019e+00 -5.838755369186401367e-01 1.300000000000000000e+01
3.005474328994750977e+00 1.922081112861633079e+00 -5.650413036346435547e-01 7.000000000000000000e+00
3.711763381958007812e+00 2.371946573257445845e+00 -5.408561229705810547e-01 9.000000000000000000e+00
4.934742927551270419e+00 3.152260303497314009e+00 -5.123014450073242188e-01 9.000000000000000000e+00
6.995084285736083984e+00 4.464946746826171875e+00 -4.349117875099182129e-01 2.000000000000000000e+00
3.094250297546387074e+01 1.974293136596680043e+01 8.473906517028808594e+00 1.100000000000000000e+01
1.154210376739501953e+01 7.361630439758300781e+00 -2.389583438634871881e-01 2.000000000000000000e+00
1.912239074707031028e+00 1.215885996818542036e+00 -6.071894764900207520e-01 1.800000000000000000e+01
2.172818660736083984e+00 1.380509138107300027e+00 -5.943207144737243652e-01 1.000000000000000000e+01
2.528983592987060991e+00 1.606180429458617942e+00 -5.823490619659423828e-01 1.400000000000000000e+01
2.995486736297606978e+00 1.900993704795836958e+00 -5.619125962257385254e-01 7.000000000000000000e+00
3.601768112182617188e+01 2.284869766235351918e+01 5.237213134765625000e+00 3.000000000000000000e+01
3.723373413085937944e+00 2.361101865768433061e+00 -5.413436293601989746e-01 9.000000000000000000e+00
4.964226722717285156e+00 3.146749258041381836e+00 -5.142188668251037598e-01 9.000000000000000000e+00
7.017376422882080078e+00 4.444777011871337891e+00 -4.353304803371428888e-01 2.000000000000000000e+00
3.099476623535155895e+01 1.962437629699707031e+01 8.469407081604003906e+00 1.100000000000000000e+01
1.156773090362549006e+01 7.321295738220214844e+00 -2.389583438634871881e-01 2.000000000000000000e+00
3.274716949462891336e+01 2.072590827941894887e+01 1.038433742523193004e+01 1.700000000000000000e+01
1.912993311882019043e+00 1.207475781440735085e+00 -6.061542034149169922e-01 1.700000000000000000e+01
2.174088239669799805e+00 1.371217012405395952e+00 -5.934208631515502930e-01 1.100000000000000000e+01
2.527652978897095171e+00 1.593596935272217019e+00 -5.808225870132446289e-01 1.300000000000000000e+01
3.015145063400268999e+00 1.899473309516906960e+00 -5.644155740737915039e-01 9.000000000000000000e+00
3.608317184448242188e+01 2.272278594970703125e+01 5.235750675201416016e+00 3.000000000000000000e+01
3.726142644882202148e+00 2.345569133758544922e+00 -5.406123995780944824e-01 1.000000000000000000e+01
4.961143970489501953e+00 3.121781110763549805e+00 -5.128244161605834961e-01 9.000000000000000000e+00
7.038840293884277344e+00 4.425734519958496094e+00 -4.357491731643676758e-01 1.000000000000000000e+00
3.097717666625976918e+01 1.946963691711426137e+01 8.446911811828613281e+00 1.100000000000000000e+01
1.159194564819335938e+01 7.282895565032958984e+00 -2.389583438634871881e-01 2.000000000000000000e+00
3.237078094482421875e+01 2.033765983581542969e+01 1.024353981018066051e+01 8.000000000000000000e+00
1.910647630691528098e+00 1.196689009666443093e+00 -6.040836572647094727e-01 1.900000000000000000e+01
2.190424680709838867e+00 1.370856523513793945e+00 -5.965701937675476074e-01 1.100000000000000000e+01
2.536529064178466797e+00 1.586846590042114036e+00 -5.815858244895935059e-01 1.400000000000000000e+01
3.026782274246215820e+00 1.892078161239624023e+00 -5.653541684150695801e-01 1.200000000000000000e+01
3.149910354614258168e+01 1.968282318115234020e+01 4.560594558715820312e+00 1.900000000000000000e+01
3.742725849151610884e+00 2.337806463241577148e+00 -5.418310761451721191e-01 9.000000000000000000e+00
4.966940879821777344e+00 3.101278781890869141e+00 -5.123014450073242188e-01 8.000000000000000000e+00
7.047468185424804688e+00 4.396908760070800781e+00 -4.353304803371428888e-01 2.000000000000000000e+00
3.117061614990234020e+01 1.943976020812987926e+01 8.481104850769042969e+00 1.100000000000000000e+01
1.163087177276610973e+01 7.250851154327392578e+00 -2.392375916242598932e-01 2.000000000000000000e+00
3.269759750366210938e+01 2.037622261047362926e+01 1.032325649261474965e+01 8.000000000000000000e+00
1.921167969703674094e+00 1.194426536560059038e+00 -6.061542034149169922e-01 2.000000000000000000e+01
2.191648006439208984e+00 1.361528515815735085e+00 -5.956704020500183105e-01 1.100000000000000000e+01
2.541777372360229048e+00 1.578426480293273926e+00 -5.815858244895935059e-01 1.600000000000000000e+01
3.024647474288939986e+00 1.876822948455810991e+00 -5.637897849082946777e-01 1.400000000000000000e+01
3.166204261779785156e+01 1.963895034790039062e+01 4.574731349945068359e+00 1.900000000000000000e+01
3.767328739166260210e+00 2.335842847824097124e+00 -5.442684888839721680e-01 9.000000000000000000e+00
4.999213218688964844e+00 3.098435640335083008e+00 -5.145674943923950195e-01 9.000000000000000000e+00
7.085782051086425781e+00 4.388236522674561435e+00 -4.367958903312683105e-01 1.000000000000000000e+00
3.117857360839844105e+01 1.930141258239746094e+01 8.465807914733886719e+00 1.100000000000000000e+01
1.168206024169922053e+01 7.229078292846679688e+00 -2.397960573434829989e-01 2.000000000000000000e+00
1.928613901138306108e+00 1.189741730690001997e+00 -6.071894764900207520e-01 2.000000000000000000e+01
2.186433792114257812e+00 1.347734570503235085e+00 -5.929709672927856445e-01 1.000000000000000000e+01
2.555628776550292969e+00 1.574693799018860085e+00 -5.834938883781433105e-01 1.300000000000000000e+01
3.024451971054077148e+00 1.862110853195189986e+00 -5.625383257865905762e-01 1.200000000000000000e+01
3.169997215270996094e+01 1.950958061218262074e+01 4.570343971252441406e+00 1.900000000000000000e+01
3.761933326721190962e+00 2.314356803894042969e+00 -5.423185825347900391e-01 9.000000000000000000e+00
4.989632606506347656e+00 3.068442106246947798e+00 -5.124757885932922363e-01 8.000000000000000000e+00
3.255886077880858664e+01 2.001468276977539062e+01 7.428957462310791016e+00 6.200000000000000000e+01
7.053410053253173828e+00 4.334197521209716797e+00 -4.338650703430175781e-01 2.000000000000000000e+00
3.142841529846191051e+01 1.930465698242187855e+01 8.515296936035156250e+00 1.100000000000000000e+01
1.174812126159667969e+01 7.213367938995361328e+00 -2.406337857246398926e-01 2.000000000000000000e+00
3.270360565185546875e+01 2.008007431030273082e+01 1.028288078308104936e+01 8.000000000000000000e+00
1.935843706130981001e+00 1.185357213020324929e+00 -6.082247495651245117e-01 2.000000000000000000e+01
3.323298263549804688e+01 2.034127044677734020e+01 6.801202893257141113e-01 3.300000000000000000e+01
2.195877790451049805e+00 1.343527913093566895e+00 -5.943207144737243652e-01 1.300000000000000000e+01
2.557486772537231001e+00 1.564161658287047896e+00 -5.827306509017944336e-01 1.300000000000000000e+01
3.040723562240601030e+00 1.858251690864562988e+00 -5.644155740737915039e-01 1.200000000000000000e+01
3.769587278366088867e+00 2.301869153976439986e+00 -5.423185825347900391e-01 9.000000000000000000e+00
5.009984016418457031e+00 3.058107376098632812e+00 -5.135216116905212402e-01 9.000000000000000000e+00
7.108666896820068359e+00 4.335743427276611328e+00 -4.363771975040435791e-01 2.000000000000000000e+00
3.175515174865723012e+01 1.936061286926269887e+01 8.586381912231445312e+00 1.100000000000000000e+01
1.176514720916748047e+01 7.170207500457763672e+00 -2.404941618442535123e-01 2.000000000000000000e+00
1.935016512870789018e+00 1.175583481788635032e+00 -6.066718697547912598e-01 2.200000000000000000e+01
2.207217693328856978e+00 1.339899659156799094e+00 -5.961202979087829590e-01 1.200000000000000000e+01
2.554539203643798828e+00 1.550132393836975098e+00 -5.808225870132446289e-01 1.400000000000000000e+01
3.053948163986206055e+00 1.851722955703734907e+00 -5.656670331954956055e-01 1.200000000000000000e+01
3.407968139648438211e+01 2.065565109252930043e+01 4.893054008483886719e+00 2.100000000000000000e+01
3.777599334716796875e+00 2.288696765899658203e+00 -5.423185825347900391e-01 9.000000000000000000e+00
5.017220020294188565e+00 3.038536310195922852e+00 -5.131729841232299805e-01 9.000000000000000000e+00
7.130593299865722656e+00 4.315039634704589844e+00 -4.367958903312683105e-01 2.000000000000000000e+00
3.177585220336914062e+01 1.922140693664551137e+01 8.573784828186035156e+00 1.100000000000000000e+01
1.175588035583495916e+01 7.108401775360107422e+00 -2.397960573434829989e-01 2.000000000000000000e+00
3.346463775634766336e+01 2.022701263427734020e+01 1.047751235961914062e+01 9.000000000000000000e+00
1.929181098937988059e+00 1.162838101387023926e+00 -6.035659909248352051e-01 2.100000000000000000e+01
2.223566770553588867e+00 1.339224815368651900e+00 -5.992696285247802734e-01 1.200000000000000000e+01
2.568344354629517046e+00 1.546269059181212935e+00 -5.827306509017944336e-01 1.300000000000000000e+01
3.068856716156005859e+00 1.846142768859863059e+00 -5.672313570976257324e-01 1.300000000000000000e+01
3.422642898559570312e+01 2.058157539367676137e+01 4.903778553009033203e+00 2.100000000000000000e+01
3.794072389602661133e+00 2.280610084533690962e+00 -5.435372591018676758e-01 1.000000000000000000e+01
3.160241317749023082e+01 1.898864555358887074e+01 5.839385509490966797e+00 1.300000000000000000e+01
5.017549037933349609e+00 3.014847517013549805e+00 -5.121271610260009766e-01 8.000000000000000000e+00
7.131913185119628906e+00 4.281898021697998047e+00 -4.359585046768187921e-01 2.000000000000000000e+00
3.201318740844727273e+01 1.921265602111816051e+01 8.619674682617187500e+00 1.100000000000000000e+01
1.184235382080077947e+01 7.104356765747070312e+00 -2.410526424646378119e-01 2.000000000000000000e+00
3.348845672607421875e+01 2.009008789062500000e+01 1.046405410766601918e+01 9.000000000000000000e+00
1.934886336326598899e+00 1.157088518142699973e+00 -6.040836572647094727e-01 2.000000000000000000e+01
2.211499452590941939e+00 1.321459054946898970e+00 -5.947706103324890137e-01 1.300000000000000000e+01
2.575411796569824219e+00 1.538301229476928933e+00 -5.831122994422912598e-01 1.300000000000000000e+01
3.065104722976685014e+00 1.829344987869262917e+00 -5.653541684150695801e-01 1.300000000000000000e+01
3.401848220825195312e+01 2.029518318176269887e+01 4.863805294036865234e+00 2.100000000000000000e+01
3.805419921875000000e+00 2.269385814666748047e+00 -5.440247654914855957e-01 1.000000000000000000e+01
3.166850280761719105e+01 1.887821578979491832e+01 5.839385509490966797e+00 1.300000000000000000e+01
5.031465053558349609e+00 2.999355077743529829e+00 -5.124757885932922363e-01 9.000000000000000000e+00
7.160543918609619141e+00 4.265153884887695312e+00 -4.367958903312683105e-01 2.000000000000000000e+00
1.185333442687987926e+01 7.054793834686279297e+00 -2.407733947038651068e-01 2.000000000000000000e+00
1.950947523117064986e+00 1.156546473503113015e+00 -6.077071428298950195e-01 2.100000000000000000e+01
2.209850549697875977e+00 1.308985114097594993e+00 -5.929709672927856445e-01 1.300000000000000000e+01
3.722127151489257812e+01 2.203891181945801137e+01 2.266984224319458008e+00 3.000000000000000000e+01
2.581299304962158203e+00 1.528401017189026101e+00 -5.831122994422912598e-01 1.300000000000000000e+01
3.070406198501586914e+00 1.816556572914123979e+00 -5.650413036346435547e-01 1.100000000000000000e+01
3.403464508056641336e+01 2.012803459167480113e+01 4.855031013488770419e+00 2.000000000000000000e+01
3.815814495086669922e+00 2.255767583847045898e+00 -5.442684888839721680e-01 1.000000000000000000e+01
3.184631156921387074e+01 1.882635498046875000e+01 5.859409332275390625e+00 1.300000000000000000e+01
5.046374797821044922e+00 2.982040643692017046e+00 -5.128244161605834961e-01 9.000000000000000000e+00
3.320072555541992188e+01 1.961139869689941051e+01 7.495358943939208984e+00 6.300000000000000000e+01
7.159669876098632812e+00 4.227473258972167969e+00 -4.357491731643676758e-01 1.000000000000000000e+00
1.189411354064941051e+01 7.017357349395751953e+00 -2.410526424646378119e-01 2.000000000000000000e+00
1.963298916816710982e+00 1.154626011848449929e+00 -6.102952957153320312e-01 1.900000000000000000e+01
2.221126794815063032e+00 1.305212616920470969e+00 -5.947706103324890137e-01 1.400000000000000000e+01
2.584925889968872070e+00 1.518386960029602051e+00 -5.827306509017944336e-01 1.300000000000000000e+01
3.083543062210083008e+00 1.809827446937561035e+00 -5.662927627563476562e-01 1.100000000000000000e+01
3.191312217712401988e+01 1.872331809997558949e+01 4.543045520782470703e+00 1.900000000000000000e+01
3.806541919708251953e+00 2.232391834259033203e+00 -5.418310761451721191e-01 9.000000000000000000e+00
5.068785190582275391e+00 2.971460819244385210e+00 -5.140445828437805176e-01 9.000000000000000000e+00
7.198509693145751953e+00 4.216588020324707031e+00 -4.372145831584929865e-01 2.000000000000000000e+00
1.191853618621825994e+01 6.975796699523925781e+00 -2.410526424646378119e-01 2.000000000000000000e+00
1.958974123001099077e+00 1.142898201942444070e+00 -6.077071428298950195e-01 2.100000000000000000e+01
2.225669384002685991e+00 1.297451496124268022e+00 -5.947706103324890137e-01 1.400000000000000000e+01
