2.971797585487365723e-01 5.670527935028076172e+00 -4.967877268791198730e-01 9.000000000000000000e+00
4.342622458934783936e-01 8.231241226196289062e+00 -4.319809973239899237e-01 1.000000000000000000e+00
7.900730967521667480e-01 1.487676620483398082e+01 -2.600408494472504217e-01 2.000000000000000000e+00
1.220740377902985035e-01 2.239555120468140093e+00 -6.009778380393981934e-01 1.900000000000000000e+01
1.402616351842879971e-01 2.556800127029418945e+00 -5.911713838577270508e-01 1.100000000000000000e+01
1.632242202758789062e-01 2.965915918350220171e+00 -5.773880481719970703e-01 1.000000000000000000e+01
1.946581751108170111e-01 3.514734983444213867e+00 -5.575324296951293945e-01 9.000000000000000000e+00
2.435751408338547030e-01 4.370346069335938388e+00 -5.374438166618347168e-01 9.000000000000000000e+00
3.170830011367797852e-01 5.671445369720458984e+00 -4.969620406627655029e-01 8.000000000000000000e+00
4.616457521915435791e-01 8.205745697021484375e+00 -4.307249188423156738e-01 1.000000000000000000e+00
8.442583084106445312e-01 1.491384696960449041e+01 -2.607389390468596857e-01 2.000000000000000000e+00
1.301145553588866910e-01 2.242972612380981001e+00 -6.020131111145019531e-01 1.700000000000000000e+01
1.487315297126770020e-01 2.548513174057006836e+00 -5.893717408180236816e-01 1.100000000000000000e+01
1.740351021289824884e-01 2.973167657852172852e+00 -5.789144635200500488e-01 1.000000000000000000e+01
2.077385485172272006e-01 3.527837753295897993e+00 -5.597225427627563477e-01 1.000000000000000000e+01
2.577725648880004883e-01 4.351634502410888672e+00 -5.352501273155212402e-01 7.000000000000000000e+00
3.362873196601868231e-01 5.660359382629395419e+00 -4.960905015468596857e-01 8.000000000000000000e+00
4.890948832035065252e-01 8.184146881103515625e+00 -4.296782016754149836e-01 2.000000000000000000e+00
8.943923711776733398e-01 1.487887191772460938e+01 -2.601804733276367188e-01 2.000000000000000000e+00
1.374687552452087125e-01 2.234791994094849077e+00 -5.999425649642944336e-01 1.600000000000000000e+01
1.571452915668488104e-01 2.540198564529418945e+00 -5.875721573829650879e-01 1.200000000000000000e+01
1.839260756969451904e-01 2.964704036712646040e+00 -5.773880481719970703e-01 1.000000000000000000e+01
2.200517356395720880e-01 3.527091026306151900e+00 -5.597225427627563477e-01 1.000000000000000000e+01
2.735825181007385254e-01 4.360614299774169922e+00 -5.364688634872436523e-01 9.000000000000000000e+00
3.561687171459197998e-01 5.661139488220214844e+00 -4.962647855281829834e-01 9.000000000000000000e+00
5.179120898246765137e-01 8.186376571655273438e+00 -4.298875331878662109e-01 2.000000000000000000e+00
9.483551979064941406e-01 1.490758991241455078e+01 -2.607389390468596857e-01 2.000000000000000000e+00
1.450038403272629062e-01 2.236251592636107954e+00 -6.004601716995239258e-01 1.600000000000000000e+01
1.663286834955214899e-01 2.551331043243408203e+00 -5.902715921401977539e-01 1.200000000000000000e+01
1.936283260583878119e-01 2.962118864059447798e+00 -5.770063996315002441e-01 9.000000000000000000e+00
2.325240224599837979e-01 3.538168668746947798e+00 -5.615997314453125000e-01 1.000000000000000000e+01
2.872561216354370117e-01 4.347798347473145419e+00 -5.350064039230346680e-01 9.000000000000000000e+00
3.750714659690856934e-01 5.661915302276611328e+00 -4.964390993118286133e-01 9.000000000000000000e+00
5.442599654197692871e-01 8.172657012939453125e+00 -4.292595088481903076e-01 1.000000000000000000e+00
9.924424290657043457e-01 1.482455348968506037e+01 -2.593427598476409912e-01 2.000000000000000000e+00
1.525454670190810880e-01 2.231877088546752930e+00 -5.994248986244201660e-01 1.600000000000000000e+01
1.755006015300751010e-01 2.554623365402222124e+00 -5.911713838577270508e-01 1.100000000000000000e+01
2.038319706916809082e-01 2.959466218948363814e+00 -5.766248106956481934e-01 1.100000000000000000e+01
2.436453402042388916e-01 3.519599676132202148e+00 -5.587838888168334961e-01 9.000000000000000000e+00
3.024310171604155939e-01 4.346769332885742188e+00 -5.350064039230346680e-01 9.000000000000000000e+00
3.938625156879425049e-01 5.646658897399902344e+00 -4.952189326286315918e-01 9.000000000000000000e+00
5.744606256484985352e-01 8.194615364074707031e+00 -4.305155873298645020e-01 2.000000000000000000e+00
1.049805164337157981e+00 1.490078926086425959e+01 -2.607389390468596857e-01 2.000000000000000000e+00
1.603352427482604980e-01 2.231331110000609907e+00 -5.994248986244201660e-01 1.600000000000000000e+01
1.838554441928864081e-01 2.546220302581787109e+00 -5.893717408180236816e-01 1.200000000000000000e+01
2.141611874103545865e-01 2.958736658096313032e+00 -5.766248106956481934e-01 1.000000000000000000e+01
2.560728490352631170e-01 3.520697832107543945e+00 -5.590967535972595215e-01 1.000000000000000000e+01
3.180363178253173828e-01 4.351626396179199219e+00 -5.357376337051391602e-01 9.000000000000000000e+00
4.128427505493164062e-01 5.635313987731933594e+00 -4.943473637104033869e-01 9.000000000000000000e+00
6.015954017639160156e-01 8.172641754150390625e+00 -4.294688701629639227e-01 2.000000000000000000e+00
1.098862290382385032e+00 1.485714912414550959e+01 -2.600408494472504217e-01 2.000000000000000000e+00
1.685586273670197088e-01 2.236536979675292969e+00 -6.009778380393981934e-01 1.500000000000000000e+01
1.918594986200332919e-01 2.533904075622559038e+00 -5.866723656654357910e-01 1.200000000000000000e+01
2.250820845365524014e-01 2.965801715850830078e+00 -5.781512856483459473e-01 1.000000000000000000e+01
2.680604755878447931e-01 3.515843152999877930e+00 -5.584710240364074707e-01 1.000000000000000000e+01
7.425104141235351562e+00 9.716290283203125000e+01 1.196488857269286932e+01 6.300000000000000000e+01
3.336791992187500000e-01 4.356427669525145596e+00 -5.364688634872436523e-01 9.000000000000000000e+00
4.338837265968322754e-01 5.651717662811279297e+00 -4.959161877632141113e-01 9.000000000000000000e+00
6.301195621490478516e-01 8.170492172241210938e+00 -4.294688701629639227e-01 1.000000000000000000e+00
1.149789929389954057e+00 1.484126091003417969e+01 -2.598314285278319757e-01 2.000000000000000000e+00
1.762774586677550992e-01 2.239817619323730025e+00 -6.020131111145019531e-01 1.600000000000000000e+01
2.005683183670043945e-01 2.537139177322388139e+00 -5.875721573829650879e-01 1.200000000000000000e+01
2.342955470085144043e-01 2.957210302352904829e+00 -5.766248106956481934e-01 1.000000000000000000e+01
2.798746526241301935e-01 3.516904115676879883e+00 -5.587838888168334961e-01 9.000000000000000000e+00
3.470166325569152832e-01 4.341445922851563388e+00 -5.347626805305480957e-01 9.000000000000000000e+00
4.515094459056854248e-01 5.636345386505126953e+00 -4.946959912776947021e-01 8.000000000000000000e+00
6.562494039535522461e-01 8.156413078308105469e+00 -4.288408160209655762e-01 2.000000000000000000e+00
1.199965476989746094e+00 1.484932518005370916e+01 -2.600408494472504217e-01 2.000000000000000000e+00
1.837782263755798062e-01 2.235337734222412109e+00 -6.009778380393981934e-01 1.500000000000000000e+01
2.103855013847351074e-01 2.548076391220093218e+00 -5.902715921401977539e-01 1.000000000000000000e+01
2.436453700065613071e-01 2.944635152816772017e+00 -5.743350982666015625e-01 1.000000000000000000e+01
2.931306958198546808e-01 3.527717351913452148e+00 -5.606611371040344238e-01 9.000000000000000000e+00
3.621689975261688232e-01 4.340208053588867188e+00 -5.347626805305480957e-01 7.000000000000000000e+00
4.705171287059783936e-01 5.626793384552001953e+00 -4.939987361431121826e-01 9.000000000000000000e+00
6.850508451461791992e-01 8.158052444458007812e+00 -4.290501773357390802e-01 1.000000000000000000e+00
1.246751189231873003e+00 1.478526782989501953e+01 -2.589937150478363037e-01 2.000000000000000000e+00
1.906471252441405972e-01 2.219251155853271040e+00 -5.968367457389831543e-01 1.600000000000000000e+01
2.203931361436843872e-01 2.555054426193236861e+00 -5.920711755752563477e-01 1.100000000000000000e+01
2.546054124832152765e-01 2.945678234100341797e+00 -5.747166872024536133e-01 1.100000000000000000e+01
3.060584664344788153e-01 3.526619195938109907e+00 -5.606611371040344238e-01 9.000000000000000000e+00
3.782465457916259766e-01 4.340829372406005859e+00 -5.350064039230346680e-01 9.000000000000000000e+00
4.939100146293640137e-01 5.656788349151611328e+00 -4.967877268791198730e-01 9.000000000000000000e+00
7.152958512306213379e-01 8.159466743469238281e+00 -4.292595088481903076e-01 1.000000000000000000e+00
1.300933480262755904e+00 1.478059864044188920e+01 -2.589937150478363037e-01 2.000000000000000000e+00
1.983925849199295044e-01 2.218572139739989790e+00 -5.968367457389831543e-01 1.500000000000000000e+01
2.286136150360106867e-01 2.546505689620972124e+00 -5.902715921401977539e-01 1.000000000000000000e+01
2.662933170795441229e-01 2.960414409637451172e+00 -5.777696371078491211e-01 1.200000000000000000e+01
3.173008263111115057e-01 3.513725280761719194e+00 -5.587838888168334961e-01 9.000000000000000000e+00
3.950095772743225098e-01 4.357275009155273438e+00 -5.372000932693481445e-01 9.000000000000000000e+00
5.116703510284423828e-01 5.633203506469726562e+00 -4.948703050613402765e-01 9.000000000000000000e+00
7.455869913101196289e-01 8.176810264587402344e+00 -4.303062260150908869e-01 1.000000000000000000e+00
1.350696682929992898e+00 1.475605392456055043e+01 -2.586446702480316162e-01 2.000000000000000000e+00
2.068192362785339078e-01 2.229443550109862837e+00 -5.999425649642944336e-01 1.600000000000000000e+01
2.352500408887862882e-01 2.526330232620238814e+00 -5.857725739479064941e-01 1.200000000000000000e+01
2.759265601634979248e-01 2.957560300827025923e+00 -5.773880481719970703e-01 1.000000000000000000e+01
3.282142877578734796e-01 3.504786491394042969e+00 -5.575324296951293945e-01 9.000000000000000000e+00
4.079704284667968750e-01 4.340130329132080078e+00 -5.352501273155212402e-01 7.000000000000000000e+00
5.305347442626953125e-01 5.633459091186523438e+00 -4.950446188449860174e-01 8.000000000000000000e+00
7.663075327873229980e-01 8.106687545776367188e+00 -4.267473816871643066e-01 2.000000000000000000e+00
1.399244308471679910e+00 1.474751186370849965e+01 -2.585748434066771906e-01 2.000000000000000000e+00
2.149704992771148959e-01 2.232553958892821822e+00 -6.009778380393981934e-01 1.700000000000000000e+01
2.448169589042664129e-01 2.533252477645874023e+00 -5.875721573829650879e-01 1.100000000000000000e+01
2.858703136444091797e-01 2.952671051025391069e+00 -5.766248106956481934e-01 1.100000000000000000e+01
3.419746756553649902e-01 3.519348382949829102e+00 -5.600354075431823730e-01 9.000000000000000000e+00
4.219617545604705811e-01 4.326825618743895596e+00 -5.337877273559570312e-01 7.000000000000000000e+00
5.496147274971008301e-01 5.625624179840087891e+00 -4.945216774940490723e-01 8.000000000000000000e+00
7.957698702812194824e-01 8.115889549255371094e+00 -4.273754060268402100e-01 1.000000000000000000e+00
1.447972655296325906e+00 1.471467685699463068e+01 -2.580861747264862061e-01 2.000000000000000000e+00
2.231460064649581909e-01 2.235634565353393999e+00 -6.020131111145019531e-01 2.000000000000000000e+01
2.540466189384459894e-01 2.536260366439818892e+00 -5.884719491004943848e-01 1.000000000000000000e+01
2.961753010749816895e-01 2.951655149459838867e+00 -5.766248106956481934e-01 1.000000000000000000e+01
3.534657657146453857e-01 3.510271549224853960e+00 -5.587838888168334961e-01 9.000000000000000000e+00
4.372622072696685791e-01 4.327301025390625000e+00 -5.340314507484436035e-01 9.000000000000000000e+00
5.700511336326599121e-01 5.631600379943847656e+00 -4.952189326286315918e-01 9.000000000000000000e+00
8.240947723388671875e-01 8.113061904907226562e+00 -4.273754060268402100e-01 2.000000000000000000e+00
1.506222009658813032e+00 1.477717208862305043e+01 -2.592729628086090088e-01 2.000000000000000000e+00
2.291612476110458096e-01 2.217547416687012163e+00 -5.973543524742126465e-01 1.600000000000000000e+01
2.633002698421478271e-01 2.539234876632689986e+00 -5.893717408180236816e-01 1.100000000000000000e+01
3.066795468330382746e-01 2.952556133270264116e+00 -5.770063996315002441e-01 1.100000000000000000e+01
3.657167553901671808e-01 3.509016275405883789e+00 -5.587838888168334961e-01 9.000000000000000000e+00
4.536034464836121161e-01 4.337594509124755859e+00 -5.354939103126525879e-01 9.000000000000000000e+00
5.874223113059997559e-01 5.607779502868652344e+00 -4.933015108108521063e-01 9.000000000000000000e+00
8.536622524261474609e-01 8.122054100036621094e+00 -4.280034601688385010e-01 1.000000000000000000e+00
1.558214187622070090e+00 1.477580165863036932e+01 -2.593427598476409912e-01 2.000000000000000000e+00
2.369005382061004916e-01 2.216734170913695845e+00 -5.973543524742126465e-01 1.500000000000000000e+01
2.725777626037598211e-01 2.542175531387329102e+00 -5.902715921401977539e-01 1.000000000000000000e+01
3.165647089481353760e-01 2.947563409805297852e+00 -5.762431621551513672e-01 1.100000000000000000e+01
3.771167695522307794e-01 3.499862432479857954e+00 -5.575324296951293945e-01 9.000000000000000000e+00
4.687416851520537775e-01 4.335984706878662109e+00 -5.354939103126525879e-01 9.000000000000000000e+00
6.076369881629943848e-01 5.611637115478515625e+00 -4.938244521617888849e-01 9.000000000000000000e+00
8.828710913658142090e-01 8.126966476440429688e+00 -4.284221231937407892e-01 2.000000000000000000e+00
1.605015397071837935e+00 1.472653770446776988e+01 -2.585748434066771906e-01 2.000000000000000000e+00
2.448489218950271884e-01 2.217813730239868164e+00 -5.978720188140869141e-01 1.600000000000000000e+01
2.803773581981658936e-01 2.531524181365966797e+00 -5.880220532417297363e-01 1.100000000000000000e+01
3.272846341133118231e-01 2.950343132019042969e+00 -5.770063996315002441e-01 1.100000000000000000e+01
3.893312811851500910e-01 3.498524665832519975e+00 -5.575324296951293945e-01 9.000000000000000000e+00
4.827730357646942139e-01 4.324458122253417969e+00 -5.342751741409301758e-01 7.000000000000000000e+00
6.258931756019592285e-01 5.597601413726806641e+00 -4.927785694599152166e-01 9.000000000000000000e+00
9.076720476150512695e-01 8.092078208923339844e+00 -4.267473816871643066e-01 2.000000000000000000e+00
1.656410813331604004e+00 1.472084617614745916e+01 -2.585748434066771906e-01 2.000000000000000000e+00
2.525890469551085871e-01 2.216945648193358931e+00 -5.978720188140869141e-01 1.500000000000000000e+01
2.896548509597777765e-01 2.534402370452880859e+00 -5.889218449592590332e-01 1.000000000000000000e+01
3.364649116992949884e-01 2.939429998397827148e+00 -5.750983357429504395e-01 1.000000000000000000e+01
4.026676714420319159e-01 3.506956815719604048e+00 -5.590967535972595215e-01 8.000000000000000000e+00
4.971838891506195068e-01 4.316830158233642578e+00 -5.335440039634704590e-01 9.000000000000000000e+00
6.488532423973083496e-01 5.625071525573729581e+00 -4.953932464122772217e-01 9.000000000000000000e+00
9.372904896736145020e-01 8.100765228271484375e+00 -4.273754060268402100e-01 1.000000000000000000e+00
1.703636527061461958e+00 1.467921924591063920e+01 -2.579465806484221857e-01 2.000000000000000000e+00
2.610022723674774170e-01 2.221806287765502930e+00 -5.994248986244201660e-01 1.600000000000000000e+01
2.984998226165770929e-01 2.533375740051269975e+00 -5.889218449592590332e-01 1.100000000000000000e+01
3.471835255622863770e-01 2.942137241363524947e+00 -5.758615732192993164e-01 1.000000000000000000e+01
4.149067997932434082e-01 3.505529880523682085e+00 -5.590967535972595215e-01 9.000000000000000000e+00
5.129514336585998535e-01 4.320981979370117188e+00 -5.342751741409301758e-01 7.000000000000000000e+00
6.642506122589111328e-01 5.587160110473632812e+00 -4.922556281089783270e-01 9.000000000000000000e+00
9.641427993774414062e-01 8.085544586181640625e+00 -4.267473816871643066e-01 1.000000000000000000e+00
1.758190631866455078e+00 1.470098114013672053e+01 -2.584352493286132812e-01 2.000000000000000000e+00
2.672098577022551935e-01 2.211339235305786133e+00 -5.968367457389831543e-01 1.700000000000000000e+01
3.073680698871613104e-01 2.536241054534912109e+00 -5.898216366767883301e-01 1.100000000000000000e+01
3.559919595718383789e-01 2.933173894882202148e+00 -5.743350982666015625e-01 1.000000000000000000e+01
4.274840056896210272e-01 3.511978149414062944e+00 -5.603482723236083984e-01 8.000000000000000000e+00
5.279991626739501953e-01 4.325168609619140625e+00 -5.350064039230346680e-01 9.000000000000000000e+00
6.839835047721862793e-01 5.594815254211425781e+00 -4.931271970272064209e-01 9.000000000000000000e+00
9.924085140228271484e-01 8.094197273254394531e+00 -4.273754060268402100e-01 1.000000000000000000e+00
1.804490685462952104e+00 1.467522239685058949e+01 -2.580861747264862061e-01 2.000000000000000000e+00
2.758810222148895264e-01 2.218061208724976030e+00 -5.989072918891906738e-01 1.700000000000000000e+01
3.167017400264739990e-01 2.539020299911499023e+00 -5.907214879989624023e-01 1.100000000000000000e+01
3.662284612655640204e-01 2.931913375854492188e+00 -5.743350982666015625e-01 1.000000000000000000e+01
4.367941617965698242e-01 3.486943960189818892e+00 -5.565938353538513184e-01 8.000000000000000000e+00
5.430936217308044434e-01 4.323299407958984375e+00 -5.350064039230346680e-01 9.000000000000000000e+00
7.054983377456665039e-01 5.608208179473876953e+00 -4.945216774940490723e-01 9.000000000000000000e+00
1.019156575202941895e+00 8.078794479370117188e+00 -4.267473816871643066e-01 1.000000000000000000e+00
1.857211589813231978e+00 1.468073749542235973e+01 -2.582956254482268732e-01 2.000000000000000000e+00
2.834796607494354248e-01 2.219050407409667969e+00 -5.994248986244201660e-01 1.500000000000000000e+01
3.231387436389923096e-01 2.522492647171020952e+00 -5.871222615242004395e-01 1.200000000000000000e+01
3.769482374191284180e-01 2.938472032546997070e+00 -5.758615732192993164e-01 1.000000000000000000e+01
4.491109549999237061e-01 3.491353988647460938e+00 -5.575324296951293945e-01 9.000000000000000000e+00
5.569192767143249512e-01 4.317537307739257812e+00 -5.345189571380615234e-01 9.000000000000000000e+00
7.233262062072753906e-01 5.599909782409667969e+00 -4.939987361431121826e-01 9.000000000000000000e+00
1.047480583190917969e+00 8.087254524230957031e+00 -4.273754060268402100e-01 1.000000000000000000e+00
1.904339194297790971e+00 1.466259956359862926e+01 -2.580861747264862061e-01 2.000000000000000000e+00
2.917268276214600164e-01 2.221878290176392046e+00 -6.004601716995239258e-01 1.600000000000000000e+01
3.319419324398040771e-01 2.521349191665648970e+00 -5.871222615242004395e-01 1.100000000000000000e+01
3.859201371669768732e-01 2.927406311035155806e+00 -5.739534497261047363e-01 1.100000000000000000e+01
4.605187177658081055e-01 3.483890056610106978e+00 -5.565938353538513184e-01 9.000000000000000000e+00
5.709435939788818359e-01 4.307695388793945312e+00 -5.335440039634704590e-01 9.000000000000000000e+00
7.394614815711975098e-01 5.571674823760986328e+00 -4.917326867580413818e-01 9.000000000000000000e+00
1.073069334030150923e+00 8.063751220703125000e+00 -4.263286888599395752e-01 1.000000000000000000e+00
1.953393816947937012e+00 1.464000606536865057e+01 -2.578069567680358887e-01 2.000000000000000000e+00
2.988344430923461914e-01 2.213136196136475053e+00 -5.983896255493164062e-01 1.500000000000000000e+01
3.422266542911530096e-01 2.527840137481689009e+00 -5.889218449592590332e-01 1.100000000000000000e+01
3.955921232700347900e-01 2.918190240859984907e+00 -5.724269747734069824e-01 1.100000000000000000e+01
4.751470088958740234e-01 3.495880365371704102e+00 -5.587838888168334961e-01 9.000000000000000000e+00
5.861921906471252441e-01 4.301640033721923828e+00 -5.330564975738525391e-01 9.000000000000000000e+00
7.620326280593872070e-01 5.584719657897949219e+00 -4.931271970272064209e-01 9.000000000000000000e+00
1.105324387550354004e+00 8.079552650451660156e+00 -4.273754060268402100e-01 1.000000000000000000e+00
2.012473821640015093e+00 1.467237091064452947e+01 -2.585050463676453192e-01 2.000000000000000000e+00
3.054971396923065186e-01 2.204425334930419922e+00 -5.963190793991088867e-01 1.400000000000000000e+01
3.515847623348236084e-01 2.530490636825561968e+00 -5.898216366767883301e-01 1.100000000000000000e+01
4.071286618709564209e-01 2.926514148712158203e+00 -5.743350982666015625e-01 1.000000000000000000e+01
4.862555265426635742e-01 3.486374855041503906e+00 -5.575324296951293945e-01 9.000000000000000000e+00
6.028535366058349609e-01 4.311363220214843750e+00 -5.345189571380615234e-01 9.000000000000000000e+00
7.815223336219787598e-01 5.582026004791259766e+00 -4.931271970272064209e-01 8.000000000000000000e+00
1.131854891777039018e+00 8.063777923583984375e+00 -4.267473816871643066e-01 1.000000000000000000e+00
2.053646326065063032e+00 1.459397029876708984e+01 -2.572484612464904785e-01 2.000000000000000000e+00
3.126922249794005793e-01 2.205367326736450195e+00 -5.968367457389831543e-01 1.500000000000000000e+01
3.595327734947205145e-01 2.529373645782471147e+00 -5.898216366767883301e-01 1.000000000000000000e+01
4.157673120498657227e-01 2.921333312988280806e+00 -5.735718607902526855e-01 1.000000000000000000e+01
4.969268739223480225e-01 3.482874393463135210e+00 -5.572195649147033691e-01 8.000000000000000000e+00
6.158329248428344727e-01 4.305517673492431641e+00 -5.340314507484436035e-01 9.000000000000000000e+00
7.982075214385986328e-01 5.573626041412354404e+00 -4.926042556762694757e-01 9.000000000000000000e+00
1.157182335853577104e+00 8.060181617736816406e+00 -4.267473816871643066e-01 1.000000000000000000e+00
2.099484443664550781e+00 1.458744621276854936e+01 -2.572484612464904785e-01 2.000000000000000000e+00
3.228893578052520752e-01 2.221468448638916016e+00 -6.014954447746276855e-01 1.600000000000000000e+01
3.661119341850280762e-01 2.512676239013671875e+00 -5.862224698066711426e-01 1.000000000000000000e+01
4.282293915748596191e-01 2.935405731201171875e+00 -5.766248106956481934e-01 1.100000000000000000e+01
5.099388360977172852e-01 3.486982345581055132e+00 -5.581581592559814453e-01 9.000000000000000000e+00
6.285548210144042969e-01 4.287629127502441406e+00 -5.320815443992614746e-01 9.000000000000000000e+00
8.185262680053710938e-01 5.576719760894775391e+00 -4.931271970272064209e-01 8.000000000000000000e+00
1.184147596359252930e+00 8.048189163208007812e+00 -4.263286888599395752e-01 1.000000000000000000e+00
2.164979934692382812e+00 1.467894363403319957e+01 -2.589937150478363037e-01 2.000000000000000000e+00
3.297881186008452814e-01 2.214595317840576172e+00 -5.999425649642944336e-01 1.500000000000000000e+01
3.771822154521942139e-01 2.526801824569702148e+00 -5.898216366767883301e-01 1.000000000000000000e+01
4.355714023113250732e-01 2.914476156234741211e+00 -5.728086233139038086e-01 1.000000000000000000e+01
5.212296247482299805e-01 3.479320287704468218e+00 -5.572195649147033691e-01 8.000000000000000000e+00
6.452863216400146484e-01 4.297187328338623047e+00 -5.335440039634704590e-01 9.000000000000000000e+00
8.382838964462280273e-01 5.575798988342285156e+00 -4.933015108108521063e-01 9.000000000000000000e+00
1.209852814674376997e+00 8.028207778930664062e+00 -4.254913330078125000e-01 1.000000000000000000e+00
2.201272010803223100e+00 1.457243347167968928e+01 -2.572484612464904785e-01 2.000000000000000000e+00
3.366428613662719727e-01 2.207701444625854048e+00 -5.983896255493164062e-01 1.500000000000000000e+01
3.854112625122069757e-01 2.521617174148560014e+00 -5.889218449592590332e-01 1.000000000000000000e+01
4.454452097415924072e-01 2.910997390747069868e+00 -5.724269747734069824e-01 1.000000000000000000e+01
5.345694422721862793e-01 3.485289812088013139e+00 -5.584710240364074707e-01 8.000000000000000000e+00
6.590757966041564941e-01 4.287060737609863281e+00 -5.325690507888793945e-01 9.000000000000000000e+00
8.583481311798095703e-01 5.576776981353759766e+00 -4.936501383781433105e-01 9.000000000000000000e+00
1.240305304527282937e+00 8.039726257324218750e+00 -4.263286888599395752e-01 2.000000000000000000e+00
2.260070800781250000e+00 1.461604213714599965e+01 -2.581560015678405762e-01 2.000000000000000000e+00
3.434534966945648193e-01 2.200786590576171875e+00 -5.968367457389831543e-01 1.500000000000000000e+01
3.954156041145325262e-01 2.527957916259766069e+00 -5.907214879989624023e-01 1.000000000000000000e+01
4.562112390995026190e-01 2.913304090499877930e+00 -5.731902122497558594e-01 1.000000000000000000e+01
5.452006459236145020e-01 3.473645210266112837e+00 -5.569067001342773438e-01 9.000000000000000000e+00
6.758873462677001953e-01 4.296499729156494141e+00 -5.340314507484436035e-01 9.000000000000000000e+00
8.743999004364013672e-01 5.552097797393798828e+00 -4.917326867580413818e-01 9.000000000000000000e+00
1.271475672721863015e+00 8.055076599121093750e+00 -4.273754060268402100e-01 1.000000000000000000e+00
2.302952289581298828e+00 1.455671119689941051e+01 -2.572484612464904785e-01 2.000000000000000000e+00
3.514381051063538153e-01 2.201482057571411133e+00 -5.973543524742126465e-01 1.600000000000000000e+01
4.042374193668364923e-01 2.526562213897705078e+00 -5.907214879989624023e-01 1.100000000000000000e+01
4.660672843456267755e-01 2.909755229949951172e+00 -5.728086233139038086e-01 1.000000000000000000e+01
5.548177957534790039e-01 3.456117630004882812e+00 -5.544037222862243652e-01 9.000000000000000000e+00
6.896194815635681152e-01 4.286274909973145419e+00 -5.330564975738525391e-01 9.000000000000000000e+00
8.944086432456970215e-01 5.552945613861083984e+00 -4.920813143253325861e-01 8.000000000000000000e+00
1.294492721557616965e+00 8.019041061401367188e+00 -4.257006645202637274e-01 1.000000000000000000e+00
2.353750705718994141e+00 1.454858303070068004e+01 -2.572484612464904785e-01 2.000000000000000000e+00
3.606765568256378174e-01 2.209774971008300781e+00 -5.999425649642944336e-01 1.700000000000000000e+01
4.092792570590972900e-01 2.502057552337646040e+00 -5.853226184844970703e-01 1.100000000000000000e+01
4.768559336662291925e-01 2.911985635757445845e+00 -5.735718607902526855e-01 1.000000000000000000e+01
5.691179037094116211e-01 3.467805147171020952e+00 -5.565938353538513184e-01 9.000000000000000000e+00
7.039328217506408691e-01 4.279923915863037109e+00 -5.325690507888793945e-01 9.000000000000000000e+00
9.150813817977905273e-01 5.557653427124023438e+00 -4.927785694599152166e-01 8.000000000000000000e+00
1.320525527000427024e+00 8.002650260925292969e+00 -4.250726401805878241e-01 2.000000000000000000e+00
2.404520273208618164e+00 1.454027843475341975e+01 -2.572484612464904785e-01 2.000000000000000000e+00
3.680700659751892090e-01 2.206597089767456055e+00 -5.994248986244201660e-01 1.400000000000000000e+01
4.212235510349274237e-01 2.519834280014038086e+00 -5.898216366767883301e-01 1.000000000000000000e+01
4.860456585884094238e-01 2.904494285583496094e+00 -5.724269747734069824e-01 1.100000000000000000e+01
5.808926224708557129e-01 3.463849306106566939e+00 -5.562809705734252930e-01 9.000000000000000000e+00
7.195262908935546875e-01 4.281355857849121094e+00 -5.330564975738525391e-01 9.000000000000000000e+00
9.338145256042480469e-01 5.550495624542236328e+00 -4.924299418926239014e-01 8.000000000000000000e+00
1.352436542510986106e+00 8.021625518798828125e+00 -4.263286888599395752e-01 1.000000000000000000e+00
2.455260753631591797e+00 1.453179645538330078e+01 -2.572484612464904785e-01 2.000000000000000000e+00
3.755055069923400879e-01 2.201424360275268999e+00 -5.983896255493164062e-01 1.600000000000000000e+01
4.291430115699768066e-01 2.510590076446533203e+00 -5.880220532417297363e-01 1.100000000000000000e+01
4.963567554950714111e-01 2.900758266448975053e+00 -5.720453858375549316e-01 1.100000000000000000e+01
5.942520499229431152e-01 3.465590715408325195e+00 -5.569067001342773438e-01 9.000000000000000000e+00
7.338687181472778320e-01 4.270864486694335938e+00 -5.320815443992614746e-01 9.000000000000000000e+00
9.585426449775695801e-01 5.572562217712402344e+00 -4.946959912776947021e-01 9.000000000000000000e+00
1.378435492515563965e+00 7.996932506561279297e+00 -4.252819716930388849e-01 2.000000000000000000e+00
2.515313148498535156e+00 1.456211090087890980e+01 -2.579465806484221857e-01 2.000000000000000000e+00
3.828561604022979736e-01 2.198197126388549805e+00 -5.978720188140869141e-01 1.700000000000000000e+01
4.392441809177399237e-01 2.516755580902100053e+00 -5.898216366767883301e-01 1.100000000000000000e+01
5.074928998947143555e-01 2.904809713363647017e+00 -5.731902122497558594e-01 1.100000000000000000e+01
6.039611101150512695e-01 3.449874877929687944e+00 -5.547165870666503906e-01 9.000000000000000000e+00
7.487723231315612793e-01 4.268276691436767578e+00 -5.320815443992614746e-01 9.000000000000000000e+00
9.735087752342224121e-01 5.543671607971191406e+00 -4.924299418926239014e-01 9.000000000000000000e+00
1.408418416976928933e+00 8.003873825073242188e+00 -4.259100258350371759e-01 2.000000000000000000e+00
2.564740180969237837e+00 1.454536437988281072e+01 -2.578069567680358887e-01 2.000000000000000000e+00
3.887923955917357843e-01 2.189306974411011186e+00 -5.958014130592346191e-01 1.800000000000000000e+01
4.482704401016234796e-01 2.519122362136840820e+00 -5.907214879989624023e-01 1.000000000000000000e+01
5.164342522621154785e-01 2.899245262145996094e+00 -5.724269747734069824e-01 1.000000000000000000e+01
6.167863607406616211e-01 3.455631732940673828e+00 -5.559681057929992676e-01 9.000000000000000000e+00
7.636213302612304688e-01 4.269678115844726562e+00 -5.325690507888793945e-01 9.000000000000000000e+00
9.922380447387695312e-01 5.542374134063720703e+00 -4.926042556762694757e-01 8.000000000000000000e+00
1.434247136116028054e+00 7.995227813720703125e+00 -4.257006645202637274e-01 1.000000000000000000e+00
2.614375352859497070e+00 1.454465198516846058e+01 -2.579465806484221857e-01 2.000000000000000000e+00
3.971209824085236151e-01 2.191738367080688032e+00 -5.968367457389831543e-01 1.600000000000000000e+01
4.528838396072388250e-01 2.494533538818358931e+00 -5.853226184844970703e-01 1.100000000000000000e+01
5.272533893585205078e-01 2.901288032531737837e+00 -5.731902122497558594e-01 1.000000000000000000e+01
6.281372308731079102e-01 3.449570655822753906e+00 -5.553423762321472168e-01 8.000000000000000000e+00
7.792332172393798828e-01 4.270892620086669922e+00 -5.330564975738525391e-01 9.000000000000000000e+00
1.011220574378967063e+00 5.536916732788085938e+00 -4.924299418926239014e-01 8.000000000000000000e+00
1.460708856582642046e+00 7.982314109802246094e+00 -4.252819716930388849e-01 2.000000000000000000e+00
2.662244558334351030e+00 1.451970195770264027e+01 -2.576673328876494806e-01 2.000000000000000000e+00
4.082797169685363770e-01 2.209335565567017046e+00 -6.020131111145019531e-01 1.700000000000000000e+01
4.644269943237305243e-01 2.508266925811768022e+00 -5.889218449592590332e-01 1.100000000000000000e+01
5.355887413024902344e-01 2.889778137207030806e+00 -5.712821483612060547e-01 9.000000000000000000e+00
6.405352950096130371e-01 3.449299335479735884e+00 -5.556552410125732422e-01 9.000000000000000000e+00
7.912317514419555664e-01 4.252533435821533203e+00 -5.311065912246704102e-01 9.000000000000000000e+00
1.032001018524169922e+00 5.541187763214111328e+00 -4.931271970272064209e-01 8.000000000000000000e+00
1.490028977394104004e+00 7.985020160675048828e+00 -4.257006645202637274e-01 2.000000000000000000e+00
2.708501577377318892e+00 1.448673343658447088e+01 -2.572484612464904785e-01 2.000000000000000000e+00
4.145585298538208008e-01 2.200303316116333008e+00 -5.999425649642944336e-01 1.800000000000000000e+01
4.720951914787291925e-01 2.500885725021361861e+00 -5.875721573829650879e-01 1.200000000000000000e+01
5.438501238822937012e-01 2.878245353698730025e+00 -5.693740248680114746e-01 1.000000000000000000e+01
6.544089317321777344e-01 3.456746816635131836e+00 -5.572195649147033691e-01 8.000000000000000000e+00
8.090304136276245117e-01 4.265348434448242188e+00 -5.330564975738525391e-01 9.000000000000000000e+00
1.048364043235779031e+00 5.521892547607421875e+00 -4.917326867580413818e-01 9.000000000000000000e+00
1.521625041961669922e+00 7.999391078948974609e+00 -4.267473816871643066e-01 1.000000000000000000e+00
2.759053230285644975e+00 1.447719097137450994e+01 -2.572484612464904785e-01 2.000000000000000000e+00
4.200506210327147882e-01 2.187459468841553178e+00 -5.968367457389831543e-01 1.800000000000000000e+01
4.833991825580596924e-01 2.512618064880371094e+00 -5.907214879989624023e-01 1.000000000000000000e+01
5.553787350654602051e-01 2.884040832519530806e+00 -5.709004998207092285e-01 9.000000000000000000e+00
6.646001338958740234e-01 3.444743633270264116e+00 -5.556552410125732422e-01 9.000000000000000000e+00
8.231608867645263672e-01 4.258600234985351562e+00 -5.325690507888793945e-01 9.000000000000000000e+00
1.065740346908568892e+00 5.508418560028076172e+00 -4.908611476421356201e-01 9.000000000000000000e+00
1.542697668075561968e+00 7.958737373352050781e+00 -4.248632788658142090e-01 2.000000000000000000e+00
2.803471803665161133e+00 1.443606281280517933e+01 -2.566899955272675116e-01 2.000000000000000000e+00
4.284255802631378174e-01 2.189771890640258789e+00 -5.978720188140869141e-01 1.800000000000000000e+01
4.899178743362426758e-01 2.499441146850585938e+00 -5.880220532417297363e-01 1.100000000000000000e+01
5.665764212608337402e-01 2.887864112854003906e+00 -5.720453858375549316e-01 1.000000000000000000e+01
6.766204833984375000e-01 3.442402601242064986e+00 -5.556552410125732422e-01 9.000000000000000000e+00
8.368705511093139648e-01 4.249857902526854581e+00 -5.318378210067749023e-01 9.000000000000000000e+00
1.088044047355652078e+00 5.520303249359130859e+00 -4.922556281089783270e-01 6.000000000000000000e+00
1.572017073631287065e+00 7.961141586303710938e+00 -4.252819716930388849e-01 2.000000000000000000e+00
2.860054969787598100e+00 1.445757579803466975e+01 -2.572484612464904785e-01 2.000000000000000000e+00
4.375708401203156073e-01 2.197812318801879883e+00 -6.004601716995239258e-01 1.600000000000000000e+01
4.966788887977600098e-01 2.490158557891846147e+00 -5.862224698066711426e-01 1.100000000000000000e+01
5.757654309272766113e-01 2.884044170379639116e+00 -5.716637372970581055e-01 1.100000000000000000e+01
6.860951781272888184e-01 3.430454969406127930e+00 -5.540908575057983398e-01 8.000000000000000000e+00
8.490090370178222656e-01 4.237327575683593750e+00 -5.306191444396972656e-01 9.000000000000000000e+00
1.108302950859070046e+00 5.526432514190673828e+00 -4.931271970272064209e-01 8.000000000000000000e+00
1.593687653541564941e+00 7.932387351989746094e+00 -4.240259230136870783e-01 2.000000000000000000e+00
2.915873765945435014e+00 1.448721981048583984e+01 -2.579465806484221857e-01 2.000000000000000000e+00
4.452399909496306818e-01 2.196271657943726030e+00 -6.004601716995239258e-01 1.600000000000000000e+01
5.038167238235473633e-01 2.480770587921143022e+00 -5.844228267669677734e-01 1.100000000000000000e+01
5.850470066070556641e-01 2.878169059753417969e+00 -5.709004998207092285e-01 1.000000000000000000e+01
6.976713538169860840e-01 3.426103353500366211e+00 -5.537779927253723145e-01 9.000000000000000000e+00
8.630013465881347656e-01 4.230447769165039062e+00 -5.301316380500793457e-01 9.000000000000000000e+00
1.125195503234863059e+00 5.510817050933837891e+00 -4.920813143253325861e-01 8.000000000000000000e+00
1.624569058418273926e+00 7.942429542541503906e+00 -4.248632788658142090e-01 2.000000000000000000e+00
2.958397626876831055e+00 1.443777370452881037e+01 -2.572484612464904785e-01 2.000000000000000000e+00
4.509515166282653809e-01 2.185244083404541016e+00 -5.978720188140869141e-01 1.800000000000000000e+01
5.144457221031188965e-01 2.488538742065430132e+00 -5.866723656654357910e-01 1.300000000000000000e+01
5.934989452362060547e-01 2.868419170379639116e+00 -5.693740248680114746e-01 1.100000000000000000e+01
7.136356234550476074e-01 3.442989826202393022e+00 -5.569067001342773438e-01 9.000000000000000000e+00
8.809916377067565918e-01 4.242958545684813565e+00 -5.320815443992614746e-01 9.000000000000000000e+00
1.141587257385253906e+00 5.493201255798339844e+00 -4.908611476421356201e-01 9.000000000000000000e+00
1.653911590576172097e+00 7.944531917572020596e+00 -4.252819716930388849e-01 2.000000000000000000e+00
2.992446899414062944e+00 1.434905529022216975e+01 -2.558522820472716730e-01 2.000000000000000000e+00
4.589737355709075928e-01 2.185547351837158203e+00 -5.983896255493164062e-01 1.900000000000000000e+01
5.243327617645263672e-01 2.492448806762694868e+00 -5.880220532417297363e-01 1.100000000000000000e+01
6.059349775314331055e-01 2.877856731414794922e+00 -5.716637372970581055e-01 1.000000000000000000e+01
7.232035398483276367e-01 3.428880691528319868e+00 -5.550295114517211914e-01 9.000000000000000000e+00
8.962073326110839844e-01 4.241799831390380859e+00 -5.323252677917480469e-01 7.000000000000000000e+00
1.161167383193969949e+00 5.491131782531738281e+00 -4.910354614257813055e-01 9.000000000000000000e+00
1.685772061347960982e+00 7.958249568939208984e+00 -4.263286888599395752e-01 1.000000000000000000e+00
3.059119462966918945e+00 1.441676807403563920e+01 -2.572484612464904785e-01 2.000000000000000000e+00
4.658154249191284180e-01 2.182123899459838867e+00 -5.978720188140869141e-01 1.600000000000000000e+01
5.317801237106323242e-01 2.486885070800780806e+00 -5.871222615242004395e-01 1.100000000000000000e+01
6.150640845298767090e-01 2.873911857604980025e+00 -5.712821483612060547e-01 1.000000000000000000e+01
7.324997782707214355e-01 3.416806221008300781e+00 -5.534651279449462891e-01 8.000000000000000000e+00
9.123526811599731445e-01 4.248508930206298828e+00 -5.335440039634704590e-01 9.000000000000000000e+00
1.181044936180114968e+00 5.495042800903320312e+00 -4.917326867580413818e-01 9.000000000000000000e+00
1.703745961189270020e+00 7.913565158843994141e+00 -4.242352545261383057e-01 2.000000000000000000e+00
3.106910228729248047e+00 1.440654468536376953e+01 -2.572484612464904785e-01 2.000000000000000000e+00
4.738395214080811102e-01 2.182372570037841797e+00 -5.983896255493164062e-01 1.500000000000000000e+01
5.388011932373046875e-01 2.477396726608275923e+00 -5.853226184844970703e-01 1.100000000000000000e+01
6.275975704193115234e-01 2.883257389068603960e+00 -5.735718607902526855e-01 1.100000000000000000e+01
7.461054325103759766e-01 3.421948671340941939e+00 -5.547165870666503906e-01 8.000000000000000000e+00
9.254829287528991699e-01 4.237540721893311435e+00 -5.325690507888793945e-01 1.000000000000000000e+01
1.201069831848144975e+00 5.494779586791992188e+00 -4.920813143253325861e-01 9.000000000000000000e+00
1.730504751205443892e+00 7.903667449951171875e+00 -4.240259230136870783e-01 2.000000000000000000e+00
3.157179594039916992e+00 1.439561176300049006e+01 -2.572484612464904785e-01 2.000000000000000000e+00
4.835369586944580078e-01 2.190137386322021040e+00 -6.009778380393981934e-01 1.700000000000000000e+01
5.466040372848510742e-01 2.471695423126221147e+00 -5.844228267669677734e-01 1.100000000000000000e+01
6.346883773803710938e-01 2.867630958557128906e+00 -5.709004998207092285e-01 1.000000000000000000e+01
7.584732770919799805e-01 3.421252012252808061e+00 -5.550295114517211914e-01 9.000000000000000000e+00
9.394084215164184570e-01 4.230408668518066406e+00 -5.320815443992614746e-01 9.000000000000000000e+00
1.222404122352600098e+00 5.500278472900390625e+00 -4.929528832435607910e-01 9.000000000000000000e+00
1.758951067924499956e+00 7.901477813720703125e+00 -4.242352545261383057e-01 2.000000000000000000e+00
3.207410335540771040e+00 1.438450336456299006e+01 -2.572484612464904785e-01 2.000000000000000000e+00
4.886406362056732178e-01 2.177126407623291016e+00 -5.978720188140869141e-01 1.600000000000000000e+01
5.569382309913635254e-01 2.477377414703369141e+00 -5.862224698066711426e-01 1.100000000000000000e+01
6.446943879127502441e-01 2.865397930145264116e+00 -5.709004998207092285e-01 1.100000000000000000e+01
7.721481919288635254e-01 3.426291704177856001e+00 -5.562809705734252930e-01 9.000000000000000000e+00
9.515470266342163086e-01 4.215485572814941406e+00 -5.306191444396972656e-01 9.000000000000000000e+00
1.241596341133117898e+00 5.495977878570556641e+00 -4.929528832435607910e-01 9.000000000000000000e+00
1.790929555892943892e+00 7.914770126342773438e+00 -4.252819716930388849e-01 2.000000000000000000e+00
3.248761892318726030e+00 1.433421516418457031e+01 -2.565503716468811035e-01 2.000000000000000000e+00
4.962372481822968084e-01 2.175407409667969194e+00 -5.978720188140869141e-01 1.800000000000000000e+01
5.673187375068664551e-01 2.483017444610596147e+00 -5.880220532417297363e-01 1.100000000000000000e+01
6.538172960281372070e-01 2.859302520751953125e+00 -5.701372623443603516e-01 1.000000000000000000e+01
7.827804684638977051e-01 3.417798995971680132e+00 -5.553423762321472168e-01 9.000000000000000000e+00
9.680314064025878906e-01 4.219877719879150391e+00 -5.315940976142883301e-01 9.000000000000000000e+00
1.256315112113953081e+00 5.472191810607910156e+00 -4.912097752094268799e-01 9.000000000000000000e+00
1.820336699485779031e+00 7.916255950927734375e+00 -4.257006645202637274e-01 2.000000000000000000e+00
3.307754278182982954e+00 1.436176109313965021e+01 -2.572484612464904785e-01 2.000000000000000000e+00
5.047002434730529785e-01 2.177425861358643022e+00 -5.989072918891906738e-01 1.700000000000000000e+01
5.751012563705444336e-01 2.477225542068481001e+00 -5.871222615242004395e-01 1.100000000000000000e+01
6.646828055381774902e-01 2.860827445983887163e+00 -5.709004998207092285e-01 1.000000000000000000e+01
7.906765341758728027e-01 3.397729873657227007e+00 -5.525265336036682129e-01 9.000000000000000000e+00
9.845579862594604492e-01 4.224205970764160156e+00 -5.325690507888793945e-01 9.000000000000000000e+00
1.276314139366149902e+00 5.471653461456298828e+00 -4.915584027767180841e-01 9.000000000000000000e+00
1.847958564758301003e+00 7.909853458404541016e+00 -4.257006645202637274e-01 2.000000000000000000e+00
3.339641332626343218e+00 1.427224349975585938e+01 -2.558522820472716730e-01 2.000000000000000000e+00
5.131833553314208984e-01 2.179411888122559038e+00 -5.999425649642944336e-01 1.800000000000000000e+01
5.819556713104248047e-01 2.467616081237792969e+00 -5.853226184844970703e-01 1.100000000000000000e+01
6.773707866668701172e-01 2.869954347610474077e+00 -5.731902122497558594e-01 1.000000000000000000e+01
8.038952946662902832e-01 3.400716543197631836e+00 -5.534651279449462891e-01 8.000000000000000000e+00
9.965531826019287109e-01 4.209153175354003906e+00 -5.311065912246704102e-01 9.000000000000000000e+00
1.294946670532227007e+00 5.465226173400878906e+00 -4.913840889930725098e-01 8.000000000000000000e+00
1.870946168899535911e+00 7.883922100067138672e+00 -4.246539473533629816e-01 1.000000000000000000e+00
3.384816408157349077e+00 1.424104404449463068e+01 -2.555032372474669855e-01 2.000000000000000000e+00
5.203384757041931152e-01 2.175728321075439009e+00 -5.994248986244201660e-01 1.900000000000000000e+01
5.887499451637268066e-01 2.457988977432250977e+00 -5.835230350494384766e-01 1.100000000000000000e+01
6.850963830947875977e-01 2.858026504516602007e+00 -5.712821483612060547e-01 1.000000000000000000e+01
8.185279965400695801e-01 3.409414529800415039e+00 -5.553423762321472168e-01 8.000000000000000000e+00
1.011239767074584961e+00 4.205648899078369141e+00 -5.311065912246704102e-01 9.000000000000000000e+00
1.314948201179503950e+00 5.464547157287597656e+00 -4.917326867580413818e-01 8.000000000000000000e+00
1.903134226799011008e+00 7.896759986877441406e+00 -4.257006645202637274e-01 2.000000000000000000e+00
3.434506416320800781e+00 1.422914218902588068e+01 -2.555032372474669855e-01 2.000000000000000000e+00
5.279300212860107422e-01 2.173898696899414062e+00 -5.994248986244201660e-01 1.600000000000000000e+01
6.010107398033142090e-01 2.471067190170288086e+00 -5.871222615242004395e-01 1.100000000000000000e+01
6.922827363014221191e-01 2.844172239303588867e+00 -5.689924359321594238e-01 1.100000000000000000e+01
8.313597440719604492e-01 3.410374879837036133e+00 -5.559681057929992676e-01 8.000000000000000000e+00
1.026855707168579102e+00 4.205950260162354404e+00 -5.315940976142883301e-01 9.000000000000000000e+00
1.339216828346251997e+00 5.481213569641113281e+00 -4.936501383781433105e-01 9.000000000000000000e+00
1.926889657974242942e+00 7.874548435211181641e+00 -4.248632788658142090e-01 2.000000000000000000e+00
3.478442668914794922e+00 1.419375991821289062e+01 -2.550843656063079834e-01 2.000000000000000000e+00
5.359775424003601074e-01 2.173918247222899947e+00 -5.999425649642944336e-01 1.800000000000000000e+01
6.086983680725097656e-01 2.465170383453369141e+00 -5.862224698066711426e-01 1.100000000000000000e+01
7.050323486328125000e-01 2.853173971176147017e+00 -5.712821483612060547e-01 1.100000000000000000e+01
8.423100709915161133e-01 3.403616905212401900e+00 -5.553423762321472168e-01 9.000000000000000000e+00
1.039620757102966087e+00 4.194633007049561435e+00 -5.306191444396972656e-01 9.000000000000000000e+00
1.348748803138732910e+00 5.437829494476318359e+00 -4.901638925075531006e-01 9.000000000000000000e+00
1.956772685050963911e+00 7.877466201782226562e+00 -4.253866374492645264e-01 3.000000000000000000e+00
3.528932332992554155e+00 1.418541240692139027e+01 -2.551541924476624090e-01 2.000000000000000000e+00
5.426247119903564453e-01 2.168286085128784180e+00 -5.989072918891906738e-01 1.700000000000000000e+01
6.201422214508056641e-01 2.474372386932373047e+00 -5.889218449592590332e-01 1.100000000000000000e+01
7.140322327613830566e-01 2.846887111663817915e+00 -5.705189108848571777e-01 1.200000000000000000e+01
8.517795801162719727e-01 3.391076803207397017e+00 -5.537779927253723145e-01 9.000000000000000000e+00
1.054256439208983931e+00 4.190978527069091797e+00 -5.306191444396972656e-01 9.000000000000000000e+00
1.370640516281127930e+00 5.444681167602539062e+00 -4.912097752094268799e-01 9.000000000000000000e+00
1.985723018646240012e+00 7.876397609710693359e+00 -4.257006645202637274e-01 3.000000000000000000e+00
3.570594787597655806e+00 1.414198589324950994e+01 -2.545956969261168878e-01 2.000000000000000000e+00
5.520922541618347168e-01 2.173868417739868164e+00 -6.009778380393981934e-01 1.700000000000000000e+01
6.258935332298278809e-01 2.460860967636107954e+00 -5.862224698066711426e-01 1.100000000000000000e+01
7.254181504249572754e-01 2.850085020065308061e+00 -5.716637372970581055e-01 1.000000000000000000e+01
8.650752305984497070e-01 3.393825292587279829e+00 -5.547165870666503906e-01 9.000000000000000000e+00
1.068879246711730957e+00 4.187273025512695312e+00 -5.306191444396972656e-01 9.000000000000000000e+00
1.392596364021301047e+00 5.451446056365966797e+00 -4.922556281089783270e-01 9.000000000000000000e+00
2.005779504776000977e+00 7.840394020080566406e+00 -4.241305887699127197e-01 3.000000000000000000e+00
3.622915506362915039e+00 1.414105892181395951e+01 -2.548051476478577215e-01 2.000000000000000000e+00
5.579560995101928711e-01 2.168381452560424805e+00 -5.999425649642944336e-01 1.700000000000000000e+01
6.326488852500915527e-01 2.455108404159545898e+00 -5.853226184844970703e-01 1.100000000000000000e+01
7.338781356811523438e-01 2.845890998840332031e+00 -5.712821483612060547e-01 9.000000000000000000e+00
8.742511868476867676e-01 3.385353088378905806e+00 -5.537779927253723145e-01 9.000000000000000000e+00
1.076064348220824973e+00 4.160831928253173828e+00 -5.276942849159240723e-01 1.000000000000000000e+01
1.407219767570496050e+00 5.437399864196777344e+00 -4.913840889930725098e-01 8.000000000000000000e+00
2.032405376434326172e+00 7.841787338256835938e+00 -4.245492815971375067e-01 3.000000000000000000e+00
3.662299394607543945e+00 1.411025238037109020e+01 -2.544560730457305908e-01 2.000000000000000000e+00
5.645458698272705078e-01 2.162682056427001953e+00 -5.989072918891906738e-01 1.700000000000000000e+01
6.422007083892822266e-01 2.456655740737915039e+00 -5.862224698066711426e-01 1.100000000000000000e+01
7.423170804977416992e-01 2.837613821029663086e+00 -5.701372623443603516e-01 1.000000000000000000e+01
8.880653381347656250e-01 3.389924287796020952e+00 -5.550295114517211914e-01 9.000000000000000000e+00
1.092596769332885964e+00 4.164731025695800781e+00 -5.286692380905151367e-01 9.000000000000000000e+00
1.422143936157227007e+00 5.417037963867188388e+00 -4.899895787239075262e-01 9.000000000000000000e+00
2.056210994720458984e+00 7.821124076843261719e+00 -4.238165616989135742e-01 2.000000000000000000e+00
