3.343984222412108664e+01 -4.390564441680908203e+00 7.786455631256104404e+00 9.000000000000000000e+00
3.514811706542968750e+01 -4.627337455749511719e+00 9.499176979064941406e+00 1.400000000000000000e+01
2.389938592910767046e+00 -3.176123201847075861e-01 -6.460123658180236816e-01 2.000000000000000000e+01
2.750693082809447798e+00 -3.665321767330170233e-01 -6.406605839729309082e-01 1.400000000000000000e+01
5.968977355957031250e+01 -7.953712940216063565e+00 3.155858278274536133e+00 6.200000000000000000e+01
3.224535703659058061e+00 -4.302449226379395086e-01 -6.323410272598266602e-01 1.300000000000000000e+01
3.886496543884276900e+00 -5.199502110481262207e-01 -6.210448145866394043e-01 1.100000000000000000e+01
3.633806228637695312e+01 -4.867899417877197266e+00 4.501609802246093750e+00 1.900000000000000000e+01
4.959993362426757812e+00 -6.653290987014770508e-01 -6.144652366638183594e-01 1.200000000000000000e+01
3.511192321777343750e+01 -4.709882259368895596e+00 5.610991477966308594e+00 1.300000000000000000e+01
6.593378543853759766e+00 -8.856014609336853027e-01 -5.820260643959045410e-01 6.000000000000000000e+00
1.026313686370849965e+01 -1.382158994674683061e+00 -5.427238941192626953e-01 2.000000000000000000e+00
3.330457305908203125e+01 -4.491117477416992188e+00 7.758562088012695312e+00 9.000000000000000000e+00
2.027290534973144887e+01 -2.737401485443114790e+00 -3.570762276649475098e-01 3.000000000000000000e+00
3.503219985961914062e+01 -4.736539363861083984e+00 9.472259521484375000e+00 7.000000000000000000e+00
2.384987115859984907e+00 -3.254304826259613037e-01 -6.449770331382751465e-01 1.700000000000000000e+01
2.753258466720581055e+00 -3.766599297523499090e-01 -6.415604352951049805e-01 1.300000000000000000e+01
3.221069097518920898e+00 -4.412315785884857178e-01 -6.319593787193298340e-01 1.300000000000000000e+01
3.850502777099608664e+01 -5.281379699707031250e+00 3.400294065475463867e+00 5.100000000000000000e+01
3.884657859802246094e+00 -5.335134267807006836e-01 -6.210448145866394043e-01 1.000000000000000000e+01
3.599439620971679688e+01 -4.949820995330811435e+00 4.461149215698242188e+00 1.900000000000000000e+01
4.963540077209472656e+00 -6.834509968757629395e-01 -6.151964664459228516e-01 1.000000000000000000e+01
3.515789031982421875e+01 -4.841039657592773438e+00 5.621003150939941406e+00 1.300000000000000000e+01
6.592220783233642578e+00 -9.088833332061767578e-01 -5.822003483772277832e-01 5.000000000000000000e+00
1.024242210388183949e+01 -1.415787816047668013e+00 -5.418865084648132324e-01 2.000000000000000000e+00
3.336977005004882812e+01 -4.618566036224365234e+00 7.777457714080811435e+00 9.000000000000000000e+00
3.492934417724608664e+01 -4.846847057342529297e+00 9.448966026306152344e+00 1.400000000000000000e+01
2.376241922378540039e+00 -3.322674930095673163e-01 -6.429064869880676270e-01 1.900000000000000000e+01
5.965894699096679688e+01 -8.352665901184082031e+00 1.051507472991942915e+00 6.300000000000000000e+01
2.755853891372681108e+00 -3.863290846347808838e-01 -6.424602270126342773e-01 1.200000000000000000e+01
3.217643976211547852e+00 -4.516377151012421209e-01 -6.315777897834777832e-01 1.300000000000000000e+01
3.884823322296143022e+00 -5.466677546501159668e-01 -6.213576793670654297e-01 9.000000000000000000e+00
3.909141921997070312e+01 -5.507856369018554688e+00 4.847231388092041016e+00 2.000000000000000000e+01
4.965178012847900391e+00 -7.004615664482116699e-01 -6.156839132308959961e-01 1.000000000000000000e+01
6.571415424346923828e+00 -9.282310009002685547e-01 -5.806315541267395020e-01 5.000000000000000000e+00
3.400285339355468750e+01 -4.809052467346191406e+00 6.675261974334716797e+00 5.900000000000000000e+01
1.028908729553223012e+01 -1.457026004791259988e+00 -5.446079373359680176e-01 2.000000000000000000e+00
3.460600662231445312e+01 -4.912840366363525391e+00 9.365626335144042969e+00 7.000000000000000000e+00
2.388453722000122070e+00 -3.424795269966124933e-01 -6.465299725532531738e-01 1.900000000000000000e+01
5.972839736938477273e+01 -8.575072288513183594e+00 1.053252696990967019e+00 6.200000000000000000e+01
2.754488468170166016e+00 -3.959464430809020996e-01 -6.424602270126342773e-01 1.300000000000000000e+01
3.217991113662720171e+00 -4.631462991237639826e-01 -6.319593787193298340e-01 1.300000000000000000e+01
3.880936384201049805e+00 -5.599429011344909668e-01 -6.210448145866394043e-01 1.000000000000000000e+01
4.038830184936522727e+01 -5.834434986114501953e+00 5.010536193847656250e+00 2.400000000000000000e+01
4.984313488006591797e+00 -7.209147214889526367e-01 -6.183650493621826172e-01 9.000000000000000000e+00
6.595740795135498047e+00 -9.551615118980407715e-01 -5.830719470977783203e-01 4.000000000000000000e+00
3.403248977661132812e+01 -4.934476375579833984e+00 6.684420585632324219e+00 5.900000000000000000e+01
1.030765724182129084e+01 -1.496376037597656028e+00 -5.458640456199645996e-01 2.000000000000000000e+00
3.570186996459960938e+01 -5.189249515533447266e+00 8.329037666320800781e+00 1.000000000000000000e+01
3.452468109130858664e+01 -5.030452728271484375e+00 9.348544120788574219e+00 1.400000000000000000e+01
2.389154911041260210e+00 -3.510955572128295898e-01 -6.470476388931274414e-01 2.000000000000000000e+01
5.989593887329102273e+01 -8.812620162963867188e+00 1.056743264198303001e+00 6.200000000000000000e+01
2.745378017425537109e+00 -4.044229686260222834e-01 -6.406605839729309082e-01 1.400000000000000000e+01
3.224123716354370117e+00 -4.755222201347351074e-01 -6.334858536720275879e-01 1.300000000000000000e+01
3.880912303924560991e+00 -5.737754106521606445e-01 -6.213576793670654297e-01 1.100000000000000000e+01
4.977839469909667969e+00 -7.377268075942993164e-01 -6.178775429725646973e-01 1.000000000000000000e+01
3.521951293945313211e+01 -5.219609260559082031e+00 5.639149665832520419e+00 1.300000000000000000e+01
6.602220535278320312e+00 -9.796412587165832520e-01 -5.839434862136840820e-01 5.000000000000000000e+00
3.410438919067382812e+01 -5.066512584686279297e+00 6.701975345611572266e+00 5.900000000000000000e+01
1.024310493469237926e+01 -1.523532271385193093e+00 -5.427238941192626953e-01 2.000000000000000000e+00
3.618734359741210938e+01 -5.395321369171142578e+00 9.803547859191894531e+00 7.000000000000000000e+00
2.389825105667113814e+00 -3.597206771373748779e-01 -6.475652456283569336e-01 1.900000000000000000e+01
3.773806762695313211e+01 -5.687135696411132812e+00 6.661583781242370605e-01 3.100000000000000000e+01
2.743949413299560991e+00 -4.140036702156066895e-01 -6.406605839729309082e-01 1.300000000000000000e+01
3.216620683670043945e+00 -4.858939051628112793e-01 -6.323410272598266602e-01 1.300000000000000000e+01
3.884745121002196822e+00 -5.882059931755065918e-01 -6.222962737083435059e-01 1.000000000000000000e+01
4.951682567596436435e+00 -7.515237927436828613e-01 -6.149526834487915039e-01 1.000000000000000000e+01
6.616488456726074219e+00 -1.005375146865844949e+00 -5.855122804641723633e-01 5.000000000000000000e+00
3.414472198486328125e+01 -5.194386482238770419e+00 6.713423728942871094e+00 5.900000000000000000e+01
1.028906154632568004e+01 -1.567097067832946999e+00 -5.454453229904174805e-01 2.000000000000000000e+00
2.059026718139648082e+01 -3.143398284912108931e+00 -3.635685443878173828e-01 3.000000000000000000e+00
4.197273635864257812e+01 -6.415234088897705078e+00 1.137716770172118963e+01 1.100000000000000000e+01
2.382827043533325195e+00 -3.671779036521912176e-01 -6.460123658180236816e-01 2.000000000000000000e+01
3.764288330078125000e+01 -5.807245731353759766e+00 6.648319959640502930e-01 3.100000000000000000e+01
2.742487668991088867e+00 -4.235793352127075195e-01 -6.406605839729309082e-01 1.400000000000000000e+01
3.205204010009766069e+00 -4.956189692020416260e-01 -6.304329037666320801e-01 1.200000000000000000e+01
3.890476465225220171e+00 -6.029729247093200684e-01 -6.235477924346923828e-01 1.000000000000000000e+01
3.666853332519531250e+01 -5.689695835113525391e+00 4.556207180023193359e+00 1.900000000000000000e+01
4.962759971618652344e+00 -7.709368467330932617e-01 -6.166588664054870605e-01 1.000000000000000000e+01
3.526419448852539062e+01 -5.478094100952148438e+00 5.652289867401123047e+00 1.300000000000000000e+01
6.603095054626464844e+00 -1.026933908462523970e+00 -5.846407413482666016e-01 6.000000000000000000e+00
3.422337722778320312e+01 -5.328644275665283203e+00 6.732504367828369141e+00 5.900000000000000000e+01
1.035457134246825994e+01 -1.614077329635619895e+00 -5.492135286331176758e-01 2.000000000000000000e+00
2.381530761718750000e+00 -3.754932880401610773e-01 -6.460123658180236816e-01 1.800000000000000000e+01
3.769744110107421875e+01 -5.950456619262695312e+00 6.661583781242370605e-01 3.100000000000000000e+01
2.758316040039062944e+00 -4.358874261379241943e-01 -6.447097063064575195e-01 1.500000000000000000e+01
3.209271669387816939e+00 -5.077245831489562988e-01 -6.315777897834777832e-01 1.100000000000000000e+01
3.898102998733520952e+00 -6.180962920188903809e-01 -6.251121163368225098e-01 9.000000000000000000e+00
4.969841480255126953e+00 -7.898132205009460449e-01 -6.178775429725646973e-01 9.000000000000000000e+00
3.573159027099608664e+01 -5.684902191162109375e+00 5.730507373809813565e+00 1.300000000000000000e+01
6.601438045501708984e+00 -1.050289869308471902e+00 -5.848150253295898438e-01 5.000000000000000000e+00
1.035676383972167969e+01 -1.651469707489013894e+00 -5.496321916580200195e-01 2.000000000000000000e+00
3.671157455444335938e+01 -5.873670101165770596e+00 9.961944580078125000e+00 8.000000000000000000e+00
2.382179737091064009e+00 -3.836958706378936768e-01 -6.465299725532531738e-01 1.900000000000000000e+01
2.739540815353393999e+00 -4.422369003295897882e-01 -6.406605839729309082e-01 1.200000000000000000e+01
3.777735519409179688e+01 -6.105064392089843750e+00 2.005513906478881836e+00 2.100000000000000000e+01
3.207570552825928178e+00 -5.183640718460083008e-01 -6.315777897834777832e-01 1.200000000000000000e+01
3.868732452392578125e+00 -6.265979409217834473e-01 -6.207319498062133789e-01 1.000000000000000000e+01
3.844345474243164062e+01 -6.233366489410400391e+00 4.781909465789794922e+00 2.000000000000000000e+01
4.986789226531982422e+00 -8.094701170921325684e-01 -6.203149557113647461e-01 9.000000000000000000e+00
6.623484611511229581e+00 -1.076329708099365012e+00 -5.870810747146606445e-01 8.000000000000000000e+00
3.708910751342772727e+01 -6.033699989318847656e+00 7.304168224334716797e+00 6.200000000000000000e+01
1.032363224029541016e+01 -1.681310296058655007e+00 -5.481668114662170410e-01 2.000000000000000000e+00
2.078179550170898082e+01 -3.391977310180664062e+00 -3.675476908683776855e-01 3.000000000000000000e+00
3.558710098266602273e+01 -5.808479785919188565e+00 9.661714553833007812e+00 7.000000000000000000e+00
2.380825996398925781e+00 -3.920088708400725763e-01 -6.465299725532531738e-01 1.600000000000000000e+01
5.993204116821289062e+01 -9.878703117370605469e+00 1.060233712196350098e+00 6.100000000000000000e+01
2.743748664855957031e+00 -4.527488052845001221e-01 -6.420103311538696289e-01 1.300000000000000000e+01
3.230922460556029829e+00 -5.337170958518981934e-01 -6.365388035774230957e-01 1.100000000000000000e+01
3.880163669586182085e+00 -6.423569321632385254e-01 -6.229220628738403320e-01 1.000000000000000000e+01
3.749710464477539062e+01 -6.214329719543457031e+00 4.666864871978759766e+00 2.000000000000000000e+01
4.964350223541259766e+00 -8.236232995986938477e-01 -6.178775429725646973e-01 9.000000000000000000e+00
3.571934890747070312e+01 -5.932516574859619141e+00 5.734887599945068359e+00 1.300000000000000000e+01
6.600032329559326172e+00 -1.096179008483886941e+00 -5.853379964828491211e-01 6.000000000000000000e+00
1.033740234375000000e+01 -1.720615506172179954e+00 -5.492135286331176758e-01 2.000000000000000000e+00
3.409474182128906250e+01 -5.681036949157714844e+00 7.979913711547851562e+00 1.000000000000000000e+01
2.093945884704589844e+01 -3.492793560028076172e+00 -3.705494999885559082e-01 3.000000000000000000e+00
3.480147933959960938e+01 -5.811283111572265625e+00 9.454141616821289062e+00 1.400000000000000000e+01
2.392778635025023970e+00 -4.025606811046599787e-01 -6.501534581184387207e-01 1.800000000000000000e+01
5.970000076293945312e+01 -1.005463409423827947e+01 1.056743264198303001e+00 6.200000000000000000e+01
2.747916460037231001e+00 -4.632954597473145086e-01 -6.433600187301635742e-01 1.300000000000000000e+01
3.793075180053710938e+01 -6.401888370513916016e+00 2.015980958938599077e+00 2.200000000000000000e+01
3.205809354782104048e+00 -5.410710573196411133e-01 -6.319593787193298340e-01 1.100000000000000000e+01
3.885688543319702148e+00 -6.572150588035583496e-01 -6.241735219955444336e-01 1.100000000000000000e+01
3.737732315063477273e+01 -6.328611373901367188e+00 4.654677867889404297e+00 4.000000000000000000e+01
4.981016635894775391e+00 -8.442644476890563965e-01 -6.203149557113647461e-01 9.000000000000000000e+00
6.645273685455322266e+00 -1.127543210983275923e+00 -5.896957516670227051e-01 6.000000000000000000e+00
1.039040279388427912e+01 -1.766733288764954057e+00 -5.523536801338195801e-01 2.000000000000000000e+00
3.403628158569335938e+01 -5.793475151062011719e+00 7.970915794372558594e+00 1.000000000000000000e+01
2.089953994750976918e+01 -3.561162233352661133e+00 -3.700608313083649237e-01 3.000000000000000000e+00
3.481439208984375000e+01 -5.932173252105712891e+00 9.462942123413085938e+00 7.000000000000000000e+00
2.381839036941527876e+00 -4.092748165130615234e-01 -6.475652456283569336e-01 1.600000000000000000e+01
2.744362115859984907e+00 -4.725539684295653742e-01 -6.429101228713989258e-01 1.300000000000000000e+01
3.207770586013793945e+00 -5.529251098632812500e-01 -6.327226161956787109e-01 1.100000000000000000e+01
3.891156911849976030e+00 -6.721194982528686523e-01 -6.254249811172485352e-01 1.100000000000000000e+01
4.976083278656005859e+00 -8.613077402114868164e-01 -6.200712323188781738e-01 1.000000000000000000e+01
6.623629093170166016e+00 -1.147671341896056907e+00 -5.881269574165344238e-01 6.000000000000000000e+00
3.779764175415039062e+01 -6.555964469909667969e+00 7.456815719604492188e+00 6.200000000000000000e+01
1.038417243957520064e+01 -1.802991747856139915e+00 -5.523536801338195801e-01 2.000000000000000000e+00
2.093032455444335938e+01 -3.641634464263916016e+00 -3.708287179470062256e-01 3.000000000000000000e+00
3.477148056030272727e+01 -6.056088447570800781e+00 9.457247734069824219e+00 1.400000000000000000e+01
2.378493070602416992e+00 -4.172526895999907892e-01 -6.470476388931274414e-01 1.800000000000000000e+01
2.752292394638061968e+00 -4.838176369667053223e-01 -6.451596021652221680e-01 1.300000000000000000e+01
3.205821037292480025e+00 -5.641189813613891602e-01 -6.327226161956787109e-01 1.200000000000000000e+01
3.884896516799927202e+00 -6.850120425224304199e-01 -6.247992515563964844e-01 1.000000000000000000e+01
3.846996688842772727e+01 -6.790216445922851562e+00 4.796533584594726562e+00 2.000000000000000000e+01
4.986730098724365234e+00 -8.810899853706359863e-01 -6.217774152755737305e-01 9.000000000000000000e+00
3.591703033447266336e+01 -6.346069335937500000e+00 5.776812076568604404e+00 1.300000000000000000e+01
6.611734867095947266e+00 -1.169397115707397017e+00 -5.874297022819519043e-01 6.000000000000000000e+00
1.043681430816650035e+01 -1.849684357643126997e+00 -5.554938316345214844e-01 2.000000000000000000e+00
3.437108612060546875e+01 -6.097669601440429688e+00 8.059096336364746094e+00 1.000000000000000000e+01
2.091354751586914062e+01 -3.713973522186278853e+00 -3.707589209079741877e-01 3.000000000000000000e+00
3.470745849609375000e+01 -6.163592338562011719e+00 9.445342063903808594e+00 7.000000000000000000e+00
2.367514133453369141e+00 -4.238504171371459961e-01 -6.444594264030456543e-01 1.900000000000000000e+01
2.740996122360229048e+00 -4.917015433311461847e-01 -6.429101228713989258e-01 1.300000000000000000e+01
3.221223354339600053e+00 -5.784288048744201660e-01 -6.361572146415710449e-01 1.200000000000000000e+01
3.870816707611083984e+00 -6.964698433876037598e-01 -6.229220628738403320e-01 1.100000000000000000e+01
3.832881164550781250e+01 -6.903347969055175781e+00 4.781909465789794922e+00 2.000000000000000000e+01
4.975809574127197266e+00 -8.970827460289001465e-01 -6.208024621009826660e-01 9.000000000000000000e+00
6.631141185760498047e+00 -1.196715354919434038e+00 -5.895214676856994629e-01 5.000000000000000000e+00
1.040670967102050959e+01 -1.881839632987976074e+00 -5.542377829551696777e-01 2.000000000000000000e+00
3.421152877807617188e+01 -6.192618370056152344e+00 8.026703834533691406e+00 1.000000000000000000e+01
2.072730255126953125e+01 -3.755578994750977007e+00 -3.676872849464417059e-01 1.000000000000000000e+01
3.529021835327147727e+01 -6.394233226776123047e+00 9.609951019287109375e+00 7.000000000000000000e+00
2.383199930191040039e+00 -4.348197579383850098e-01 -6.491181850433349609e-01 2.000000000000000000e+01
2.727848768234252930e+00 -4.986856281757354736e-01 -6.402106881141662598e-01 1.300000000000000000e+01
3.225081205368041992e+00 -5.901677608489990234e-01 -6.373020410537719727e-01 1.100000000000000000e+01
3.874314785003662109e+00 -7.103708982467651367e-01 -6.238606572151184082e-01 1.100000000000000000e+01
4.980617046356201172e+00 -9.150128960609436035e-01 -6.217774152755737305e-01 9.000000000000000000e+00
6.662407875061035156e+00 -1.225184798240662065e+00 -5.926590561866760254e-01 5.000000000000000000e+00
1.043969535827637074e+01 -1.923577427864074929e+00 -5.563312172889709473e-01 2.000000000000000000e+00
3.323642730712891336e+01 -6.130012035369873047e+00 7.802652359008789062e+00 9.000000000000000000e+00
3.521752548217772727e+01 -6.501755237579345703e+00 9.595974922180175781e+00 1.400000000000000000e+01
2.385466098785399947e+00 -4.438427984714508057e-01 -6.501534581184387207e-01 2.000000000000000000e+01
5.971395492553710938e+01 -1.112123680114745916e+01 1.060233712196350098e+00 6.100000000000000000e+01
2.743333101272583008e+00 -5.114188194274902344e-01 -6.442598104476928711e-01 1.300000000000000000e+01
3.213351726531981978e+00 -5.996211767196655273e-01 -6.353939771652221680e-01 1.200000000000000000e+01
3.881520271301269975e+00 -7.257056236267089844e-01 -6.254249811172485352e-01 1.300000000000000000e+01
4.969588279724121094e+00 -9.309309124946594238e-01 -6.208024621009826660e-01 1.000000000000000000e+01
6.634591579437255859e+00 -1.244027256965636985e+00 -5.905672907829284668e-01 6.000000000000000000e+00
1.047610187530517933e+01 -1.968119978904723899e+00 -5.586339831352233887e-01 2.000000000000000000e+00
3.318801498413085938e+01 -6.240949630737304688e+00 7.796353816986083984e+00 1.900000000000000000e+01
1.977958679199219105e+01 -3.723091840744018999e+00 -3.513169288635253906e-01 1.000000000000000000e+01
3.533964157104492188e+01 -6.658331871032714844e+00 9.635832786560058594e+00 7.000000000000000000e+00
2.385879039764403853e+00 -4.521105289459229071e-01 -6.506710648536682129e-01 2.100000000000000000e+01
2.739707469940185991e+00 -5.201497077941894531e-01 -6.438099145889282227e-01 1.300000000000000000e+01
3.209416866302489790e+00 -6.099072098731994629e-01 -6.350123286247253418e-01 1.100000000000000000e+01
3.890735387802124023e+00 -7.407900094985961914e-01 -6.273022294044494629e-01 1.100000000000000000e+01
4.980123519897460938e+00 -9.500093460083007812e-01 -6.225085854530334473e-01 1.000000000000000000e+01
6.648042678833007812e+00 -1.269384503364562988e+00 -5.921361446380615234e-01 5.000000000000000000e+00
1.047344112396240057e+01 -2.003599643707274947e+00 -5.588433146476745605e-01 2.000000000000000000e+00
3.321115875244141336e+01 -6.359399795532226562e+00 7.806701183319091797e+00 1.900000000000000000e+01
1.979659080505371094e+01 -3.794309139251708984e+00 -3.518405258655548096e-01 3.000000000000000000e+00
2.371008872985839844e+00 -4.578719437122344971e-01 -6.470476388931274414e-01 1.800000000000000000e+01
2.743614912033081055e+00 -5.308204293251037598e-01 -6.451596021652221680e-01 1.300000000000000000e+01
3.199558496475220171e+00 -6.196134090423583984e-01 -6.334858536720275879e-01 1.100000000000000000e+01
3.890065193176269975e+00 -7.547429800033569336e-01 -6.276150941848754883e-01 1.100000000000000000e+01
4.984571456909179688e+00 -9.689025282859802246e-01 -6.234835386276245117e-01 1.000000000000000000e+01
3.618982696533203125e+01 -7.041144371032714844e+00 5.839385509490966797e+00 1.300000000000000000e+01
6.641615867614746094e+00 -1.292202353477478027e+00 -5.919618010520935059e-01 6.000000000000000000e+00
1.048206615447998047e+01 -2.043203592300415039e+00 -5.596807003021240234e-01 2.000000000000000000e+00
3.325761413574218750e+01 -6.488724231719970703e+00 7.822897911071777344e+00 1.900000000000000000e+01
2.081556510925292969e+01 -4.064990520477294922e+00 -3.702004551887512207e-01 1.000000000000000000e+01
2.378955364227294922e+00 -4.675949215888977051e-01 -6.496357917785644531e-01 1.900000000000000000e+01
2.739927530288695845e+00 -5.395391583442687988e-01 -6.447097063064575195e-01 1.300000000000000000e+01
3.210969686508179155e+00 -6.328776478767395020e-01 -6.361572146415710449e-01 1.200000000000000000e+01
3.881726980209351030e+00 -7.664906978607177734e-01 -6.266764402389526367e-01 1.000000000000000000e+01
3.762222671508789062e+01 -7.435754776000976562e+00 4.708787918090820312e+00 2.000000000000000000e+01
4.991067886352539062e+00 -9.873527884483337402e-01 -6.247022747993469238e-01 9.000000000000000000e+00
3.771778488159179688e+01 -7.461481571197509766e+00 6.089680671691895419e+00 1.400000000000000000e+01
6.641202926635742188e+00 -1.314993619918823020e+00 -5.923104286193847656e-01 5.000000000000000000e+00
1.047523307800292969e+01 -2.077952146530150923e+00 -5.596807003021240234e-01 2.000000000000000000e+00
3.359717559814453125e+01 -6.670702457427979404e+00 7.907929420471191406e+00 9.000000000000000000e+00
2.030379104614258168e+01 -4.034991264343261719e+00 -3.613346219062805176e-01 6.000000000000000000e+00
2.381097078323363814e+00 -4.766545593738555908e-01 -6.506710648536682129e-01 1.900000000000000000e+01
2.732295513153076172e+00 -5.479504466056823730e-01 -6.433600187301635742e-01 1.400000000000000000e+01
3.222214937210083008e+00 -6.467867493629455566e-01 -6.388285160064697266e-01 1.100000000000000000e+01
3.879027843475341797e+00 -7.800357937812805176e-01 -6.266764402389526367e-01 1.000000000000000000e+01
3.762328720092772727e+01 -7.572519302368164062e+00 4.712200164794921875e+00 2.000000000000000000e+01
4.979806900024414062e+00 -1.003200769424438032e+00 -6.237273216247558594e-01 9.000000000000000000e+00
3.846474456787108664e+01 -7.755853176116943359e+00 6.214828491210938388e+00 1.400000000000000000e+01
6.679540157318115234e+00 -1.346831560134887917e+00 -5.961452722549438477e-01 5.000000000000000000e+00
1.046008491516112926e+01 -2.112923145294189009e+00 -5.592620372772216797e-01 2.000000000000000000e+00
3.369593048095703125e+01 -6.812653541564941406e+00 7.936723232269287109e+00 9.000000000000000000e+00
1.970159149169921875e+01 -3.986853122711182085e+00 -3.508631885051726740e-01 6.000000000000000000e+00
3.524572372436522727e+01 -7.138798713684082031e+00 9.635832786560058594e+00 7.000000000000000000e+00
2.383034944534302202e+00 -4.865667223930358887e-01 -6.517063379287719727e-01 1.900000000000000000e+01
2.733989715576171875e+00 -5.592186450958251953e-01 -6.442598104476928711e-01 1.400000000000000000e+01
3.215861082077025923e+00 -6.583668589591979980e-01 -6.380652785301208496e-01 1.300000000000000000e+01
3.887614727020264116e+00 -7.973055839538574219e-01 -6.285536885261535645e-01 1.000000000000000000e+01
3.756670761108397727e+01 -7.711338043212890625e+00 4.708787918090820312e+00 2.000000000000000000e+01
4.983695983886718750e+00 -1.023912429809570090e+00 -6.247022747993469238e-01 9.000000000000000000e+00
6.670416355133056641e+00 -1.371666550636291948e+00 -5.957966446876525879e-01 6.000000000000000000e+00
3.507458114624022727e+01 -7.218917846679688388e+00 6.960711956024169922e+00 6.000000000000000000e+01
1.047928142547607067e+01 -2.158712863922119141e+00 -5.607274174690246582e-01 2.000000000000000000e+00
1.813897895812987926e+01 -3.743197202682495117e+00 -3.232883810997009277e-01 9.000000000000000000e+00
3.556744766235352273e+01 -7.339772701263427734e+00 9.731078147888183594e+00 7.000000000000000000e+00
2.385104894638061968e+00 -4.956682622432708740e-01 -6.527416110038757324e-01 2.100000000000000000e+01
2.739652395248413086e+00 -5.703473687171936035e-01 -6.460594534873962402e-01 1.400000000000000000e+01
3.205855369567871094e+00 -6.679864525794982910e-01 -6.365388035774230957e-01 1.300000000000000000e+01
3.880940437316894975e+00 -8.100638389587402344e-01 -6.279279589653015137e-01 1.000000000000000000e+01
3.702268600463867188e+01 -7.734442234039306641e+00 4.643953323364257812e+00 1.900000000000000000e+01
4.983977794647216797e+00 -1.042115092277527078e+00 -6.251897215843200684e-01 1.000000000000000000e+01
6.671438217163085938e+00 -1.396166563034058061e+00 -5.963196158409118652e-01 6.000000000000000000e+00
1.051077747344971058e+01 -2.203475236892700195e+00 -5.628208518028259277e-01 2.000000000000000000e+00
3.335137557983397727e+01 -6.997845649719238281e+00 7.867438316345214844e+00 9.000000000000000000e+00
1.801229476928710938e+01 -3.782654523849486861e+00 -3.212639093399047852e-01 3.000000000000000000e+00
3.552648544311522727e+01 -7.460705280303955078e+00 9.726937294006347656e+00 7.000000000000000000e+00
2.366349697113037109e+00 -5.003937482833862305e-01 -6.480829119682312012e-01 2.000000000000000000e+01
2.749083518981934038e+00 -5.823301076889038086e-01 -6.487588286399841309e-01 1.400000000000000000e+01
3.203504085540771040e+00 -6.791728734970092773e-01 -6.365388035774230957e-01 1.300000000000000000e+01
3.874224662780762163e+00 -8.227851390838623047e-01 -6.273022294044494629e-01 1.000000000000000000e+01
3.736827087402343750e+01 -7.942871570587158203e+00 4.690751075744628906e+00 2.000000000000000000e+01
4.986134529113770419e+00 -1.060745239257812944e+00 -6.259209513664245605e-01 1.000000000000000000e+01
3.625464248657227273e+01 -7.712775707244873047e+00 5.870672702789306641e+00 1.300000000000000000e+01
6.684062004089354581e+00 -1.423180103302001953e+00 -5.978884100914001465e-01 6.000000000000000000e+00
1.048739528656006037e+01 -2.236818313598632812e+00 -5.619835257530212402e-01 2.000000000000000000e+00
4.182661819458007812e+01 -8.928679466247558594e+00 9.874001502990722656e+00 1.300000000000000000e+01
1.800680351257323863e+01 -3.847177267074584961e+00 -3.214035034179688055e-01 6.000000000000000000e+00
3.735782241821289062e+01 -7.988365650177001953e+00 1.023629283905028942e+01 8.000000000000000000e+00
2.370254516601562944e+00 -5.098695755004882812e-01 -6.496357917785644531e-01 2.100000000000000000e+01
2.735603809356689009e+00 -5.894597172737121582e-01 -6.460594534873962402e-01 1.400000000000000000e+01
3.210709571838378906e+00 -6.924204826354980469e-01 -6.384469270706176758e-01 1.200000000000000000e+01
3.875190734863280806e+00 -8.371379375457763672e-01 -6.279279589653015137e-01 1.000000000000000000e+01
3.746449661254882812e+01 -8.100111007690429688e+00 4.706350326538085938e+00 2.000000000000000000e+01
4.999863147735595703e+00 -1.081922173500061035e+00 -6.281145811080932617e-01 9.000000000000000000e+00
6.671264648437500000e+00 -1.444816231727600098e+00 -5.971911549568176270e-01 5.000000000000000000e+00
1.055369377136229936e+01 -2.289502859115601030e+00 -5.659610033035278320e-01 2.000000000000000000e+00
3.797153472900391336e+01 -8.258308410644531250e+00 1.041229057312012074e+01 8.000000000000000000e+00
2.379783630371094194e+00 -5.206173658370971680e-01 -6.527416110038757324e-01 2.100000000000000000e+01
2.729722499847412109e+00 -5.981708765029907227e-01 -6.451596021652221680e-01 1.300000000000000000e+01
3.217861413955688032e+00 -7.057265639305114746e-01 -6.403549909591674805e-01 1.200000000000000000e+01
3.878032922744750977e+00 -8.519313335418701172e-01 -6.288665533065795898e-01 9.000000000000000000e+00
4.999933719635009766e+00 -1.100221514701843040e+00 -6.286020874977111816e-01 9.000000000000000000e+00
6.681746959686279297e+00 -1.471522569656372070e+00 -5.985856652259826660e-01 5.000000000000000000e+00
1.054563808441161932e+01 -2.326328277587891069e+00 -5.659610033035278320e-01 2.000000000000000000e+00
3.631712341308593750e+01 -8.018068313598632812e+00 8.586381912231445312e+00 1.100000000000000000e+01
1.911982345581055043e+01 -4.224760532379150391e+00 -3.417879343032836914e-01 3.000000000000000000e+00
2.372294425964355025e+00 -5.276628732681274414e-01 -6.511887311935424805e-01 1.900000000000000000e+01
2.727617740631103960e+00 -6.076957583427429199e-01 -6.451596021652221680e-01 1.400000000000000000e+01
3.211545944213867188e+00 -7.161001563072204590e-01 -6.395917534828186035e-01 1.200000000000000000e+01
3.882747173309326172e+00 -8.671852946281433105e-01 -6.301180124282836914e-01 1.000000000000000000e+01
4.986376762390136719e+00 -1.115501046180725098e+00 -6.273833513259887695e-01 1.000000000000000000e+01
6.694067955017089844e+00 -1.498755097389220969e+00 -6.001544594764709473e-01 5.000000000000000000e+00
1.053745365142822088e+01 -2.363125085830688032e+00 -5.659610033035278320e-01 2.000000000000000000e+00
3.628891372680664062e+01 -8.144790649414062500e+00 8.586381912231445312e+00 1.100000000000000000e+01
1.866791725158691051e+01 -4.193304538726806641e+00 -3.339692354202271063e-01 6.000000000000000000e+00
2.366856098175048828e+00 -5.342622995376586914e-01 -6.501534581184387207e-01 1.900000000000000000e+01
4.580066299438477273e+01 -1.034682750701903942e+01 8.195999264717102051e-01 5.400000000000000000e+01
2.737099885940552202e+00 -6.188402771949768066e-01 -6.478590369224548340e-01 1.400000000000000000e+01
3.205450534820557085e+00 -7.253194451332092285e-01 -6.388285160064697266e-01 1.100000000000000000e+01
3.887709617614746094e+00 -8.811255693435668945e-01 -6.313694715499877930e-01 1.100000000000000000e+01
5.006077766418457031e+00 -1.136434197425842063e+00 -6.303082704544067383e-01 1.000000000000000000e+01
3.607693862915039062e+01 -8.189857482910156250e+00 5.859409332275390625e+00 1.300000000000000000e+01
6.664068698883056641e+00 -1.514039278030395952e+00 -5.978884100914001465e-01 7.000000000000000000e+00
1.060787582397460938e+01 -2.413944721221923828e+00 -5.701479315757751465e-01 3.000000000000000000e+00
1.867414855957030895e+01 -4.256374835968017578e+00 -3.343183100223541260e-01 3.000000000000000000e+00
3.792517089843750000e+01 -8.644235610961914062e+00 1.042264270782471058e+01 8.000000000000000000e+00
2.364976882934569868e+00 -5.425209403038024902e-01 -6.501534581184387207e-01 2.000000000000000000e+01
2.736822128295897993e+00 -6.288271546363830566e-01 -6.483089327812194824e-01 1.500000000000000000e+01
3.210552453994750977e+00 -7.382639646530151367e-01 -6.403549909591674805e-01 1.300000000000000000e+01
3.888460159301757812e+00 -8.955775499343872070e-01 -6.319952607154846191e-01 1.100000000000000000e+01
5.000145912170410156e+00 -1.153455495834351030e+00 -6.300644874572753906e-01 9.000000000000000000e+00
3.600193405151367188e+01 -8.305083274841308594e+00 5.851900577545166016e+00 1.300000000000000000e+01
6.670391082763671875e+00 -1.539981126785278098e+00 -5.989342927932739258e-01 5.000000000000000000e+00
1.058771038055419922e+01 -2.448258638381958008e+00 -5.695198774337768555e-01 2.000000000000000000e+00
1.806110191345214844e+01 -4.183017253875732422e+00 -3.236025273799896240e-01 9.000000000000000000e+00
3.672642135620117188e+01 -8.512726783752441406e+00 1.010170745849609020e+01 8.000000000000000000e+00
2.366735219955443892e+00 -5.520630478858947754e-01 -6.511887311935424805e-01 2.000000000000000000e+01
2.725010871887207031e+00 -6.366372108459472656e-01 -6.460594534873962402e-01 1.300000000000000000e+01
3.209736824035644975e+00 -7.504732608795166016e-01 -6.407365798950195312e-01 1.200000000000000000e+01
3.871688365936278853e+00 -9.066705703735351562e-01 -6.298051476478576660e-01 1.000000000000000000e+01
4.999750137329101562e+00 -1.172680735588073953e+00 -6.305519938468933105e-01 9.000000000000000000e+00
3.597125244140625000e+01 -8.436981201171875000e+00 5.851900577545166016e+00 1.300000000000000000e+01
6.676340103149414062e+00 -1.567150831222533958e+00 -5.999801158905029297e-01 3.000000000000000000e+00
1.061755084991455078e+01 -2.496189832687377930e+00 -5.716133117675781250e-01 3.000000000000000000e+00
3.791036987304688211e+01 -8.919723510742187500e+00 8.991293907165527344e+00 1.200000000000000000e+01
1.804954147338866832e+01 -4.250102996826171875e+00 -3.236723244190216064e-01 1.200000000000000000e+01
3.674161148071289062e+01 -8.651500701904296875e+00 1.011413097381591975e+01 8.000000000000000000e+00
2.366673469543457031e+00 -5.607665181159973145e-01 -6.517063379287719727e-01 2.100000000000000000e+01
2.715187788009643999e+00 -6.443455219268798828e-01 -6.442598104476928711e-01 1.400000000000000000e+01
3.212827920913695845e+00 -7.630336880683898926e-01 -6.418814659118652344e-01 1.200000000000000000e+01
3.876186847686768022e+00 -9.220082163810729980e-01 -6.310566067695617676e-01 1.000000000000000000e+01
4.248293304443358664e+01 -1.011302661895751953e+01 5.362007141113281250e+00 3.300000000000000000e+01
4.993695259094238281e+00 -1.189665913581847922e+00 -6.303082704544067383e-01 1.000000000000000000e+01
3.615145492553710938e+01 -8.619159698486328125e+00 5.886315822601318359e+00 1.300000000000000000e+01
6.688271522521972656e+00 -1.594604730606079102e+00 -6.015489101409912109e-01 5.000000000000000000e+00
1.061654281616210938e+01 -2.535092353820800781e+00 -5.720319747924804688e-01 3.000000000000000000e+00
3.778802490234375000e+01 -9.030260086059570312e+00 8.969697952270507812e+00 1.200000000000000000e+01
1.795485687255859020e+01 -4.294011592864990234e+00 -3.222412467002869207e-01 9.000000000000000000e+00
3.633765411376953125e+01 -8.697072982788085938e+00 1.001163864135742010e+01 8.000000000000000000e+00
2.372413873672484907e+00 -5.700041055679321289e-01 -6.537768840789794922e-01 2.200000000000000000e+01
2.716939210891724077e+00 -6.537842154502868652e-01 -6.451596021652221680e-01 1.400000000000000000e+01
3.206597566604613814e+00 -7.722040414810180664e-01 -6.411182284355163574e-01 1.200000000000000000e+01
3.873271226882935014e+00 -9.341810941696166992e-01 -6.310566067695617676e-01 1.100000000000000000e+01
4.999580860137938565e+00 -1.207678794860840066e+00 -6.315269470214843750e-01 1.000000000000000000e+01
6.689038753509520596e+00 -1.617013096809386985e+00 -6.020718812942504883e-01 3.000000000000000000e+00
1.066676139831542969e+01 -2.582531929016112837e+00 -5.751721858978271484e-01 3.000000000000000000e+00
3.774810409545897727e+01 -9.146176338195800781e+00 8.966999053955078125e+00 2.400000000000000000e+01
2.014507102966308949e+01 -4.884772300720214844e+00 -3.618232905864716131e-01 3.000000000000000000e+00
3.706266784667968750e+01 -8.986948013305664062e+00 1.021869373321533025e+01 8.000000000000000000e+00
2.370409727096558061e+00 -5.782818794250488281e-01 -6.537768840789794922e-01 1.900000000000000000e+01
4.231645965576171875e+01 -1.033129119873047053e+01 7.603315114974975586e-01 4.400000000000000000e+01
2.727891921997069868e+00 -6.665017604827880859e-01 -6.483089327812194824e-01 1.500000000000000000e+01
3.192440271377563032e+00 -7.805945873260498047e-01 -6.388285160064697266e-01 1.200000000000000000e+01
3.877661466598511186e+00 -9.495750069618225098e-01 -6.323081254959106445e-01 1.100000000000000000e+01
4.999190807342529297e+00 -1.226068854331969993e+00 -6.320143938064575195e-01 9.000000000000000000e+00
6.691093444824218750e+00 -1.642251968383789062e+00 -6.027691364288330078e-01 3.000000000000000000e+00
1.065768241882324041e+01 -2.619750261306763139e+00 -5.751721858978271484e-01 3.000000000000000000e+00
3.772351837158203125e+01 -9.279747962951660156e+00 8.968798637390136719e+00 1.200000000000000000e+01
3.914909362792968750e+01 -9.644925117492675781e+00 1.080362415313721058e+01 9.000000000000000000e+00
2.357023477554320845e+00 -5.841775536537170410e-01 -6.506710648536682129e-01 1.900000000000000000e+01
2.723539590835570845e+00 -6.760260462760925293e-01 -6.478590369224548340e-01 1.400000000000000000e+01
3.206705808639525923e+00 -7.965498566627502441e-01 -6.422630548477172852e-01 1.000000000000000000e+01
3.881822824478148970e+00 -9.656885266304016113e-01 -6.335595846176147461e-01 1.000000000000000000e+01
5.006220817565917969e+00 -1.247262954711914062e+00 -6.334768533706665039e-01 1.000000000000000000e+01
6.690829277038574219e+00 -1.668211102485656960e+00 -6.032920479774475098e-01 3.000000000000000000e+00
1.071001720428466975e+01 -2.674278497695922852e+00 -5.785216689109802246e-01 3.000000000000000000e+00
3.596501922607421875e+01 -8.987091064453125000e+00 8.558487892150878906e+00 1.100000000000000000e+01
2.360590457916260210e+00 -5.938153862953186035e-01 -6.522240042686462402e-01 1.900000000000000000e+01
2.730611562728881836e+00 -6.879091858863830566e-01 -6.501085758209228516e-01 1.500000000000000000e+01
3.203905820846558061e+00 -8.077385425567626953e-01 -6.422630548477172852e-01 1.100000000000000000e+01
3.874597787857056108e+00 -9.782655835151672363e-01 -6.329338550567626953e-01 1.000000000000000000e+01
3.633853149414063211e+01 -9.181566238403320312e+00 4.602030277252197266e+00 1.900000000000000000e+01
5.001836299896240234e+00 -1.264730334281920943e+00 -6.334768533706665039e-01 9.000000000000000000e+00
6.681102275848388672e+00 -1.690578818321228027e+00 -6.029434204101562500e-01 5.000000000000000000e+00
1.066963958740234020e+01 -2.703797101974486861e+00 -5.768468976020812988e-01 3.000000000000000000e+00
3.586164855957031250e+01 -9.094374656677246094e+00 8.541391372680664062e+00 1.100000000000000000e+01
1.815754890441894887e+01 -4.608056545257568359e+00 -3.269882798194885254e-01 3.000000000000000000e+00
2.365990638732910156e+00 -6.039630770683288574e-01 -6.542945504188537598e-01 2.000000000000000000e+01
2.711201429367064986e+00 -6.930927038192749023e-01 -6.460594534873962402e-01 1.400000000000000000e+01
3.204870700836182085e+00 -8.198904991149902344e-01 -6.430262923240661621e-01 1.100000000000000000e+01
3.707220458984375000e+01 -9.490942001342773438e+00 3.348000764846802202e+00 4.900000000000000000e+01
3.869245767593383789e+00 -9.912942647933959961e-01 -6.326209902763366699e-01 1.100000000000000000e+01
5.003159523010253906e+00 -1.283662319183350053e+00 -6.342080831527709961e-01 1.000000000000000000e+01
6.694458007812500000e+00 -1.718844771385193093e+00 -6.046865582466125488e-01 5.000000000000000000e+00
1.069108581542968928e+01 -2.748982667922974077e+00 -5.785216689109802246e-01 3.000000000000000000e+00
3.568625259399414062e+01 -9.182592391967773438e+00 8.507199287414550781e+00 1.100000000000000000e+01
3.636693191528320312e+01 -9.364508628845214844e+00 1.006236648559569957e+01 8.000000000000000000e+00
2.367608308792113814e+00 -6.131868958473205566e-01 -6.553298234939575195e-01 1.800000000000000000e+01
4.235975265502929688e+01 -1.097864341735840021e+01 7.638220191001892090e-01 4.500000000000000000e+01
2.714424610137939009e+00 -7.040200829505920410e-01 -6.474091410636901855e-01 1.500000000000000000e+01
3.192487955093383789e+00 -8.286064863204956055e-01 -6.411182284355163574e-01 1.200000000000000000e+01
3.879144906997681108e+00 -1.008272886276244895e+00 -6.348110437393188477e-01 1.000000000000000000e+01
3.595079040527343750e+01 -9.351079940795898438e+00 4.561081886291503906e+00 1.900000000000000000e+01
5.000569343566895419e+00 -1.301618814468384011e+00 -6.344518065452575684e-01 9.000000000000000000e+00
3.644255447387695312e+01 -9.492574691772460938e+00 5.964533329010009766e+00 1.300000000000000000e+01
6.698057651519775391e+00 -1.744713425636291948e+00 -6.055580973625183105e-01 5.000000000000000000e+00
1.068142509460449041e+01 -2.786284685134888139e+00 -5.785216689109802246e-01 3.000000000000000000e+00
3.568792343139647727e+01 -9.315964698791503906e+00 8.515296936035156250e+00 1.100000000000000000e+01
2.595302009582519887e+01 -6.779606819152832031e+00 -4.682131707668303888e-01 4.000000000000000000e+00
3.633983993530272727e+01 -9.499691009521484375e+00 1.006443691253661932e+01 8.000000000000000000e+00
2.356111049652100053e+00 -6.189932823181152344e-01 -6.527416110038757324e-01 1.900000000000000000e+01
2.710066080093383789e+00 -7.129950523376464844e-01 -6.469592452049255371e-01 1.400000000000000000e+01
3.195271730422974077e+00 -8.412448167800903320e-01 -6.422630548477172852e-01 1.200000000000000000e+01
3.879421949386597124e+00 -1.022814750671386941e+00 -6.354367733001708984e-01 1.000000000000000000e+01
3.596783447265625000e+01 -9.489681243896484375e+00 4.567419052124023438e+00 1.900000000000000000e+01
4.992156982421875000e+00 -1.318052649497986062e+00 -6.339643001556396484e-01 9.000000000000000000e+00
6.688074111938476562e+00 -1.767065405845642090e+00 -6.052094697952270508e-01 6.000000000000000000e+00
1.067163467407226918e+01 -2.823552846908568892e+00 -5.785216689109802246e-01 3.000000000000000000e+00
3.643512344360352273e+01 -9.653791427612304688e+00 1.009963703155517933e+01 1.600000000000000000e+01
2.350202560424805132e+00 -6.262190937995910645e-01 -6.517063379287719727e-01 1.900000000000000000e+01
4.237868499755858664e+01 -1.129986000061034979e+01 7.655672430992126465e-01 4.500000000000000000e+01
2.724506378173828125e+00 -7.269722223281860352e-01 -6.510083675384521484e-01 1.600000000000000000e+01
3.201799631118773970e+00 -8.549256324768066406e-01 -6.441711783409118652e-01 1.200000000000000000e+01
3.873919725418090820e+00 -1.035839915275573953e+00 -6.351239085197448730e-01 1.100000000000000000e+01
3.603804397583007812e+01 -9.642882347106933594e+00 4.580581188201904297e+00 1.900000000000000000e+01
4.995195865631104404e+00 -1.337524294853210005e+00 -6.349392533302307129e-01 9.000000000000000000e+00
3.580464935302733664e+01 -9.587129592895507812e+00 5.870672702789306641e+00 1.300000000000000000e+01
6.703034877777099609e+00 -1.796072721481323020e+00 -6.071268916130065918e-01 5.000000000000000000e+00
1.068871974945068004e+01 -2.868033170700072798e+00 -5.799870491027832031e-01 3.000000000000000000e+00
2.619473838806151988e+01 -7.038462638854979581e+00 -4.734488725662230890e-01 4.000000000000000000e+00
3.611015701293945312e+01 -9.702712059020996094e+00 1.001888561248778942e+01 8.000000000000000000e+00
2.349867343902587891e+00 -6.349229216575622559e-01 -6.522240042686462402e-01 1.900000000000000000e+01
4.224246597290039062e+01 -1.142162322998047053e+01 7.638220191001892090e-01 4.500000000000000000e+01
2.714427947998046875e+00 -7.344422340393066406e-01 -6.492087244987487793e-01 1.500000000000000000e+01
3.195005893707274947e+00 -8.650706410408020020e-01 -6.434079408645629883e-01 1.200000000000000000e+01
3.868373632431029829e+00 -1.048839211463928001e+00 -6.348110437393188477e-01 1.200000000000000000e+01
3.650611114501953125e+01 -9.904808044433593750e+00 4.644440650939941406e+00 1.900000000000000000e+01
5.007738113403320312e+00 -1.359633803367614968e+00 -6.371329426765441895e-01 1.000000000000000000e+01
6.694801807403563565e+00 -1.818937420845031960e+00 -6.069526076316833496e-01 6.000000000000000000e+00
1.070176982879639027e+01 -2.911618232727050781e+00 -5.812431573867797852e-01 3.000000000000000000e+00
3.678435516357421875e+01 -1.002166938781737926e+01 1.021558761596680043e+01 8.000000000000000000e+00
2.353226423263549805e+00 -6.446529030799865723e-01 -6.537768840789794922e-01 2.000000000000000000e+01
2.702450990676879883e+00 -7.413352131843566895e-01 -6.469592452049255371e-01 1.300000000000000000e+01
3.197646379470825195e+00 -8.777770996093750000e-01 -6.445527672767639160e-01 1.200000000000000000e+01
3.866593837738037109e+00 -1.062859535217284934e+00 -6.351239085197448730e-01 1.100000000000000000e+01
3.645217132568358664e+01 -1.002691268920898082e+01 4.642003059387207031e+00 1.900000000000000000e+01
5.002961635589599609e+00 -1.377105832099914995e+00 -6.371329426765441895e-01 1.200000000000000000e+01
6.724907875061035156e+00 -1.852348208427428977e+00 -6.102645397186279297e-01 5.000000000000000000e+00
1.069154071807860973e+01 -2.948956489562987837e+00 -5.812431573867797852e-01 3.000000000000000000e+00
3.567484283447266336e+01 -9.859991073608398438e+00 9.917428016662597656e+00 7.000000000000000000e+00
2.358635902404785156e+00 -6.541076302528381348e-01 -6.558474898338317871e-01 1.900000000000000000e+01
2.709497213363647017e+00 -7.524287104606628418e-01 -6.492087244987487793e-01 1.500000000000000000e+01
3.189198255538939986e+00 -8.862415552139282227e-01 -6.434079408645629883e-01 1.200000000000000000e+01
3.602812576293945312e+01 -1.001857566833495916e+01 3.271652221679687944e+00 4.700000000000000000e+01
3.870847940444945845e+00 -1.077119708061218040e+00 -6.363754272460937500e-01 1.100000000000000000e+01
3.675323867797852273e+01 -1.023403549194335938e+01 4.684413909912109375e+00 2.000000000000000000e+01
5.000523090362548828e+00 -1.393349170684814009e+00 -6.373766660690307617e-01 9.000000000000000000e+00
3.798738479614257812e+01 -1.059197521209716975e+01 6.246115207672119141e+00 1.400000000000000000e+01
6.690267562866210938e+00 -1.865439176559448020e+00 -6.076498627662658691e-01 5.000000000000000000e+00
1.070146083831786932e+01 -2.987901449203491211e+00 -5.822898745536804199e-01 3.000000000000000000e+00
3.553752136230468750e+01 -9.935626983642578125e+00 9.887405395507812500e+00 7.000000000000000000e+00
2.350759029388428178e+00 -6.607685089111328125e-01 -6.542945504188537598e-01 1.900000000000000000e+01
2.716233491897583008e+00 -7.645219564437866211e-01 -6.514582633972167969e-01 1.400000000000000000e+01
3.182305812835692915e+00 -8.963040113449096680e-01 -6.426447033882141113e-01 1.200000000000000000e+01
3.874669313430786133e+00 -1.092769742012023926e+00 -6.376268863677978516e-01 1.200000000000000000e+01
3.676314544677733664e+01 -1.037520599365234020e+01 4.690263748168945312e+00 2.000000000000000000e+01
5.003270149230957031e+00 -1.412953734397887962e+00 -6.383516192436218262e-01 9.000000000000000000e+00
6.710557460784912109e+00 -1.896366715431212935e+00 -6.100901961326599121e-01 3.000000000000000000e+00
1.076015090942382990e+01 -3.044815778732299805e+00 -5.860580205917358398e-01 3.000000000000000000e+00
3.804978561401367188e+01 -1.077417659759520951e+01 9.129863739013671875e+00 1.200000000000000000e+01
2.667368125915526988e+01 -7.557948112487792969e+00 -4.839203357696533203e-01 4.000000000000000000e+00
3.854713821411132812e+01 -1.092227458953857067e+01 1.073529624938965021e+01 9.000000000000000000e+00
2.339148283004761186e+00 -6.663239598274230957e-01 -6.517063379287719727e-01 1.800000000000000000e+01
2.715422153472899947e+00 -7.745332717895507812e-01 -6.519081592559814453e-01 1.500000000000000000e+01
3.181045770645142046e+00 -9.079456925392150879e-01 -6.430262923240661621e-01 1.200000000000000000e+01
3.867032527923583984e+00 -1.105202555656433105e+00 -6.370011568069458008e-01 1.100000000000000000e+01
3.688320541381835938e+01 -1.054822826385498047e+01 4.710249900817871094e+00 2.000000000000000000e+01
5.002124786376953125e+00 -1.431502103805541992e+00 -6.388391256332397461e-01 9.000000000000000000e+00
3.772449111938477273e+01 -1.079595088958740057e+01 6.214828491210938388e+00 1.400000000000000000e+01
6.692404747009277344e+00 -1.916488289833069070e+00 -6.090443134307861328e-01 3.000000000000000000e+00
3.499045944213867188e+01 -1.002674484252930043e+01 7.075197696685791016e+00 6.100000000000000000e+01
1.080321311950683949e+01 -3.097771644592285156e+00 -5.889888405799865723e-01 3.000000000000000000e+00
3.753579711914063211e+01 -1.077739810943604049e+01 1.046405410766601918e+01 9.000000000000000000e+00
2.349800825119018999e+00 -6.782351732254028320e-01 -6.553298234939575195e-01 1.900000000000000000e+01
2.710829973220825195e+00 -7.834660410881042480e-01 -6.514582633972167969e-01 1.400000000000000000e+01
3.191058874130249023e+00 -9.228621125221252441e-01 -6.456976532936096191e-01 1.200000000000000000e+01
3.866945981979370117e+00 -1.119793176651000977e+00 -6.376268863677978516e-01 1.100000000000000000e+01
3.635805892944335938e+01 -1.053547286987305043e+01 4.647852897644042969e+00 1.900000000000000000e+01
4.997097015380859375e+00 -1.448954105377197044e+00 -6.388391256332397461e-01 9.000000000000000000e+00
