-2.558054208755493164e+00 -5.123942375183104581e+00 -7.031860947608947754e-01 2.800000000000000000e+01
-1.459008407592773082e+01 -2.921209144592285156e+01 5.171723365783691406e+00 1.300000000000000000e+01
-4.524221897125244141e+00 -9.058342933654785156e+00 -8.858509659767150879e-01 1.000000000000000000e+00
-1.240170097351074041e+01 -2.480887031555176137e+01 -1.453578829765320046e+00 1.300000000000000000e+01
-1.233045458793639915e+00 -2.456977128982543945e+00 -7.365990281105041504e-01 1.100000000000000000e+01
-1.448493719100951926e+00 -2.883769750595093218e+00 -7.450379133224487305e-01 1.100000000000000000e+01
-1.741873979568481001e+00 -3.466344833374022993e+00 -7.540771365165710449e-01 1.200000000000000000e+01
-1.432836818695068004e+01 -2.850117874145508168e+01 2.790901184082030806e+00 3.200000000000000000e+01
-2.208284854888916016e+00 -4.390685558319091797e+00 -7.784178853034973145e-01 1.300000000000000000e+01
-1.406095504760742010e+01 -2.794494628906250000e+01 3.841078042984008789e+00 1.600000000000000000e+01
-2.586635112762451172e+00 -5.138482093811035156e+00 -7.063547372817993164e-01 2.800000000000000000e+01
-1.473862838745117010e+01 -2.927903556823730113e+01 5.191747188568115234e+00 1.300000000000000000e+01
-4.554235458374023438e+00 -9.043290138244628906e+00 -8.858509659767150879e-01 1.000000000000000000e+00
-1.470073986053466975e+01 -2.917840194702148082e+01 6.350886821746826172e+00 5.700000000000000000e+01
-1.252705192565917969e+01 -2.485321617126464844e+01 -1.458603143692017046e+00 1.300000000000000000e+01
-1.239869356155395952e+00 -2.449210882186890093e+00 -7.355637550354003906e-01 1.100000000000000000e+01
-1.457670331001281960e+00 -2.876957654953002930e+00 -7.445880174636840820e-01 1.200000000000000000e+01
-1.468470859527588068e+01 -2.897019958496094105e+01 1.702174663543700950e+00 1.700000000000000000e+01
-1.755738496780395952e+00 -3.463745594024658203e+00 -7.548403739929199219e-01 1.100000000000000000e+01
-1.451787948608398082e+01 -2.862868690490723012e+01 2.808332443237305132e+00 3.300000000000000000e+01
-2.216447830200194868e+00 -4.368857383728027344e+00 -7.759149670600891113e-01 1.300000000000000000e+01
-1.421591472625732067e+01 -2.800898361206055043e+01 3.856677293777465820e+00 1.600000000000000000e+01
-2.616239547729492188e+00 -5.152431488037109375e+00 -7.095233201980590820e-01 2.400000000000000000e+01
-1.484763240814208984e+01 -2.922834205627441051e+01 5.192372798919677734e+00 1.300000000000000000e+01
-4.567727565765380859e+00 -8.991811752319335938e+00 -8.823647499084472656e-01 1.000000000000000000e+00
-1.261191940307617010e+01 -2.480577659606933949e+01 -1.458393812179564986e+00 1.300000000000000000e+01
-1.250168204307555930e+00 -2.448309183120727983e+00 -7.365990281105041504e-01 1.200000000000000000e+01
-1.465043425559998003e+00 -2.866646289825439009e+00 -7.432382702827453613e-01 1.100000000000000000e+01
-1.480210971832275035e+01 -2.895077514648437855e+01 1.704058766365051047e+00 1.700000000000000000e+01
-1.766924738883971946e+00 -3.455847978591918945e+00 -7.544587850570678711e-01 1.000000000000000000e+01
-2.229884862899779829e+00 -4.357576847076416016e+00 -7.752892374992370605e-01 1.300000000000000000e+01
-2.636923789978026900e+00 -5.148568153381347656e+00 -7.102545499801635742e-01 2.600000000000000000e+01
-1.485082435607909979e+01 -2.899609184265137074e+01 5.159834384918212891e+00 1.300000000000000000e+01
-4.606355667114257812e+00 -8.989997863769531250e+00 -8.837592601776123047e-01 1.000000000000000000e+00
-1.271483612060547053e+01 -2.479359054565430043e+01 -1.460277795791625977e+00 1.300000000000000000e+01
-1.265783190727234109e+00 -2.457669734954833984e+00 -7.407401204109191895e-01 1.400000000000000000e+01
-1.473255276679992898e+00 -2.858050584793090820e+00 -7.423384785652160645e-01 1.100000000000000000e+01
-1.778977155685425027e+00 -3.449659109115601030e+00 -7.544587850570678711e-01 1.000000000000000000e+01
-2.250518083572388139e+00 -4.360298633575438565e+00 -7.771664261817932129e-01 1.500000000000000000e+01
-2.666723489761352983e+00 -5.162260055541992188e+00 -7.134231328964233398e-01 2.000000000000000000e+01
-1.491891002655028942e+01 -2.886776161193848012e+01 5.146693706512451172e+00 1.300000000000000000e+01
-4.666979789733886719e+00 -9.030503273010253906e+00 -8.893371820449829102e-01 1.000000000000000000e+00
-1.284718418121338068e+01 -2.483775711059569957e+01 -1.465511441230773926e+00 1.300000000000000000e+01
-1.269011139869689941e+00 -2.442950248718262163e+00 -7.376343011856079102e-01 1.300000000000000000e+01
-1.487717390060425027e+00 -2.861535549163817915e+00 -7.445880174636840820e-01 1.200000000000000000e+01
-1.788290143013000044e+00 -3.438203096389770952e+00 -7.533138990402221680e-01 9.000000000000000000e+00
-2.268460988998413086e+00 -4.357673168182373047e+00 -7.781050205230712891e-01 1.500000000000000000e+01
-1.514845085144042969e+01 -2.908750724792480113e+01 4.026806831359863281e+00 1.600000000000000000e+01
-2.667299509048461914e+00 -5.119471073150634766e+00 -7.087920904159545898e-01 1.800000000000000000e+01
-1.514964199066161932e+01 -2.907740592956542969e+01 5.192998409271240234e+00 1.300000000000000000e+01
-4.643219470977783203e+00 -8.908150672912597656e+00 -8.788785338401794434e-01 1.000000000000000000e+00
-1.295043373107909979e+01 -2.482463455200194957e+01 -1.467395544052124023e+00 1.300000000000000000e+01
-1.275737881660460982e+00 -2.435083389282227007e+00 -7.365990281105041504e-01 1.300000000000000000e+01
-1.496791958808898926e+00 -2.854599237442017046e+00 -7.441380620002746582e-01 1.100000000000000000e+01
-1.512487602233887074e+01 -2.883309364318848012e+01 1.706361532211303933e+00 1.700000000000000000e+01
-1.802104830741882102e+00 -3.435416936874390093e+00 -7.540771365165710449e-01 1.000000000000000000e+01
-2.281821727752685991e+00 -4.346230030059813565e+00 -7.774792909622192383e-01 1.800000000000000000e+01
-1.515389442443848012e+01 -2.885167884826660156e+01 4.001458168029785156e+00 1.600000000000000000e+01
-2.631598234176636186e+00 -5.008207798004150391e+00 -6.946552395820617676e-01 2.800000000000000000e+01
-4.665015697479248047e+00 -8.874252319335937500e+00 -8.771353960037231445e-01 1.000000000000000000e+00
-1.306304740905762074e+01 -2.482876968383789062e+01 -1.470326304435729980e+00 1.300000000000000000e+01
-1.282425165176392046e+00 -2.427199125289916992e+00 -7.355637550354003906e-01 1.400000000000000000e+01
-1.508569121360779031e+00 -2.852802515029906782e+00 -7.450379133224487305e-01 1.400000000000000000e+01
-1.523476982116699041e+01 -2.879777717590332031e+01 1.707408189773560014e+00 1.700000000000000000e+01
-1.815003752708435059e+00 -3.430840969085692915e+00 -7.544587850570678711e-01 1.000000000000000000e+01
-2.294206142425537109e+00 -4.333001136779785156e+00 -7.765406966209411621e-01 1.600000000000000000e+01
-1.520619487762450994e+01 -2.870738792419433949e+01 3.988783597946166992e+00 1.600000000000000000e+01
-2.673231124877930132e+00 -5.044596195220947266e+00 -7.009924650192260742e-01 2.800000000000000000e+01
-4.742625236511229581e+00 -8.945930480957031250e+00 -8.858509659767150879e-01 1.000000000000000000e+00
-1.314214706420898082e+01 -2.476890563964844105e+01 -1.469488978385925071e+00 1.300000000000000000e+01
-1.291798233985901101e+00 -2.424412727355957031e+00 -7.360813617706298828e-01 1.500000000000000000e+01
-1.509348273277282937e+00 -2.830323934555054155e+00 -7.405388951301574707e-01 1.200000000000000000e+01
-1.834361433982848899e+00 -3.438341856002808061e+00 -7.575117349624633789e-01 1.000000000000000000e+01
-2.309317111968994141e+00 -4.324966430664063388e+00 -7.765406966209411621e-01 1.600000000000000000e+01
-1.554574871063232067e+01 -2.910237503051758168e+01 4.051180839538574219e+00 1.700000000000000000e+01
-2.700179815292357954e+00 -5.052741527557373047e+00 -7.034298777580261230e-01 2.800000000000000000e+01
-4.736248970031738281e+00 -8.859039306640625000e+00 -8.788785338401794434e-01 1.000000000000000000e+00
-1.323041152954101918e+01 -2.472640228271484020e+01 -1.469698309898376021e+00 1.300000000000000000e+01
-1.306653857231139915e+00 -2.431801080703734907e+00 -7.397048473358154297e-01 1.600000000000000000e+01
-1.524756669998168945e+00 -2.835335969924927202e+00 -7.432382702827453613e-01 1.300000000000000000e+01
-1.836120605468750000e+00 -3.412899494171143022e+00 -7.533138990402221680e-01 1.100000000000000000e+01
-1.549439716339110973e+01 -2.878825378417969105e+01 2.860277175903319868e+00 3.400000000000000000e+01
-2.324399948120117188e+00 -4.316879272460938388e+00 -7.765406966209411621e-01 1.600000000000000000e+01
-1.564724063873291016e+01 -2.904793167114258168e+01 4.051180839538574219e+00 1.700000000000000000e+01
-2.711208820343018022e+00 -5.031053066253662109e+00 -7.017236948013305664e-01 2.400000000000000000e+01
-4.748234272003173828e+00 -8.807376861572265625e+00 -8.753922581672668457e-01 1.000000000000000000e+00
-1.334319782257080078e+01 -2.472928428649901988e+01 -1.472629189491271973e+00 1.300000000000000000e+01
-1.316975116729736106e+00 -2.430622339248656782e+00 -7.407401204109191895e-01 1.500000000000000000e+01
-1.538360357284545898e+00 -2.836848497390747070e+00 -7.450379133224487305e-01 1.300000000000000000e+01
-1.845214128494262917e+00 -3.401292562484741211e+00 -7.521690726280212402e-01 1.100000000000000000e+01
-2.342282295227050781e+00 -4.313947200775145596e+00 -7.774792909622192383e-01 1.800000000000000000e+01
-2.739179849624633789e+00 -5.040744781494140625e+00 -7.044048309326171875e-01 2.600000000000000000e+01
-3.300158262252808061e+00 -6.070553302764892578e+00 -6.045122146606445312e-01 1.000000000000000000e+00
-1.343707370758056996e+01 -2.469659233093262074e+01 -1.473466515541077104e+00 1.300000000000000000e+01
-1.321746587753295898e+00 -2.419229030609130859e+00 -7.386695742607116699e-01 1.700000000000000000e+01
-1.550123333930969016e+00 -2.834881067276000977e+00 -7.459377050399780273e-01 1.200000000000000000e+01
-1.857075572013854980e+00 -3.394830703735352007e+00 -7.521690726280212402e-01 1.200000000000000000e+01
-2.356377840042113814e+00 -4.304012298583984375e+00 -7.771664261817932129e-01 1.600000000000000000e+01
-2.761528015136719194e+00 -5.039856910705566406e+00 -7.056235074996948242e-01 2.200000000000000000e+01
-4.771296977996826172e+00 -8.704129219055175781e+00 -8.684198260307312012e-01 1.000000000000000000e+00
-1.356162548065186080e+01 -2.471957969665526988e+01 -1.477653384208678977e+00 1.300000000000000000e+01
-1.327386736869812012e+00 -2.409524440765380859e+00 -7.371166348457336426e-01 1.600000000000000000e+01
-1.556245923042296919e+00 -2.822626590728760210e+00 -7.441380620002746582e-01 1.300000000000000000e+01
-1.874603748321532981e+00 -3.398642301559447798e+00 -7.544587850570678711e-01 1.100000000000000000e+01
-2.366613864898682085e+00 -4.287113666534423828e+00 -7.756021022796630859e-01 1.600000000000000000e+01
-2.786783456802368164e+00 -5.044086933135986328e+00 -7.075734138488769531e-01 2.200000000000000000e+01
-4.801651000976563388e+00 -8.687421798706054688e+00 -8.684198260307312012e-01 1.000000000000000000e+00
-1.364783000946044922e+01 -2.467209053039551137e+01 -1.477653384208678977e+00 1.300000000000000000e+01
-1.342355847358704057e+00 -2.416697978973389116e+00 -7.407401204109191895e-01 1.500000000000000000e+01
-1.561354994773864968e+00 -2.808660984039307085e+00 -7.418885827064514160e-01 1.300000000000000000e+01
-1.888364195823668990e+00 -3.395509481430054155e+00 -7.552220225334167480e-01 1.100000000000000000e+01
-2.381564378738402876e+00 -4.278826713562011719e+00 -7.756021022796630859e-01 2.100000000000000000e+01
-2.820796012878417969e+00 -5.063809871673583984e+00 -7.117169499397277832e-01 2.200000000000000000e+01
-3.379064798355102983e+00 -6.063508033752441406e+00 -6.073012351989746094e-01 1.000000000000000000e+00
-1.373386859893799006e+01 -2.462430000305176137e+01 -1.477653384208678977e+00 1.300000000000000000e+01
-1.349839568138123003e+00 -2.410311937332152876e+00 -7.402224540710449219e-01 1.900000000000000000e+01
-1.573055028915405051e+00 -2.806593418121337891e+00 -7.427883744239807129e-01 1.300000000000000000e+01
-1.898284792900085005e+00 -3.385472297668457031e+00 -7.544587850570678711e-01 1.200000000000000000e+01
-2.401319265365601030e+00 -4.279100418090820312e+00 -7.771664261817932129e-01 1.600000000000000000e+01
-2.842343091964722124e+00 -5.060855865478515625e+00 -7.126919031143188477e-01 2.600000000000000000e+01
-3.405089616775513139e+00 -6.060360908508300781e+00 -6.081727743148803711e-01 3.000000000000000000e+00
-1.384910869598389027e+01 -2.462843704223633168e+01 -1.480793595314026101e+00 1.300000000000000000e+01
-1.354864239692687988e+00 -2.398620128631591797e+00 -7.381519079208374023e-01 1.900000000000000000e+01
-1.582372188568115012e+00 -2.799112796783446822e+00 -7.423384785652160645e-01 1.400000000000000000e+01
-1.906814694404602051e+00 -3.371656417846680132e+00 -7.529323101043701172e-01 1.100000000000000000e+01
-2.418932914733887163e+00 -4.273708820343017578e+00 -7.777921557426452637e-01 1.600000000000000000e+01
-2.876527547836304155e+00 -5.078039646148681641e+00 -7.165917158126831055e-01 3.000000000000000000e+01
-3.432190656661986861e+00 -6.056507110595703125e+00 -6.090443134307861328e-01 7.000000000000000000e+00
-1.386242866516112926e+01 -2.444200325012207031e+01 -1.472629189491271973e+00 1.300000000000000000e+01
-1.358448863029479980e+00 -2.385482549667357954e+00 -7.355637550354003906e-01 1.700000000000000000e+01
-1.604677319526671919e+00 -2.815582036972045898e+00 -7.481871843338012695e-01 1.300000000000000000e+01
-1.916627526283263938e+00 -3.361568689346313032e+00 -7.521690726280212402e-01 1.100000000000000000e+01
-2.429920196533203125e+00 -4.258376121520996094e+00 -7.765406966209411621e-01 1.300000000000000000e+01
-2.874547004699707031e+00 -5.033491611480712891e+00 -7.117169499397277832e-01 2.200000000000000000e+01
-3.458252668380736861e+00 -6.053139209747313565e+00 -6.099159121513366699e-01 8.000000000000000000e+00
-1.403490352630615057e+01 -2.454604339599609020e+01 -1.481840252876281960e+00 1.300000000000000000e+01
-1.367313504219054954e+00 -2.382640123367310014e+00 -7.360813617706298828e-01 1.600000000000000000e+01
-1.605270504951477051e+00 -2.795036554336547852e+00 -7.441380620002746582e-01 1.300000000000000000e+01
-1.935588836669922097e+00 -3.368812799453734907e+00 -7.552220225334167480e-01 1.100000000000000000e+01
-2.442058563232421875e+00 -4.246870040893554688e+00 -7.759149670600891113e-01 1.200000000000000000e+01
-2.895183324813843218e+00 -5.030813694000244141e+00 -7.126919031143188477e-01 1.800000000000000000e+01
-3.489241600036621094e+00 -6.060631275177001953e+00 -6.118333339691162109e-01 1.000000000000000000e+01
-1.412619495391846058e+01 -2.451667213439941051e+01 -1.482887029647826926e+00 1.300000000000000000e+01
-1.378524303436279075e+00 -2.382869482040404829e+00 -7.376343011856079102e-01 1.800000000000000000e+01
-1.612087965011596902e+00 -2.784356594085692915e+00 -7.427883744239807129e-01 1.200000000000000000e+01
-1.947336435317992942e+00 -3.362035751342772993e+00 -7.552220225334167480e-01 1.100000000000000000e+01
-2.454886674880981001e+00 -4.234901905059813565e+00 -7.752892374992370605e-01 1.000000000000000000e+01
-2.928664922714232954e+00 -5.048150062561035156e+00 -7.165917158126831055e-01 2.200000000000000000e+01
-3.521377086639403853e+00 -6.067369937896729404e+00 -6.137507557868957520e-01 1.000000000000000000e+01
-1.426184558868408025e+01 -2.455356597900390980e+01 -1.488120555877685991e+00 1.400000000000000000e+01
-1.390726566314697044e+00 -2.384718179702758789e+00 -7.397048473358154297e-01 1.800000000000000000e+01
-1.619832634925842063e+00 -2.775346279144287109e+00 -7.418885827064514160e-01 1.500000000000000000e+01
-1.953120708465575950e+00 -3.345045328140258789e+00 -7.529323101043701172e-01 1.100000000000000000e+01
-2.472644329071044922e+00 -4.231423377990722656e+00 -7.762278318405151367e-01 9.000000000000000000e+00
-2.953283309936522993e+00 -5.049891471862792969e+00 -7.182978987693786621e-01 1.600000000000000000e+01
-3.546559095382689986e+00 -6.061919689178466797e+00 -6.144480109214782715e-01 8.000000000000000000e+00
-1.439792633056640980e+01 -2.458981132507323863e+01 -1.493354201316833052e+00 1.400000000000000000e+01
-1.397084236145019975e+00 -2.376518249511719194e+00 -7.386695742607116699e-01 1.800000000000000000e+01
-1.630498766899109109e+00 -2.771354675292969194e+00 -7.423384785652160645e-01 1.200000000000000000e+01
-1.962793469429015891e+00 -3.334823369979857954e+00 -7.521690726280212402e-01 1.100000000000000000e+01
-2.487399578094481978e+00 -4.222766399383544922e+00 -7.762278318405151367e-01 9.000000000000000000e+00
-2.973917007446289062e+00 -5.044682025909423828e+00 -7.190291285514831543e-01 3.000000000000000000e+01
-3.543406724929810014e+00 -6.008315086364746094e+00 -6.102645397186279297e-01 8.000000000000000000e+00
-1.455879688262938920e+01 -2.466668319702148082e+01 -1.501099944114685059e+00 1.400000000000000000e+01
-1.398477315902709961e+00 -2.359993219375609907e+00 -7.350460886955261230e-01 1.600000000000000000e+01
-1.646126866340636985e+00 -2.775703191757202148e+00 -7.450379133224487305e-01 1.400000000000000000e+01
-1.979430913925170898e+00 -3.336394071578979048e+00 -7.540771365165710449e-01 1.300000000000000000e+01
-2.493047952651977983e+00 -4.198771476745604581e+00 -7.734119892120361328e-01 1.000000000000000000e+01
-2.994550466537476030e+00 -5.039389610290527344e+00 -7.197603583335876465e-01 3.300000000000000000e+01
-3.542978048324584961e+00 -5.959944248199462891e+00 -6.066039800643920898e-01 6.000000000000000000e+00
-1.466114997863770064e+01 -2.464317703247069957e+01 -1.502774596214293990e+00 1.400000000000000000e+01
-1.410669326782227007e+00 -2.361731290817261186e+00 -7.371166348457336426e-01 1.600000000000000000e+01
-1.651806354522705078e+00 -2.763249635696411133e+00 -7.432382702827453613e-01 1.300000000000000000e+01
-1.991065025329590066e+00 -3.329464197158813032e+00 -7.540771365165710449e-01 1.400000000000000000e+01
-2.506674766540526900e+00 -4.188348293304443359e+00 -7.730991244316101074e-01 1.000000000000000000e+01
-3.007022857666016069e+00 -5.020390987396240234e+00 -7.185416221618652344e-01 3.900000000000000000e+01
-3.567857027053833008e+00 -5.954377174377441406e+00 -6.073012351989746094e-01 7.000000000000000000e+00
-1.476556968688965021e+01 -2.462268066406250000e+01 -1.504658699035644975e+00 1.400000000000000000e+01
-1.790085983276366832e+01 -2.982740020751953125e+01 -6.072041392326354980e-01 6.000000000000000000e+00
-1.421893954277039018e+00 -2.361757993698120117e+00 -7.386695742607116699e-01 1.600000000000000000e+01
-1.657418966293334961e+00 -2.750790357589722124e+00 -7.414386868476867676e-01 1.400000000000000000e+01
-2.002674818038939986e+00 -3.322493791580200195e+00 -7.540771365165710449e-01 1.500000000000000000e+01
-2.525361061096190962e+00 -4.186338901519775391e+00 -7.743505835533142090e-01 9.000000000000000000e+00
-3.011191368103026900e+00 -4.987771987915039062e+00 -7.153730392456054688e-01 4.100000000000000000e+01
-3.574199438095093218e+00 -5.918009757995604581e+00 -6.048608422279357910e-01 5.000000000000000000e+00
-1.489482116699218928e+01 -2.464278030395508168e+01 -1.509055018424988015e+00 1.400000000000000000e+01
-1.817460823059082031e+01 -3.004533767700194957e+01 -6.129285097122192383e-01 7.000000000000000000e+00
-1.429127216339111106e+00 -2.355128765106201172e+00 -7.381519079208374023e-01 1.000000000000000000e+01
-1.671057105064392090e+00 -2.751650571823120117e+00 -7.432382702827453613e-01 1.500000000000000000e+01
-2.011202335357666016e+00 -3.310449361801147017e+00 -7.529323101043701172e-01 1.600000000000000000e+01
-2.537906169891356978e+00 -4.174122333526611328e+00 -7.737248539924621582e-01 9.000000000000000000e+00
-3.029615640640258789e+00 -4.978926181793212891e+00 -7.156167626380920410e-01 3.500000000000000000e+01
-3.653886079788208008e+00 -6.002504348754882812e+00 -6.147966384887695312e-01 8.000000000000000000e+00
-1.498075008392333984e+01 -2.459063720703125000e+01 -1.509055018424988015e+00 1.400000000000000000e+01
-8.476875424385070801e-01 -1.386013865470886008e+00 -4.353336393833159845e-01 1.000000000000000000e+00
-1.681669235229491965e+00 -2.747462987899779829e+00 -7.436881661415100098e-01 1.400000000000000000e+01
-2.024796009063721147e+00 -3.306757211685181108e+00 -7.536955475807189941e-01 1.600000000000000000e+01
-2.553493261337279829e+00 -4.166922092437744141e+00 -7.740377187728881836e-01 1.000000000000000000e+01
-3.060468196868896040e+00 -4.990319252014160156e+00 -7.187854051589965820e-01 2.200000000000000000e+01
-3.664397239685059038e+00 -5.972730636596679688e+00 -6.130535006523132324e-01 8.000000000000000000e+00
-1.509575748443604049e+01 -2.458585166931151988e+01 -1.511985778808593972e+00 1.400000000000000000e+01
-8.423835039138793945e-01 -1.366601228713989036e+00 -4.301572442054749090e-01 8.000000000000000000e+00
-1.694318890571594016e+00 -2.746551752090454102e+00 -7.450379133224487305e-01 1.500000000000000000e+01
-2.034264326095581055e+00 -3.296327829360961914e+00 -7.529323101043701172e-01 1.600000000000000000e+01
-2.563870906829833984e+00 -4.151260852813720703e+00 -7.727862596511840820e-01 1.000000000000000000e+01
-3.067431926727294922e+00 -4.962719917297363281e+00 -7.163479924201965332e-01 2.000000000000000000e+01
-3.674745321273804155e+00 -5.942957401275634766e+00 -6.113103628158569336e-01 8.000000000000000000e+00
-1.525715732574463068e+01 -2.465529060363769887e+01 -1.519522190093993919e+00 1.400000000000000000e+01
-8.553041219711303711e-01 -1.376780152320862038e+00 -4.342983663082122803e-01 3.400000000000000000e+01
-1.696693301200866921e+00 -2.729035854339600053e+00 -7.418885827064514160e-01 1.100000000000000000e+01
-2.044721364974976030e+00 -3.287539720535277876e+00 -7.525506615638732910e-01 1.500000000000000000e+01
-2.576258182525635210e+00 -4.138931751251220703e+00 -7.721605300903320312e-01 1.000000000000000000e+01
-3.082637310028076172e+00 -4.948612689971923828e+00 -7.158605456352233887e-01 3.700000000000000000e+01
-3.710220098495482954e+00 -5.953766822814941406e+00 -6.137507557868957520e-01 1.200000000000000000e+01
-1.534312725067139027e+01 -2.460188293457030895e+01 -1.519522190093993919e+00 1.400000000000000000e+01
-1.851398468017578125e+01 -2.966311836242676137e+01 -6.103455424308776855e-01 7.000000000000000000e+00
-8.498532772064208984e-01 -1.357412219047545943e+00 -4.291219711303710938e-01 5.000000000000000000e+01
-1.730007052421570046e+00 -2.761078119277954102e+00 -7.522363066673278809e-01 1.000000000000000000e+00
-2.062440872192382812e+00 -3.290363311767578125e+00 -7.548403739929199219e-01 1.400000000000000000e+01
-2.594888925552368164e+00 -4.136607646942138672e+00 -7.734119892120361328e-01 1.000000000000000000e+01
-3.084060430526732954e+00 -4.912603378295898438e+00 -7.122044563293457031e-01 2.800000000000000000e+01
-3.747934341430664062e+00 -5.967775344848632812e+00 -6.165397167205810547e-01 1.200000000000000000e+01
-1.867490959167480113e+01 -2.968971824645996094e+01 -6.122304201126098633e-01 7.000000000000000000e+00
-8.533193469047546387e-01 -1.352952480316162109e+00 -4.286043345928192139e-01 5.000000000000000000e+01
-8.778980970382690430e-01 -1.390846371650696023e+00 -3.797173798084259033e-01 1.000000000000000000e+00
-2.068099737167357954e+00 -3.275205850601195845e+00 -7.529323101043701172e-01 8.000000000000000000e+00
-2.610702753067017046e+00 -4.131319522857666016e+00 -7.740377187728881836e-01 1.000000000000000000e+01
-3.112005710601807085e+00 -4.920804500579833984e+00 -7.148855924606323242e-01 4.100000000000000000e+01
-3.761312007904053178e+00 -5.945211887359619141e+00 -6.154938340187072754e-01 1.100000000000000000e+01
-1.876041793823241832e+01 -2.960735702514648082e+01 -6.118115782737731934e-01 7.000000000000000000e+00
-8.456014990806579590e-01 -1.330400824546813965e+00 -4.223926961421967108e-01 5.000000000000000000e+01
-8.660131692886352539e-01 -1.361464977264404075e+00 -3.725189566612244207e-01 1.000000000000000000e+01
-2.631474256515502930e+00 -4.132178306579589844e+00 -7.759149670600891113e-01 1.000000000000000000e+01
-3.141966104507445845e+00 -4.929999828338623047e+00 -7.178104519844055176e-01 3.100000000000000000e+01
-3.758477687835692915e+00 -5.895086288452148438e+00 -6.116589903831481934e-01 1.500000000000000000e+01
-1.886149978637694957e+01 -2.953831863403319957e+01 -6.117417216300964355e-01 7.000000000000000000e+00
-8.458419442176818848e-01 -1.321081638336182085e+00 -4.203221201896666925e-01 5.400000000000000000e+01
-8.757799863815307617e-01 -1.366789698600769043e+00 -3.747684657573699951e-01 4.900000000000000000e+01
-8.952568173408508301e-01 -1.396649599075316939e+00 -3.224672079086304266e-01 1.000000000000000000e+00
-2.638762950897216797e+00 -4.113453388214111328e+00 -7.740377187728881836e-01 7.000000000000000000e+00
-3.160442113876343218e+00 -4.922894477844238281e+00 -7.182978987693786621e-01 3.100000000000000000e+01
-3.795232534408568892e+00 -5.909413337707520419e+00 -6.144480109214782715e-01 1.200000000000000000e+01
-1.902642059326171875e+01 -2.957988166809082031e+01 -6.139058470726013184e-01 7.000000000000000000e+00
-8.525428771972656250e-01 -1.321367621421813965e+00 -4.213573932647705078e-01 5.900000000000000000e+01
-8.720890283584594727e-01 -1.350627303123473899e+00 -3.711692392826079767e-01 6.900000000000000000e+01
-8.788217902183532715e-01 -1.360533475875854048e+00 -3.148348331451416016e-01 1.100000000000000000e+01
-3.144181251525878906e+00 -4.860164165496826172e+00 -7.107419967651367188e-01 2.600000000000000000e+01
-3.818001985549927202e+00 -5.899474620819091797e+00 -6.147966384887695312e-01 1.200000000000000000e+01
-1.904471969604491832e+01 -2.938240051269530895e+01 -6.111832857131958008e-01 1.400000000000000000e+01
-8.529381155967712402e-01 -1.311905145645142046e+00 -4.192868471145629883e-01 5.200000000000000000e+01
-8.704215288162231445e-01 -1.337774395942687988e+00 -3.684698343276978094e-01 7.000000000000000000e+01
-8.899915218353271484e-01 -1.367329955101012962e+00 -3.171245455741881769e-01 4.100000000000000000e+01
-3.155706882476807085e+00 -4.840844631195068359e+00 -7.095233201980590820e-01 2.200000000000000000e+01
-3.882105350494385210e+00 -5.952866077423095703e+00 -6.217690706253051758e-01 1.100000000000000000e+01
-1.922371292114258168e+01 -2.943293952941894887e+01 -6.136265993118286133e-01 7.000000000000000000e+00
-1.039497494697571023e+00 -1.591548204421997070e+00 5.093559026718139648e-01 7.000000000000000000e+00
-8.606882691383361816e-01 -1.313767671585083008e+00 -4.208397567272185724e-01 5.500000000000000000e+01
-8.729490041732788086e-01 -1.331468462944030984e+00 -3.675700128078461248e-01 6.300000000000000000e+01
-8.904520869255065918e-01 -1.357648253440856934e+00 -3.155980706214904785e-01 5.500000000000000000e+01
-9.235258102416992188e-01 -1.407003760337830034e+00 -2.665643393993378241e-01 6.000000000000000000e+00
-3.178034543991088867e+00 -4.838095188140869141e+00 -7.107419967651367188e-01 2.200000000000000000e+01
-3.891919612884521040e+00 -5.922628402709960938e+00 -6.200259327888488770e-01 1.100000000000000000e+01
-1.921200561523437855e+01 -2.919193458557128906e+01 -6.099964976310729980e-01 7.000000000000000000e+00
-1.042922616004944070e+00 -1.584682464599608931e+00 5.083206295967102051e-01 4.100000000000000000e+01
-8.599475026130676270e-01 -1.302694082260132058e+00 -4.182515740394591730e-01 5.300000000000000000e+01
-8.786655068397521973e-01 -1.330039143562316895e+00 -3.680199384689331055e-01 6.500000000000000000e+01
-8.897734880447387695e-01 -1.346342325210571067e+00 -3.136899769306182861e-01 6.100000000000000000e+01
-9.186241626739501953e-01 -1.388942837715148926e+00 -2.637484967708588202e-01 2.100000000000000000e+01
-3.183946847915648970e+00 -4.810419082641601562e+00 -7.083046436309814453e-01 3.000000000000000000e+01
-3.925769090652465820e+00 -5.928941726684570312e+00 -6.221176981925964355e-01 1.500000000000000000e+01
-1.933588981628417969e+01 -2.915802574157714844e+01 -6.106945872306823730e-01 7.000000000000000000e+00
-1.042041778564452903e+00 -1.571372270584106001e+00 5.052147507667541504e-01 5.200000000000000000e+01
-8.591399192810058594e-01 -1.291641831398010032e+00 -4.156633913516997736e-01 5.400000000000000000e+01
-8.854625225067138672e-01 -1.330208420753479004e+00 -3.689197301864624023e-01 6.500000000000000000e+01
-8.857623934745788574e-01 -1.330155491828918013e+00 -3.106370568275452215e-01 6.500000000000000000e+01
-9.103214740753173828e-01 -1.366002202033997026e+00 -2.599940896034240723e-01 4.100000000000000000e+01
-3.187501907348632812e+00 -4.779457569122313565e+00 -7.053797841072082520e-01 1.600000000000000000e+01
-3.915479898452758789e+00 -5.868795394897460938e+00 -6.172369718551635742e-01 1.100000000000000000e+01
-1.943866348266601918e+01 -2.909201622009276988e+01 -6.107295155525207520e-01 7.000000000000000000e+00
-1.035984992980957031e+00 -1.549875497817992942e+00 4.995207488536835272e-01 4.500000000000000000e+01
-8.638682961463928223e-01 -1.288484215736388938e+00 -4.156633913516997736e-01 5.500000000000000000e+01
-8.914178013801574707e-01 -1.328572273254394975e+00 -3.693696260452271063e-01 6.700000000000000000e+01
-8.971965909004211426e-01 -1.336680650711060014e+00 -3.129267394542694092e-01 7.200000000000000000e+01
-9.087131619453430176e-01 -1.352817773818969949e+00 -2.581168711185454767e-01 4.500000000000000000e+01
-3.226039886474608931e+00 -4.799044609069824219e+00 -7.100107669830322266e-01 1.000000000000000000e+00
-3.963647603988647017e+00 -5.894084453582763672e+00 -6.214204430580139160e-01 1.500000000000000000e+01
-1.574212837219237926e+01 -2.339146614074707031e+01 -1.477653384208678977e+00 1.300000000000000000e+01
-1.976410484313964844e+01 -2.934566116333008168e+01 -6.175708770751953125e-01 7.000000000000000000e+00
-1.045705437660217063e+00 -1.552659153938293013e+00 5.015913248062133789e-01 4.200000000000000000e+01
-8.726862072944641113e-01 -1.291864156723022017e+00 -4.177339375019072931e-01 5.400000000000000000e+01
-8.862272500991821289e-01 -1.310922622680664062e+00 -3.653205037117003839e-01 6.500000000000000000e+01
-9.073561429977416992e-01 -1.341672062873840110e+00 -3.148348331451416016e-01 7.400000000000000000e+01
-9.101082682609558105e-01 -1.344729781150818093e+00 -2.571782469749451239e-01 4.800000000000000000e+01
-4.013255119323729581e+00 -5.923098087310791016e+00 -6.259525418281555176e-01 1.300000000000000000e+01
-1.999666786193848012e+01 -2.946843719482421875e+01 -6.216198205947875977e-01 7.000000000000000000e+00
-1.044610381126404031e+00 -1.539408087730407937e+00 4.984854757785797119e-01 3.000000000000000000e+01
-8.813121914863586426e-01 -1.295352101325988992e+00 -4.198044836521149237e-01 5.400000000000000000e+01
-8.938598632812500000e-01 -1.312808990478516069e+00 -3.666702210903167725e-01 6.300000000000000000e+01
-9.051690101623535156e-01 -1.328920125961303933e+00 -3.125451207160950262e-01 7.400000000000000000e+01
-9.089995026588439941e-01 -1.333543181419373003e+00 -2.556139230728148859e-01 5.100000000000000000e+01
-4.037366867065429688e+00 -5.916339874267578125e+00 -6.266497969627380371e-01 1.200000000000000000e+01
-2.009428024291991832e+01 -2.940196418762207031e+01 -6.216198205947875977e-01 7.000000000000000000e+00
-1.039074301719665971e+00 -1.519804835319519043e+00 4.933091104030609131e-01 4.400000000000000000e+01
-8.814594149589538574e-01 -1.285894155502318892e+00 -4.177339375019072931e-01 5.500000000000000000e+01
-9.017440676689147949e-01 -1.314501762390136941e+00 -3.680199384689331055e-01 6.500000000000000000e+01
-9.075805544853210449e-01 -1.322514891624450906e+00 -3.117819130420684814e-01 7.400000000000000000e+01
-9.203587174415588379e-01 -1.340132117271422896e+00 -2.574911415576934814e-01 5.500000000000000000e+01
-9.433453083038330078e-01 -1.372575998306273970e+00 -2.044967561960220059e-01 2.000000000000000000e+00
-4.065895557403563565e+00 -5.913703441619873047e+00 -6.278699636459350586e-01 5.000000000000000000e+00
-2.022173881530762074e+01 -2.936787605285644887e+01 -6.223877072334289551e-01 7.000000000000000000e+00
-1.034510254859924094e+00 -1.501850008964539018e+00 4.886503517627716064e-01 4.700000000000000000e+01
-8.848447799682617188e-01 -1.281219840049744096e+00 -4.172163009643555243e-01 5.300000000000000000e+01
-9.096509814262390137e-01 -1.316155433654784934e+00 -3.693696260452271063e-01 6.300000000000000000e+01
-9.133079648017883301e-01 -1.320953607559204102e+00 -3.121635019779204767e-01 7.200000000000000000e+01
-9.160392284393310547e-01 -1.323915839195251021e+00 -2.549881637096405029e-01 5.800000000000000000e+01
-9.594314694404602051e-01 -1.385594964027405007e+00 -2.069341391324996948e-01 2.200000000000000000e+01
-2.001409721374512074e+01 -2.885020256042480113e+01 -6.128935813903808594e-01 7.000000000000000000e+00
-1.026529192924499956e+00 -1.479184508323668990e+00 4.824387133121489923e-01 4.900000000000000000e+01
-8.970352411270141602e-01 -1.289223670959473100e+00 -4.208397567272185724e-01 5.100000000000000000e+01
-9.120125770568847656e-01 -1.309773683547974077e+00 -3.684698343276978094e-01 6.300000000000000000e+01
-9.212797880172729492e-01 -1.322590351104736106e+00 -3.133083581924437921e-01 7.600000000000000000e+01
-9.150068163871765137e-01 -1.312607645988463911e+00 -2.534238398075103760e-01 6.300000000000000000e+01
-9.574476480484008789e-01 -1.372469067573546919e+00 -2.054717093706130981e-01 4.300000000000000000e+01
-1.113847017288208008e+00 -1.594289064407349077e+00 4.490022957324982245e-01 7.000000000000000000e+00
-2.034379196166991832e+01 -2.910797500610351918e+01 -6.198745965957641602e-01 7.000000000000000000e+00
-1.030579328536987083e+00 -1.474008917808532937e+00 4.819210767745972235e-01 5.200000000000000000e+01
-9.059656262397766113e-01 -1.292412161827086958e+00 -4.229103326797484796e-01 4.900000000000000000e+01
-9.143406748771667480e-01 -1.303391456604003906e+00 -3.675700128078461248e-01 6.100000000000000000e+01
-9.258909225463867188e-01 -1.319366455078125000e+00 -3.133083581924437921e-01 6.900000000000000000e+01
-9.150419235229492188e-01 -1.302939534187316895e+00 -2.521723508834838867e-01 6.100000000000000000e+01
-9.633740782737731934e-01 -1.370742678642272949e+00 -2.057154476642608920e-01 5.300000000000000000e+01
-1.114918708801269975e+00 -1.584017038345336914e+00 4.472026824951171875e-01 1.500000000000000000e+01
-1.041022658348083052e+00 -1.478481173515320046e+00 4.845092594623566229e-01 5.800000000000000000e+01
-9.260731339454650879e-01 -1.311334133148192915e+00 -4.301572442054749090e-01 4.700000000000000000e+01
-9.188848137855529785e-01 -1.300191879272460938e+00 -3.675700128078461248e-01 6.300000000000000000e+01
-9.293573498725891113e-01 -1.314523339271544966e+00 -3.129267394542694092e-01 7.200000000000000000e+01
-9.275709390640258789e-01 -1.311025500297545943e+00 -2.543624341487885077e-01 6.000000000000000000e+01
-9.555348753929138184e-01 -1.349550366401671919e+00 -2.030343264341354093e-01 5.400000000000000000e+01
-9.581322073936462402e-01 -1.352717995643615945e+00 -1.450271606445313055e-01 2.000000000000000000e+00
-9.852019548416137695e-01 -1.389906883239746094e+00 -8.928514271974563599e-02 1.000000000000000000e+00
-1.114805102348328081e+00 -1.572167277336121050e+00 4.449531733989716131e-01 1.300000000000000000e+01
-1.041962623596190962e+00 -1.468353748321532981e+00 4.824387133121489923e-01 6.400000000000000000e+01
-9.331135749816894531e-01 -1.311078906059264915e+00 -4.311925172805786133e-01 4.700000000000000000e+01
-9.259051084518432617e-01 -1.299989819526671919e+00 -3.684698343276978094e-01 6.100000000000000000e+01
-9.330298304557800293e-01 -1.309509396553039995e+00 -3.125451207160950262e-01 7.400000000000000000e+01
-9.335166811943054199e-01 -1.309225440025330034e+00 -2.546752989292144775e-01 5.500000000000000000e+01
-9.604748487472534180e-01 -1.346039056777954102e+00 -2.030343264341354093e-01 5.400000000000000000e+01
-9.619261622428894043e-01 -1.347575545310973899e+00 -1.448528468608855924e-01 3.000000000000000000e+01
-9.740363359451293945e-01 -1.363533973693848100e+00 -8.781973272562026978e-02 2.500000000000000000e+01
-1.111495733261107954e+00 -1.555386662483215110e+00 4.413539767265319824e-01 5.000000000000000000e+00
-1.042587876319885032e+00 -1.458421349525452104e+00 4.803681373596190851e-01 6.800000000000000000e+01
-9.433127641677856445e-01 -1.315663814544677956e+00 -4.337807297706604004e-01 5.200000000000000000e+01
-9.338455200195312500e-01 -1.301499962806702104e+00 -3.698195219039916992e-01 5.900000000000000000e+01
-9.353055953979492188e-01 -1.303054690361022949e+00 -3.117819130420684814e-01 6.900000000000000000e+01
-9.415383338928222656e-01 -1.310771942138672097e+00 -2.556139230728148859e-01 4.900000000000000000e+01
-9.686435461044311523e-01 -1.347513794898987038e+00 -2.037655413150787076e-01 5.600000000000000000e+01
-9.677874445915222168e-01 -1.345827102661133035e+00 -1.450271606445313055e-01 6.500000000000000000e+01
-9.776234030723571777e-01 -1.358504533767699973e+00 -8.771505951881408691e-02 5.000000000000000000e+01
-1.141966462135314941e+00 -1.586291432380676047e+00 4.512518048286437988e-01 1.000000000000000000e+00
-1.043409347534179910e+00 -1.448320508003235085e+00 4.782975912094116211e-01 7.000000000000000000e+01
-9.524241089820861816e-01 -1.318627238273621050e+00 -4.358512759208679199e-01 5.400000000000000000e+01
-9.349581599235534668e-01 -1.293494224548340066e+00 -3.684698343276978094e-01 6.300000000000000000e+01
-9.467505812644958496e-01 -1.309327483177185059e+00 -3.140715956687927246e-01 6.700000000000000000e+01
-9.461080431938171387e-01 -1.307477355003356934e+00 -2.556139230728148859e-01 5.100000000000000000e+01
-9.582056403160095215e-01 -1.323222875595092995e+00 -2.005969434976578036e-01 5.100000000000000000e+01
-9.596220254898071289e-01 -1.324692130088805930e+00 -1.431097239255904874e-01 5.700000000000000000e+01
-9.764981865882873535e-01 -1.346998453140259011e+00 -8.719170093536376953e-02 5.600000000000000000e+01
-1.034524559974669966e+00 -1.425993442535399947e+00 -3.075114078819752086e-02 1.000000000000000000e+00
-1.051609635353087935e+00 -1.449543595314026101e+00 4.798505008220673163e-01 7.300000000000000000e+01
-9.638408422470092773e-01 -1.324667334556580034e+00 -4.389570951461791992e-01 5.900000000000000000e+01
-9.383204579353332520e-01 -1.288647413253783958e+00 -3.680199384689331055e-01 5.900000000000000000e+01
-9.594066143035888672e-01 -1.317122936248779075e+00 -3.167429268360137939e-01 7.200000000000000000e+01
-9.529934525489807129e-01 -1.307359457015990989e+00 -2.562396526336669922e-01 5.000000000000000000e+01
-9.593090415000915527e-01 -1.315058827400207964e+00 -1.998657286167145053e-01 4.900000000000000000e+01
-9.583678841590881348e-01 -1.313287258148192915e+00 -1.422381699085235873e-01 5.800000000000000000e+01
-9.729487895965576172e-01 -1.332291126251220925e+00 -8.645900338888168335e-02 5.800000000000000000e+01
-1.012358188629149947e+00 -1.385240077972412109e+00 -2.994832955300807953e-02 1.800000000000000000e+01
-1.058055639266967995e+00 -1.447239041328429954e+00 4.803681373596190851e-01 7.700000000000000000e+01
-9.705118536949157715e-01 -1.324580550193787065e+00 -4.399923682212830145e-01 5.300000000000000000e+01
-9.471978545188903809e-01 -1.291814923286437988e+00 -3.698195219039916992e-01 5.500000000000000000e+01
-9.533185958862304688e-01 -1.299686670303344949e+00 -3.133083581924437921e-01 6.900000000000000000e+01
-9.655058383941650391e-01 -1.315338969230652078e+00 -2.584297358989716131e-01 4.900000000000000000e+01
-9.554382562637329102e-01 -1.300671577453613059e+00 -1.981595456600188931e-01 4.800000000000000000e+01
-9.674368500709533691e-01 -1.316524028778075950e+00 -1.429354250431061069e-01 6.600000000000000000e+01
-9.809111952781677246e-01 -1.333884358406066895e+00 -8.677301555871963501e-02 6.400000000000000000e+01
-1.024057745933532937e+00 -1.391538858413696067e+00 -3.015775792300701141e-02 4.300000000000000000e+01
-1.069467306137084961e+00 -1.453243494033813032e+00 4.834739863872528076e-01 8.000000000000000000e+01
-9.716879129409790039e-01 -1.316521644592284934e+00 -4.384394586086273193e-01 4.600000000000000000e+01
-9.609636664390563965e-01 -1.301040887832642046e+00 -3.734187483787537176e-01 5.500000000000000000e+01
-9.555161595344543457e-01 -1.293193101882935014e+00 -3.125451207160950262e-01 6.700000000000000000e+01
-9.747890830039978027e-01 -1.318314075469970925e+00 -2.596812248229979914e-01 4.900000000000000000e+01
-9.646957516670227051e-01 -1.303711414337157981e+00 -1.991345137357712070e-01 6.000000000000000000e+01
-9.625432491302490234e-01 -1.300327897071837935e+00 -1.415409296751022061e-01 7.000000000000000000e+01
-9.915056228637695312e-01 -1.338476657867432085e+00 -8.729637414216995239e-02 6.900000000000000000e+01
-1.019381880760193093e+00 -1.375104308128356934e+00 -2.987851947546004902e-02 5.400000000000000000e+01
-1.066731333732604980e+00 -1.438451886177062988e+00 4.798505008220673163e-01 7.200000000000000000e+01
-9.659038782119750977e-01 -1.299168944358825906e+00 -4.337807297706604004e-01 1.200000000000000000e+01
-1.022734045982361062e+00 -1.375105857849121094e+00 2.991342544555664062e-02 5.000000000000000000e+00
-9.759685397148132324e-01 -1.311749696731566939e+00 -3.774678707122802734e-01 4.700000000000000000e+01
-9.611966013908386230e-01 -1.291424751281738059e+00 -3.129267394542694092e-01 5.900000000000000000e+01
-9.782049655914306641e-01 -1.313319087028502974e+00 -2.593683302402495783e-01 5.000000000000000000e+01
-9.621226191520690918e-01 -1.290786504745482954e+00 -1.976720690727233887e-01 4.900000000000000000e+01
-9.623124599456787109e-01 -1.290571093559264915e+00 -1.408436745405196866e-01 6.700000000000000000e+01
-9.949772953987121582e-01 -1.333406805992126021e+00 -8.719170093536376953e-02 6.400000000000000000e+01
-1.006228685379028098e+00 -1.347503662109375000e+00 -2.935494855046271931e-02 5.000000000000000000e+01
-1.064560294151305930e+00 -1.425619125366210938e+00 4.767446815967559814e-01 5.700000000000000000e+01
-1.006332039833069070e+00 -1.343724370002747026e+00 -4.498274922370911200e-01 1.000000000000000000e+00
-1.008344054222106934e+00 -1.345921397209167036e+00 2.935494855046271931e-02 3.600000000000000000e+01
-9.887223839759826660e-01 -1.319250702857970969e+00 -3.806171715259552002e-01 3.400000000000000000e+01
-9.751201272010803223e-01 -1.300628185272217019e+00 -3.159796893596649170e-01 5.600000000000000000e+01
-9.744848012924194336e-01 -1.298835873603821023e+00 -2.571782469749451239e-01 4.700000000000000000e+01
-9.797332286834716797e-01 -1.304882168769835982e+00 -2.003532052040100098e-01 4.900000000000000000e+01
-9.668115377426147461e-01 -1.287204146385193093e+00 -1.408436745405196866e-01 6.800000000000000000e+01
-9.948256015777587891e-01 -1.323539376258850098e+00 -8.677301555871963501e-02 6.400000000000000000e+01
-1.016936540603637917e+00 -1.351973414421081987e+00 -2.952947095036507000e-02 5.400000000000000000e+01
-1.063970565795897993e+00 -1.413989424705504927e+00 4.741564989089965820e-01 4.700000000000000000e+01
-1.657880663871764915e+00 -2.197686910629272017e+00 -7.376343011856079102e-01 1.600000000000000000e+01
-1.011831521987915039e+00 -1.340797185897826926e+00 2.932004258036613117e-02 4.800000000000000000e+01
-9.991921186447143555e-01 -1.323567986488342063e+00 -3.828666806221007746e-01 2.200000000000000000e+01
-9.879363179206848145e-01 -1.308183193206787109e+00 -3.186510205268859863e-01 5.100000000000000000e+01
-9.861587285995483398e-01 -1.304882049560547097e+00 -2.590554654598236084e-01 4.700000000000000000e+01
-9.794924259185791016e-01 -1.295121192932128906e+00 -1.993782520294188898e-01 4.400000000000000000e+01
-9.725009202957153320e-01 -1.285410404205322044e+00 -1.410179883241652887e-01 7.200000000000000000e+01
-9.910003542900085449e-01 -1.308912277221679910e+00 -8.604031056165695190e-02 5.700000000000000000e+01
-1.011988639831542969e+00 -1.335664510726928933e+00 -2.925023250281811107e-02 4.900000000000000000e+01
-1.072153687477112038e+00 -1.415072798728943093e+00 4.757094085216522217e-01 4.600000000000000000e+01
-1.665541887283324973e+00 -2.191886425018310991e+00 -7.376343011856079102e-01 1.600000000000000000e+01
-1.012875318527221902e+00 -1.332481145858765093e+00 2.921532839536666870e-02 5.000000000000000000e+01
-1.940377354621886985e+00 -2.551725625991820845e+00 -7.400889396667480469e-01 1.100000000000000000e+01
-1.032662272453308105e+00 -1.357527971267699973e+00 8.938981592655181885e-02 3.000000000000000000e+00
-9.924966692924499512e-01 -1.304726719856261985e+00 -3.186510205268859863e-01 5.100000000000000000e+01
-9.978866577148437500e-01 -1.310862421989440918e+00 -2.609326839447020929e-01 4.700000000000000000e+01
-1.126899242401123047e+00 -1.479802370071410911e+00 2.283831536769866943e-01 1.000000000000000000e+00
-9.840072989463806152e-01 -1.291694164276123047e+00 -1.993782520294188898e-01 4.400000000000000000e+01
-9.793972373008728027e-01 -1.285177230834960938e+00 -1.413666158914566040e-01 7.200000000000000000e+01
-9.943521022796630859e-01 -1.303856968879699929e+00 -8.593563735485076904e-02 5.500000000000000000e+01
-1.008152484893799050e+00 -1.320996284484863059e+00 -2.900590002536774029e-02 4.700000000000000000e+01
-1.080602765083312988e+00 -1.415928840637207031e+00 4.772623181343079168e-01 4.700000000000000000e+01
-1.673182845115662065e+00 -2.186059236526488814e+00 -7.376343011856079102e-01 1.500000000000000000e+01
-1.021167397499084029e+00 -1.333700656890868919e+00 2.932004258036613117e-02 5.100000000000000000e+01
-1.951642632484436035e+00 -2.548031091690063032e+00 -7.409887909889221191e-01 1.400000000000000000e+01
-1.042253613471985085e+00 -1.360256552696228027e+00 8.980850130319595337e-02 3.000000000000000000e+01
-9.982390403747558594e-01 -1.302812695503235085e+00 -3.190326392650604248e-01 4.700000000000000000e+01
-1.109036684036255105e+00 -1.446892857551574929e+00 1.594950109720230103e-01 3.000000000000000000e+00
-1.006062269210814986e+00 -1.312073945999145952e+00 -2.618713080883026123e-01 4.600000000000000000e+01
-1.074065566062927024e+00 -1.400255441665648970e+00 2.166836857795715054e-01 7.000000000000000000e+00
-9.969692826271057129e-01 -1.299275636672974077e+00 -2.010844200849533081e-01 4.700000000000000000e+01
-9.802378416061401367e-01 -1.277009367942810059e+00 -1.408436745405196866e-01 7.000000000000000000e+01
-1.002547383308411089e+00 -1.305129766464232954e+00 -8.624965697526931763e-02 5.800000000000000000e+01
-1.003007769584655984e+00 -1.304785966873168945e+00 -2.872666157782078136e-02 5.600000000000000000e+01
-1.079651832580565962e+00 -1.404490113258362038e+00 4.746741354465485174e-01 4.500000000000000000e+01
-1.673726439476012962e+00 -2.171025514602661133e+00 -7.345284223556518555e-01 1.600000000000000000e+01
-1.023374199867248979e+00 -1.326961040496825950e+00 2.925023250281811107e-02 5.300000000000000000e+01
-1.971238255500793013e+00 -2.555089473724364790e+00 -7.450379133224487305e-01 1.400000000000000000e+01
-1.039673805236815962e+00 -1.347123384475708008e+00 8.918046951293945312e-02 3.800000000000000000e+01
-1.008778095245361106e+00 -1.307091355323791948e+00 -3.209407329559326172e-01 3.800000000000000000e+01
-1.105557560920715110e+00 -1.431973338127136008e+00 1.582748293876647949e-01 2.700000000000000000e+01
-1.005806326866149902e+00 -1.302300572395324929e+00 -2.606198191642761230e-01 5.000000000000000000e+01
-1.076519489288330078e+00 -1.393355965614319070e+00 2.161962091922760010e-01 1.200000000000000000e+01
-1.006354331970215066e+00 -1.302070260047913042e+00 -2.020593732595444003e-01 4.800000000000000000e+01
-9.895641803741455078e-01 -1.279884696006774902e+00 -1.415409296751022061e-01 6.700000000000000000e+01
-1.008319258689879927e+00 -1.303201913833617942e+00 -8.635433018207550049e-02 6.400000000000000000e+01
-1.003883361816406028e+00 -1.296533346176147017e+00 -2.862194739282130848e-02 5.600000000000000000e+01
-1.083609223365783913e+00 -1.398996233940124956e+00 4.741564989089965820e-01 4.900000000000000000e+01
-1.678547382354736106e+00 -2.162411212921143022e+00 -7.334931492805480957e-01 1.600000000000000000e+01
-1.022863149642943892e+00 -1.317242383956908958e+00 2.911061421036719929e-02 5.500000000000000000e+01
