-3.572727441787720171e+00 -8.947559595108032227e-01 -7.159153223037719727e-01 1.100000000000000000e+01
-4.442135334014892578e+00 -1.110843181610106978e+00 -7.252301573753356934e-01 1.100000000000000000e+01
-5.956990718841552734e+00 -1.487453460693358931e+00 -7.538837790489196777e-01 7.000000000000000000e+00
-8.934893608093261719e+00 -2.229375600814818892e+00 -8.056676983833312988e-01 1.000000000000000000e+00
-1.810688591003417969e+01 -4.511197090148925781e+00 -9.779496788978576660e-01 6.000000000000000000e+00
-2.556117296218872070e+00 -6.321016550064086914e-01 -7.055407166481018066e-01 2.100000000000000000e+01
-4.516057586669921875e+01 -1.115938472747802912e+01 8.119906783103942871e-01 5.300000000000000000e+01
-2.974096775054932085e+00 -7.343621253967285156e-01 -7.072461247444152832e-01 1.300000000000000000e+01
-4.515791702270507812e+01 -1.114200401306151988e+01 2.437599420547484907e+00 3.800000000000000000e+01
-3.572016716003417969e+00 -8.813387751579284668e-01 -7.151521444320678711e-01 1.100000000000000000e+01
-4.440231323242188388e+00 -1.093912959098815918e+00 -7.242915630340576172e-01 1.100000000000000000e+01
-5.940942764282226562e+00 -1.461434602737426980e+00 -7.512026429176330566e-01 9.000000000000000000e+00
-8.954229354858398438e+00 -2.201026916503905806e+00 -8.067135810852050781e-01 1.000000000000000000e+00
-1.839019966125487926e+01 -4.513663291931152344e+00 -9.923943877220153809e-01 6.000000000000000000e+00
-3.410542297363281250e+01 -8.358162879943847656e+00 -6.129285097122192383e-01 7.000000000000000000e+00
-2.560185194015502930e+00 -6.236324906349182129e-01 -7.060583829879760742e-01 1.900000000000000000e+01
-4.512541961669921875e+01 -1.098370552062987926e+01 8.106642961502075195e-01 5.300000000000000000e+01
-2.991790294647216797e+00 -7.276604771614074707e-01 -7.108453512191772461e-01 1.500000000000000000e+01
-4.518101119995117188e+01 -1.098053169250487926e+01 2.436762094497681108e+00 3.800000000000000000e+01
-3.563625097274779829e+00 -8.660828471183776855e-01 -7.128624320030212402e-01 1.200000000000000000e+01
-4.445942401885986328e+00 -1.078872799873352051e+00 -7.246044278144836426e-01 1.100000000000000000e+01
-5.957583427429199219e+00 -1.443492650985717995e+00 -7.526650428771972656e-01 9.000000000000000000e+00
-8.957984924316406250e+00 -2.168819665908813032e+00 -8.063649535179138184e-01 1.000000000000000000e+00
-1.761377716064453125e+01 -4.257966995239257812e+00 -9.496882557868957520e-01 6.000000000000000000e+00
-3.403719711303710938e+01 -8.215601921081542969e+00 -6.111832857131958008e-01 7.000000000000000000e+00
-2.556710720062255859e+00 -6.133400201797485352e-01 -7.045054435729980469e-01 1.900000000000000000e+01
-4.517515182495117188e+01 -1.082891845703125000e+01 8.108736872673034668e-01 5.300000000000000000e+01
-2.996207237243651900e+00 -7.176666855812072754e-01 -7.112952470779418945e-01 1.400000000000000000e+01
-4.518410110473632812e+01 -1.081438636779784979e+01 2.434878110885620117e+00 3.800000000000000000e+01
-3.557079792022705078e+00 -8.513533473014831543e-01 -7.109543085098266602e-01 1.200000000000000000e+01
-4.449681282043457031e+00 -1.063346982002258079e+00 -7.246044278144836426e-01 1.200000000000000000e+01
-5.949069499969482422e+00 -1.419462919235229048e+00 -7.509589195251464844e-01 9.000000000000000000e+00
-8.957749366760253906e+00 -2.135689020156859907e+00 -8.056676983833312988e-01 1.000000000000000000e+00
-1.787334632873535156e+01 -4.254735469818115234e+00 -9.628769159317016602e-01 1.200000000000000000e+01
-3.401897430419921875e+01 -8.085641860961914062e+00 -6.103455424308776855e-01 7.000000000000000000e+00
-2.549435615539550781e+00 -6.021912097930908203e-01 -7.019172310829162598e-01 2.000000000000000000e+01
-4.514650726318358664e+01 -1.065554332733153942e+01 8.096869587898254395e-01 5.300000000000000000e+01
-3.004384279251099077e+00 -7.085455656051635742e-01 -7.126449346542358398e-01 1.500000000000000000e+01
-4.517880630493164062e+01 -1.064651966094971058e+01 2.432575225830078125e+00 3.800000000000000000e+01
-3.561940908432006836e+00 -8.393819332122802734e-01 -7.113359570503234863e-01 1.200000000000000000e+01
-4.453366279602050781e+00 -1.047808170318603960e+00 -7.246044278144836426e-01 1.100000000000000000e+01
-5.965583324432373047e+00 -1.401412010192871094e+00 -7.524213194847106934e-01 9.000000000000000000e+00
-8.945753097534179688e+00 -2.099854707717895952e+00 -8.039245605468750000e-01 1.000000000000000000e+00
-1.798726272583008168e+01 -4.215562343597412109e+00 -9.682151675224304199e-01 1.900000000000000000e+01
-2.562812089920043945e+00 -5.959135293960571289e-01 -7.050230503082275391e-01 2.000000000000000000e+01
-4.515225982666016336e+01 -1.049064731597900035e+01 8.091284632682800293e-01 5.300000000000000000e+01
-2.999246120452880859e+00 -6.962912082672119141e-01 -7.108453512191772461e-01 1.500000000000000000e+01
-4.520013046264647727e+01 -1.048514080047607067e+01 2.431737899780272993e+00 3.800000000000000000e+01
-3.572499036788939986e+00 -8.287178874015808105e-01 -7.128624320030212402e-01 1.100000000000000000e+01
-4.437752246856688565e+00 -1.027799606323241965e+00 -7.214757800102233887e-01 1.100000000000000000e+01
-5.962702274322509766e+00 -1.378790855407715066e+00 -7.514463663101196289e-01 7.000000000000000000e+00
-8.925850868225097656e+00 -2.062335968017578125e+00 -8.014842271804809570e-01 1.000000000000000000e+00
-1.828405952453612926e+01 -4.217846393585205078e+00 -9.833925962448120117e-01 1.300000000000000000e+01
-3.427335739135742188e+01 -7.893728733062744141e+00 -6.139058470726013184e-01 7.000000000000000000e+00
-2.562993288040161133e+00 -5.865330696105957031e-01 -7.045054435729980469e-01 1.900000000000000000e+01
-4.513402175903320312e+01 -1.032049083709716975e+01 8.081511259078979492e-01 5.200000000000000000e+01
-2.992159366607666016e+00 -6.836473345756530762e-01 -7.085958123207092285e-01 1.400000000000000000e+01
-4.517414474487304688e+01 -1.031307411193848012e+01 2.428388357162476030e+00 3.800000000000000000e+01
-3.581112146377563032e+00 -8.175533413887023926e-01 -7.140072584152221680e-01 1.200000000000000000e+01
-4.449016571044921875e+00 -1.014058709144592063e+00 -7.227272391319274902e-01 1.100000000000000000e+01
-5.944251537322998047e+00 -1.352683067321776900e+00 -7.485215067863464355e-01 7.000000000000000000e+00
-8.948537826538085938e+00 -2.034700393676757812e+00 -8.028786778450012207e-01 1.000000000000000000e+00
-1.840384674072265980e+01 -4.177873611450195312e+00 -9.890449047088623047e-01 1.300000000000000000e+01
-3.427730178833007812e+01 -7.768740177154541016e+00 -6.134870052337646484e-01 1.400000000000000000e+01
-2.566808938980102983e+00 -5.784553885459899902e-01 -7.050230503082275391e-01 2.000000000000000000e+01
-4.516019439697266336e+01 -1.016900730133056996e+01 8.080115318298339844e-01 5.200000000000000000e+01
-2.988706350326538086e+00 -6.724379062652587891e-01 -7.072461247444152832e-01 1.500000000000000000e+01
-4.519462966918945312e+01 -1.016847419738770064e+01 2.427760362625122070e+00 3.700000000000000000e+01
-3.574226379394530806e+00 -8.035204410552978516e-01 -7.120991945266723633e-01 1.200000000000000000e+01
-4.448500156402587891e+00 -9.984344244003295898e-01 -7.221015095710754395e-01 1.100000000000000000e+01
-5.935145378112792969e+00 -1.329925417900085005e+00 -7.468153238296508789e-01 7.000000000000000000e+00
-8.974678039550781250e+00 -2.009367704391479048e+00 -8.046218156814575195e-01 1.000000000000000000e+00
-1.852285385131835938e+01 -4.140348434448242188e+00 -9.946972131729125977e-01 1.300000000000000000e+01
-3.427164840698242188e+01 -7.648061275482177734e+00 -6.129285097122192383e-01 7.000000000000000000e+00
-2.553724050521851030e+00 -5.661469697952270508e-01 -7.008819580078125000e-01 1.800000000000000000e+01
-4.516027450561522727e+01 -1.000352287292479936e+01 8.073832392692565918e-01 5.200000000000000000e+01
-2.998646259307860884e+00 -6.636857986450195312e-01 -7.090457081794738770e-01 1.500000000000000000e+01
-4.519259262084960938e+01 -9.994133949279785156e+00 2.425666809082030806e+00 3.700000000000000000e+01
-3.567424535751343218e+00 -7.889195084571838379e-01 -7.101910710334777832e-01 1.200000000000000000e+01
-4.455816268920898438e+00 -9.837518930435180664e-01 -7.227272391319274902e-01 1.100000000000000000e+01
-5.945567131042479581e+00 -1.310481667518615945e+00 -7.475465536117553711e-01 7.000000000000000000e+00
-8.942722320556640625e+00 -1.969457745552062988e+00 -8.011355996131896973e-01 1.000000000000000000e+00
-1.864643096923828125e+01 -4.099683761596679688e+00 -1.000558853149414062e+00 1.400000000000000000e+01
-3.418094253540039062e+01 -7.502660751342773438e+00 -6.108342409133911133e-01 7.000000000000000000e+00
-2.559459686279296875e+00 -5.580524206161499023e-01 -7.019172310829162598e-01 1.700000000000000000e+01
-4.516756439208983664e+01 -9.839863777160644531e+00 8.068945407867431641e-01 5.200000000000000000e+01
-3.002848863601685014e+00 -6.536290049552917480e-01 -7.094956040382385254e-01 1.400000000000000000e+01
-4.517084503173828125e+01 -9.832320213317871094e+00 2.422736167907714844e+00 3.700000000000000000e+01
-3.579748868942261186e+00 -7.785482406616210938e-01 -7.120991945266723633e-01 1.200000000000000000e+01
-4.447640419006347656e+00 -9.656774401664733887e-01 -7.208499908447265625e-01 1.100000000000000000e+01
-5.950105190277099609e+00 -1.289719820022583008e+00 -7.475465536117553711e-01 7.000000000000000000e+00
-8.949542045593261719e+00 -1.938229799270630105e+00 -8.011355996131896973e-01 1.000000000000000000e+00
-3.417565155029296875e+01 -7.376550674438476562e+00 -6.102757453918457031e-01 7.000000000000000000e+00
-2.553836345672606978e+00 -5.474950671195983887e-01 -6.998466849327087402e-01 1.700000000000000000e+01
-4.515861892700195312e+01 -9.672924995422363281e+00 8.061266541481018066e-01 5.200000000000000000e+01
-3.005112171173096147e+00 -6.431431174278259277e-01 -7.094956040382385254e-01 1.400000000000000000e+01
-4.521269989013671875e+01 -9.676257133483886719e+00 2.423154830932617188e+00 3.700000000000000000e+01
-3.565165996551514116e+00 -7.623530626296997070e-01 -7.086645960807800293e-01 1.200000000000000000e+01
-4.450984477996826172e+00 -9.501463770866394043e-01 -7.208499908447265625e-01 1.100000000000000000e+01
-5.968161582946777344e+00 -1.271838307380676047e+00 -7.492527365684509277e-01 9.000000000000000000e+00
-8.956254005432128906e+00 -1.906978249549865945e+00 -8.011355996131896973e-01 1.000000000000000000e+00
-3.427552413940429688e+01 -7.272983551025390625e+00 -6.116021275520324707e-01 7.000000000000000000e+00
-2.561402797698975053e+00 -5.397722125053405762e-01 -7.013996243476867676e-01 1.900000000000000000e+01
-4.518036651611328125e+01 -9.512761116027832031e+00 8.059172034263610840e-01 5.200000000000000000e+01
-2.997803926467895952e+00 -6.306435465812683105e-01 -7.072461247444152832e-01 1.500000000000000000e+01
-4.519704437255858664e+01 -9.499797821044921875e+00 2.420433282852172852e+00 3.700000000000000000e+01
-3.585096836090087891e+00 -7.535380721092224121e-01 -7.120991945266723633e-01 1.200000000000000000e+01
-4.454273700714111328e+00 -9.346037507057189941e-01 -7.208499908447265625e-01 1.100000000000000000e+01
-5.943420886993408203e+00 -1.244893431663512962e+00 -7.455966472625732422e-01 1.100000000000000000e+01
-8.951154708862304688e+00 -1.873254776000977007e+00 -8.000897169113159180e-01 1.000000000000000000e+00
-3.427721405029296875e+01 -7.148396492004395419e+00 -6.111832857131958008e-01 7.000000000000000000e+00
-2.572730064392089844e+00 -5.327867865562438965e-01 -7.039877772331237793e-01 1.900000000000000000e+01
-4.517413330078125000e+01 -9.346891403198242188e+00 8.052191138267517090e-01 5.200000000000000000e+01
-2.999986886978148970e+00 -6.201754212379455566e-01 -7.072461247444152832e-01 1.500000000000000000e+01
-4.519309234619141336e+01 -9.342588424682617188e+00 2.418549299240111861e+00 3.700000000000000000e+01
-3.585782527923583984e+00 -7.406220436096191406e-01 -7.117175459861755371e-01 1.200000000000000000e+01
-4.461378574371337891e+00 -9.198475480079650879e-01 -7.214757800102233887e-01 1.100000000000000000e+01
-5.943841457366943359e+00 -1.223339080810547097e+00 -7.451091408729553223e-01 9.000000000000000000e+00
-8.953736305236816406e+00 -1.841195464134216087e+00 -7.997410893440246582e-01 1.000000000000000000e+00
-3.432154464721679688e+01 -7.032717227935791016e+00 -6.115323305130004883e-01 7.000000000000000000e+00
-2.567001819610596147e+00 -5.222623944282531738e-01 -7.019172310829162598e-01 1.800000000000000000e+01
-4.518296813964843750e+01 -9.184367179870605469e+00 8.048002719879150391e-01 5.200000000000000000e+01
-2.998313903808594194e+00 -6.089240312576293945e-01 -7.063463330268859863e-01 1.300000000000000000e+01
-4.519411087036132812e+01 -9.178418159484863281e+00 2.416874408721923828e+00 3.700000000000000000e+01
-3.574877738952637163e+00 -7.253680229187011719e-01 -7.090462446212768555e-01 1.300000000000000000e+01
-4.472306251525878906e+00 -9.058373570442199707e-01 -7.227272391319274902e-01 1.100000000000000000e+01
-5.953912734985351562e+00 -1.203763961791991965e+00 -7.458403706550598145e-01 9.000000000000000000e+00
-8.948390960693359375e+00 -1.807562947273253950e+00 -7.986952066421508789e-01 1.000000000000000000e+00
-3.429099655151367188e+01 -6.901821613311767578e+00 -6.105549931526184082e-01 1.400000000000000000e+01
-2.553653955459595171e+00 -5.102704167366027832e-01 -6.977761387825012207e-01 2.000000000000000000e+01
-4.513239288330078125e+01 -9.010149955749511719e+00 8.033342957496643066e-01 5.200000000000000000e+01
-3.011887788772583008e+00 -6.007413268089294434e-01 -7.090457081794738770e-01 1.500000000000000000e+01
-4.519453811645507812e+01 -9.014354705810546875e+00 2.415199756622314009e+00 3.700000000000000000e+01
-3.575462579727172852e+00 -7.125012874603271484e-01 -7.086645960807800293e-01 1.300000000000000000e+01
-4.459941864013671875e+00 -8.871375322341918945e-01 -7.202242612838745117e-01 1.100000000000000000e+01
-5.938607215881347656e+00 -1.179107666015625000e+00 -7.434030175209045410e-01 9.000000000000000000e+00
-8.899925231933593750e+00 -1.765461325645446999e+00 -7.938144803047180176e-01 2.000000000000000000e+00
-3.437372970581054688e+01 -6.793713569641113281e+00 -6.116021275520324707e-01 7.000000000000000000e+00
-2.559211015701293945e+00 -5.020972490310668945e-01 -6.988114118576049805e-01 1.800000000000000000e+01
-4.516356658935546875e+01 -8.852554321289062500e+00 8.033342957496643066e-01 5.200000000000000000e+01
-3.002491950988769975e+00 -5.879771709442138672e-01 -7.063463330268859863e-01 1.500000000000000000e+01
-4.521004867553710938e+01 -8.853470802307128906e+00 2.414362430572510210e+00 3.700000000000000000e+01
-3.585634708404541016e+00 -7.015240788459777832e-01 -7.101910710334777832e-01 1.300000000000000000e+01
-4.447501182556152344e+00 -8.685351610183715820e-01 -7.177213430404663086e-01 1.100000000000000000e+01
-5.960222721099854404e+00 -1.161788940429687944e+00 -7.455966472625732422e-01 1.100000000000000000e+01
-8.898210525512695312e+00 -1.732860684394835982e+00 -7.931172847747802734e-01 1.000000000000000000e+00
-1.906256103515625000e+01 -3.705386638641356978e+00 -1.017724990844727007e+00 7.000000000000000000e+00
-3.441294097900391336e+01 -6.676732540130615234e+00 -6.118813753128051758e-01 1.400000000000000000e+01
-2.562844991683959961e+00 -4.935261607170104980e-01 -6.993290781974792480e-01 1.900000000000000000e+01
-4.518634033203125000e+01 -8.693338394165039062e+00 8.031946420669555664e-01 5.200000000000000000e+01
-3.000698566436768022e+00 -5.767572522163391113e-01 -7.054464817047119141e-01 1.600000000000000000e+01
-4.522106170654296875e+01 -8.691834449768066406e+00 2.413315534591674805e+00 3.700000000000000000e+01
-3.591917753219604048e+00 -6.897440552711486816e-01 -7.109543085098266602e-01 1.300000000000000000e+01
-4.458266258239746094e+00 -8.544925451278686523e-01 -7.189728021621704102e-01 1.100000000000000000e+01
-5.934995651245117188e+00 -1.135381937026977983e+00 -7.419405579566955566e-01 9.000000000000000000e+00
-8.888549804687500000e+00 -1.698797345161437988e+00 -7.917227745056152344e-01 2.000000000000000000e+00
-3.446353912353516336e+01 -6.561804771423339844e+00 -6.123700141906738281e-01 7.000000000000000000e+00
-2.572145223617554155e+00 -4.860118925571442206e-01 -7.013996243476867676e-01 1.900000000000000000e+01
-4.519282913208007812e+01 -8.531105041503906250e+00 8.027758002281188965e-01 5.200000000000000000e+01
-3.002693653106689009e+00 -5.662793517112731934e-01 -7.054464817047119141e-01 1.500000000000000000e+01
-4.521335983276367188e+01 -8.518636703491210938e+00 2.411222219467163086e+00 3.700000000000000000e+01
-3.588515520095825195e+00 -6.761112213134765625e-01 -7.098094820976257324e-01 1.300000000000000000e+01
-4.467045783996582031e+00 -8.400202989578247070e-01 -7.199113965034484863e-01 1.100000000000000000e+01
-5.919412612915039062e+00 -1.110996246337891069e+00 -7.395032048225402832e-01 9.000000000000000000e+00
-8.894425392150878906e+00 -1.667760252952575906e+00 -7.917227745056152344e-01 2.000000000000000000e+00
-3.439580917358397727e+01 -6.424574851989746094e+00 -6.107644438743591309e-01 1.400000000000000000e+01
-2.570027112960814986e+00 -4.763263463973999023e-01 -7.003643512725830078e-01 1.900000000000000000e+01
-4.518693923950195312e+01 -8.366746902465820312e+00 8.021475076675415039e-01 5.100000000000000000e+01
-3.000819444656372070e+00 -5.550856590270996094e-01 -7.045466899871826172e-01 1.500000000000000000e+01
-4.521532440185546875e+01 -8.355679512023925781e+00 2.409756660461425781e+00 3.700000000000000000e+01
-3.575409173965454102e+00 -6.607267260551452637e-01 -7.067565321922302246e-01 1.400000000000000000e+01
-4.468008041381835938e+00 -8.240640163421630859e-01 -7.195985317230224609e-01 1.100000000000000000e+01
-5.946682453155517578e+00 -1.094639301300049050e+00 -7.424280643463134766e-01 9.000000000000000000e+00
-8.892354965209960938e+00 -1.635261297225951926e+00 -7.910255193710327148e-01 1.000000000000000000e+00
-3.437475585937500000e+01 -6.296545505523681641e+00 -6.099964976310729980e-01 1.400000000000000000e+01
-2.560107231140137163e+00 -4.661735594272614081e-01 -6.972585320472717285e-01 1.900000000000000000e+01
-4.514611053466796875e+01 -8.212578773498535156e+00 8.009607195854187012e-01 5.100000000000000000e+01
-3.017887353897095171e+00 -5.484430789947509766e-01 -7.081459164619445801e-01 1.500000000000000000e+01
-4.520991134643554688e+01 -8.207881927490234375e+00 2.408082008361815962e+00 3.700000000000000000e+01
-3.589057445526123047e+00 -6.515951752662658691e-01 -7.090462446212768555e-01 1.300000000000000000e+01
-4.466687679290770596e+00 -8.093189001083374023e-01 -7.189728021621704102e-01 1.100000000000000000e+01
-5.948138236999511719e+00 -1.075598597526550071e+00 -7.421842813491821289e-01 7.000000000000000000e+00
-8.858235359191894531e+00 -1.600233316421509011e+00 -7.875393033027648926e-01 1.000000000000000000e+00
-3.450064086914063211e+01 -6.207645416259765625e+00 -6.118813753128051758e-01 1.400000000000000000e+01
-2.567424297332764116e+00 -4.582526087760924738e-01 -6.988114118576049805e-01 2.000000000000000000e+01
-4.515481567382813211e+01 -8.051428794860839844e+00 8.006116747856140137e-01 5.100000000000000000e+01
-3.002516508102416992e+00 -5.348296165466308594e-01 -7.040967941284179688e-01 1.400000000000000000e+01
-4.520682525634766336e+01 -8.044421195983886719e+00 2.406407356262207031e+00 3.700000000000000000e+01
-3.587444305419921875e+00 -6.383751630783081055e-01 -7.082830071449279785e-01 1.200000000000000000e+01
-4.453925609588623047e+00 -7.909591794013977051e-01 -7.164698243141174316e-01 1.100000000000000000e+01
-5.949902057647705078e+00 -1.054482817649841087e+00 -7.419405579566955566e-01 1.100000000000000000e+01
-8.851995468139648438e+00 -1.567218542098999023e+00 -7.864934206008911133e-01 1.000000000000000000e+00
-3.436455535888671875e+01 -6.059398174285888672e+00 -6.090889573097229004e-01 6.000000000000000000e+00
-2.570989608764647993e+00 -4.491719305515288752e-01 -6.993290781974792480e-01 2.100000000000000000e+01
-4.514068603515625000e+01 -7.878310680389404297e+00 7.998437881469726562e-01 5.100000000000000000e+01
-2.996777296066284180e+00 -5.224824547767639160e-01 -7.022972106933593750e-01 1.400000000000000000e+01
-4.522813415527343750e+01 -7.877305507659912109e+00 2.405988693237305132e+00 3.700000000000000000e+01
-3.589759826660155806e+00 -6.252222657203674316e-01 -7.082830071449279785e-01 1.200000000000000000e+01
-4.458741188049316406e+00 -7.749676704406738281e-01 -7.167826890945434570e-01 1.100000000000000000e+01
-5.936123847961425781e+00 -1.029615044593811035e+00 -7.397469282150268555e-01 1.100000000000000000e+01
-8.869459152221679688e+00 -1.536804676055907981e+00 -7.875393033027648926e-01 1.000000000000000000e+00
-3.440623855590820312e+01 -5.936805725097656250e+00 -6.094380617141723633e-01 1.400000000000000000e+01
-2.570637702941894975e+00 -4.398689270019531250e-01 -6.988114118576049805e-01 1.900000000000000000e+01
-4.516002655029296875e+01 -7.719344615936279297e+00 7.997041940689086914e-01 5.100000000000000000e+01
-2.994740962982178178e+00 -5.113625526428222656e-01 -7.013973593711853027e-01 1.400000000000000000e+01
-4.521203994750977273e+01 -7.711993694305419922e+00 2.403685808181763139e+00 3.600000000000000000e+01
-3.584179401397705078e+00 -6.113674044609069824e-01 -7.067565321922302246e-01 1.300000000000000000e+01
-4.467261314392089844e+00 -7.603934407234191895e-01 -7.177213430404663086e-01 1.100000000000000000e+01
-5.914239883422851562e+00 -1.004566311836242898e+00 -7.365782856941223145e-01 9.000000000000000000e+00
-8.843340873718261719e+00 -1.500502347946166992e+00 -7.847502827644348145e-01 2.000000000000000000e+00
-3.442675399780272727e+01 -5.816668987274169922e+00 -6.094380617141723633e-01 1.400000000000000000e+01
-2.572157382965087891e+00 -4.308930337429047186e-01 -6.988114118576049805e-01 1.900000000000000000e+01
-4.519063949584960938e+01 -7.562319755554199219e+00 7.997739911079406738e-01 5.100000000000000000e+01
-3.002274036407471147e+00 -5.018697381019592285e-01 -7.027471065521240234e-01 1.300000000000000000e+01
-4.519140625000000000e+01 -7.546232223510742188e+00 2.401173591613769975e+00 3.600000000000000000e+01
-3.586291551589965820e+00 -5.988525748252868652e-01 -7.067565321922302246e-01 1.200000000000000000e+01
-4.465991020202636719e+00 -7.441458106040954590e-01 -7.170956134796142578e-01 1.100000000000000000e+01
-5.931417942047119141e+00 -9.861947894096374512e-01 -7.382844686508178711e-01 1.100000000000000000e+01
-8.844594001770019531e+00 -1.468971371650696023e+00 -7.844016551971435547e-01 2.000000000000000000e+00
-3.437582397460938211e+01 -5.684716701507568359e+00 -6.081814765930175781e-01 1.300000000000000000e+01
-2.562207460403441939e+00 -4.200367629528046209e-01 -6.957055926322937012e-01 2.300000000000000000e+01
-4.515361404418945312e+01 -7.394187927246093750e+00 7.986570000648498535e-01 5.100000000000000000e+01
-3.017469882965087891e+00 -4.935888946056365967e-01 -7.058964371681213379e-01 1.400000000000000000e+01
-4.519776153564453125e+01 -7.385218143463134766e+00 2.400126934051514116e+00 3.600000000000000000e+01
-3.582547426223754883e+00 -5.853806138038635254e-01 -7.056116461753845215e-01 1.200000000000000000e+01
-4.476359844207763672e+00 -7.298235297203063965e-01 -7.183470726013183594e-01 1.100000000000000000e+01
-5.942661762237548828e+00 -9.667592644691467285e-01 -7.392594218254089355e-01 1.100000000000000000e+01
-8.841800689697265625e+00 -1.436810731887816939e+00 -7.837044596672058105e-01 2.000000000000000000e+00
-3.446652221679688211e+01 -5.576185226440429688e+00 -6.094380617141723633e-01 1.400000000000000000e+01
-2.573195457458496094e+00 -4.126197695732117254e-01 -6.982938051223754883e-01 2.200000000000000000e+01
-4.517124938964843750e+01 -7.235261917114257812e+00 7.985174059867858887e-01 5.100000000000000000e+01
-3.009553194046020952e+00 -4.815135598182678223e-01 -7.036468982696533203e-01 1.500000000000000000e+01
-4.519959640502929688e+01 -7.223620891571044922e+00 2.398870944976807085e+00 3.600000000000000000e+01
-3.580691576004027876e+00 -5.722519755363464355e-01 -7.048484086990356445e-01 1.200000000000000000e+01
-4.463274478912354404e+00 -7.117052078247070312e-01 -7.158440947532653809e-01 1.100000000000000000e+01
-5.953841686248779297e+00 -9.472572207450866699e-01 -7.402343750000000000e-01 1.100000000000000000e+01
-8.838891983032226562e+00 -1.404687404632567915e+00 -7.830072045326232910e-01 2.000000000000000000e+00
-3.456873321533203125e+01 -5.468964576721191406e+00 -6.109040379524230957e-01 7.000000000000000000e+00
-2.576528549194335938e+00 -4.039343297481536865e-01 -6.988114118576049805e-01 2.000000000000000000e+01
-4.518832778930664062e+01 -7.076303482055664062e+00 7.983778119087219238e-01 5.100000000000000000e+01
-2.997738122940063032e+00 -4.688972532749176025e-01 -7.004975676536560059e-01 1.300000000000000000e+01
-4.521269607543945312e+01 -7.063951015472412109e+00 2.398242950439453125e+00 3.600000000000000000e+01
-3.592365980148314986e+00 -5.612648129463195801e-01 -7.067565321922302246e-01 1.300000000000000000e+01
-4.469635009765625000e+00 -6.967296004295349121e-01 -7.164698243141174316e-01 1.100000000000000000e+01
-5.953188896179199219e+00 -9.258585572242736816e-01 -7.397469282150268555e-01 1.100000000000000000e+01
-8.835865974426269531e+00 -1.372602105140686035e+00 -7.823099493980407715e-01 2.000000000000000000e+00
-1.840075683593750000e+01 -2.851876020431518999e+00 -9.758562445640563965e-01 6.000000000000000000e+00
-3.472199249267578125e+01 -5.369043350219726562e+00 -6.132775545120239258e-01 1.400000000000000000e+01
-2.577853918075561968e+00 -3.953880369663239081e-01 -6.988114118576049805e-01 2.000000000000000000e+01
-4.518782806396483664e+01 -6.922780990600585938e+00 7.979589104652404785e-01 5.100000000000000000e+01
-2.995424032211304155e+00 -4.583642780780792236e-01 -6.995977759361267090e-01 1.300000000000000000e+01
-4.518453979492188211e+01 -6.906135559082031250e+00 2.395521402359008789e+00 3.600000000000000000e+01
-3.592266798019409180e+00 -5.490524172782897949e-01 -7.063748836517333984e-01 1.300000000000000000e+01
-4.468015670776367188e+00 -6.813083887100219727e-01 -7.158440947532653809e-01 1.100000000000000000e+01
-5.928751468658447266e+00 -9.019321799278259277e-01 -7.363345623016357422e-01 1.100000000000000000e+01
-8.883704185485839844e+00 -1.349878549575806108e+00 -7.861447930335998535e-01 2.000000000000000000e+00
-3.474356079101563211e+01 -5.254469871520996094e+00 -6.133473515510559082e-01 1.400000000000000000e+01
-2.577307939529418945e+00 -3.861010372638701837e-01 -6.982938051223754883e-01 2.100000000000000000e+01
-4.517611694335938211e+01 -6.759676933288574219e+00 7.973306179046630859e-01 5.100000000000000000e+01
-3.008569717407227007e+00 -4.496337771415709894e-01 -7.022972106933593750e-01 1.400000000000000000e+01
-4.518861770629882812e+01 -6.745421409606933594e+00 2.394474744796752930e+00 3.600000000000000000e+01
-3.570860385894774947e+00 -5.330315232276916504e-01 -7.017954587936401367e-01 1.300000000000000000e+01
-4.468412399291992188e+00 -6.654170155525207520e-01 -7.155312299728393555e-01 1.000000000000000000e+01
-5.925972938537597656e+00 -8.803563714027404785e-01 -7.356033325195312500e-01 9.000000000000000000e+00
-8.841062545776367188e+00 -1.311842083930969016e+00 -7.819613218307495117e-01 2.000000000000000000e+00
-3.471421432495117188e+01 -5.126149177551270419e+00 -6.125096678733825684e-01 1.400000000000000000e+01
-2.570993900299071822e+00 -3.759840428829193115e-01 -6.962232589721679688e-01 2.100000000000000000e+01
-4.518756484985352273e+01 -6.600207805633544922e+00 7.971212267875671387e-01 5.100000000000000000e+01
-3.010120868682860884e+00 -4.391291439533234198e-01 -7.022972106933593750e-01 1.400000000000000000e+01
-4.521189117431641336e+01 -6.587642669677734375e+00 2.394474744796752930e+00 3.600000000000000000e+01
-3.578527450561522993e+00 -5.214128494262695312e-01 -7.029403448104858398e-01 1.300000000000000000e+01
-4.482437133789063388e+00 -6.515200734138488770e-01 -7.174084782600402832e-01 1.000000000000000000e+01
-5.925080776214599609e+00 -8.590958118438720703e-01 -7.351158857345581055e-01 9.000000000000000000e+00
-8.829813957214355469e+00 -1.278688549995421919e+00 -7.805668115615844727e-01 2.000000000000000000e+00
-3.474773025512695312e+01 -5.007224559783936435e+00 -6.127889156341552734e-01 1.400000000000000000e+01
-2.568465709686278853e+00 -3.664615452289580744e-01 -6.951879262924194336e-01 2.200000000000000000e+01
-4.515885925292968750e+01 -6.435098648071289062e+00 7.962136864662170410e-01 5.000000000000000000e+01
-3.005847692489624023e+00 -4.277954697608947754e-01 -7.009474635124206543e-01 1.500000000000000000e+01
-4.519506072998046875e+01 -6.424162387847900391e+00 2.392381191253662109e+00 3.600000000000000000e+01
-3.586157083511352983e+00 -5.097471475601196289e-01 -7.040851712226867676e-01 1.200000000000000000e+01
-4.457302570343017578e+00 -6.319871544837951660e-01 -7.130283117294311523e-01 1.100000000000000000e+01
-5.931974411010742188e+00 -8.389641642570495605e-01 -7.356033325195312500e-01 9.000000000000000000e+00
-8.826332092285156250e+00 -1.246744275093079057e+00 -7.798695564270019531e-01 2.000000000000000000e+00
-3.478083801269531250e+01 -4.888128280639648438e+00 -6.130681037902832031e-01 1.400000000000000000e+01
-2.571705102920531782e+00 -3.573110699653624933e-01 -6.957055926322937012e-01 2.000000000000000000e+01
-4.520986938476563211e+01 -6.273387908935546875e+00 7.967023253440856934e-01 5.100000000000000000e+01
-2.988092422485352007e+00 -4.141005277633666992e-01 -6.964484453201293945e-01 1.300000000000000000e+01
-4.520929718017578125e+01 -6.265265941619873047e+00 2.391962528228760210e+00 3.600000000000000000e+01
-3.593835353851317915e+00 -4.974072873592377264e-01 -7.052300572395324707e-01 1.200000000000000000e+01
-4.475243568420410156e+00 -6.178072094917297363e-01 -7.155312299728393555e-01 1.000000000000000000e+01
-5.931076526641845703e+00 -8.166751861572265625e-01 -7.351158857345581055e-01 9.000000000000000000e+00
-8.815052032470703125e+00 -1.212214350700377974e+00 -7.784751057624816895e-01 2.000000000000000000e+00
-3.477078247070313211e+01 -4.756822586059570312e+00 -6.125794649124145508e-01 7.000000000000000000e+00
-2.584422826766968218e+00 -3.498870134353638250e-01 -6.988114118576049805e-01 2.000000000000000000e+01
-4.518393325805664062e+01 -6.109107494354248047e+00 7.958646416664123535e-01 5.000000000000000000e+01
-2.999175786972045898e+00 -4.049714505672454834e-01 -6.986979842185974121e-01 1.400000000000000000e+01
-4.517653656005858664e+01 -6.092050075531005859e+00 2.389031648635863814e+00 3.600000000000000000e+01
-3.589712858200072798e+00 -4.840723276138306219e-01 -7.040851712226867676e-01 1.200000000000000000e+01
-4.477373123168945312e+00 -6.021819114685058594e-01 -7.155312299728393555e-01 1.000000000000000000e+01
-5.914216518402099609e+00 -7.933277487754821777e-01 -7.326784729957580566e-01 9.000000000000000000e+00
-8.858724594116210938e+00 -1.186727523803710938e+00 -7.819613218307495117e-01 2.000000000000000000e+00
-3.484664154052733664e+01 -4.643344402313232422e+00 -6.136265993118286133e-01 7.000000000000000000e+00
-2.575933456420897993e+00 -3.405002951622009277e-01 -6.962232589721679688e-01 2.100000000000000000e+01
-4.522669219970703125e+01 -5.970268249511718750e+00 7.962834835052490234e-01 5.000000000000000000e+01
-3.010093450546265093e+00 -3.968207836151123047e-01 -7.009474635124206543e-01 1.500000000000000000e+01
-4.519441223144531250e+01 -5.957982063293457031e+00 2.389031648635863814e+00 3.600000000000000000e+01
-3.577590703964232954e+00 -4.709987342357634943e-01 -7.014138698577880859e-01 1.200000000000000000e+01
-4.475325584411621094e+00 -5.875985622406005859e-01 -7.149055004119873047e-01 1.000000000000000000e+01
-5.908806324005126953e+00 -7.737128734588623047e-01 -7.317035198211669922e-01 9.000000000000000000e+00
-8.811043739318847656e+00 -1.152174472808837891e+00 -7.774292230606079102e-01 2.000000000000000000e+00
-1.813930130004883168e+01 -2.365542411804199219e+00 -9.586900472640991211e-01 6.000000000000000000e+00
-3.484519195556641336e+01 -4.531784534454345703e+00 -6.133473515510559082e-01 7.000000000000000000e+00
-2.565609931945800781e+00 -3.300276994705200195e-01 -6.931173801422119141e-01 1.900000000000000000e+01
-4.519569015502929688e+01 -5.805737018585205078e+00 7.953759431838989258e-01 5.000000000000000000e+01
-3.007594347000122070e+00 -3.858152627944945734e-01 -7.000476717948913574e-01 1.500000000000000000e+01
-4.521889495849608664e+01 -5.800695896148681641e+00 2.389240980148314986e+00 3.600000000000000000e+01
-3.581160306930541992e+00 -4.587572216987609863e-01 -7.017954587936401367e-01 1.200000000000000000e+01
-4.475389957427979404e+00 -5.717228651046752930e-01 -7.145926356315612793e-01 1.100000000000000000e+01
-5.919347763061523438e+00 -7.540860176086425781e-01 -7.326784729957580566e-01 9.000000000000000000e+00
-8.791295051574707031e+00 -1.118393898010253906e+00 -7.753375172615051270e-01 2.000000000000000000e+00
-1.807611846923828125e+01 -2.293161153793334961e+00 -9.549218416213989258e-01 6.000000000000000000e+00
-3.486476898193358664e+01 -4.410626888275145596e+00 -6.134172081947326660e-01 1.400000000000000000e+01
-2.563024282455443892e+00 -3.196958303451538086e-01 -6.920821070671081543e-01 2.000000000000000000e+01
-4.480886840820313211e+01 -5.581239700317382812e+00 7.881855964660644531e-01 4.900000000000000000e+01
-3.007119655609130859e+00 -3.740235865116118830e-01 -6.995977759361267090e-01 1.400000000000000000e+01
-4.473838043212891336e+01 -5.556601524353027344e+00 2.362654447555541992e+00 3.500000000000000000e+01
-3.582895278930664062e+00 -4.450031816959381104e-01 -7.017954587936401367e-01 1.200000000000000000e+01
-4.475681304931641336e+01 -5.550959110260009766e+00 3.945714712142943892e+00 5.400000000000000000e+01
-4.463829517364501953e+00 -5.528349280357360840e-01 -7.124025821685791016e-01 1.000000000000000000e+01
-5.924170017242431641e+00 -7.315951585769653320e-01 -7.329222559928894043e-01 1.100000000000000000e+01
-8.791569709777832031e+00 -1.084141969680785911e+00 -7.749888896942138672e-01 2.000000000000000000e+00
-3.484770202636718750e+01 -4.272586345672607422e+00 -6.128237843513488770e-01 2.100000000000000000e+01
-2.579467058181763139e+00 -3.126066029071807861e-01 -6.962232589721679688e-01 2.000000000000000000e+01
-4.468911361694335938e+01 -5.407977104187011719e+00 7.857422232627868652e-01 4.900000000000000000e+01
-2.996798992156981978e+00 -3.621218502521514893e-01 -6.968983411788940430e-01 1.400000000000000000e+01
-4.473673248291016336e+01 -5.405817508697509766e+00 2.361607789993286133e+00 3.500000000000000000e+01
-3.582477807998656782e+00 -4.322586655616760254e-01 -7.014138698577880859e-01 1.200000000000000000e+01
-4.474426651000977273e+01 -5.390881538391113281e+00 3.942925691604613814e+00 5.400000000000000000e+01
-4.465732097625732422e+00 -5.372498631477355957e-01 -7.124025821685791016e-01 1.000000000000000000e+01
-5.908948898315429688e+00 -7.087837457656860352e-01 -7.307285666465759277e-01 1.100000000000000000e+01
-8.787386894226074219e+00 -1.052499294281006081e+00 -7.742916345596313477e-01 2.000000000000000000e+00
-3.483261871337891336e+01 -4.147372722625732422e+00 -6.123002171516418457e-01 2.100000000000000000e+01
-2.580489635467528853e+00 -3.040510714054108221e-01 -6.962232589721679688e-01 1.900000000000000000e+01
-4.469488525390625000e+01 -5.258350849151611328e+00 7.855328321456909180e-01 4.900000000000000000e+01
-2.997983455657958984e+00 -3.521821200847625732e-01 -6.968983411788940430e-01 1.400000000000000000e+01
-4.473656082153320312e+01 -5.255338191986083984e+00 2.360665559768677202e+00 3.500000000000000000e+01
-3.578041791915893999e+00 -4.196902215480803888e-01 -7.002689838409423828e-01 1.200000000000000000e+01
-4.478168487548828125e+01 -5.244791984558104581e+00 3.944669008255004883e+00 5.400000000000000000e+01
-4.481223106384277344e+00 -5.240440964698791504e-01 -7.145926356315612793e-01 8.000000000000000000e+00
-5.919153690338134766e+00 -6.901046037673950195e-01 -7.317035198211669922e-01 9.000000000000000000e+00
-8.810619354248046875e+00 -1.025657296180725098e+00 -7.760347127914428711e-01 2.000000000000000000e+00
-3.482035827636718750e+01 -4.028852939605712891e+00 -6.118464469909667969e-01 2.100000000000000000e+01
-2.573857784271239790e+00 -2.941641807556151789e-01 -6.941526532173156738e-01 1.800000000000000000e+01
-4.470104598999022727e+01 -5.100944042205811435e+00 7.853233814239501953e-01 4.900000000000000000e+01
-3.001130580902100053e+00 -3.419356644153594971e-01 -6.973482966423034668e-01 1.200000000000000000e+01
-4.472288131713867188e+01 -5.095528602600097656e+00 2.358990907669066939e+00 3.400000000000000000e+01
-3.573632955551147017e+00 -4.065322577953339178e-01 -6.991241574287414551e-01 1.200000000000000000e+01
-4.478784179687500000e+01 -5.087093830108642578e+00 3.943623065948485884e+00 5.400000000000000000e+01
-4.488913059234619141e+00 -5.090662837028503418e-01 -7.155312299728393555e-01 1.000000000000000000e+01
-5.915608882904052734e+00 -6.687696576118469238e-01 -7.309723496437072754e-01 1.100000000000000000e+01
-8.790388107299804688e+00 -9.922145605087280273e-01 -7.739430069923400879e-01 2.000000000000000000e+00
-3.479645156860352273e+01 -3.903047561645507812e+00 -6.111832857131958008e-01 1.400000000000000000e+01
-2.559458494186400923e+00 -2.839233875274658203e-01 -6.900115609169006348e-01 1.700000000000000000e+01
-4.468194198608397727e+01 -4.948719978332520419e+00 7.846950888633728027e-01 4.900000000000000000e+01
-2.998374223709106001e+00 -3.315533101558684748e-01 -6.964484453201293945e-01 1.500000000000000000e+01
-4.472365188598632812e+01 -4.945438385009765625e+00 2.358153581619263139e+00 3.400000000000000000e+01
-3.576912879943848100e+00 -3.948948681354523260e-01 -6.995058059692382812e-01 1.200000000000000000e+01
-4.476287841796875000e+01 -4.933959960937500000e+00 3.939962625503540039e+00 5.400000000000000000e+01
-4.465051174163818359e+00 -4.913686811923981268e-01 -7.114639282226562500e-01 8.000000000000000000e+00
-5.915821075439453125e+00 -6.489326953887939453e-01 -7.307285666465759277e-01 9.000000000000000000e+00
-8.754018783569335938e+00 -9.587210416793823242e-01 -7.704567909240722656e-01 2.000000000000000000e+00
-3.480920410156250000e+01 -3.787636756896973100e+00 -6.111832857131958008e-01 1.400000000000000000e+01
-2.573879480361938032e+00 -2.764315307140349787e-01 -6.936350464820861816e-01 1.900000000000000000e+01
-4.468303680419921875e+01 -4.791015148162841797e+00 7.844158411026000977e-01 4.800000000000000000e+01
-2.997575521469116211e+00 -3.208775818347930908e-01 -6.959985494613647461e-01 1.400000000000000000e+01
-4.473270034790039062e+01 -4.788443088531494141e+00 2.357734918594359907e+00 3.400000000000000000e+01
-3.586078166961669922e+00 -3.832411766052246094e-01 -7.010322213172912598e-01 1.200000000000000000e+01
-4.477982711791992188e+01 -4.777678489685058594e+00 3.939962625503540039e+00 5.400000000000000000e+01
-4.466738700866699219e+00 -4.757797420024871826e-01 -7.114639282226562500e-01 8.000000000000000000e+00
-5.914102077484130859e+00 -6.278595328330993652e-01 -7.302411198616027832e-01 1.100000000000000000e+01
-8.773162841796875000e+00 -9.298378825187683105e-01 -7.718512415885925293e-01 2.000000000000000000e+00
-3.479039382934570312e+01 -3.662756919860839844e+00 -6.106247901916503906e-01 2.100000000000000000e+01
-2.569064378738402876e+00 -2.668465673923491877e-01 -6.920821070671081543e-01 1.800000000000000000e+01
-4.481485366821289062e+01 -4.646975517272949219e+00 7.864403128623962402e-01 4.900000000000000000e+01
-3.000615835189818892e+00 -3.106127977371215820e-01 -6.964484453201293945e-01 1.800000000000000000e+01
-3.589346885681151900e+00 -3.709229230880736750e-01 -7.014138698577880859e-01 1.200000000000000000e+01
-4.479623031616210938e+01 -4.621338367462158203e+00 3.939962625503540039e+00 5.400000000000000000e+01
-4.472302436828613281e+00 -4.605897665023804266e-01 -7.120896577835083008e-01 1.000000000000000000e+01
-5.910333633422851562e+00 -6.066036224365234375e-01 -7.295098900794982910e-01 1.100000000000000000e+01
-8.768426895141601562e+00 -8.983958363533020020e-01 -7.711539864540100098e-01 2.000000000000000000e+00
-3.480893707275391336e+01 -3.541900873184204102e+00 -6.107295155525207520e-01 2.100000000000000000e+01
-2.577668905258179155e+00 -2.586487531661986750e-01 -6.941526532173156738e-01 1.700000000000000000e+01
-2.984230041503905806e+00 -2.983918190002440851e-01 -6.923993229866027832e-01 1.400000000000000000e+01
-3.574991464614868164e+00 -3.568315804004669189e-01 -6.983609199523925781e-01 1.200000000000000000e+01
-4.476450729370117188e+01 -4.460201263427734375e+00 3.935779094696044922e+00 5.400000000000000000e+01
-4.467986106872558594e+00 -4.443891942501068115e-01 -7.111510634422302246e-01 1.000000000000000000e+01
-5.896611690521240234e+00 -5.844027400016784668e-01 -7.275599837303161621e-01 1.100000000000000000e+01
-8.739786148071289062e+00 -8.646444082260131836e-01 -7.683650255203247070e-01 2.000000000000000000e+00
-3.481312561035156250e+01 -3.419591426849364790e+00 -6.105898618698120117e-01 2.100000000000000000e+01
-2.578556060791016069e+00 -2.496494203805922907e-01 -6.941526532173156738e-01 1.900000000000000000e+01
-2.985253572463988814e+00 -2.879730761051177979e-01 -6.923993229866027832e-01 1.400000000000000000e+01
-3.568398237228393999e+00 -3.435976803302764893e-01 -6.968344449996948242e-01 1.300000000000000000e+01
-4.477980422973632812e+01 -4.303916931152343750e+00 3.935779094696044922e+00 5.400000000000000000e+01
-4.471476078033447266e+00 -4.289789497852324884e-01 -7.114639282226562500e-01 8.000000000000000000e+00
-5.902567863464354581e+00 -5.641939640045166016e-01 -7.280474305152893066e-01 1.100000000000000000e+01
-8.730851173400878906e+00 -8.329961895942687988e-01 -7.673191428184509277e-01 2.000000000000000000e+00
-3.480693435668945312e+01 -3.296353340148925781e+00 -6.102757453918457031e-01 1.400000000000000000e+01
-2.565947294235229048e+00 -2.393908798694610873e-01 -6.905292272567749023e-01 1.900000000000000000e+01
-2.997882843017578125e+00 -2.786329090595244806e-01 -6.950987577438354492e-01 1.400000000000000000e+01
-3.575440406799315962e+00 -3.316835761070250910e-01 -6.979793310165405273e-01 1.200000000000000000e+01
-4.484217071533203125e+01 -4.151988506317138672e+00 3.939962625503540039e+00 5.400000000000000000e+01
-4.476880550384520596e+00 -4.137315154075623114e-01 -7.120896577835083008e-01 8.000000000000000000e+00
-5.906477928161621094e+00 -5.437687039375305176e-01 -7.282912135124206543e-01 9.000000000000000000e+00
-8.729737281799316406e+00 -8.021501898765563965e-01 -7.669705152511596680e-01 2.000000000000000000e+00
-3.482619476318358664e+01 -3.175560712814331055e+00 -6.104153394699096680e-01 1.400000000000000000e+01
-2.566767215728760210e+00 -2.304325997829436978e-01 -6.905292272567749023e-01 1.900000000000000000e+01
-2.998837232589722124e+00 -2.681666612625122070e-01 -6.950987577438354492e-01 1.400000000000000000e+01
-3.582442998886107954e+00 -3.197245299816132147e-01 -6.991241574287414551e-01 1.200000000000000000e+01
-4.478097534179688211e+01 -3.988717794418334961e+00 3.933338642120360884e+00 5.400000000000000000e+01
-4.454686164855957031e+00 -3.960027992725371759e-01 -7.083352804183959961e-01 8.000000000000000000e+00
-5.900430679321289062e+00 -5.224475860595703125e-01 -7.273162603378295898e-01 9.000000000000000000e+00
-8.748361587524414062e+00 -7.730758190155029297e-01 -7.683650255203247070e-01 2.000000000000000000e+00
-3.480120849609375000e+01 -3.050831794738769975e+00 -6.097871065139770508e-01 1.400000000000000000e+01
-2.573330163955688032e+00 -2.219695746898651123e-01 -6.920821070671081543e-01 2.000000000000000000e+01
-2.991988658905028853e+00 -2.570299506187438965e-01 -6.932991743087768555e-01 1.400000000000000000e+01
-3.573756694793701172e+00 -3.063790202140808105e-01 -6.972160935401916504e-01 1.200000000000000000e+01
-4.477080535888671875e+01 -3.830340623855590820e+00 3.931246995925902876e+00 5.400000000000000000e+01
-4.467850208282470703e+00 -3.814589083194733221e-01 -7.102124691009521484e-01 8.000000000000000000e+00
-5.898262500762938565e+00 -5.015116930007934570e-01 -7.268287539482116699e-01 9.000000000000000000e+00
-8.727183341979980469e+00 -7.405122518539428711e-01 -7.662733197212219238e-01 2.000000000000000000e+00
-3.481563186645507812e+01 -2.929669618606566939e+00 -6.098569035530090332e-01 2.100000000000000000e+01
-2.581827640533446822e+00 -2.131722122430801114e-01 -6.941526532173156738e-01 1.900000000000000000e+01
-2.992910623550415039e+00 -2.460620403289794922e-01 -6.932991743087768555e-01 1.400000000000000000e+01
-3.570942401885985884e+00 -2.929574549198151190e-01 -6.964528560638427734e-01 1.200000000000000000e+01
-4.478454208374022727e+01 -3.666221857070922852e+00 3.931246995925902876e+00 5.400000000000000000e+01
-4.469218730926513672e+00 -3.650808632373809814e-01 -7.102124691009521484e-01 8.000000000000000000e+00
-5.898082733154296875e+00 -4.797291755676270086e-01 -7.265850305557250977e-01 1.100000000000000000e+01
-8.702036857604980469e+00 -7.062640786170959473e-01 -7.638329267501831055e-01 2.000000000000000000e+00
-3.482613754272460938e+01 -2.802044391632080078e+00 -6.098569035530090332e-01 1.400000000000000000e+01
-2.576778411865233931e+00 -2.037019282579421997e-01 -6.925997734069824219e-01 2.100000000000000000e+01
-2.999579429626464844e+00 -2.360720187425613126e-01 -6.946488618850708008e-01 1.500000000000000000e+01
-3.560199737548828125e+00 -2.795685827732086182e-01 -6.941631436347961426e-01 1.200000000000000000e+01
-4.481693267822266336e+01 -3.511428356170653853e+00 3.932990074157714844e+00 5.400000000000000000e+01
-4.466526985168457031e+00 -3.491702377796173096e-01 -7.095867395401000977e-01 8.000000000000000000e+00
-5.891804695129395419e+00 -4.585220217704772949e-01 -7.256100773811340332e-01 1.100000000000000000e+01
-8.688557624816894531e+00 -6.746500730514526367e-01 -7.624384164810180664e-01 2.000000000000000000e+00
-3.477987670898438211e+01 -2.676165819168090820e+00 -6.088795661926269531e-01 1.300000000000000000e+01
-2.563955307006835938e+00 -1.941349059343338013e-01 -6.889762878417968750e-01 1.800000000000000000e+01
-2.998402595520019975e+00 -2.259773015975951871e-01 -6.941989660263061523e-01 1.300000000000000000e+01
-4.492535781860352273e+01 -3.377954483032227007e+00 2.361084222793579102e+00 3.500000000000000000e+01
-3.559149742126464844e+00 -2.676137983798981268e-01 -6.937814950942993164e-01 1.100000000000000000e+01
-4.480846023559570312e+01 -3.361300468444824219e+00 3.931246995925902876e+00 5.400000000000000000e+01
-4.467660427093505859e+00 -3.343567848205565851e-01 -7.095867395401000977e-01 8.000000000000000000e+00
-5.893292903900145596e+00 -4.389815926551818848e-01 -7.256100773811340332e-01 1.100000000000000000e+01
-8.678826332092285156e+00 -6.449481844902038574e-01 -7.613925933837890625e-01 2.000000000000000000e+00
-3.477460098266602273e+01 -2.559789180755614790e+00 -6.086352467536926270e-01 2.000000000000000000e+01
-2.562690496444702148e+00 -1.850447207689285001e-01 -6.884586811065673828e-01 1.900000000000000000e+01
-2.997229337692261186e+00 -2.153698801994324008e-01 -6.937490701675415039e-01 1.300000000000000000e+01
-3.575727939605712891e+00 -2.563113570213317871e-01 -6.968344449996948242e-01 1.200000000000000000e+01
-4.478812408447266336e+01 -3.202595710754394975e+00 3.928457975387572798e+00 5.400000000000000000e+01
-4.451066970825195312e+00 -3.174947798252106268e-01 -7.067708969116210938e-01 1.000000000000000000e+01
-5.890829086303710938e+00 -4.181263744831085205e-01 -7.251225709915161133e-01 1.100000000000000000e+01
-8.645251274108886719e+00 -6.121165752410888672e-01 -7.582549452781677246e-01 2.000000000000000000e+00
-3.474542236328125000e+01 -2.435730695724486861e+00 -6.079720258712768555e-01 1.300000000000000000e+01
-2.569133520126343218e+00 -1.760469377040863037e-01 -6.900115609169006348e-01 1.800000000000000000e+01
-2.992166042327880859e+00 -2.039854079484940130e-01 -6.923993229866027832e-01 1.400000000000000000e+01
