-2.092127084732056108e+00 -1.744332194328308105e+00 -7.298697233200073242e-01 2.300000000000000000e+01
-2.437417030334473100e+00 -2.030779361724853960e+00 -7.324406504631042480e-01 1.600000000000000000e+01
-2.937157154083251953e+00 -2.446278810501099077e+00 -7.430102229118347168e-01 1.300000000000000000e+01
-3.684941291809082031e+00 -3.066910028457642046e+00 -7.593328952789306641e-01 1.100000000000000000e+01
-5.047215938568115234e+00 -4.197725296020507812e+00 -8.060438632965087891e-01 7.000000000000000000e+00
-6.215545654296875000e+00 -5.167579650878906250e+00 -7.071816921234130859e-01 6.000000000000000000e+00
-1.499142527580261008e+00 -1.245054125785828081e+00 4.499021172523499090e-01 3.000000000000000000e+00
-3.310068130493164062e+01 -2.748071479797362926e+01 -7.509421706199645996e-01 1.000000000000000000e+01
-1.409074783325195090e+00 -1.169836401939392090e+00 4.907208979129791260e-01 5.200000000000000000e+01
-2.102971315383911133e+00 -1.740347385406493919e+00 -7.314226031303405762e-01 2.400000000000000000e+01
-2.449349164962768999e+00 -2.025557756423950195e+00 -7.337903380393981934e-01 1.600000000000000000e+01
-2.937024593353271040e+00 -2.427991628646851030e+00 -7.407205104827880859e-01 1.200000000000000000e+01
-3.691588640213013139e+00 -3.049609184265137163e+00 -7.583943009376525879e-01 1.200000000000000000e+01
-5.027358055114746094e+00 -4.150132179260253906e+00 -8.004378676414489746e-01 8.000000000000000000e+00
-6.265178203582763672e+00 -5.170126438140869141e+00 -7.106679081916809082e-01 6.000000000000000000e+00
-3.334315872192382812e+01 -2.747620582580566051e+01 -7.541533708572387695e-01 1.000000000000000000e+01
-1.420807361602782981e+00 -1.170806765556335005e+00 4.933091104030609131e-01 4.900000000000000000e+01
-2.100077867507935014e+00 -1.725637316703795943e+00 -7.283167839050292969e-01 2.400000000000000000e+01
-2.454898595809936968e+00 -2.015758991241455078e+00 -7.333404421806335449e-01 1.600000000000000000e+01
-2.939411878585814986e+00 -2.412742376327515093e+00 -7.391940355300903320e-01 1.200000000000000000e+01
-3.715956926345825195e+00 -3.047979354858397993e+00 -7.612100839614868164e-01 1.100000000000000000e+01
-5.070983886718750000e+00 -4.156467437744140625e+00 -8.050689101219177246e-01 7.000000000000000000e+00
-6.315550804138183594e+00 -5.174743175506591797e+00 -7.143284678459167480e-01 5.000000000000000000e+00
-3.364006423950195312e+01 -2.752426910400390980e+01 -7.586910128593444824e-01 1.100000000000000000e+01
-1.431070566177367942e+00 -1.170483708381653054e+00 4.953796565532683771e-01 3.600000000000000000e+01
-2.102795362472534180e+00 -1.716220617294311968e+00 -7.272815108299255371e-01 2.400000000000000000e+01
-2.464590072631835938e+00 -2.010070562362670898e+00 -7.342402338981628418e-01 1.600000000000000000e+01
-2.961091279983520952e+00 -2.414146661758422852e+00 -7.426286339759826660e-01 1.300000000000000000e+01
-3.719918251037598100e+00 -3.030649423599243164e+00 -7.599586248397827148e-01 1.100000000000000000e+01
-5.073963165283203125e+00 -4.130855560302734375e+00 -8.033627271652221680e-01 8.000000000000000000e+00
-6.332676410675048828e+00 -5.153771400451660156e+00 -7.143284678459167480e-01 6.000000000000000000e+00
-3.386461257934570312e+01 -2.752102279663085938e+01 -7.616928219795227051e-01 1.100000000000000000e+01
-2.107272386550902876e+00 -1.707653760910033958e+00 -7.267639040946960449e-01 2.000000000000000000e+01
-2.471591472625731978e+00 -2.001455307006835938e+00 -7.342402338981628418e-01 1.600000000000000000e+01
-2.967974424362183061e+00 -2.402560710906981978e+00 -7.422469854354858398e-01 1.200000000000000000e+01
-3.727402925491333008e+00 -3.015161275863647017e+00 -7.593328952789306641e-01 1.100000000000000000e+01
-5.105333805084229404e+00 -4.126845836639404297e+00 -8.060438632965087891e-01 1.000000000000000000e+01
-6.389369964599609375e+00 -5.162940502166748047e+00 -7.186862826347351074e-01 5.000000000000000000e+00
-3.407563400268554688e+01 -2.749556922912598012e+01 -7.642757892608642578e-01 1.100000000000000000e+01
-2.120746135711669922e+00 -1.706342816352844016e+00 -7.293520569801330566e-01 2.200000000000000000e+01
-2.475525379180908203e+00 -1.990373373031615989e+00 -7.333404421806335449e-01 1.800000000000000000e+01
-2.976342678070067915e+00 -2.392185926437377930e+00 -7.422469854354858398e-01 1.200000000000000000e+01
-3.731744527816772017e+00 -2.997183799743651900e+00 -7.580814361572265625e-01 1.100000000000000000e+01
-5.121255874633789062e+00 -4.110242366790770596e+00 -8.062875866889953613e-01 8.000000000000000000e+00
-6.426001548767089844e+00 -5.155568122863770419e+00 -7.207779884338378906e-01 8.000000000000000000e+00
-3.426504135131835938e+01 -2.745147323608398082e+01 -7.663700580596923828e-01 1.100000000000000000e+01
-2.129708051681518999e+00 -1.701341152191162109e+00 -7.303873300552368164e-01 2.200000000000000000e+01
-2.476366043090819868e+00 -1.976856946945189986e+00 -7.315407991409301758e-01 1.600000000000000000e+01
-2.981605768203734907e+00 -2.379332780838013139e+00 -7.414837479591369629e-01 1.100000000000000000e+01
-3.748361587524414062e+00 -2.989065885543822798e+00 -7.593328952789306641e-01 1.100000000000000000e+01
-5.123152256011962891e+00 -4.082444190979003906e+00 -8.043376803398132324e-01 8.000000000000000000e+00
-6.459542751312255859e+00 -5.145519256591796875e+00 -7.225211262702941895e-01 6.000000000000000000e+00
-3.442638397216796875e+01 -2.738398170471191051e+01 -7.678360939025878906e-01 1.100000000000000000e+01
-2.123819351196289062e+00 -1.683922052383423074e+00 -7.262462377548217773e-01 1.900000000000000000e+01
-2.495814323425292969e+00 -1.977448940277100053e+00 -7.351400256156921387e-01 1.800000000000000000e+01
-2.979533433914185014e+00 -2.359856128692626953e+00 -7.388124465942382812e-01 1.100000000000000000e+01
-3.765487670898437944e+00 -2.980211019515991211e+00 -7.605843544006347656e-01 1.100000000000000000e+01
-5.097599029541015625e+00 -4.031622886657714844e+00 -7.980004549026489258e-01 1.200000000000000000e+01
-6.501802921295166016e+00 -5.140344142913818359e+00 -7.251358032226562500e-01 7.000000000000000000e+00
-3.464894485473632812e+01 -2.735426902770996094e+01 -7.705586552619934082e-01 1.100000000000000000e+01
-2.128166437149047852e+00 -1.675303459167480025e+00 -7.257286310195922852e-01 1.800000000000000000e+01
-2.501169919967650923e+00 -1.967519998550415039e+00 -7.346901297569274902e-01 1.700000000000000000e+01
-2.992382526397705078e+00 -2.353081941604613814e+00 -7.399572730064392090e-01 1.000000000000000000e+01
-3.761888742446898970e+00 -2.956064224243164062e+00 -7.577685713768005371e-01 1.100000000000000000e+01
-5.130376338958740234e+00 -4.028515815734863281e+00 -8.009253144264221191e-01 1.000000000000000000e+01
-6.483659744262695312e+00 -5.089323043823242188e+00 -7.211266160011291504e-01 6.000000000000000000e+00
-1.280928039550781072e+01 -1.004736900329590021e+01 -8.531807661056518555e-01 4.000000000000000000e+00
-3.483864593505858664e+01 -2.730717086791991832e+01 -7.726529240608215332e-01 1.100000000000000000e+01
-2.140089750289916992e+00 -1.672623038291930930e+00 -7.277991771697998047e-01 1.700000000000000000e+01
-2.506486892700194868e+00 -1.957577824592590110e+00 -7.342402338981628418e-01 1.600000000000000000e+01
-3.011410474777222124e+00 -2.351079225540161133e+00 -7.426286339759826660e-01 1.100000000000000000e+01
-3.769069433212279829e+00 -2.940484762191772017e+00 -7.571427822113037109e-01 1.100000000000000000e+01
-5.158497333526611328e+00 -4.021567344665527344e+00 -8.031189441680908203e-01 1.000000000000000000e+01
-6.506099700927734375e+00 -5.070333957672119141e+00 -7.216495275497436523e-01 6.000000000000000000e+00
-3.510103988647460938e+01 -2.731557464599609020e+01 -7.763528227806091309e-01 1.100000000000000000e+01
-2.145915269851685014e+00 -1.665142536163330078e+00 -7.277991771697998047e-01 1.800000000000000000e+01
-2.502524614334106001e+00 -1.940457701683043990e+00 -7.310909032821655273e-01 1.600000000000000000e+01
-3.022702217102050781e+00 -2.342958688735961914e+00 -7.433918714523315430e-01 1.100000000000000000e+01
-3.768378734588623047e+00 -2.918842792510985884e+00 -7.549527287483215332e-01 1.100000000000000000e+01
-5.164654731750488281e+00 -3.997461318969727007e+00 -8.019002676010131836e-01 8.000000000000000000e+00
-6.467030525207520419e+00 -5.003700256347656250e+00 -7.153743505477905273e-01 6.000000000000000000e+00
-3.537340545654296875e+01 -2.732981300354003906e+01 -7.802621722221374512e-01 1.100000000000000000e+01
-2.154485702514647993e+00 -1.660375714302062988e+00 -7.288344502449035645e-01 1.500000000000000000e+01
-2.507401704788208008e+00 -1.930959343910217063e+00 -7.306410074234008789e-01 1.500000000000000000e+01
-3.025788068771361861e+00 -2.329329490661621094e+00 -7.422469854354858398e-01 1.200000000000000000e+01
-3.793694257736206055e+00 -2.918374776840209961e+00 -7.580814361572265625e-01 1.100000000000000000e+01
-5.154274940490722656e+00 -3.962165355682373047e+00 -7.982441782951354980e-01 7.000000000000000000e+00
-6.608394145965576172e+00 -5.078132629394531250e+00 -7.291449308395385742e-01 7.000000000000000000e+00
-7.076209068298339844e+00 -5.433691501617431641e+00 -4.675694406032562256e-01 3.000000000000000000e+00
-3.562248611450195312e+01 -2.733409500122069957e+01 -7.837526798248291016e-01 1.100000000000000000e+01
-2.157199859619141069e+00 -1.650497317314147949e+00 -7.277991771697998047e-01 1.500000000000000000e+01
-2.521867275238037109e+00 -1.928113222122191939e+00 -7.328905463218688965e-01 1.400000000000000000e+01
-3.024541616439818892e+00 -2.311600208282471147e+00 -7.399572730064392090e-01 1.200000000000000000e+01
-3.808568000793457031e+00 -2.908711433410644975e+00 -7.590200304985046387e-01 1.200000000000000000e+01
-5.172808170318604404e+00 -3.947762489318848100e+00 -7.989754080772399902e-01 1.200000000000000000e+01
-6.662512779235839844e+00 -5.082828998565673828e+00 -7.331541180610656738e-01 7.000000000000000000e+00
-3.587675094604492188e+01 -2.733076095581055043e+01 -7.872431278228759766e-01 1.100000000000000000e+01
-2.156794548034667969e+00 -1.638283014297484907e+00 -7.257286310195922852e-01 1.700000000000000000e+01
-2.533239126205443892e+00 -1.922833085060120073e+00 -7.342402338981628418e-01 1.500000000000000000e+01
-3.027899980545043945e+00 -2.297468423843383789e+00 -7.388124465942382812e-01 1.100000000000000000e+01
-3.821846246719359907e+00 -2.897786378860474077e+00 -7.596457600593566895e-01 1.200000000000000000e+01
-5.197632789611816406e+00 -3.938073635101317915e+00 -8.006815910339355469e-01 1.000000000000000000e+01
-6.572213172912597656e+00 -4.977742195129395419e+00 -7.213008999824523926e-01 7.000000000000000000e+00
-3.619522476196289062e+01 -2.737423515319823863e+01 -7.921298146247863770e-01 1.100000000000000000e+01
-2.165585041046143022e+00 -1.633070826530456987e+00 -7.267639040946960449e-01 1.700000000000000000e+01
-2.539935588836669922e+00 -1.913978695869446023e+00 -7.342402338981628418e-01 1.500000000000000000e+01
-3.043741941452025923e+00 -2.292791366577147993e+00 -7.407205104827880859e-01 1.200000000000000000e+01
-3.820890426635742188e+00 -2.876111984252930132e+00 -7.574557065963745117e-01 1.300000000000000000e+01
-5.178032875061035156e+00 -3.894847631454468218e+00 -7.955631017684936523e-01 1.200000000000000000e+01
-6.629359722137451172e+00 -4.984704971313476562e+00 -7.256587147712707520e-01 6.000000000000000000e+00
-3.638650512695313211e+01 -2.731976127624512074e+01 -7.942240834236145020e-01 1.100000000000000000e+01
-2.173102617263793945e+00 -1.626280069351196067e+00 -7.272815108299255371e-01 1.600000000000000000e+01
-2.536009311676024947e+00 -1.896487116813659890e+00 -7.310909032821655273e-01 1.400000000000000000e+01
-3.059987306594849077e+00 -2.287497520446776900e+00 -7.426286339759826660e-01 1.200000000000000000e+01
-3.826658487319945845e+00 -2.858541965484619141e+00 -7.565170526504516602e-01 1.200000000000000000e+01
-5.130233287811279297e+00 -3.829532384872436968e+00 -7.860572934150695801e-01 1.400000000000000000e+01
-6.721038818359375000e+00 -5.015184402465820312e+00 -7.336770296096801758e-01 8.000000000000000000e+00
-3.671730041503906250e+01 -2.735826492309569957e+01 -7.992504239082336426e-01 1.100000000000000000e+01
-2.186519622802733931e+00 -1.624445080757140891e+00 -7.298697233200073242e-01 1.700000000000000000e+01
-2.544178485870360884e+00 -1.888784766197205034e+00 -7.315407991409301758e-01 1.300000000000000000e+01
-3.052188158035277876e+00 -2.265102386474608931e+00 -7.388124465942382812e-01 1.200000000000000000e+01
-3.842960119247436968e+00 -2.849873542785644975e+00 -7.577685713768005371e-01 1.200000000000000000e+01
-5.111671447753906250e+00 -3.787963390350341797e+00 -7.811824679374694824e-01 1.400000000000000000e+01
-6.775326728820800781e+00 -5.018970012664794922e+00 -7.376862168312072754e-01 7.000000000000000000e+00
-3.693475723266602273e+01 -2.732030868530273082e+01 -8.019031882286071777e-01 1.200000000000000000e+01
-2.179738998413085938e+00 -1.607629418373107910e+00 -7.257286310195922852e-01 1.800000000000000000e+01
-2.558599710464477983e+00 -1.885673165321350098e+00 -7.337903380393981934e-01 1.400000000000000000e+01
-3.064817905426024947e+00 -2.257927894592285156e+00 -7.399572730064392090e-01 1.200000000000000000e+01
-3.856066226959228960e+00 -2.838783979415893999e+00 -7.583943009376525879e-01 1.200000000000000000e+01
-5.128060817718505859e+00 -3.772449970245360884e+00 -7.816699743270874023e-01 1.500000000000000000e+01
-6.797620296478270596e+00 -4.998830318450927734e+00 -7.382091283798217773e-01 6.000000000000000000e+00
-3.722331619262695312e+01 -2.733324432373046875e+01 -8.060917258262634277e-01 1.200000000000000000e+01
-2.185337305068970171e+00 -1.600010871887207031e+00 -7.257286310195922852e-01 1.700000000000000000e+01
-2.562020778656005859e+00 -1.874429225921631081e+00 -7.328905463218688965e-01 1.300000000000000000e+01
-3.066342353820800781e+00 -2.242579936981201172e+00 -7.384307980537414551e-01 1.200000000000000000e+01
-3.862762212753295898e+00 -2.822975397109984907e+00 -7.577685713768005371e-01 1.200000000000000000e+01
-5.178069591522216797e+00 -3.781453371047974077e+00 -7.872759699821472168e-01 1.500000000000000000e+01
-6.881005764007568359e+00 -5.023236751556395596e+00 -7.453559041023254395e-01 6.000000000000000000e+00
-3.747039794921875000e+01 -2.731386947631835938e+01 -8.093727827072143555e-01 1.200000000000000000e+01
-2.190909147262572798e+00 -1.592372894287108931e+00 -7.257286310195922852e-01 1.800000000000000000e+01
-2.566971540451049805e+00 -1.864329457283020020e+00 -7.324406504631042480e-01 1.300000000000000000e+01
-3.074151754379272017e+00 -2.231862783432006836e+00 -7.384307980537414551e-01 1.200000000000000000e+01
-3.853405714035034180e+00 -2.795554876327515093e+00 -7.540141344070434570e-01 1.200000000000000000e+01
-5.200881004333496094e+00 -3.770346403121947798e+00 -7.887383699417114258e-01 1.900000000000000000e+01
-6.961417198181152344e+00 -5.044782638549804688e+00 -7.521540522575378418e-01 6.000000000000000000e+00
-3.775344085693358664e+01 -2.731889152526855113e+01 -8.134217858314514160e-01 1.200000000000000000e+01
-2.199587345123291016e+00 -1.586976170539855957e+00 -7.267639040946960449e-01 2.000000000000000000e+01
-2.565559864044189009e+00 -1.849659442901611106e+00 -7.301911115646362305e-01 1.100000000000000000e+01
-3.088294506072998047e+00 -2.225709915161132812e+00 -7.399572730064392090e-01 1.200000000000000000e+01
-3.864743471145629883e+00 -2.783241510391234907e+00 -7.543269991874694824e-01 1.200000000000000000e+01
-5.220455169677734375e+00 -3.756806850433350053e+00 -7.897133231163024902e-01 1.900000000000000000e+01
-6.978984355926513672e+00 -5.020452022552490234e+00 -7.521540522575378418e-01 7.000000000000000000e+00
-3.809218978881835938e+01 -2.736193466186523082e+01 -8.186574578285217285e-01 1.200000000000000000e+01
-2.208254814147949219e+00 -1.581538200378417969e+00 -7.277991771697998047e-01 1.700000000000000000e+01
-2.575170040130614790e+00 -1.842960953712462935e+00 -7.310909032821655273e-01 1.400000000000000000e+01
-3.091254711151123047e+00 -2.211489200592041016e+00 -7.388124465942382812e-01 1.300000000000000000e+01
-3.884077072143555132e+00 -2.776626825332642046e+00 -7.562041878700256348e-01 1.100000000000000000e+01
-5.272304058074951172e+00 -3.766254425048828125e+00 -7.955631017684936523e-01 1.200000000000000000e+01
-6.991602420806884766e+00 -4.992587089538574219e+00 -7.516311407089233398e-01 6.000000000000000000e+00
-3.831772232055664062e+01 -2.732167625427246094e+01 -8.214498758316040039e-01 1.200000000000000000e+01
-2.209038496017456055e+00 -1.570462226867676003e+00 -7.262462377548217773e-01 1.900000000000000000e+01
-2.584764957427978960e+00 -1.836217880249022993e+00 -7.319907546043395996e-01 1.300000000000000000e+01
-3.094153165817261186e+00 -2.197275161743164062e+00 -7.376675605773925781e-01 1.200000000000000000e+01
-3.896967649459838867e+00 -2.765338182449340820e+00 -7.568299174308776855e-01 1.100000000000000000e+01
-5.298373222351074219e+00 -3.757013559341431108e+00 -7.975130081176757812e-01 8.000000000000000000e+00
-7.044747352600097656e+00 -4.993498802185058594e+00 -7.554659843444824219e-01 6.000000000000000000e+00
-3.856302261352539062e+01 -2.729403877258301137e+01 -8.246611356735229492e-01 1.200000000000000000e+01
-2.206071138381958008e+00 -1.557942509651184082e+00 -7.236580252647399902e-01 1.800000000000000000e+01
-2.595297336578369141e+00 -1.831459403038024902e+00 -7.333404421806335449e-01 1.500000000000000000e+01
-3.107457876205443892e+00 -2.192070484161376953e+00 -7.391940355300903320e-01 1.200000000000000000e+01
-3.899177789688109907e+00 -2.748529434204102007e+00 -7.555784583091735840e-01 1.100000000000000000e+01
-5.324756145477294922e+00 -3.750637769699097124e+00 -7.997066378593444824e-01 8.000000000000000000e+00
-7.084836006164550781e+00 -4.988548278808593750e+00 -7.580806612968444824e-01 6.000000000000000000e+00
-3.885796737670897727e+01 -2.731997108459473012e+01 -8.291289210319519043e-01 1.200000000000000000e+01
-2.214659690856934038e+00 -1.552450180053710938e+00 -7.246932983398437500e-01 1.700000000000000000e+01
-2.596886157989501953e+00 -1.819034814834594949e+00 -7.319907546043395996e-01 1.300000000000000000e+01
-3.111874341964722124e+00 -2.178957939147949219e+00 -7.384307980537414551e-01 1.200000000000000000e+01
-3.902274131774901900e+00 -2.730372190475463867e+00 -7.543269991874694824e-01 1.100000000000000000e+01
-5.354084968566895419e+00 -3.743402719497681108e+00 -8.021439909934997559e-01 7.000000000000000000e+00
-7.120170116424561435e+00 -4.976342201232910156e+00 -7.599980831146240234e-01 6.000000000000000000e+00
-3.909084320068358664e+01 -2.728029441833496094e+01 -8.320609331130981445e-01 1.200000000000000000e+01
-2.223776578903197798e+00 -1.546140789985656960e+00 -7.257286310195922852e-01 1.600000000000000000e+01
-2.592648744583129883e+00 -1.801266908645630105e+00 -7.288414239883422852e-01 1.300000000000000000e+01
-3.131505727767943892e+00 -2.174832344055175781e+00 -7.411021590232849121e-01 1.300000000000000000e+01
-3.915974855422974077e+00 -2.717620849609375000e+00 -7.549527287483215332e-01 1.100000000000000000e+01
-5.327637672424316406e+00 -3.694536685943603960e+00 -7.960505485534667969e-01 1.000000000000000000e+01
-7.149049758911132812e+00 -4.955776691436767578e+00 -7.610439658164978027e-01 6.000000000000000000e+00
-3.938603591918945312e+01 -2.726201629638671875e+01 -8.361098766326904297e-01 1.200000000000000000e+01
-2.232340097427368164e+00 -1.540563464164734109e+00 -7.267639040946960449e-01 1.800000000000000000e+01
-2.597316265106201172e+00 -1.791099548339843972e+00 -7.283915281295776367e-01 1.100000000000000000e+01
-3.130995988845825195e+00 -2.158316850662231001e+00 -7.391940355300903320e-01 1.200000000000000000e+01
-3.915676593780518022e+00 -2.697211742401123047e+00 -7.530755400657653809e-01 1.100000000000000000e+01
-5.335596084594726562e+00 -3.672540903091431108e+00 -7.953193187713623047e-01 1.000000000000000000e+01
-7.166305065155029297e+00 -4.930791854858398438e+00 -7.610439658164978027e-01 6.000000000000000000e+00
-3.970511245727539062e+01 -2.727836608886719105e+01 -8.408569693565368652e-01 1.200000000000000000e+01
-2.237169027328491211e+00 -1.533542752265929954e+00 -7.267639040946960449e-01 1.800000000000000000e+01
-2.612576961517333984e+00 -1.789538502693176047e+00 -7.310909032821655273e-01 1.100000000000000000e+01
-3.126421928405762163e+00 -2.140705585479735884e+00 -7.365227341651916504e-01 1.100000000000000000e+01
-3.937173128128052202e+00 -2.693820476531981978e+00 -7.555784583091735840e-01 1.100000000000000000e+01
-5.358578681945800781e+00 -3.663603067398070845e+00 -7.970255017280578613e-01 1.200000000000000000e+01
-7.138992309570313388e+00 -4.879024505615234375e+00 -7.565118670463562012e-01 6.000000000000000000e+00
-9.198384284973144531e+00 -6.281772613525390625e+00 -5.837552547454833984e-01 3.000000000000000000e+00
-3.986989974975585938e+01 -2.720759963989258168e+01 -8.425323963165283203e-01 1.300000000000000000e+01
-2.234522342681885210e+00 -1.520290732383728027e+00 -7.241756916046142578e-01 1.900000000000000000e+01
-2.622030735015869141e+00 -1.782599329948425071e+00 -7.319907546043395996e-01 1.200000000000000000e+01
-3.138746500015258789e+00 -2.133090019226074219e+00 -7.376675605773925781e-01 1.200000000000000000e+01
-3.941649675369263139e+00 -2.676731586456298828e+00 -7.546398639678955078e-01 9.000000000000000000e+00
-5.364763736724854404e+00 -3.640417098999022993e+00 -7.960505485534667969e-01 1.200000000000000000e+01
-7.106514453887938565e+00 -4.820521831512451172e+00 -7.512825131416320801e-01 5.000000000000000000e+00
-9.173964500427246094e+00 -6.218248844146729404e+00 -5.808244347572326660e-01 3.000000000000000000e+00
-4.020635604858397727e+01 -2.723198509216308949e+01 -8.476284742355346680e-01 1.300000000000000000e+01
-2.236876964569091797e+00 -1.509928941726685014e+00 -7.231404185295104980e-01 1.900000000000000000e+01
-2.618853330612183061e+00 -1.766438841819762962e+00 -7.292913198471069336e-01 1.100000000000000000e+01
-3.140032291412353960e+00 -2.117181301116942915e+00 -7.361410856246948242e-01 1.200000000000000000e+01
-3.939966440200806108e+00 -2.654540300369263139e+00 -7.524497509002685547e-01 1.100000000000000000e+01
-5.386303901672363281e+00 -3.626272916793822798e+00 -7.972692251205444336e-01 1.000000000000000000e+01
-7.233228206634520596e+00 -4.867860794067382812e+00 -7.627870440483093262e-01 8.000000000000000000e+00
-9.395577430725097656e+00 -6.318327903747558594e+00 -5.933851003646850586e-01 3.000000000000000000e+00
-4.042208099365233664e+01 -2.716251182556151988e+01 -8.500717878341674805e-01 1.300000000000000000e+01
-2.248553752899169922e+00 -1.506412506103516069e+00 -7.252109646797180176e-01 1.900000000000000000e+01
-2.625003337860106978e+00 -1.757286548614501953e+00 -7.292913198471069336e-01 1.200000000000000000e+01
-3.163719892501831055e+00 -2.117126226425170898e+00 -7.399572730064392090e-01 1.200000000000000000e+01
-3.959060907363892046e+00 -2.647359371185303178e+00 -7.543269991874694824e-01 1.100000000000000000e+01
-5.397278785705566406e+00 -3.606346368789672852e+00 -7.970255017280578613e-01 1.000000000000000000e+01
-7.139170169830322266e+00 -4.768438816070556641e+00 -7.511081695556640625e-01 7.000000000000000000e+00
-9.420897483825683594e+00 -6.287710189819335938e+00 -5.935944318771362305e-01 6.000000000000000000e+00
-4.073625183105468750e+01 -2.716770362854003906e+01 -8.546792268753051758e-01 1.300000000000000000e+01
-2.255407333374022993e+00 -1.499624013900757058e+00 -7.257286310195922852e-01 1.700000000000000000e+01
-2.631121397018433061e+00 -1.748112797737122026e+00 -7.292913198471069336e-01 1.100000000000000000e+01
-3.169455289840697798e+00 -2.104983806610106978e+00 -7.395756840705871582e-01 1.100000000000000000e+01
-3.968277692794799805e+00 -2.633523464202880859e+00 -7.543269991874694824e-01 1.100000000000000000e+01
-5.404870986938476562e+00 -3.584192991256713867e+00 -7.962942719459533691e-01 7.000000000000000000e+00
-7.313534259796142578e+00 -4.848068714141845703e+00 -7.676677703857421875e-01 7.000000000000000000e+00
-9.492741584777832031e+00 -6.287874698638916016e+00 -5.967345833778381348e-01 9.000000000000000000e+00
-4.094089126586914062e+01 -2.709818649291991832e+01 -8.569829463958740234e-01 1.300000000000000000e+01
-2.267077922821044922e+00 -1.495998144149780051e+00 -7.277991771697998047e-01 1.700000000000000000e+01
-2.640461206436156782e+00 -1.741063356399535911e+00 -7.301911115646362305e-01 1.100000000000000000e+01
-3.162030935287476030e+00 -2.084183454513549805e+00 -7.361410856246948242e-01 1.200000000000000000e+01
-3.984045267105102983e+00 -2.624001741409302202e+00 -7.555784583091735840e-01 1.100000000000000000e+01
-5.362628459930419922e+00 -3.529291391372681108e+00 -7.882509231567382812e-01 1.200000000000000000e+01
-7.275484085083007812e+00 -4.786374092102050781e+00 -7.619155049324035645e-01 6.000000000000000000e+00
-9.553017616271972656e+00 -6.279934406280517578e+00 -5.991420149803161621e-01 1.300000000000000000e+01
-4.125585174560546875e+01 -2.710003089904785156e+01 -8.615903854370117188e-01 1.300000000000000000e+01
-2.255866765975952148e+00 -1.477885365486145020e+00 -7.226227521896362305e-01 1.600000000000000000e+01
-2.646220207214355025e+00 -1.732297658920288086e+00 -7.301911115646362305e-01 1.200000000000000000e+01
-3.167282104492187944e+00 -2.072611331939696822e+00 -7.357594966888427734e-01 1.200000000000000000e+01
-3.989418268203734907e+00 -2.608613729476929155e+00 -7.549527287483215332e-01 1.100000000000000000e+01
-5.375964641571044922e+00 -3.512574672698975053e+00 -7.884946465492248535e-01 1.400000000000000000e+01
-7.309665679931640625e+00 -4.774206161499023438e+00 -7.638329267501831055e-01 7.000000000000000000e+00
-9.592188835144042969e+00 -6.260228633880615234e+00 -6.002933979034423828e-01 1.300000000000000000e+01
-4.150294113159179688e+01 -2.706575012207030895e+01 -8.648714423179626465e-01 1.300000000000000000e+01
-2.267490386962891069e+00 -1.474213957786560059e+00 -7.246932983398437500e-01 1.700000000000000000e+01
-2.650616884231566939e+00 -1.721988439559936968e+00 -7.297412157058715820e-01 1.200000000000000000e+01
-3.174497604370117188e+00 -2.061542749404906782e+00 -7.357594966888427734e-01 1.200000000000000000e+01
-3.988557100296020952e+00 -2.588220357894897017e+00 -7.530755400657653809e-01 1.100000000000000000e+01
-5.413177013397216797e+00 -3.509987592697143999e+00 -7.921507358551025391e-01 1.200000000000000000e+01
-7.389818668365479404e+00 -4.789841175079345703e+00 -7.704567909240722656e-01 7.000000000000000000e+00
-9.644157409667968750e+00 -6.246250629425048828e+00 -6.021775007247924805e-01 1.000000000000000000e+01
-4.185570144653320312e+01 -2.708803176879883168e+01 -8.702467679977416992e-01 1.300000000000000000e+01
-2.274501800537108931e+00 -1.466940402984618919e+00 -7.252109646797180176e-01 1.600000000000000000e+01
-2.656910419464110884e+00 -1.712261915206908958e+00 -7.297412157058715820e-01 1.200000000000000000e+01
-3.195235729217528853e+00 -2.058399677276610884e+00 -7.388124465942382812e-01 1.100000000000000000e+01
-3.991372823715209961e+00 -2.569307327270507812e+00 -7.518240213394165039e-01 1.100000000000000000e+01
-5.452717781066895419e+00 -3.507306098937987837e+00 -7.960505485534667969e-01 1.000000000000000000e+01
-7.439166069030761719e+00 -4.783196926116943359e+00 -7.737686634063720703e-01 7.000000000000000000e+00
-9.608174324035644531e+00 -6.173075675964354581e+00 -5.985140204429626465e-01 1.000000000000000000e+01
-4.218355941772460938e+01 -2.708136367797851918e+01 -8.749938607215881348e-01 1.300000000000000000e+01
-2.282862901687622070e+00 -1.461074709892272949e+00 -7.262462377548217773e-01 1.600000000000000000e+01
-2.659587621688843218e+00 -1.700877308845520020e+00 -7.288414239883422852e-01 1.200000000000000000e+01
-3.195784807205200195e+00 -2.043003797531127930e+00 -7.372859716415405273e-01 1.200000000000000000e+01
-4.000317096710205078e+00 -2.555359125137329102e+00 -7.518240213394165039e-01 1.100000000000000000e+01
-5.436481475830078125e+00 -3.470094203948975053e+00 -7.919070124626159668e-01 8.000000000000000000e+00
-7.529720306396484375e+00 -4.804354190826416016e+00 -7.814384102821350098e-01 8.000000000000000000e+00
-9.494935989379882812e+00 -6.053602218627929688e+00 -5.901402235031127930e-01 9.000000000000000000e+00
-4.247009658813477273e+01 -2.705643653869628906e+01 -8.789730072021484375e-01 1.300000000000000000e+01
-2.284687519073485884e+00 -1.451025724411010964e+00 -7.252109646797180176e-01 1.600000000000000000e+01
-2.668799400329589844e+00 -1.693671584129333052e+00 -7.297412157058715820e-01 1.300000000000000000e+01
-3.189634323120117188e+00 -2.023422718048096147e+00 -7.342330217361450195e-01 1.100000000000000000e+01
-4.019223213195800781e+00 -2.547725439071654829e+00 -7.537012696266174316e-01 1.200000000000000000e+01
-5.453592300415039062e+00 -3.454282760620117188e+00 -7.926381826400756836e-01 8.000000000000000000e+00
-7.598628520965576172e+00 -4.811081886291503906e+00 -7.868420481681823730e-01 8.000000000000000000e+00
-9.463686943054199219e+00 -5.987318992614746094e+00 -5.868954062461853027e-01 6.000000000000000000e+00
-4.273331069946289062e+01 -2.701487731933594105e+01 -8.824634552001953125e-01 1.300000000000000000e+01
-2.284835577011107954e+00 -1.439951896667480025e+00 -7.236580252647399902e-01 1.800000000000000000e+01
-2.679642200469971147e+00 -1.687460780143738015e+00 -7.310909032821655273e-01 1.300000000000000000e+01
-3.203323841094971147e+00 -2.016459941864014116e+00 -7.357594966888427734e-01 1.200000000000000000e+01
-4.011370658874511719e+00 -2.523162603378295898e+00 -7.505725622177124023e-01 1.100000000000000000e+01
-5.484104633331298828e+00 -3.446845054626464844e+00 -7.953193187713623047e-01 7.000000000000000000e+00
-7.618750095367431641e+00 -4.786648273468017578e+00 -7.871906757354736328e-01 8.000000000000000000e+00
-9.809306144714355469e+00 -6.158138751983642578e+00 -6.069924235343933105e-01 3.000000000000000000e+00
-4.297303009033203125e+01 -2.695693206787109020e+01 -8.854652643203735352e-01 1.300000000000000000e+01
-2.288210153579711914e+00 -1.430943250656127930e+00 -7.231404185295104980e-01 1.600000000000000000e+01
-2.685516119003295898e+00 -1.678096771240233931e+00 -7.310909032821655273e-01 1.400000000000000000e+01
-3.220333814620972124e+00 -2.011506319046020952e+00 -7.380492091178894043e-01 1.100000000000000000e+01
-4.023505210876464844e+00 -2.511236906051636186e+00 -7.511982917785644531e-01 1.100000000000000000e+01
-5.489365577697753906e+00 -3.423479080200194868e+00 -7.943443655967712402e-01 7.000000000000000000e+00
-7.440976619720458984e+00 -4.638810634613037109e+00 -7.671448588371276855e-01 8.000000000000000000e+00
-9.898551940917968750e+00 -6.166100978851318359e+00 -6.111792922019958496e-01 7.000000000000000000e+00
-4.320947265625000000e+01 -2.689552879333496094e+01 -8.883972764015197754e-01 1.300000000000000000e+01
-2.301398754119873047e+00 -1.428040027618407981e+00 -7.257286310195922852e-01 1.700000000000000000e+01
-2.671482801437377930e+00 -1.656389594078063965e+00 -7.256920933723449707e-01 1.200000000000000000e+01
-3.227335691452025923e+00 -2.000253200531005859e+00 -7.380492091178894043e-01 1.300000000000000000e+01
-4.038964271545410156e+00 -2.501337051391602007e+00 -7.524497509002685547e-01 1.100000000000000000e+01
-5.496218204498291016e+00 -3.401162862777709961e+00 -7.936131358146667480e-01 5.000000000000000000e+00
-7.609621047973632812e+00 -4.707139968872070312e+00 -7.828328609466552734e-01 7.000000000000000000e+00
-9.960789680480957031e+00 -6.156713485717773438e+00 -6.136914491653442383e-01 1.000000000000000000e+01
-4.350045013427733664e+01 -2.686642646789551137e+01 -8.924462795257568359e-01 1.400000000000000000e+01
-2.304476737976074219e+00 -1.419387340545654075e+00 -7.252109646797180176e-01 1.600000000000000000e+01
-2.691897392272949219e+00 -1.656714081764220969e+00 -7.297412157058715820e-01 1.300000000000000000e+01
-3.225590229034423828e+00 -1.984396338462830034e+00 -7.361410856246948242e-01 1.300000000000000000e+01
-4.047236919403076172e+00 -2.487929582595825195e+00 -7.524497509002685547e-01 1.100000000000000000e+01
-5.500700473785400391e+00 -3.378762245178223100e+00 -7.926381826400756836e-01 5.000000000000000000e+00
-7.572554111480712891e+00 -4.649561882019042969e+00 -7.774292230606079102e-01 7.000000000000000000e+00
-9.967532157897949219e+00 -6.115293025970458984e+00 -6.128540635108947754e-01 7.000000000000000000e+00
-4.373250961303710938e+01 -2.680981636047362926e+01 -8.953782320022583008e-01 1.400000000000000000e+01
-2.304471969604492188e+00 -1.408312439918518066e+00 -7.236580252647399902e-01 1.700000000000000000e+01
-2.696001052856444868e+00 -1.646291971206665039e+00 -7.292913198471069336e-01 1.200000000000000000e+01
-3.224118709564208984e+00 -1.968010425567626953e+00 -7.342330217361450195e-01 1.200000000000000000e+01
-4.062642574310302734e+00 -2.477901458740233931e+00 -7.537012696266174316e-01 1.200000000000000000e+01
-5.509070873260498047e+00 -3.357474327087401900e+00 -7.921507358551025391e-01 7.000000000000000000e+00
-7.484945774078369141e+00 -4.559869766235351562e+00 -7.667962312698364258e-01 8.000000000000000000e+00
-1.000246620178223012e+01 -6.088770389556884766e+00 -6.136914491653442383e-01 7.000000000000000000e+00
-4.392833709716796875e+01 -2.671934890747069957e+01 -8.974725604057312012e-01 1.400000000000000000e+01
-2.309129476547241211e+00 -1.400662779808043990e+00 -7.236580252647399902e-01 1.700000000000000000e+01
-2.703111886978148970e+00 -1.638352751731873003e+00 -7.297412157058715820e-01 1.200000000000000000e+01
-3.239022731781005859e+00 -1.962394595146178977e+00 -7.361410856246948242e-01 1.200000000000000000e+01
-4.060698032379150391e+00 -2.458277463912963867e+00 -7.518240213394165039e-01 1.100000000000000000e+01
-5.516777515411376953e+00 -3.337132453918457031e+00 -7.916632294654846191e-01 7.000000000000000000e+00
-7.590387821197509766e+00 -4.589662551879882812e+00 -7.760347127914428711e-01 7.000000000000000000e+00
-1.006362915039063033e+01 -6.080356121063232422e+00 -6.162035465240478516e-01 7.000000000000000000e+00
-4.425636672973632812e+01 -2.671822166442871094e+01 -9.023592472076416016e-01 1.400000000000000000e+01
-2.317315101623535156e+00 -1.394586205482482910e+00 -7.246932983398437500e-01 1.800000000000000000e+01
-2.707144260406494141e+00 -1.627902865409851074e+00 -7.292913198471069336e-01 1.200000000000000000e+01
-3.245852947235106978e+00 -1.951076388359070046e+00 -7.361410856246948242e-01 1.200000000000000000e+01
-4.062480449676513672e+00 -2.440019607543944868e+00 -7.505725622177124023e-01 1.100000000000000000e+01
-5.542009353637695312e+00 -3.326026916503905806e+00 -7.936131358146667480e-01 8.000000000000000000e+00
-7.520936012268066406e+00 -4.511890888214111328e+00 -7.673191428184509277e-01 7.000000000000000000e+00
-1.011391448974609020e+01 -6.062646865844726562e+00 -6.179829835891723633e-01 1.000000000000000000e+01
-4.458610153198242188e+01 -2.670537376403808949e+01 -9.071760773658752441e-01 1.400000000000000000e+01
-2.325486421585083008e+00 -1.388469457626342995e+00 -7.257286310195922852e-01 1.800000000000000000e+01
-2.701095581054687944e+00 -1.611454248428344949e+00 -7.261419892311096191e-01 1.300000000000000000e+01
-3.259388446807860884e+00 -1.943756580352782981e+00 -7.376675605773925781e-01 1.200000000000000000e+01
-4.064185142517089844e+00 -2.421779394149779829e+00 -7.493211030960083008e-01 1.100000000000000000e+01
-5.545057296752929688e+00 -3.301583766937255859e+00 -7.923944592475891113e-01 7.000000000000000000e+00
-7.730106353759765625e+00 -4.600756645202636719e+00 -7.870163321495056152e-01 8.000000000000000000e+00
-1.012128257751465021e+01 -6.019138813018798828e+00 -6.171455979347229004e-01 1.400000000000000000e+01
-4.485095596313477273e+01 -2.665172958374023082e+01 -9.106665849685668945e-01 1.400000000000000000e+01
-2.330318927764893022e+00 -1.380343437194823997e+00 -7.257286310195922852e-01 1.700000000000000000e+01
-2.715089082717895952e+00 -1.606978774070739968e+00 -7.283915281295776367e-01 1.200000000000000000e+01
-3.256015539169311968e+00 -1.926369309425354004e+00 -7.353778481483459473e-01 1.200000000000000000e+01
-4.099821567535400391e+00 -2.423661947250366211e+00 -7.543269991874694824e-01 1.200000000000000000e+01
-5.537747383117675781e+00 -3.271102190017700195e+00 -7.897133231163024902e-01 8.000000000000000000e+00
-7.752981185913085938e+00 -4.577797889709472656e+00 -7.877135872840881348e-01 9.000000000000000000e+00
-1.014567184448242010e+01 -5.985802173614501953e+00 -6.173549294471740723e-01 1.400000000000000000e+01
-4.517454910278320312e+01 -2.663108825683594105e+01 -9.153438210487365723e-01 1.400000000000000000e+01
-2.328938245773314986e+00 -1.367472887039185014e+00 -7.236580252647399902e-01 1.800000000000000000e+01
-2.729643583297729048e+00 -1.601472377777100053e+00 -7.306410074234008789e-01 1.300000000000000000e+01
-3.248146533966064009e+00 -1.904914379119873047e+00 -7.319433093070983887e-01 1.100000000000000000e+01
-4.097167491912841797e+00 -2.400911092758179155e+00 -7.521368861198425293e-01 1.100000000000000000e+01
-5.560544967651367188e+00 -3.255832672119141069e+00 -7.911757826805114746e-01 8.000000000000000000e+00
-7.854757785797119141e+00 -4.597309112548828125e+00 -7.962548732757568359e-01 6.000000000000000000e+00
-1.021685504913330078e+01 -5.975033283233642578e+00 -6.202857494354248047e-01 1.000000000000000000e+01
-4.539042282104492188e+01 -2.652402305603026988e+01 -9.176475405693054199e-01 1.400000000000000000e+01
-2.322012186050415039e+00 -1.352528691291809082e+00 -7.200345993041992188e-01 1.900000000000000000e+01
-2.735217094421387163e+00 -1.591934323310852051e+00 -7.306410074234008789e-01 1.200000000000000000e+01
-3.273442745208739790e+00 -1.904424428939818892e+00 -7.361410856246948242e-01 1.200000000000000000e+01
-4.091860771179199219e+00 -2.378652572631835938e+00 -7.496339678764343262e-01 1.100000000000000000e+01
-5.559860229492188388e+00 -3.229423761367797852e+00 -7.894695997238159180e-01 8.000000000000000000e+00
-7.875926971435546875e+00 -4.572864055633544922e+00 -7.967777848243713379e-01 8.000000000000000000e+00
-1.031366348266601918e+01 -5.983432292938232422e+00 -6.248913407325744629e-01 1.400000000000000000e+01
-4.551733398437500000e+01 -2.638547515869140980e+01 -9.183456301689147949e-01 1.400000000000000000e+01
-2.331502199172974077e+00 -1.347721576690674050e+00 -7.215874791145324707e-01 1.800000000000000000e+01
-2.742168664932250977e+00 -1.583829998970031960e+00 -7.310909032821655273e-01 1.300000000000000000e+01
-3.272939205169678178e+00 -1.889632344245911089e+00 -7.346146106719970703e-01 1.300000000000000000e+01
-4.092882156372070312e+00 -2.361121892929077148e+00 -7.483825087547302246e-01 1.100000000000000000e+01
-5.582577705383300781e+00 -3.217908143997191939e+00 -7.911757826805114746e-01 8.000000000000000000e+00
-7.958374500274658203e+00 -4.585514545440673828e+00 -8.035759329795837402e-01 8.000000000000000000e+00
-1.037498950958251953e+01 -5.973114490509033203e+00 -6.274034380912780762e-01 1.500000000000000000e+01
-4.567738342285156250e+01 -2.627626991271973012e+01 -9.198116064071655273e-01 1.400000000000000000e+01
-2.341219902038574219e+00 -1.342457771301269975e+00 -7.231404185295104980e-01 1.900000000000000000e+01
-2.730771780014038086e+00 -1.564560651779175027e+00 -7.265918850898742676e-01 1.200000000000000000e+01
-3.282922506332397017e+00 -1.880147457122802956e+00 -7.353778481483459473e-01 1.200000000000000000e+01
-4.111385822296142578e+00 -2.352707386016846147e+00 -7.502596974372863770e-01 1.100000000000000000e+01
-5.576543331146240234e+00 -3.188548326492310014e+00 -7.887383699417114258e-01 1.000000000000000000e+01
-8.022766113281250000e+00 -4.585388660430908203e+00 -8.084566593170166016e-01 9.000000000000000000e+00
-1.037322998046875000e+01 -5.923986434936523438e+00 -6.260427236557006836e-01 2.100000000000000000e+01
-4.579661560058593750e+01 -2.613252258300780895e+01 -9.203701019287109375e-01 1.400000000000000000e+01
-2.349016904830933061e+00 -1.336597442626952903e+00 -7.241756916046142578e-01 1.900000000000000000e+01
-2.734250783920288086e+00 -1.554533362388611062e+00 -7.261419892311096191e-01 1.200000000000000000e+01
-3.287432432174683061e+00 -1.868280529975890891e+00 -7.349962592124938965e-01 1.200000000000000000e+01
-4.126036167144775391e+00 -2.342962265014647993e+00 -7.515111565589904785e-01 1.100000000000000000e+01
-5.583632946014404297e+00 -3.168079137802124023e+00 -7.882509231567382812e-01 8.000000000000000000e+00
-8.070856094360351562e+00 -4.577434539794921875e+00 -8.117685914039611816e-01 1.000000000000000000e+01
-1.044147109985351918e+01 -5.917127132415770596e+00 -6.289735436439514160e-01 2.200000000000000000e+01
-4.587258148193358664e+01 -2.597459983825683949e+01 -9.201606512069702148e-01 1.400000000000000000e+01
-2.348621129989624023e+00 -1.325541019439697044e+00 -7.226227521896362305e-01 1.800000000000000000e+01
-2.751542568206787109e+00 -1.551680207252501997e+00 -7.292913198471069336e-01 1.200000000000000000e+01
-3.278541803359984907e+00 -1.848117351531981978e+00 -7.315616607666015625e-01 1.200000000000000000e+01
-4.134189605712890625e+00 -2.328545570373535156e+00 -7.515111565589904785e-01 1.100000000000000000e+01
-5.594657897949218750e+00 -3.148569345474243164e+00 -7.882509231567382812e-01 8.000000000000000000e+00
-8.090258598327636719e+00 -4.551187992095947266e+00 -8.121172189712524414e-01 9.000000000000000000e+00
-1.048817825317382990e+01 -5.895322799682617188e+00 -6.305435895919799805e-01 2.200000000000000000e+01
-4.598040390014647727e+01 -2.582410812377930043e+01 -9.205096960067749023e-01 1.400000000000000000e+01
-2.346491098403931108e+00 -1.313560128211975098e+00 -7.205522060394287109e-01 1.800000000000000000e+01
-2.760343790054320845e+00 -1.543968677520751953e+00 -7.301911115646362305e-01 1.300000000000000000e+01
-3.295254468917847124e+00 -1.842410326004028098e+00 -7.338513731956481934e-01 1.200000000000000000e+01
-4.142292499542236328e+00 -2.314100265502930132e+00 -7.515111565589904785e-01 1.100000000000000000e+01
-5.619481086730957031e+00 -3.136761426925659180e+00 -7.902008295059204102e-01 8.000000000000000000e+00
-8.142633438110351562e+00 -4.543306350708007812e+00 -8.157777786254882812e-01 1.000000000000000000e+01
-1.058370494842528942e+01 -5.900496482849121094e+00 -6.350445151329040527e-01 1.500000000000000000e+01
-4.607725524902343750e+01 -2.566734123229980113e+01 -9.206493496894836426e-01 1.400000000000000000e+01
-2.354439973831177202e+00 -1.307236909866333008e+00 -7.215874791145324707e-01 1.700000000000000000e+01
-2.757195949554442915e+00 -1.529597043991089089e+00 -7.279416322708129883e-01 1.200000000000000000e+01
-3.306816339492797852e+00 -1.833752870559691939e+00 -7.349962592124938965e-01 1.200000000000000000e+01
-4.143433570861816406e+00 -2.295797348022460938e+00 -7.502596974372863770e-01 1.100000000000000000e+01
-5.619976043701171875e+00 -3.111357927322388139e+00 -7.887383699417114258e-01 8.000000000000000000e+00
-8.212483406066894531e+00 -4.544761657714843750e+00 -8.211814165115356445e-01 9.000000000000000000e+00
-1.062171554565430043e+01 -5.873180866241455078e+00 -6.360912322998046875e-01 1.800000000000000000e+01
-4.618057250976563211e+01 -2.551408195495605113e+01 -9.209285974502563477e-01 1.400000000000000000e+01
-2.359215259552001953e+00 -1.298598647117614968e+00 -7.215874791145324707e-01 1.600000000000000000e+01
-2.757661104202270952e+00 -1.516663908958435059e+00 -7.265918850898742676e-01 1.200000000000000000e+01
-3.323837757110596147e+00 -1.827295303344727007e+00 -7.372859716415405273e-01 1.200000000000000000e+01
-4.144894599914550781e+00 -2.276791334152222124e+00 -7.490082383155822754e-01 1.100000000000000000e+01
-5.620900630950927734e+00 -3.085007905960083008e+00 -7.872759699821472168e-01 8.000000000000000000e+00
-8.262274742126464844e+00 -4.532838821411132812e+00 -8.244933485984802246e-01 9.000000000000000000e+00
-1.064317131042479936e+01 -5.834210872650145596e+00 -6.360912322998046875e-01 2.200000000000000000e+01
-4.630534744262695312e+01 -2.536194229125976918e+01 -9.215568900108337402e-01 1.400000000000000000e+01
-2.365429639816284180e+00 -1.291281223297118919e+00 -7.221051454544067383e-01 1.600000000000000000e+01
-2.762938499450684038e+00 -1.507028579711914062e+00 -7.265918850898742676e-01 1.100000000000000000e+01
-3.309511423110961914e+00 -1.804404258728026900e+00 -7.327065467834472656e-01 1.100000000000000000e+01
-4.159755706787109375e+00 -2.266088962554932085e+00 -7.502596974372863770e-01 1.100000000000000000e+01
-5.628147602081298828e+00 -3.063470602035522017e+00 -7.867884635925292969e-01 8.000000000000000000e+00
-8.314799308776855469e+00 -4.523967266082763672e+00 -8.281538486480712891e-01 9.000000000000000000e+00
-1.078279304504395064e+01 -5.861890792846679688e+00 -6.432089209556579590e-01 3.000000000000000000e+00
-4.634087753295897727e+01 -2.517151641845703125e+01 -9.205096960067749023e-01 1.400000000000000000e+01
-2.366301059722899947e+00 -1.281589984893799050e+00 -7.210698723793029785e-01 1.900000000000000000e+01
-2.776490211486815962e+00 -1.502495408058166948e+00 -7.288414239883422852e-01 1.300000000000000000e+01
-3.315476894378662109e+00 -1.793419599533081055e+00 -7.327065467834472656e-01 1.100000000000000000e+01
-4.179411888122558594e+00 -2.258857011795043945e+00 -7.524497509002685547e-01 1.200000000000000000e+01
-5.627795696258544922e+00 -3.039130687713623047e+00 -7.853260636329650879e-01 8.000000000000000000e+00
-8.385859489440917969e+00 -4.526654243469238281e+00 -8.337318301200866699e-01 9.000000000000000000e+00
-1.097092819213867010e+01 -5.917119979858398438e+00 -6.532574295997619629e-01 7.000000000000000000e+00
-4.647690582275391336e+01 -2.504616546630859020e+01 -9.215568900108337402e-01 1.400000000000000000e+01
-2.360548973083496094e+00 -1.267837762832642046e+00 -7.179640531539916992e-01 1.900000000000000000e+01
-2.776566743850708008e+00 -1.490030050277709961e+00 -7.274917364120483398e-01 1.100000000000000000e+01
-3.314796686172484907e+00 -1.778123378753662109e+00 -7.311800718307495117e-01 1.100000000000000000e+01
-4.175084114074707031e+00 -2.237722158432006836e+00 -7.502596974372863770e-01 1.100000000000000000e+01
-5.638370037078857422e+00 -3.019467353820800781e+00 -7.853260636329650879e-01 8.000000000000000000e+00
-8.396340370178222656e+00 -4.494534015655517578e+00 -8.332089185714721680e-01 9.000000000000000000e+00
-1.107957553863525035e+01 -5.925886154174804688e+00 -6.584910154342651367e-01 1.100000000000000000e+01
-4.649703216552733664e+01 -2.484796333312987926e+01 -9.202305078506469727e-01 1.400000000000000000e+01
-2.375190734863280806e+00 -1.265039086341857910e+00 -7.210698723793029785e-01 1.900000000000000000e+01
-2.781750917434691939e+00 -1.480328917503356934e+00 -7.274917364120483398e-01 1.100000000000000000e+01
-3.327916383743286133e+00 -1.770229697227478027e+00 -7.327065467834472656e-01 1.100000000000000000e+01
-4.174148082733154297e+00 -2.218499422073363814e+00 -7.486953735351562500e-01 1.200000000000000000e+01
-5.655888557434082031e+00 -3.003491640090941939e+00 -7.863010168075561523e-01 8.000000000000000000e+00
-8.464772224426269531e+00 -4.493222236633300781e+00 -8.384382724761962891e-01 9.000000000000000000e+00
-1.112489509582520064e+01 -5.900276660919188565e+00 -6.599563956260681152e-01 1.500000000000000000e+01
-4.654460906982421875e+01 -2.466490745544433949e+01 -9.194625616073608398e-01 1.400000000000000000e+01
-2.376175403594971147e+00 -1.254935979843140093e+00 -7.200345993041992188e-01 1.900000000000000000e+01
-2.780007362365723100e+00 -1.466971993446350098e+00 -7.256920933723449707e-01 1.100000000000000000e+01
-3.341021537780762163e+00 -1.762266039848328081e+00 -7.342330217361450195e-01 1.100000000000000000e+01
-4.183614253997802734e+00 -2.204836368560791016e+00 -7.490082383155822754e-01 1.200000000000000000e+01
-5.652286529541015625e+00 -2.976331233978271040e+00 -7.843511104583740234e-01 8.000000000000000000e+00
-8.492747306823730469e+00 -4.470142841339111328e+00 -8.396584391593933105e-01 8.000000000000000000e+00
-1.113128185272216975e+01 -5.853970050811767578e+00 -6.591190099716186523e-01 2.700000000000000000e+01
