3.565825700759888139e+00 -2.277810811996459961e+00 -6.701652407646179199e-01 1.000000000000000000e+01
4.522527694702148438e+00 -2.891165018081665039e+00 -6.590694189071655273e-01 1.600000000000000000e+01
6.529338836669921875e+00 -4.175686359405517578e+00 -6.780716776847839355e-01 2.000000000000000000e+00
2.124279737472534180e+00 -1.364810705184936968e+00 -6.765530109405517578e-01 1.400000000000000000e+01
2.458725690841674805e+00 -1.580898880958556907e+00 -6.748531460762023926e-01 1.100000000000000000e+01
2.897809505462646040e+00 -1.863933682441710982e+00 -6.697395443916320801e-01 1.000000000000000000e+01
3.562835931777954102e+00 -2.293451547622681108e+00 -6.711038351058959961e-01 1.000000000000000000e+01
4.527427196502686435e+00 -2.916609525680541992e+00 -6.612630486488342285e-01 2.400000000000000000e+01
6.504674434661865234e+00 -4.191976547241210938e+00 -6.770257949829101562e-01 1.000000000000000000e+00
2.107912778854370117e+00 -1.365236043930053933e+00 -6.729295253753662109e-01 1.600000000000000000e+01
2.461091279983520952e+00 -1.595199584960937944e+00 -6.771026849746704102e-01 1.200000000000000000e+01
2.899194717407227007e+00 -1.879882812500000000e+00 -6.716476678848266602e-01 1.100000000000000000e+01
3.559377193450928178e+00 -2.309720516204833984e+00 -6.720424890518188477e-01 1.000000000000000000e+01
4.535019874572753906e+00 -2.945076465606689009e+00 -6.639441847801208496e-01 3.900000000000000000e+01
6.502632617950438565e+00 -4.224472999572753906e+00 -6.784203052520751953e-01 3.000000000000000000e+00
2.106369972229003906e+00 -1.374697446823119895e+00 -6.739647984504699707e-01 1.600000000000000000e+01
2.453876495361328125e+00 -1.602715015411376953e+00 -6.766527891159057617e-01 1.100000000000000000e+01
2.895902156829833984e+00 -1.892139077186584029e+00 -6.724109053611755371e-01 1.100000000000000000e+01
3.541373252868651900e+00 -2.315644502639770952e+00 -6.701652407646179199e-01 1.000000000000000000e+01
4.516407012939453125e+00 -2.955453872680664062e+00 -6.627255082130432129e-01 1.600000000000000000e+01
6.489513874053955078e+00 -4.248236656188964844e+00 -6.785945892333984375e-01 2.000000000000000000e+00
2.114713907241820845e+00 -1.390164375305176003e+00 -6.781058907508850098e-01 1.500000000000000000e+01
2.437151908874512163e+00 -1.603346347808837891e+00 -6.735034584999084473e-01 1.300000000000000000e+01
2.892891645431518999e+00 -1.903890490531920943e+00 -6.731741428375244141e-01 1.100000000000000000e+01
3.543573141098022017e+00 -2.333894729614257812e+00 -6.720424890518188477e-01 1.000000000000000000e+01
4.508238792419433594e+00 -2.971507072448730025e+00 -6.629692316055297852e-01 1.700000000000000000e+01
6.506994247436523438e+00 -4.290572166442871094e+00 -6.819065213203430176e-01 3.000000000000000000e+00
2.109848499298096147e+00 -1.397537708282470925e+00 -6.781058907508850098e-01 1.600000000000000000e+01
2.444534540176392046e+00 -1.620457530021667036e+00 -6.771026849746704102e-01 1.100000000000000000e+01
2.889500379562377930e+00 -1.916146993637084961e+00 -6.739373803138732910e-01 1.100000000000000000e+01
3.540342330932617188e+00 -2.349526882171630859e+00 -6.729810833930969238e-01 1.000000000000000000e+01
4.511067867279052734e+00 -2.996011495590209961e+00 -6.649191379547119141e-01 1.600000000000000000e+01
6.505253314971923828e+00 -4.322080135345458984e+00 -6.833010315895080566e-01 3.000000000000000000e+00
2.100136756896973100e+00 -1.401676535606384055e+00 -6.765530109405517578e-01 2.100000000000000000e+01
2.442104339599608931e+00 -1.631145477294922097e+00 -6.780024766921997070e-01 1.100000000000000000e+01
2.868102788925170898e+00 -1.916405081748961958e+00 -6.705027818679809570e-01 1.200000000000000000e+01
3.543613910675048828e+00 -2.369556903839110884e+00 -6.751711368560791016e-01 1.000000000000000000e+01
4.517080307006835938e+00 -3.022779941558837891e+00 -6.673565506935119629e-01 3.000000000000000000e+01
6.463636875152587891e+00 -4.327027797698974609e+00 -6.805120110511779785e-01 3.000000000000000000e+00
2.088819026947021040e+00 -1.404686689376831055e+00 -6.744824051856994629e-01 2.400000000000000000e+01
2.436395645141602007e+00 -1.639660000801085982e+00 -6.780024766921997070e-01 1.100000000000000000e+01
2.864652872085570845e+00 -1.928597688674926980e+00 -6.712660193443298340e-01 1.100000000000000000e+01
3.528768301010131836e+00 -2.377496957778931108e+00 -6.739196777343750000e-01 1.000000000000000000e+01
4.516376495361328125e+00 -3.045187711715697798e+00 -6.688189506530761719e-01 2.600000000000000000e+01
6.413805961608886719e+00 -4.326166629791259766e+00 -6.768515110015869141e-01 4.000000000000000000e+00
2.083903074264525923e+00 -1.411969542503356934e+00 -6.744824051856994629e-01 2.200000000000000000e+01
2.433883190155028853e+00 -1.650341987609863059e+00 -6.789022684097290039e-01 1.100000000000000000e+01
2.864402294158935991e+00 -1.942993879318237083e+00 -6.727924942970275879e-01 1.100000000000000000e+01
3.513910055160522017e+00 -2.385362148284912109e+00 -6.726682186126708984e-01 1.000000000000000000e+01
4.518855571746826172e+00 -3.069858312606811968e+00 -6.707688570022583008e-01 2.400000000000000000e+01
6.401961803436279297e+00 -4.350768566131591797e+00 -6.772001385688781738e-01 4.000000000000000000e+00
2.094916820526123047e+00 -1.430127143859863059e+00 -6.796588301658630371e-01 2.500000000000000000e+01
2.421671152114868164e+00 -1.654430627822875977e+00 -6.771026849746704102e-01 1.100000000000000000e+01
2.870569705963135210e+00 -1.961842775344849077e+00 -6.758454442024230957e-01 1.100000000000000000e+01
3.512084245681763139e+00 -2.402074098587036133e+00 -6.739196777343750000e-01 1.000000000000000000e+01
4.517940998077392578e+00 -3.092340707778931108e+00 -6.722313165664672852e-01 2.600000000000000000e+01
6.367008209228515625e+00 -4.359581470489501953e+00 -6.751083731651306152e-01 5.000000000000000000e+00
2.089661121368408203e+00 -1.437795758247375044e+00 -6.796588301658630371e-01 2.400000000000000000e+01
2.415591239929199219e+00 -1.663295388221740945e+00 -6.771026849746704102e-01 1.100000000000000000e+01
2.860126256942749023e+00 -1.970123291015625000e+00 -6.750822067260742188e-01 1.100000000000000000e+01
3.500003814697266069e+00 -2.412688255310059038e+00 -6.732939481735229492e-01 1.000000000000000000e+01
4.509844779968261719e+00 -3.111133337020874023e+00 -6.727187633514404297e-01 2.800000000000000000e+01
6.296873092651367188e+00 -4.345543861389160156e+00 -6.693561077117919922e-01 6.000000000000000000e+00
2.078278779983520952e+00 -1.440678954124450906e+00 -6.775882840156555176e-01 2.200000000000000000e+01
2.416175127029418945e+00 -1.676160335540771040e+00 -6.789022684097290039e-01 1.100000000000000000e+01
2.841941356658935991e+00 -1.972259759902954102e+00 -6.724109053611755371e-01 1.000000000000000000e+01
3.504540443420410156e+00 -2.433905363082886186e+00 -6.757968664169311523e-01 1.000000000000000000e+01
4.516887664794921875e+00 -3.139318943023682085e+00 -6.753998994827270508e-01 2.200000000000000000e+01
6.270215034484863281e+00 -4.359536170959472656e+00 -6.681359410285949707e-01 6.000000000000000000e+00
2.068989753723144975e+00 -1.443884134292602983e+00 -6.760353446006774902e-01 2.300000000000000000e+01
2.414092779159545898e+00 -1.685974240303039995e+00 -6.798020601272583008e-01 1.200000000000000000e+01
2.840559482574462891e+00 -1.984551429748534934e+00 -6.735557317733764648e-01 1.100000000000000000e+01
3.490401029586791992e+00 -2.440375566482543945e+00 -6.745454072952270508e-01 1.000000000000000000e+01
4.518388748168945312e+00 -3.161459684371947798e+00 -6.771060824394226074e-01 2.100000000000000000e+01
6.253223419189453125e+00 -4.376927852630615234e+00 -6.677873134613037109e-01 7.000000000000000000e+00
2.067097663879394975e+00 -1.453319668769835982e+00 -6.770706176757812500e-01 2.600000000000000000e+01
2.405005455017089844e+00 -1.692147970199584961e+00 -6.789022684097290039e-01 1.100000000000000000e+01
2.841642141342163086e+00 -2.000104665756226030e+00 -6.754638552665710449e-01 1.200000000000000000e+01
3.475401401519774947e+00 -2.447994232177733931e+00 -6.732939481735229492e-01 1.000000000000000000e+01
4.512193202972412109e+00 -3.180643796920775923e+00 -6.778373122215270996e-01 1.500000000000000000e+01
6.228137493133544922e+00 -4.391839981079101562e+00 -6.667414307594299316e-01 7.000000000000000000e+00
2.069894552230834961e+00 -1.466109395027161089e+00 -6.796588301658630371e-01 2.700000000000000000e+01
2.392724514007567915e+00 -1.696025013923645020e+00 -6.771026849746704102e-01 1.100000000000000000e+01
2.839447498321533203e+00 -2.013418436050415039e+00 -6.766086816787719727e-01 1.100000000000000000e+01
3.471668243408203125e+00 -2.463540315628052202e+00 -6.742325425148010254e-01 9.000000000000000000e+00
4.505918502807617188e+00 -3.199822902679442915e+00 -6.785684823989868164e-01 1.700000000000000000e+01
6.173787117004395419e+00 -4.385860443115234375e+00 -6.625579595565795898e-01 8.000000000000000000e+00
2.071054458618164062e+00 -1.477814197540282981e+00 -6.817293763160705566e-01 2.400000000000000000e+01
2.389961719512939009e+00 -1.706631779670715110e+00 -6.780024766921997070e-01 1.100000000000000000e+01
2.819622039794921875e+00 -2.014188289642333984e+00 -6.735557317733764648e-01 1.100000000000000000e+01
3.471082687377930132e+00 -2.481387615203856978e+00 -6.757968664169311523e-01 1.000000000000000000e+01
4.444672584533691406e+00 -3.179726839065552202e+00 -6.710125803947448730e-01 1.400000000000000000e+01
6.158440113067626953e+00 -4.407384395599365234e+00 -6.625579595565795898e-01 1.100000000000000000e+01
2.065883159637451172e+00 -1.485034465789794922e+00 -6.817293763160705566e-01 2.500000000000000000e+01
2.388735532760620117e+00 -1.718377947807312012e+00 -6.793521642684936523e-01 1.300000000000000000e+01
2.814167499542235884e+00 -2.025165081024169922e+00 -6.739373803138732910e-01 1.200000000000000000e+01
3.476826429367064986e+00 -2.503878355026245117e+00 -6.786127090454101562e-01 9.000000000000000000e+00
4.481859683990479404e+00 -3.230041265487670898e+00 -6.783247590065002441e-01 1.400000000000000000e+01
6.126856327056884766e+00 -4.417202949523925781e+00 -6.608148217201232910e-01 1.200000000000000000e+01
2.049734115600585938e+00 -1.484305381774901900e+00 -6.781058907508850098e-01 2.300000000000000000e+01
2.393768548965454102e+00 -1.734710335731505904e+00 -6.825014948844909668e-01 1.100000000000000000e+01
2.815028667449951172e+00 -2.040737628936768022e+00 -6.758454442024230957e-01 1.100000000000000000e+01
3.463268280029296875e+00 -2.512519598007202148e+00 -6.776741147041320801e-01 1.000000000000000000e+01
4.485014438629150391e+00 -3.256162405014038086e+00 -6.805183887481689453e-01 1.500000000000000000e+01
6.085606575012207031e+00 -4.419829368591308594e+00 -6.580258607864379883e-01 9.000000000000000000e+00
2.057026147842406782e+00 -1.500559329986572044e+00 -6.822469830513000488e-01 2.300000000000000000e+01
2.381402730941772017e+00 -1.738459467887877974e+00 -6.807019114494323730e-01 1.100000000000000000e+01
2.812644481658935991e+00 -2.054024934768677202e+00 -6.769903302192687988e-01 1.200000000000000000e+01
3.451287269592285156e+00 -2.522262096405028853e+00 -6.770483851432800293e-01 1.000000000000000000e+01
4.481632709503173828e+00 -3.277657508850098100e+00 -6.817371249198913574e-01 1.400000000000000000e+01
6.031549930572509766e+00 -4.412810802459716797e+00 -6.538423895835876465e-01 1.200000000000000000e+01
2.051775693893433061e+00 -1.507730484008789062e+00 -6.822469830513000488e-01 2.000000000000000000e+01
2.369040250778197798e+00 -1.742143511772155984e+00 -6.789022684097290039e-01 1.200000000000000000e+01
2.813364744186400923e+00 -2.069647312164307085e+00 -6.788983941078186035e-01 1.200000000000000000e+01
3.448824882507324219e+00 -2.538978576660155806e+00 -6.782998442649841309e-01 1.000000000000000000e+01
4.473360538482666016e+00 -3.295636177062987837e+00 -6.822245717048645020e-01 1.400000000000000000e+01
6.006486415863037109e+00 -4.426745891571044922e+00 -6.527965068817138672e-01 1.200000000000000000e+01
2.046500205993651900e+00 -1.514883399009705034e+00 -6.822469830513000488e-01 2.000000000000000000e+01
2.375471830368041992e+00 -1.759682178497314009e+00 -6.825014948844909668e-01 1.100000000000000000e+01
2.802968502044678178e+00 -2.077117443084716797e+00 -6.781351566314697266e-01 1.100000000000000000e+01
3.443114519119263139e+00 -2.553354978561400923e+00 -6.789255738258361816e-01 1.000000000000000000e+01
4.465017795562744141e+00 -3.313597202301024947e+00 -6.827120780944824219e-01 1.400000000000000000e+01
6.080582618713378906e+00 -4.514192581176757812e+00 -6.625579595565795898e-01 1.000000000000000000e+01
2.039651155471802202e+00 -1.520862936973571999e+00 -6.817293763160705566e-01 2.200000000000000000e+01
2.366191148757935014e+00 -1.765632629394531028e+00 -6.816017031669616699e-01 1.100000000000000000e+01
2.792554378509521040e+00 -2.084540128707886186e+00 -6.773719191551208496e-01 1.100000000000000000e+01
3.443676233291625977e+00 -2.572451353073120117e+00 -6.808027625083923340e-01 1.000000000000000000e+01
4.455013751983642578e+00 -3.330351352691649947e+00 -6.829558014869689941e-01 1.500000000000000000e+01
6.063192367553710938e+00 -4.534197330474854404e+00 -6.623836159706115723e-01 6.000000000000000000e+00
2.029962062835692915e+00 -1.524138569831847922e+00 -6.801764369010925293e-01 1.700000000000000000e+01
2.366554975509643999e+00 -1.778151869773864968e+00 -6.834012866020202637e-01 1.100000000000000000e+01
2.788765192031859907e+00 -2.096148252487183061e+00 -6.781351566314697266e-01 1.100000000000000000e+01
3.431969404220581055e+00 -2.581481933593750000e+00 -6.801770329475402832e-01 1.000000000000000000e+01
4.448703289031982422e+00 -3.348687887191772017e+00 -6.836870312690734863e-01 1.400000000000000000e+01
5.952626705169677734e+00 -4.482368946075438565e+00 -6.519249677658081055e-01 7.000000000000000000e+00
2.027710914611815962e+00 -1.533545732498168945e+00 -6.812117099761962891e-01 1.700000000000000000e+01
2.351010322570800781e+00 -1.779345631599426047e+00 -6.807019114494323730e-01 1.100000000000000000e+01
2.778300762176514116e+00 -2.103500127792357954e+00 -6.773719191551208496e-01 1.200000000000000000e+01
3.419788599014281782e+00 -2.591060161590576172e+00 -6.795513033866882324e-01 1.000000000000000000e+01
4.459132671356201172e+00 -3.380987405776977983e+00 -6.870993375778198242e-01 1.200000000000000000e+01
5.935356616973876953e+00 -4.501915931701660156e+00 -6.517506241798400879e-01 6.000000000000000000e+00
2.031295776367187944e+00 -1.547993063926696999e+00 -6.843175292015075684e-01 1.600000000000000000e+01
2.344473123550415039e+00 -1.787950515747070090e+00 -6.807019114494323730e-01 1.100000000000000000e+01
2.772133350372314009e+00 -2.114859580993651900e+00 -6.777535676956176758e-01 1.100000000000000000e+01
3.410268783569335938e+00 -2.603576898574829102e+00 -6.795513033866882324e-01 1.000000000000000000e+01
4.434091567993164062e+00 -3.387666940689086914e+00 -6.851494312286376953e-01 1.200000000000000000e+01
5.925148010253906250e+00 -4.528479576110839844e+00 -6.524478793144226074e-01 7.000000000000000000e+00
2.027412414550780806e+00 -1.556250572204590066e+00 -6.848351955413818359e-01 1.500000000000000000e+01
2.345944643020629883e+00 -1.802059054374695046e+00 -6.829513907432556152e-01 1.200000000000000000e+01
2.769404172897338867e+00 -2.128112077713013139e+00 -6.788983941078186035e-01 1.100000000000000000e+01
3.404291629791260210e+00 -2.617873430252075195e+00 -6.801770329475402832e-01 1.000000000000000000e+01
4.426959037780761719e+00 -3.406756162643433061e+00 -6.858806610107421875e-01 1.200000000000000000e+01
5.890359878540039062e+00 -4.534550189971923828e+00 -6.503561735153198242e-01 7.000000000000000000e+00
2.022240638732910156e+00 -1.562965154647826926e+00 -6.848351955413818359e-01 1.400000000000000000e+01
2.344580411911011186e+00 -1.813405275344849077e+00 -6.843010783195495605e-01 1.100000000000000000e+01
2.753015518188477007e+00 -2.130075693130493164e+00 -6.766086816787719727e-01 1.200000000000000000e+01
3.404963254928588867e+00 -2.636404275894165039e+00 -6.820542812347412109e-01 1.000000000000000000e+01
4.425052165985107422e+00 -3.428712844848632812e+00 -6.873431205749511719e-01 1.200000000000000000e+01
5.895761489868164062e+00 -4.569926261901854581e+00 -6.526222229003906250e-01 6.000000000000000000e+00
2.004577398300170898e+00 -1.560520887374877930e+00 -6.806941032409667969e-01 1.400000000000000000e+01
2.342848062515258789e+00 -1.825171232223510964e+00 -6.856508255004882812e-01 1.300000000000000000e+01
2.751757621765137163e+00 -2.144499778747559038e+00 -6.781351566314697266e-01 1.100000000000000000e+01
3.395739793777465820e+00 -2.648273706436156782e+00 -6.820542812347412109e-01 1.000000000000000000e+01
4.416186809539794922e+00 -3.446580886840819868e+00 -6.878305673599243164e-01 1.200000000000000000e+01
5.895478248596191406e+00 -4.602739334106445312e+00 -6.543653011322021484e-01 6.000000000000000000e+00
1.997597575187683105e+00 -1.566316604614258035e+00 -6.801764369010925293e-01 1.400000000000000000e+01
2.325731039047241211e+00 -1.824917316436768022e+00 -6.825014948844909668e-01 1.100000000000000000e+01
2.747343778610229048e+00 -2.156516551971435991e+00 -6.788983941078186035e-01 1.100000000000000000e+01
3.386474847793579102e+00 -2.660110950469971147e+00 -6.820542812347412109e-01 1.000000000000000000e+01
4.416614055633544922e+00 -3.471789598464965820e+00 -6.897804737091064453e-01 1.200000000000000000e+01
5.711796283721923828e+00 -4.491512775421142578e+00 -6.357139945030212402e-01 1.200000000000000000e+01
2.005762577056885210e+00 -1.584055900573730025e+00 -6.848351955413818359e-01 1.500000000000000000e+01
2.316288709640502930e+00 -1.830607891082763894e+00 -6.816017031669616699e-01 1.200000000000000000e+01
2.750579833984375000e+00 -2.174616575241088867e+00 -6.815697550773620605e-01 1.000000000000000000e+01
3.377168655395507812e+00 -2.671915769577025923e+00 -6.820542812347412109e-01 1.000000000000000000e+01
4.404468536376953125e+00 -3.487185239791870117e+00 -6.897804737091064453e-01 1.200000000000000000e+01
5.758557319641113281e+00 -4.560904502868652344e+00 -6.426864266395568848e-01 1.200000000000000000e+01
2.012874603271483931e+00 -1.599965929985045943e+00 -6.889762878417968750e-01 1.400000000000000000e+01
2.310526371002196822e+00 -1.837875723838805930e+00 -6.816017031669616699e-01 1.100000000000000000e+01
2.736053228378295898e+00 -2.177134752273560014e+00 -6.796616315841674805e-01 1.200000000000000000e+01
3.368757963180541992e+00 -2.682512283325194868e+00 -6.820542812347412109e-01 1.000000000000000000e+01
4.384176731109619141e+00 -3.493582487106322798e+00 -6.883180737495422363e-01 1.200000000000000000e+01
5.839235782623291016e+00 -4.654730319976806641e+00 -6.533194184303283691e-01 6.000000000000000000e+00
1.990688443183898926e+00 -1.593701601028441939e+00 -6.832822561264038086e-01 1.300000000000000000e+01
2.313222169876099077e+00 -1.853240370750427024e+00 -6.843010783195495605e-01 1.200000000000000000e+01
2.720777273178101030e+00 -2.180533409118651900e+00 -6.777535676956176758e-01 1.100000000000000000e+01
3.368619680404663086e+00 -2.701670408248900923e+00 -6.839314699172973633e-01 1.100000000000000000e+01
4.381243705749511719e+00 -3.516319990158081055e+00 -6.897804737091064453e-01 1.200000000000000000e+01
5.812077045440673828e+00 -4.666353225708007812e+00 -6.520992517471313477e-01 7.000000000000000000e+00
1.983609437942505105e+00 -1.599428057670593040e+00 -6.827646493911743164e-01 1.500000000000000000e+01
2.312805414199829102e+00 -1.866198658943176047e+00 -6.861007213592529297e-01 1.100000000000000000e+01
2.722315073013306108e+00 -2.197416067123413086e+00 -6.800432801246643066e-01 1.000000000000000000e+01
3.356095314025878906e+00 -2.710930109024047852e+00 -6.833057403564453125e-01 1.000000000000000000e+01
4.384380817413330078e+00 -3.544070959091186968e+00 -6.922178864479064941e-01 1.200000000000000000e+01
5.811245441436767578e+00 -4.699140071868895596e+00 -6.538423895835876465e-01 8.000000000000000000e+00
1.979513883590698020e+00 -1.607560276985168013e+00 -6.832822561264038086e-01 1.300000000000000000e+01
2.306277036666870117e+00 -1.874260425567626953e+00 -6.861007213592529297e-01 1.300000000000000000e+01
2.710058212280272993e+00 -2.203190088272095171e+00 -6.788983941078186035e-01 1.100000000000000000e+01
3.343547344207764116e+00 -2.720135211944580078e+00 -6.826800107955932617e-01 1.000000000000000000e+01
4.384298324584960938e+00 -3.569380044937133789e+00 -6.941677927970886230e-01 1.200000000000000000e+01
5.776268482208251953e+00 -4.704298496246337891e+00 -6.517506241798400879e-01 6.000000000000000000e+00
1.976598858833312988e+00 -1.617251396179198997e+00 -6.843175292015075684e-01 1.600000000000000000e+01
2.290345191955565962e+00 -1.875293493270874023e+00 -6.834012866020202637e-01 1.400000000000000000e+01
2.720190525054932085e+00 -2.228036165237427202e+00 -6.834778189659118652e-01 1.100000000000000000e+01
3.333554983139038086e+00 -2.732371807098389116e+00 -6.826800107955932617e-01 1.000000000000000000e+01
4.354303359985351562e+00 -3.571577072143555132e+00 -6.914866566658020020e-01 1.400000000000000000e+01
5.840620994567871094e+00 -4.792420864105224609e+00 -6.609891653060913086e-01 7.000000000000000000e+00
1.978395938873291016e+00 -1.630283951759337935e+00 -6.869057416915893555e-01 1.400000000000000000e+01
2.277771234512329102e+00 -1.878317594528198020e+00 -6.816017031669616699e-01 1.100000000000000000e+01
2.707853317260742188e+00 -2.233769893646239790e+00 -6.823329925537109375e-01 1.100000000000000000e+01
3.340754032135010210e+00 -2.757824420928955078e+00 -6.861215829849243164e-01 1.100000000000000000e+01
4.340279579162597656e+00 -3.585490465164185014e+00 -6.912429332733154297e-01 1.200000000000000000e+01
5.839214801788330078e+00 -4.825470924377441406e+00 -6.627322435379028320e-01 7.000000000000000000e+00
1.974179744720458984e+00 -1.638413667678833008e+00 -6.874234080314636230e-01 1.300000000000000000e+01
2.287691354751586914e+00 -1.899952650070189986e+00 -6.865506172180175781e-01 1.200000000000000000e+01
2.689468860626221147e+00 -2.234426498413085938e+00 -6.796616315841674805e-01 1.100000000000000000e+01
3.328069210052489790e+00 -2.766943454742432085e+00 -6.854958534240722656e-01 1.100000000000000000e+01
4.336893081665039062e+00 -3.608236789703369141e+00 -6.927053332328796387e-01 1.200000000000000000e+01
5.785582065582275391e+00 -4.815235137939453125e+00 -6.585487723350524902e-01 7.000000000000000000e+00
1.962519526481627974e+00 -1.640339136123657005e+00 -6.853528022766113281e-01 1.400000000000000000e+01
2.281045436859130859e+00 -1.907926559448241965e+00 -6.865506172180175781e-01 1.200000000000000000e+01
2.689181327819824219e+00 -2.250100135803223100e+00 -6.815697550773620605e-01 1.000000000000000000e+01
3.322934150695800781e+00 -2.782348155975341797e+00 -6.864344477653503418e-01 1.000000000000000000e+01
4.327314853668212891e+00 -3.625903129577637163e+00 -6.931928396224975586e-01 1.200000000000000000e+01
5.663380146026611328e+00 -4.747089385986328125e+00 -6.465212702751159668e-01 6.000000000000000000e+00
1.951443076133728027e+00 -1.641522169113158958e+00 -6.832822561264038086e-01 1.400000000000000000e+01
2.276531219482421875e+00 -1.916338205337523970e+00 -6.870005130767822266e-01 1.300000000000000000e+01
2.685102701187133789e+00 -2.261066436767578125e+00 -6.823329925537109375e-01 1.000000000000000000e+01
3.312666177749633789e+00 -2.791500806808472124e+00 -6.861215829849243164e-01 1.100000000000000000e+01
4.334113121032714844e+00 -3.654836416244506836e+00 -6.961176991462707520e-01 1.200000000000000000e+01
5.718492507934570312e+00 -4.823953151702880859e+00 -6.545396447181701660e-01 8.000000000000000000e+00
1.958967447280884011e+00 -1.659562587738037109e+00 -6.879410147666931152e-01 1.400000000000000000e+01
2.256449937820435014e+00 -1.912931680679321067e+00 -6.829513907432556152e-01 1.200000000000000000e+01
2.683182954788208008e+00 -2.275504589080810991e+00 -6.838594675064086914e-01 9.000000000000000000e+00
3.301395654678345171e+00 -2.801769018173218218e+00 -6.858087182044982910e-01 1.000000000000000000e+01
2.841815757751464844e+01 -2.412594413757323863e+01 4.577168941497802734e+00 1.900000000000000000e+01
4.315276622772216797e+00 -3.664803028106689009e+00 -6.951427459716796875e-01 1.200000000000000000e+01
5.572554111480712891e+00 -4.734236240386962891e+00 -6.397231221199035645e-01 6.000000000000000000e+00
1.955810546875000000e+00 -1.669239640235901101e+00 -6.889762878417968750e-01 1.500000000000000000e+01
2.255350828170775923e+00 -1.926251530647278054e+00 -6.847510337829589844e-01 1.400000000000000000e+01
2.673332214355469194e+00 -2.284048318862915039e+00 -6.834778189659118652e-01 1.100000000000000000e+01
3.288101673126221147e+00 -2.811282873153686968e+00 -6.851829290390014648e-01 1.100000000000000000e+01
4.304831981658936435e+00 -3.683175802230834961e+00 -6.956301927566528320e-01 1.200000000000000000e+01
5.453749179840087891e+00 -4.667827606201171875e+00 -6.280443072319030762e-01 6.000000000000000000e+00
1.942646622657776101e+00 -1.669760227203368919e+00 -6.863881349563598633e-01 1.600000000000000000e+01
2.245658397674560991e+00 -1.931570887565613015e+00 -6.838511824607849121e-01 1.100000000000000000e+01
2.662366628646851030e+00 -2.290805101394652876e+00 -6.827145814895629883e-01 1.000000000000000000e+01
3.293237686157227007e+00 -2.835632562637329102e+00 -6.883116364479064941e-01 1.000000000000000000e+01
4.300971984863281250e+00 -3.705954790115356001e+00 -6.970926523208618164e-01 1.200000000000000000e+01
5.438931465148925781e+00 -4.688137531280517578e+00 -6.282185912132263184e-01 6.000000000000000000e+00
1.932424306869507058e+00 -1.672738194465636985e+00 -6.848351955413818359e-01 1.500000000000000000e+01
2.255104780197143999e+00 -1.953433036804198997e+00 -6.888001561164855957e-01 1.300000000000000000e+01
2.657321453094481978e+00 -2.302655935287476030e+00 -6.834778189659118652e-01 1.000000000000000000e+01
3.280334472656250000e+00 -2.844522714614868164e+00 -6.876859068870544434e-01 1.000000000000000000e+01
4.300004005432128906e+00 -3.731353521347045898e+00 -6.990425586700439453e-01 1.200000000000000000e+01
5.524845600128173828e+00 -4.795907497406005859e+00 -6.400717496871948242e-01 7.000000000000000000e+00
1.933854699134827104e+00 -1.685820579528809038e+00 -6.874234080314636230e-01 1.500000000000000000e+01
2.237992763519287109e+00 -1.952325582504272017e+00 -6.856508255004882812e-01 1.100000000000000000e+01
2.659621953964232954e+00 -2.320953607559204102e+00 -6.861491203308105469e-01 1.100000000000000000e+01
3.267409563064575195e+00 -2.853357076644897017e+00 -6.870601773262023926e-01 1.000000000000000000e+01
4.301900863647460938e+00 -3.759403228759766069e+00 -7.014799118041992188e-01 1.300000000000000000e+01
5.620572566986083984e+00 -4.913512229919433594e+00 -6.531451344490051270e-01 8.000000000000000000e+00
1.929705739021301047e+00 -1.693498492240905984e+00 -6.879410147666931152e-01 1.500000000000000000e+01
2.227113723754882812e+00 -1.955878496170043945e+00 -6.843010783195495605e-01 1.300000000000000000e+01
2.651910781860352007e+00 -2.329760551452637163e+00 -6.861491203308105469e-01 1.100000000000000000e+01
3.254962444305419922e+00 -2.861567974090576172e+00 -6.864344477653503418e-01 1.000000000000000000e+01
4.277487277984619141e+00 -3.763158559799193892e+00 -6.995300054550170898e-01 1.200000000000000000e+01
5.616212844848632812e+00 -4.942654132843017578e+00 -6.545396447181701660e-01 1.000000000000000000e+01
1.929572701454163042e+00 -1.705341339111327903e+00 -6.900115609169006348e-01 1.400000000000000000e+01
2.223192214965819868e+00 -1.966222763061522993e+00 -6.852009296417236328e-01 1.200000000000000000e+01
2.634939908981322798e+00 -2.331197977066040039e+00 -6.838594675064086914e-01 1.100000000000000000e+01
3.256785869598389116e+00 -2.883388042449951172e+00 -6.889373660087585449e-01 1.000000000000000000e+01
4.258381843566895419e+00 -3.772801160812377930e+00 -6.985550522804260254e-01 1.200000000000000000e+01
5.588488101959229404e+00 -4.952977657318115234e+00 -6.533194184303283691e-01 7.000000000000000000e+00
1.922463655471801980e+00 -1.710446596145630105e+00 -6.894939541816711426e-01 1.500000000000000000e+01
2.222481727600098100e+00 -1.978767752647399902e+00 -6.870005130767822266e-01 1.200000000000000000e+01
2.628660917282104048e+00 -2.341228723526000977e+00 -6.842410564422607422e-01 1.000000000000000000e+01
3.250155687332152876e+00 -2.896800756454468218e+00 -6.895630955696105957e-01 1.000000000000000000e+01
2.821868515014648082e+01 -2.515960502624512074e+01 4.642003059387207031e+00 1.900000000000000000e+01
4.263624668121337891e+00 -3.802757501602172852e+00 -7.014799118041992188e-01 1.300000000000000000e+01
5.561626434326171875e+00 -4.962197303771972656e+00 -6.520992517471313477e-01 1.100000000000000000e+01
1.907848596572875977e+00 -1.709411978721619096e+00 -6.863881349563598633e-01 1.500000000000000000e+01
2.221364498138428178e+00 -1.991717219352721946e+00 -6.888001561164855957e-01 1.300000000000000000e+01
2.620472669601439986e+00 -2.350390195846558061e+00 -6.842410564422607422e-01 1.100000000000000000e+01
3.240024089813231978e+00 -2.908128261566162109e+00 -6.895630955696105957e-01 1.000000000000000000e+01
4.248847961425781250e+00 -3.816290855407714844e+00 -7.012361884117126465e-01 1.300000000000000000e+01
5.499810218811035156e+00 -4.941632270812988281e+00 -6.468698978424072266e-01 1.000000000000000000e+01
1.909041404724121094e+00 -1.722531914710998979e+00 -6.889762878417968750e-01 1.600000000000000000e+01
2.208613157272338867e+00 -1.994235157966613992e+00 -6.870005130767822266e-01 1.200000000000000000e+01
2.622450590133666992e+00 -2.368734598159790039e+00 -6.869123578071594238e-01 1.100000000000000000e+01
3.218129634857178178e+00 -2.908823490142821822e+00 -6.870601773262023926e-01 1.000000000000000000e+01
4.247278213500976562e+00 -3.841751813888549805e+00 -7.031860947608947754e-01 1.100000000000000000e+01
5.494346141815186435e+00 -4.971494674682617188e+00 -6.482644081115722656e-01 1.900000000000000000e+01
3.751457214355468750e+01 -3.399228286743164062e+01 -8.836502432823181152e-01 1.300000000000000000e+01
1.905876636505126953e+00 -1.731783628463744895e+00 -6.900115609169006348e-01 1.600000000000000000e+01
2.201638460159302202e+00 -2.001932621002196822e+00 -6.870005130767822266e-01 1.200000000000000000e+01
2.621427774429320845e+00 -2.384479522705078125e+00 -6.888204813003540039e-01 1.100000000000000000e+01
3.222564458847045898e+00 -2.933336257934569868e+00 -6.901888847351074219e-01 1.000000000000000000e+01
4.236777305603027344e+00 -3.859227657318114790e+00 -7.036736011505126953e-01 1.300000000000000000e+01
5.471067905426025391e+00 -4.985275268554688388e+00 -6.475671529769897461e-01 1.800000000000000000e+01
3.744886779785156250e+01 -3.417155075073242188e+01 -8.849068284034729004e-01 1.300000000000000000e+01
1.906946063041687012e+00 -1.744946479797363059e+00 -6.925997734069824219e-01 1.800000000000000000e+01
2.193199872970581055e+00 -2.008289575576781782e+00 -6.865506172180175781e-01 1.300000000000000000e+01
2.601506948471068892e+00 -2.383006572723389116e+00 -6.857675313949584961e-01 1.000000000000000000e+01
3.213761806488037109e+00 -2.945902109146118164e+00 -6.905017495155334473e-01 9.000000000000000000e+00
4.220354557037354404e+00 -3.871309518814086914e+00 -7.031860947608947754e-01 1.100000000000000000e+01
5.458036899566650391e+00 -5.008383750915527344e+00 -6.480901241302490234e-01 1.500000000000000000e+01
1.895160794258117898e+00 -1.746355891227721946e+00 -6.905292272567749023e-01 1.600000000000000000e+01
2.197637319564818892e+00 -2.026501417160034180e+00 -6.901498436927795410e-01 1.300000000000000000e+01
2.598944902420043945e+00 -2.397397756576538086e+00 -6.872940063476562500e-01 1.000000000000000000e+01
3.206362009048461914e+00 -2.959781885147095171e+00 -6.911274790763854980e-01 9.000000000000000000e+00
4.200982570648193359e+00 -3.880629777908325195e+00 -7.022111415863037109e-01 1.100000000000000000e+01
5.471250534057617188e+00 -5.055800914764404297e+00 -6.517506241798400879e-01 1.000000000000000000e+01
1.886221170425415039e+00 -1.750332474708556907e+00 -6.894939541816711426e-01 1.500000000000000000e+01
2.193406105041503906e+00 -2.036812305450439009e+00 -6.910496354103088379e-01 1.300000000000000000e+01
2.591999053955078125e+00 -2.407791376113892046e+00 -6.876755952835083008e-01 9.000000000000000000e+00
3.194564104080200195e+00 -2.969611406326293945e+00 -6.908146142959594727e-01 1.000000000000000000e+01
4.201945781707763672e+00 -3.908790826797484907e+00 -7.046485543251037598e-01 1.100000000000000000e+01
5.513370037078857422e+00 -5.130517005920410156e+00 -6.588973999023437500e-01 7.000000000000000000e+00
1.878688335418700950e+00 -1.755586981773376021e+00 -6.889762878417968750e-01 1.500000000000000000e+01
2.186282873153686968e+00 -2.044456243515015093e+00 -6.910496354103088379e-01 1.300000000000000000e+01
2.585012197494506836e+00 -2.418165683746337891e+00 -6.880572438240051270e-01 9.000000000000000000e+00
3.184178829193114790e+00 -2.980744361877440962e+00 -6.908146142959594727e-01 1.000000000000000000e+01
4.199865818023681641e+00 -3.934291601181029829e+00 -7.065984606742858887e-01 1.100000000000000000e+01
5.447451591491699219e+00 -5.104773044586181641e+00 -6.531451344490051270e-01 1.200000000000000000e+01
1.878176331520081010e+00 -1.767429828643799050e+00 -6.910468339920043945e-01 1.500000000000000000e+01
2.167783498764038086e+00 -2.041387557983397993e+00 -6.874504089355468750e-01 1.400000000000000000e+01
2.829540061950683949e+01 -2.664559364318848012e+01 2.036915302276610884e+00 2.200000000000000000e+01
2.585129737854003906e+00 -2.435251235961914062e+00 -6.903469562530517578e-01 1.100000000000000000e+01
2.567816925048828125e+01 -2.419788169860839844e+01 3.086882114410399947e+00 4.100000000000000000e+01
3.176629304885863814e+00 -2.994550943374633789e+00 -6.914403438568115234e-01 1.000000000000000000e+01
2.618805503845214844e+01 -2.469564056396484020e+01 4.419713497161865234e+00 1.800000000000000000e+01
4.180330753326416016e+00 -3.943479299545288086e+00 -7.056235074996948242e-01 1.100000000000000000e+01
5.438293933868408203e+00 -5.131961822509765625e+00 -6.541910171508789062e-01 9.000000000000000000e+00
1.879006624221801980e+00 -1.780619144439697044e+00 -6.936350464820861816e-01 1.500000000000000000e+01
2.164886474609375000e+00 -2.052964925765991211e+00 -6.888001561164855957e-01 1.500000000000000000e+01
2.568067550659180132e+00 -2.436153411865233931e+00 -6.880572438240051270e-01 1.000000000000000000e+01
3.170454978942871094e+00 -3.009701251983643022e+00 -6.923789381980895996e-01 1.000000000000000000e+01
4.160783290863037109e+00 -3.952578544616699219e+00 -7.046485543251037598e-01 1.100000000000000000e+01
2.762666511535644887e+01 -2.624423027038573863e+01 6.035241603851318359e+00 1.300000000000000000e+01
5.429012298583984375e+00 -5.159148693084716797e+00 -6.552368998527526855e-01 8.000000000000000000e+00
1.873091459274291992e+00 -1.786840438842772993e+00 -6.936350464820861816e-01 1.700000000000000000e+01
2.169343471527100053e+00 -2.070897579193114790e+00 -6.923993229866027832e-01 1.800000000000000000e+01
2.561394691467285156e+00 -2.446011781692504883e+00 -6.884388327598571777e-01 1.100000000000000000e+01
3.157600879669189009e+00 -3.017468929290771040e+00 -6.917532086372375488e-01 1.000000000000000000e+01
2.700370597839355113e+01 -2.581431961059569957e+01 4.586918354034423828e+00 1.900000000000000000e+01
4.150522708892822266e+00 -3.969098329544066939e+00 -7.051360011100769043e-01 1.100000000000000000e+01
5.433469772338867188e+00 -5.197782516479492188e+00 -6.578515172004699707e-01 6.000000000000000000e+00
1.859876990318297896e+00 -1.786676168441772017e+00 -6.910468339920043945e-01 1.600000000000000000e+01
2.162101268768310991e+00 -2.078457355499268022e+00 -6.923993229866027832e-01 1.800000000000000000e+01
2.561331510543822798e+00 -2.463102817535399947e+00 -6.907285451889038086e-01 1.200000000000000000e+01
2.686062431335448863e+01 -2.583952713012694957e+01 3.260844945907593218e+00 4.700000000000000000e+01
3.157012224197388139e+00 -3.038060665130614790e+00 -6.939432621002197266e-01 1.000000000000000000e+01
4.156661033630371094e+00 -4.002839565277099609e+00 -7.085483670234680176e-01 1.100000000000000000e+01
2.703475189208984020e+01 -2.603430557250976918e+01 5.944509506225585938e+00 1.300000000000000000e+01
5.421032905578613281e+00 -5.222246170043945312e+00 -6.585487723350524902e-01 7.000000000000000000e+00
1.849151253700255904e+00 -1.789450645446776900e+00 -6.894939541816711426e-01 1.600000000000000000e+01
2.150269269943236861e+00 -2.082300901412963867e+00 -6.910496354103088379e-01 1.900000000000000000e+01
2.556516885757445845e+00 -2.476572036743164062e+00 -6.918734312057495117e-01 1.200000000000000000e+01
3.130254268646239790e+00 -3.034487009048461914e+00 -6.905017495155334473e-01 9.000000000000000000e+00
4.144811630249023438e+00 -4.020812034606933594e+00 -7.090358138084411621e-01 1.100000000000000000e+01
5.374689102172851562e+00 -5.215716838836669922e+00 -6.552368998527526855e-01 9.000000000000000000e+00
1.855345606803894043e+00 -1.808028936386107954e+00 -6.941526532173156738e-01 1.600000000000000000e+01
2.140197038650513139e+00 -2.087072849273682085e+00 -6.901498436927795410e-01 1.900000000000000000e+01
2.547856330871582031e+00 -2.485480785369873047e+00 -6.918734312057495117e-01 1.100000000000000000e+01
3.128123998641968218e+00 -3.053674459457397017e+00 -6.923789381980895996e-01 9.000000000000000000e+00
4.127911090850830078e+00 -4.032481193542479581e+00 -7.085483670234680176e-01 1.100000000000000000e+01
2.688274383544921875e+01 -2.627043533325194957e+01 5.953269958496093750e+00 1.300000000000000000e+01
5.279501914978027344e+00 -5.159250736236572266e+00 -6.458240747451782227e-01 1.100000000000000000e+01
2.789258003234862926e+01 -2.729536628723144887e+01 -6.812023520469665527e-01 9.000000000000000000e+00
1.850718855857848899e+00 -1.815524339675903098e+00 -6.946703195571899414e-01 1.700000000000000000e+01
2.131873846054077148e+00 -2.092793464660644975e+00 -6.896999478340148926e-01 2.100000000000000000e+01
2.535397768020629883e+00 -2.489789485931396040e+00 -6.907285451889038086e-01 1.100000000000000000e+01
3.127843141555786133e+00 -3.073722839355469194e+00 -6.945690512657165527e-01 1.000000000000000000e+01
4.110270023345947266e+00 -4.041972160339354581e+00 -7.078171372413635254e-01 1.100000000000000000e+01
5.290771007537841797e+00 -5.204674720764160156e+00 -6.493102908134460449e-01 7.000000000000000000e+00
2.761386871337890980e+01 -2.720246887207030895e+01 -6.765949130058288574e-01 8.000000000000000000e+00
1.838872909545897993e+00 -1.816542863845824973e+00 -6.925997734069824219e-01 1.700000000000000000e+01
2.130099058151245117e+00 -2.105702400207519975e+00 -6.914995312690734863e-01 1.900000000000000000e+01
2.738883972167969105e+01 -2.708459854125976918e+01 2.018702507019042969e+00 2.200000000000000000e+01
2.528087377548218218e+00 -2.500005006790161133e+00 -6.911101937294006348e-01 1.100000000000000000e+01
3.125519275665283203e+00 -3.092959165573120117e+00 -6.964462399482727051e-01 1.100000000000000000e+01
2.686790275573730113e+01 -2.659728813171387074e+01 4.642003059387207031e+00 1.900000000000000000e+01
4.100367546081542969e+00 -4.060485363006591797e+00 -7.085483670234680176e-01 1.100000000000000000e+01
2.794668960571289062e+01 -2.768453216552734020e+01 6.230472087860107422e+00 1.400000000000000000e+01
5.292387485504150391e+00 -5.242741584777832031e+00 -6.517506241798400879e-01 6.000000000000000000e+00
2.693978691101073863e+01 -2.671503639221191051e+01 8.759143829345703125e+00 1.100000000000000000e+01
1.832520723342895952e+00 -1.822950720787047896e+00 -6.925997734069824219e-01 1.500000000000000000e+01
2.132403373718262163e+00 -2.122748851776123047e+00 -6.946488618850708008e-01 2.000000000000000000e+01
2.520736455917357954e+00 -2.510199785232543945e+00 -6.914917826652526855e-01 1.200000000000000000e+01
3.111905336380004883e+00 -3.101061582565308061e+00 -6.958205103874206543e-01 1.100000000000000000e+01
2.694922447204589844e+01 -2.686469459533691051e+01 4.672226905822753906e+00 2.000000000000000000e+01
4.100224971771240234e+00 -4.088790893554688388e+00 -7.109857201576232910e-01 1.100000000000000000e+01
5.085040569305419922e+00 -5.072630882263183594e+00 -6.283929347991943359e-01 1.300000000000000000e+01
1.817957282066344993e+00 -1.821133017539978027e+00 -6.894939541816711426e-01 1.600000000000000000e+01
2.119475603103638139e+00 -2.124660730361938032e+00 -6.928492188453674316e-01 2.000000000000000000e+01
2.516117811203002930e+00 -2.523154020309447798e+00 -6.926366686820983887e-01 1.200000000000000000e+01
3.095484256744385210e+00 -3.106308460235596147e+00 -6.945690512657165527e-01 1.000000000000000000e+01
2.656108093261719105e+01 -2.666326522827148082e+01 4.621041774749755859e+00 1.900000000000000000e+01
4.085927486419677734e+00 -4.103078365325927734e+00 -7.109857201576232910e-01 1.100000000000000000e+01
5.098227024078369141e+00 -5.121414661407470703e+00 -6.322277784347534180e-01 1.100000000000000000e+01
1.827909946441649947e+00 -1.843931436538696067e+00 -6.957055926322937012e-01 1.700000000000000000e+01
2.102446079254149947e+00 -2.122354984283446822e+00 -6.896999478340148926e-01 1.800000000000000000e+01
2.512820720672606978e+00 -2.537501335144042969e+00 -6.941631436347961426e-01 1.100000000000000000e+01
3.090180158615111861e+00 -3.122711181640625000e+00 -6.958205103874206543e-01 1.100000000000000000e+01
2.641200447082519887e+01 -2.669936752319335938e+01 4.611292362213134766e+00 1.900000000000000000e+01
4.077163219451904297e+00 -4.122961997985839844e+00 -7.119607329368591309e-01 1.100000000000000000e+01
5.119538307189941406e+00 -5.178853511810302734e+00 -6.371085047721862793e-01 9.000000000000000000e+00
1.817396521568297896e+00 -1.846170663833617942e+00 -6.941526532173156738e-01 1.600000000000000000e+01
2.100491285324097124e+00 -2.135237932205200195e+00 -6.914995312690734863e-01 2.100000000000000000e+01
2.501194715499877930e+00 -2.543457746505736861e+00 -6.933999061584472656e-01 1.200000000000000000e+01
3.079261064529418945e+00 -3.133478879928588867e+00 -6.958205103874206543e-01 1.100000000000000000e+01
4.058574199676513672e+00 -4.132919788360595703e+00 -7.112295031547546387e-01 1.300000000000000000e+01
5.072118759155273438e+00 -5.166834354400634766e+00 -6.334479451179504395e-01 1.400000000000000000e+01
1.812938570976257102e+00 -1.853252053260803001e+00 -6.946703195571899414e-01 1.600000000000000000e+01
2.747157669067383168e+01 -2.809225654602051137e+01 6.858446598052978516e-01 3.300000000000000000e+01
2.099221944808959961e+00 -2.147400379180908203e+00 -6.932991743087768555e-01 2.100000000000000000e+01
2.490447759628295898e+00 -2.548494577407836914e+00 -6.926366686820983887e-01 1.100000000000000000e+01
3.073542118072510210e+00 -3.147377014160155806e+00 -6.967591047286987305e-01 1.100000000000000000e+01
4.055274963378906250e+00 -4.155594825744628906e+00 -7.129356861114501953e-01 1.100000000000000000e+01
5.037775516510009766e+00 -5.164203166961669922e+00 -6.311818957328796387e-01 1.300000000000000000e+01
1.798381805419922097e+00 -1.851255059242248979e+00 -6.915645003318786621e-01 1.600000000000000000e+01
2.095785379409790039e+00 -2.158909559249877930e+00 -6.946488618850708008e-01 2.300000000000000000e+01
2.748456192016601918e+01 -2.832227516174316051e+01 2.068316936492919922e+00 2.200000000000000000e+01
2.480169296264647993e+00 -2.555763483047484907e+00 -6.922550201416015625e-01 1.100000000000000000e+01
3.066662549972534180e+00 -3.162340641021728960e+00 -6.976976990699768066e-01 1.100000000000000000e+01
4.044888973236083984e+00 -4.174001693725585938e+00 -7.136668562889099121e-01 1.300000000000000000e+01
2.586341667175292969e+01 -2.668897438049316051e+01 5.886315822601318359e+00 1.300000000000000000e+01
5.094577312469482422e+00 -5.259032249450683594e+00 -6.405947208404541016e-01 9.000000000000000000e+00
1.795932531356811968e+00 -1.861692428588866965e+00 -6.931173801422119141e-01 1.600000000000000000e+01
2.092293977737427202e+00 -2.170421123504639116e+00 -6.959985494613647461e-01 2.100000000000000000e+01
2.479406833648682085e+00 -2.572887420654296875e+00 -6.945447325706481934e-01 1.200000000000000000e+01
3.055605173110961914e+00 -3.173026084899901900e+00 -6.976976990699768066e-01 1.100000000000000000e+01
2.683908271789551137e+01 -2.788019371032714844e+01 4.751685619354248047e+00 2.000000000000000000e+01
4.033047199249267578e+00 -4.190956115722656250e+00 -7.141543626785278320e-01 1.300000000000000000e+01
5.106576919555664062e+00 -5.308372497558593750e+00 -6.444295644760131836e-01 1.300000000000000000e+01
1.797441482543945090e+00 -1.876320242881774902e+00 -6.962232589721679688e-01 1.900000000000000000e+01
2.072576761245727983e+00 -2.165042161941527876e+00 -6.919494271278381348e-01 2.000000000000000000e+01
2.478554964065552202e+00 -2.590036869049071822e+00 -6.968344449996948242e-01 1.200000000000000000e+01
3.048606395721435991e+00 -3.187955856323242188e+00 -6.986362934112548828e-01 1.000000000000000000e+01
4.018393516540527344e+00 -4.205008506774902344e+00 -7.141543626785278320e-01 1.300000000000000000e+01
5.077005863189697266e+00 -5.314640045166015625e+00 -6.430350542068481445e-01 1.000000000000000000e+01
1.796206951141356978e+00 -1.888181805610656960e+00 -6.982938051223754883e-01 1.900000000000000000e+01
2.067692041397095171e+00 -2.175088405609130859e+00 -6.928492188453674316e-01 2.000000000000000000e+01
2.462736845016479048e+00 -2.591557264328002930e+00 -6.949263811111450195e-01 1.200000000000000000e+01
3.038820028305054155e+00 -3.200010299682617188e+00 -6.989492177963256836e-01 1.100000000000000000e+01
4.000957965850830078e+00 -4.216129779815673828e+00 -7.136668562889099121e-01 1.300000000000000000e+01
5.050196170806884766e+00 -5.323657035827636719e+00 -6.419891715049743652e-01 9.000000000000000000e+00
1.782971978187561035e+00 -1.887418508529663086e+00 -6.957055926322937012e-01 2.000000000000000000e+01
2.062762498855590820e+00 -2.185126781463623047e+00 -6.937490701675415039e-01 2.000000000000000000e+01
2.453675508499145952e+00 -2.600137948989868164e+00 -6.949263811111450195e-01 1.200000000000000000e+01
3.043894529342650923e+00 -3.227844238281250000e+00 -7.027035951614379883e-01 1.100000000000000000e+01
2.657833671569823863e+01 -2.819438552856444957e+01 4.757535457611083984e+00 2.000000000000000000e+01
3.983493566513061968e+00 -4.227180957794188565e+00 -7.131794095039367676e-01 1.500000000000000000e+01
5.035680770874023438e+00 -5.345603942871093750e+00 -6.425121426582336426e-01 9.000000000000000000e+00
1.772407650947571023e+00 -1.889403939247130904e+00 -6.941526532173156738e-01 1.900000000000000000e+01
2.063118934631348100e+00 -2.200844287872314009e+00 -6.964484453201293945e-01 2.000000000000000000e+01
2.445926904678345171e+00 -2.610119581222534180e+00 -6.953079700469970703e-01 1.200000000000000000e+01
3.027207851409912109e+00 -3.232682228088378906e+00 -7.014521360397338867e-01 1.100000000000000000e+01
2.645262527465819957e+01 -2.825800514221191051e+01 4.752660751342773438e+00 2.000000000000000000e+01
3.990415573120117188e+00 -4.264251232147216797e+00 -7.170792222023010254e-01 1.300000000000000000e+01
5.040129184722900391e+00 -5.387884140014648438e+00 -6.454754471778869629e-01 9.000000000000000000e+00
1.769751906394958052e+00 -1.899819970130919966e+00 -6.957055926322937012e-01 1.700000000000000000e+01
2.054096221923828125e+00 -2.206606149673461914e+00 -6.959985494613647461e-01 1.900000000000000000e+01
2.443488121032714844e+00 -2.625827789306641069e+00 -6.972160935401916504e-01 1.200000000000000000e+01
3.014559984207152876e+00 -3.241782903671265093e+00 -7.011392712593078613e-01 1.000000000000000000e+01
3.974154949188231978e+00 -4.276700019836425781e+00 -7.168354988098144531e-01 1.500000000000000000e+01
5.002307415008544922e+00 -5.385008335113525391e+00 -6.430350542068481445e-01 7.000000000000000000e+00
1.762444138526916948e+00 -1.906601309776305930e+00 -6.957055926322937012e-01 1.700000000000000000e+01
2.048253059387207031e+00 -2.217339992523192915e+00 -6.968983411788940430e-01 1.800000000000000000e+01
