2.540556192398070845e+00 -1.361092805862426980e+00 -6.654052138328552246e-01 1.300000000000000000e+01
3.012599945068358931e+00 -1.614664912223815918e+00 -6.643969416618347168e-01 1.000000000000000000e+01
3.679931402206420898e+00 -1.973988890647887962e+00 -6.614049077033996582e-01 1.000000000000000000e+01
4.827177524566650391e+00 -2.591564893722534180e+00 -6.727187633514404297e-01 8.000000000000000000e+00
6.661143302917479581e+00 -3.577663183212279829e+00 -6.615120768547058105e-01 3.000000000000000000e+00
9.223496437072753906e+00 -4.958037853240966797e+00 -5.487948656082153320e-01 1.300000000000000000e+01
2.198089122772216797e+00 -1.186519980430603027e+00 -6.693060398101806641e-01 1.800000000000000000e+01
2.552935123443603960e+00 -1.379215359687804954e+00 -6.699042320251464844e-01 1.300000000000000000e+01
3.000036716461182085e+00 -1.621437191963196023e+00 -6.628704667091369629e-01 1.000000000000000000e+01
3.679968357086182085e+00 -1.990581631660460982e+00 -6.626563668251037598e-01 1.000000000000000000e+01
4.818101882934570312e+00 -2.608399152755736861e+00 -6.727187633514404297e-01 8.000000000000000000e+00
6.643358230590820312e+00 -3.598046541213988814e+00 -6.609891653060913086e-01 3.000000000000000000e+00
9.399281501770019531e+00 -5.094900131225585938e+00 -5.603087544441223145e-01 5.000000000000000000e+00
2.187146902084351030e+00 -1.190491199493407981e+00 -6.672354936599731445e-01 1.600000000000000000e+01
2.549816370010375977e+00 -1.389050602912903054e+00 -6.703541278839111328e-01 1.100000000000000000e+01
2.996082544326781782e+00 -1.632838845252990945e+00 -6.632520556449890137e-01 1.000000000000000000e+01
3.662592411041260210e+00 -1.997739553451538086e+00 -6.607791781425476074e-01 1.000000000000000000e+01
4.730560302734375000e+00 -2.582399368286132812e+00 -6.617505550384521484e-01 6.000000000000000000e+00
6.623764038085938388e+00 -3.617394447326660156e+00 -6.602919101715087891e-01 3.000000000000000000e+00
9.134328842163085938e+00 -4.992613792419433594e+00 -5.455499887466430664e-01 1.000000000000000000e+01
2.193139314651488814e+00 -1.203695416450500044e+00 -6.703413128852844238e-01 1.700000000000000000e+01
2.536412000656127930e+00 -1.393251538276671919e+00 -6.681046485900878906e-01 1.200000000000000000e+01
3.005849599838256836e+00 -1.651796698570251021e+00 -6.666866540908813477e-01 1.000000000000000000e+01
3.646942377090454102e+00 -2.005752563476562944e+00 -6.592148542404174805e-01 8.000000000000000000e+00
4.801513195037841797e+00 -2.642929077148437944e+00 -6.729624867439270020e-01 1.000000000000000000e+01
6.639020919799804688e+00 -3.655870676040648970e+00 -6.630808711051940918e-01 3.000000000000000000e+00
9.122093200683593750e+00 -5.027359962463378906e+00 -5.458640456199645996e-01 5.000000000000000000e+00
2.192304849624633789e+00 -1.213214397430419922e+00 -6.713765859603881836e-01 1.500000000000000000e+01
2.524714231491088867e+00 -1.398320198059082031e+00 -6.663050055503845215e-01 1.300000000000000000e+01
2.989761829376221147e+00 -1.656570076942444070e+00 -6.643969416618347168e-01 1.000000000000000000e+01
3.652011632919311968e+00 -2.025176286697388139e+00 -6.614049077033996582e-01 1.000000000000000000e+01
4.740187644958496094e+00 -2.630774497985839844e+00 -6.656503677368164062e-01 9.000000000000000000e+00
6.622735023498535156e+00 -3.677088499069213867e+00 -6.627322435379028320e-01 3.000000000000000000e+00
9.020689010620117188e+00 -5.012605667114257812e+00 -5.408397912979125977e-01 5.000000000000000000e+00
2.184682607650756836e+00 -1.218976974487304910e+00 -6.703413128852844238e-01 1.600000000000000000e+01
2.523220777511597124e+00 -1.409024715423583984e+00 -6.672048568725585938e-01 1.200000000000000000e+01
2.995958805084228960e+00 -1.673698663711548074e+00 -6.670682430267333984e-01 1.100000000000000000e+01
3.658713579177856001e+00 -2.045624017715454102e+00 -6.639078855514526367e-01 1.000000000000000000e+01
4.628768444061279297e+00 -2.590112924575806108e+00 -6.512697935104370117e-01 1.100000000000000000e+01
6.634198665618895596e+00 -3.713809013366699219e+00 -6.651726365089416504e-01 3.000000000000000000e+00
9.400410652160644531e+00 -5.266638755798339844e+00 -5.647049546241760254e-01 5.000000000000000000e+00
2.182097911834716797e+00 -1.227542638778686968e+00 -6.708589792251586914e-01 1.600000000000000000e+01
2.528475522994995117e+00 -1.423560142517090066e+00 -6.699042320251464844e-01 1.300000000000000000e+01
2.983255863189696822e+00 -1.680292367935181108e+00 -6.655417680740356445e-01 1.100000000000000000e+01
3.641225814819335938e+00 -2.052562713623046875e+00 -6.620306372642517090e-01 1.000000000000000000e+01
4.797779083251953125e+00 -2.706720113754272017e+00 -6.763748526573181152e-01 1.000000000000000000e+01
6.621194839477539062e+00 -3.736943960189818892e+00 -6.651726365089416504e-01 3.000000000000000000e+00
9.489788055419921875e+00 -5.360321521759033203e+00 -5.711946487426757812e-01 9.000000000000000000e+00
2.176119327545166016e+00 -1.234199047088623047e+00 -6.703413128852844238e-01 1.600000000000000000e+01
2.531964778900146040e+00 -1.437187433242798074e+00 -6.721537709236145020e-01 1.400000000000000000e+01
2.982494115829468218e+00 -1.693603992462157981e+00 -6.666866540908813477e-01 1.000000000000000000e+01
3.644343376159667969e+00 -2.071116685867310014e+00 -6.639078855514526367e-01 1.000000000000000000e+01
4.726182937622070312e+00 -2.688119888305664062e+00 -6.676002740859985352e-01 6.000000000000000000e+00
6.609841823577880859e+00 -3.761018753051757812e+00 -6.653469204902648926e-01 3.000000000000000000e+00
9.356472015380859375e+00 -5.328183650970458984e+00 -5.642862915992736816e-01 5.000000000000000000e+00
2.176829099655150923e+00 -1.244664430618285911e+00 -6.718942523002624512e-01 1.600000000000000000e+01
2.516784429550170898e+00 -1.440209507942199929e+00 -6.694543361663818359e-01 1.400000000000000000e+01
2.986786842346190962e+00 -1.709856867790221946e+00 -6.689763665199279785e-01 1.000000000000000000e+01
3.628521680831909180e+00 -2.078915119171143022e+00 -6.623435020446777344e-01 1.100000000000000000e+01
4.721937179565429688e+00 -2.707563161849976030e+00 -6.683315038681030273e-01 8.000000000000000000e+00
6.619140148162841797e+00 -3.796956300735474077e+00 -6.676129698753356934e-01 2.000000000000000000e+00
9.493705749511718750e+00 -5.450307369232177734e+00 -5.737067461013793945e-01 6.000000000000000000e+00
2.164102554321289062e+00 -1.247431516647339089e+00 -6.693060398101806641e-01 1.600000000000000000e+01
2.510053634643555132e+00 -1.448012232780456987e+00 -6.690044403076171875e-01 1.300000000000000000e+01
2.977399349212646040e+00 -1.718309521675110085e+00 -6.682131290435791016e-01 1.000000000000000000e+01
3.622953414916992188e+00 -2.092556238174438032e+00 -6.626563668251037598e-01 1.000000000000000000e+01
4.703864097595214844e+00 -2.719062089920043945e+00 -6.671127676963806152e-01 6.000000000000000000e+00
6.612744808197020596e+00 -3.824028015136719194e+00 -6.683102250099182129e-01 3.000000000000000000e+00
9.408935546875000000e+00 -5.445396423339843750e+00 -5.697292089462280273e-01 5.000000000000000000e+00
2.173097610473632812e+00 -1.262742877006530984e+00 -6.734471321105957031e-01 1.600000000000000000e+01
2.508352994918822798e+00 -1.458724379539489968e+00 -6.699042320251464844e-01 1.300000000000000000e+01
2.964595317840576172e+00 -1.724743127822875977e+00 -6.666866540908813477e-01 1.100000000000000000e+01
3.632697820663452148e+00 -2.115129470825194868e+00 -6.657850742340087891e-01 1.000000000000000000e+01
4.651465415954589844e+00 -2.710479021072388139e+00 -6.610193252563476562e-01 8.000000000000000000e+00
6.606241226196289062e+00 -3.851101160049438032e+00 -6.690074801445007324e-01 2.000000000000000000e+00
9.389869689941406250e+00 -5.478206634521484375e+00 -5.697292089462280273e-01 5.000000000000000000e+00
2.158895730972290039e+00 -1.264085412025452104e+00 -6.703413128852844238e-01 1.600000000000000000e+01
2.505183458328247070e+00 -1.468019604682921919e+00 -6.703541278839111328e-01 1.200000000000000000e+01
2.955472230911254883e+00 -1.732578873634337935e+00 -6.659234166145324707e-01 1.000000000000000000e+01
3.630775213241577148e+00 -2.130163192749022993e+00 -6.667236685752868652e-01 1.100000000000000000e+01
4.538030624389648438e+00 -2.664576530456542969e+00 -6.461512446403503418e-01 1.700000000000000000e+01
6.589998245239257812e+00 -3.870968818664550781e+00 -6.686588525772094727e-01 2.000000000000000000e+00
9.409530639648437500e+00 -5.531582355499267578e+00 -5.720319747924804688e-01 3.000000000000000000e+00
2.151142597198485884e+00 -1.269649744033813032e+00 -6.693060398101806641e-01 1.600000000000000000e+01
2.515144586563109907e+00 -1.485675454139709029e+00 -6.744032502174377441e-01 1.100000000000000000e+01
2.959547758102416992e+00 -1.748877525329590066e+00 -6.682131290435791016e-01 1.000000000000000000e+01
3.625017642974853960e+00 -2.143829584121704102e+00 -6.670365333557128906e-01 1.000000000000000000e+01
4.569701194763183594e+00 -2.704667329788208008e+00 -6.520009636878967285e-01 1.300000000000000000e+01
6.610733985900878906e+00 -3.914250612258911133e+00 -6.721450686454772949e-01 3.000000000000000000e+00
2.146697759628295898e+00 -1.277150869369507058e+00 -6.693060398101806641e-01 1.600000000000000000e+01
2.504920244216918945e+00 -1.491454958915710005e+00 -6.730535626411437988e-01 1.200000000000000000e+01
2.963545083999633789e+00 -1.765225768089293990e+00 -6.705027818679809570e-01 1.000000000000000000e+01
3.607331752777100053e+00 -2.150401353836060014e+00 -6.651593446731567383e-01 1.000000000000000000e+01
4.538070678710938388e+00 -2.707380294799805132e+00 -6.488323807716369629e-01 1.600000000000000000e+01
6.600452423095703125e+00 -3.939344882965087891e+00 -6.724936962127685547e-01 2.000000000000000000e+00
2.150510549545288086e+00 -1.289604187011718972e+00 -6.718942523002624512e-01 1.600000000000000000e+01
2.489673137664794922e+00 -1.494172930717468040e+00 -6.703541278839111328e-01 1.200000000000000000e+01
2.953999042510985884e+00 -1.773538589477539062e+00 -6.697395443916320801e-01 1.000000000000000000e+01
3.596416950225830078e+00 -2.160945177078247070e+00 -6.645336151123046875e-01 1.000000000000000000e+01
4.537098407745361328e+00 -2.728319644927978960e+00 -6.500510573387145996e-01 1.300000000000000000e+01
6.583246707916259766e+00 -3.960306644439696822e+00 -6.721450686454772949e-01 2.000000000000000000e+00
2.150955677032471147e+00 -1.300100922584533913e+00 -6.734471321105957031e-01 1.600000000000000000e+01
2.497781753540039062e+00 -1.510923385620116965e+00 -6.739533543586730957e-01 1.300000000000000000e+01
2.952829122543334961e+00 -1.786888360977173074e+00 -6.708844304084777832e-01 1.100000000000000000e+01
3.590541601181029829e+00 -2.174509286880493164e+00 -6.648464798927307129e-01 1.000000000000000000e+01
4.627706527709960938e+00 -2.804847002029418945e+00 -6.644316315650939941e-01 8.000000000000000000e+00
6.586419105529785156e+00 -3.993592262268065962e+00 -6.738882064819335938e-01 1.000000000000000000e+00
2.138155460357666016e+00 -1.302575826644897017e+00 -6.708589792251586914e-01 1.500000000000000000e+01
2.484173059463500977e+00 -1.514560818672179954e+00 -6.717038750648498535e-01 1.100000000000000000e+01
2.941545486450194868e+00 -1.794117927551269975e+00 -6.697395443916320801e-01 1.200000000000000000e+01
3.608220577239989790e+00 -2.202467203140258789e+00 -6.695395112037658691e-01 1.000000000000000000e+01
4.612805366516113281e+00 -2.817879199981689009e+00 -6.637004613876342773e-01 9.000000000000000000e+00
6.572438716888427734e+00 -4.016559123992919922e+00 -6.738882064819335938e-01 1.000000000000000000e+00
2.128428459167480025e+00 -1.307370543479918990e+00 -6.693060398101806641e-01 1.600000000000000000e+01
2.488565921783446822e+00 -1.529778838157654031e+00 -6.744032502174377441e-01 1.400000000000000000e+01
2.938294649124145952e+00 -1.806944012641906960e+00 -6.705027818679809570e-01 1.200000000000000000e+01
3.596759319305419922e+00 -2.213606357574462891e+00 -6.689137816429138184e-01 1.000000000000000000e+01
4.585544586181640625e+00 -2.824356555938721147e+00 -6.612630486488342285e-01 9.000000000000000000e+00
6.567850589752197266e+00 -4.046892166137695312e+00 -6.749340891838073730e-01 2.000000000000000000e+00
2.128779649734497070e+00 -1.317842721939086914e+00 -6.708589792251586914e-01 1.600000000000000000e+01
2.473271369934082031e+00 -1.532298326492310014e+00 -6.717038750648498535e-01 1.400000000000000000e+01
2.936975479125977007e+00 -1.820292353630065918e+00 -6.716476678848266602e-01 1.100000000000000000e+01
3.580616950988769975e+00 -2.220941781997681108e+00 -6.673493981361389160e-01 9.000000000000000000e+00
4.629627704620361328e+00 -2.873847961425780806e+00 -6.690626740455627441e-01 1.100000000000000000e+01
6.557069778442382812e+00 -4.071895599365234375e+00 -6.752827167510986328e-01 2.000000000000000000e+00
2.132593870162963867e+00 -1.330006241798401101e+00 -6.734471321105957031e-01 1.500000000000000000e+01
2.468176603317261186e+00 -1.540491580963134988e+00 -6.717038750648498535e-01 1.100000000000000000e+01
2.937584161758422852e+00 -1.834180831909179910e+00 -6.731741428375244141e-01 1.100000000000000000e+01
3.571557283401488814e+00 -2.231756687164307085e+00 -6.670365333557128906e-01 1.000000000000000000e+01
4.577995300292968750e+00 -2.862871408462523970e+00 -6.629692316055297852e-01 1.100000000000000000e+01
6.573934555053710938e+00 -4.112637996673583984e+00 -6.784203052520751953e-01 2.000000000000000000e+00
2.136116266250609907e+00 -1.342582345008850098e+00 -6.760353446006774902e-01 1.400000000000000000e+01
2.477630138397216797e+00 -1.558435916900634988e+00 -6.757529377937316895e-01 1.300000000000000000e+01
2.914547204971313032e+00 -1.833967804908751997e+00 -6.693579554557800293e-01 1.200000000000000000e+01
3.577117443084716797e+00 -2.252631187438964844e+00 -6.695395112037658691e-01 1.000000000000000000e+01
4.522630214691162109e+00 -2.850257396697998047e+00 -6.563882827758789062e-01 1.400000000000000000e+01
6.562909126281738281e+00 -4.137685298919677734e+00 -6.787689328193664551e-01 1.000000000000000000e+00
2.124888658523560014e+00 -1.345895767211914062e+00 -6.739647984504699707e-01 1.500000000000000000e+01
2.467237472534180132e+00 -1.563944935798645020e+00 -6.744032502174377441e-01 1.100000000000000000e+01
2.904811859130858931e+00 -1.842027544975280984e+00 -6.685947179794311523e-01 1.100000000000000000e+01
3.567564725875854048e+00 -2.264045476913452148e+00 -6.692266464233398438e-01 9.000000000000000000e+00
4.531085968017578125e+00 -2.877733707427978960e+00 -6.590694189071655273e-01 1.700000000000000000e+01
6.555152893066406250e+00 -4.164842605590820312e+00 -6.794661879539489746e-01 2.000000000000000000e+00
2.112035751342772993e+00 -1.348107695579529031e+00 -6.713765859603881836e-01 1.500000000000000000e+01
2.466690063476562944e+00 -1.575694918632507102e+00 -6.757529377937316895e-01 1.200000000000000000e+01
2.904981374740601030e+00 -1.856384754180907981e+00 -6.701211929321289062e-01 1.100000000000000000e+01
3.561304092407227007e+00 -2.277549028396606001e+00 -6.695395112037658691e-01 1.000000000000000000e+01
4.534389019012451172e+00 -2.902093410491942915e+00 -6.610193252563476562e-01 1.600000000000000000e+01
6.533863067626953125e+00 -4.183401584625244141e+00 -6.787689328193664551e-01 2.000000000000000000e+00
2.112191438674927202e+00 -1.358607172966002974e+00 -6.729295253753662109e-01 1.500000000000000000e+01
2.461174726486206055e+00 -1.584295630455017090e+00 -6.757529377937316895e-01 1.200000000000000000e+01
2.910037994384766069e+00 -1.873954176902770996e+00 -6.727924942970275879e-01 1.200000000000000000e+01
3.546690702438354048e+00 -2.285686016082764116e+00 -6.682880520820617676e-01 1.000000000000000000e+01
4.529235839843750000e+00 -2.921131372451781782e+00 -6.617505550384521484e-01 2.700000000000000000e+01
6.529265403747558594e+00 -4.212664604187011719e+00 -6.798148155212402344e-01 2.000000000000000000e+00
2.110678195953369141e+00 -1.368073344230652078e+00 -6.739647984504699707e-01 1.600000000000000000e+01
2.457264423370360884e+00 -1.593937635421752930e+00 -6.762028932571411133e-01 1.100000000000000000e+01
2.908419847488402876e+00 -1.887306809425354004e+00 -6.739373803138732910e-01 1.100000000000000000e+01
3.548630475997924805e+00 -2.304507732391356978e+00 -6.701652407646179199e-01 1.000000000000000000e+01
4.535655975341796875e+00 -2.947741031646728960e+00 -6.641879081726074219e-01 3.500000000000000000e+01
6.517861366271972656e+00 -4.237602233886718750e+00 -6.801634430885314941e-01 3.000000000000000000e+00
2.109365224838256836e+00 -1.377177238464355025e+00 -6.750000715255737305e-01 1.600000000000000000e+01
2.445439815521239790e+00 -1.597813725471497026e+00 -6.744032502174377441e-01 1.100000000000000000e+01
2.893928527832030806e+00 -1.891570329666137917e+00 -6.720292568206787109e-01 1.100000000000000000e+01
3.557500123977661133e+00 -2.327076196670531782e+00 -6.732939481735229492e-01 1.000000000000000000e+01
4.502604007720947266e+00 -2.947544097900391069e+00 -6.607756018638610840e-01 1.400000000000000000e+01
6.523774623870849609e+00 -4.272291660308837891e+00 -6.822551488876342773e-01 2.000000000000000000e+00
2.107773065567017046e+00 -1.386655449867248979e+00 -6.760353446006774902e-01 1.500000000000000000e+01
2.446357965469359907e+00 -1.610626578330994096e+00 -6.762028932571411133e-01 1.100000000000000000e+01
2.882389307022095171e+00 -1.898420929908751997e+00 -6.708844304084777832e-01 1.100000000000000000e+01
3.551004886627196822e+00 -2.340567111968994141e+00 -6.736068129539489746e-01 9.000000000000000000e+00
4.513829708099365234e+00 -2.977452754974364790e+00 -6.639441847801208496e-01 1.600000000000000000e+01
6.498844146728515625e+00 -4.288453578948974609e+00 -6.812092661857604980e-01 4.000000000000000000e+00
2.096478939056396040e+00 -1.389734983444214089e+00 -6.739647984504699707e-01 1.600000000000000000e+01
2.443968772888184038e+00 -1.621310710906981978e+00 -6.771026849746704102e-01 1.200000000000000000e+01
2.882288217544556108e+00 -1.912813186645508035e+00 -6.724109053611755371e-01 1.100000000000000000e+01
3.547749757766724077e+00 -2.356226921081542969e+00 -6.745454072952270508e-01 1.000000000000000000e+01
4.514981269836425781e+00 -3.000882625579833984e+00 -6.656503677368164062e-01 1.700000000000000000e+01
6.482175827026367188e+00 -4.310009479522705078e+00 -6.810349822044372559e-01 3.000000000000000000e+00
2.094828128814696822e+00 -1.399190545082092063e+00 -6.750000715255737305e-01 2.100000000000000000e+01
2.438294410705565962e+00 -1.629831910133362038e+00 -6.771026849746704102e-01 1.100000000000000000e+01
2.883753776550292969e+00 -1.928318977355957031e+00 -6.743189692497253418e-01 1.000000000000000000e+01
3.529653072357178178e+00 -2.362004756927489790e+00 -6.726682186126708984e-01 1.000000000000000000e+01
4.519323348999023438e+00 -3.026565790176392046e+00 -6.678439974784851074e-01 3.000000000000000000e+01
6.437296867370604581e+00 -4.312649726867675781e+00 -6.778973937034606934e-01 3.000000000000000000e+00
2.097698211669921875e+00 -1.412253499031066895e+00 -6.775882840156555176e-01 2.600000000000000000e+01
2.422607660293579102e+00 -1.632224559783935991e+00 -6.744032502174377441e-01 1.100000000000000000e+01
2.878294706344604048e+00 -1.939972877502440962e+00 -6.747006177902221680e-01 1.100000000000000000e+01
3.524247407913208008e+00 -2.377135038375854048e+00 -6.732939481735229492e-01 1.000000000000000000e+01
4.518072128295898438e+00 -3.049773216247559038e+00 -6.693064570426940918e-01 2.600000000000000000e+01
6.431354045867919922e+00 -4.342904567718505859e+00 -6.789432168006896973e-01 4.000000000000000000e+00
2.095953226089477983e+00 -1.421736121177672896e+00 -6.786235570907592773e-01 2.300000000000000000e+01
2.429794073104857954e+00 -1.649427175521851030e+00 -6.780024766921997070e-01 1.000000000000000000e+01
2.863384723663330078e+00 -1.944493412971497026e+00 -6.727924942970275879e-01 1.100000000000000000e+01
3.517562150955200195e+00 -2.390532732009888139e+00 -6.736068129539489746e-01 9.000000000000000000e+00
4.504116058349609375e+00 -3.063292980194091797e+00 -6.688189506530761719e-01 2.400000000000000000e+01
6.386504650115966797e+00 -4.345154285430908203e+00 -6.758056282997131348e-01 5.000000000000000000e+00
1.357546520233153942e+01 -9.243205070495605469e+00 -8.607171177864074707e-01 5.000000000000000000e+00
2.083003044128417969e+00 -1.423593521118164062e+00 -6.760353446006774902e-01 2.400000000000000000e+01
2.424021720886230025e+00 -1.657898664474487083e+00 -6.780024766921997070e-01 1.100000000000000000e+01
2.861440420150756836e+00 -1.957802414894104004e+00 -6.739373803138732910e-01 1.100000000000000000e+01
3.514085769653319868e+00 -2.406144857406616211e+00 -6.745454072952270508e-01 1.000000000000000000e+01
4.503221035003662109e+00 -3.085729122161864790e+00 -6.702814102172851562e-01 2.600000000000000000e+01
6.366367816925048828e+00 -4.364041328430175781e+00 -6.752827167510986328e-01 5.000000000000000000e+00
2.071656465530395952e+00 -1.426473498344420943e+00 -6.739647984504699707e-01 2.400000000000000000e+01
2.427847623825072798e+00 -1.672984361648560014e+00 -6.807019114494323730e-01 1.100000000000000000e+01
2.856205463409423828e+00 -1.968893051147460938e+00 -6.743189692497253418e-01 1.100000000000000000e+01
3.505665540695189986e+00 -2.418396711349486861e+00 -6.745454072952270508e-01 1.000000000000000000e+01
4.523460865020751953e+00 -3.122857570648192915e+00 -6.749124526977539062e-01 2.900000000000000000e+01
6.285519123077392578e+00 -4.340948581695556641e+00 -6.683102250099182129e-01 6.000000000000000000e+00
2.071928024291992188e+00 -1.436276555061340110e+00 -6.755176782608032227e-01 2.300000000000000000e+01
2.412972688674927202e+00 -1.673938751220702903e+00 -6.780024766921997070e-01 1.100000000000000000e+01
2.854844570159912109e+00 -1.981214404106139915e+00 -6.754638552665710449e-01 1.100000000000000000e+01
3.498050451278686968e+00 -2.429398059844971147e+00 -6.745454072952270508e-01 1.000000000000000000e+01
4.526668071746826172e+00 -3.146116256713867188e+00 -6.768623590469360352e-01 2.200000000000000000e+01
6.260399818420410156e+00 -4.352711677551270419e+00 -6.670900583267211914e-01 6.000000000000000000e+00
2.077988624572753906e+00 -1.451243042945862038e+00 -6.791411638259887695e-01 2.400000000000000000e+01
2.403920412063599077e+00 -1.680118680000304954e+00 -6.771026849746704102e-01 1.200000000000000000e+01
2.846302509307860884e+00 -1.990042567253113015e+00 -6.750822067260742188e-01 1.000000000000000000e+01
3.489549160003662109e+00 -2.441593647003173828e+00 -6.745454072952270508e-01 1.000000000000000000e+01
4.522162914276123047e+00 -3.166452646255493164e+00 -6.778373122215270996e-01 1.900000000000000000e+01
6.259854793548583984e+00 -4.384825706481933594e+00 -6.686588525772094727e-01 7.000000000000000000e+00
2.075815200805664062e+00 -1.461073398590087891e+00 -6.801764369010925293e-01 2.500000000000000000e+01
2.397746324539185014e+00 -1.688918232917786089e+00 -6.771026849746704102e-01 1.200000000000000000e+01
2.840594530105590820e+00 -2.001592397689818892e+00 -6.754638552665710449e-01 1.100000000000000000e+01
3.490262985229492188e+00 -2.461197376251221147e+00 -6.764226555824279785e-01 1.000000000000000000e+01
4.502417564392089844e+00 -3.177283048629761186e+00 -6.766185760498046875e-01 1.700000000000000000e+01
6.240486145019531250e+00 -4.405441761016845703e+00 -6.683102250099182129e-01 7.000000000000000000e+00
2.069126605987548828e+00 -1.467193007469177024e+00 -6.796588301658630371e-01 2.600000000000000000e+01
2.398193359375000000e+00 -1.701788663864135964e+00 -6.789022684097290039e-01 1.100000000000000000e+01
2.825585842132567915e+00 -2.005813360214232954e+00 -6.735557317733764648e-01 1.200000000000000000e+01
3.481650590896606001e+00 -2.473365783691405806e+00 -6.764226555824279785e-01 1.000000000000000000e+01
4.486445426940917969e+00 -3.189529418945312944e+00 -6.758874058723449707e-01 1.700000000000000000e+01
6.164995193481445312e+00 -4.384473800659179688e+00 -6.618607044219970703e-01 8.000000000000000000e+00
2.052988767623900923e+00 -1.466546177864074929e+00 -6.760353446006774902e-01 2.400000000000000000e+01
2.404920816421508789e+00 -1.719215989112854004e+00 -6.825014948844909668e-01 1.100000000000000000e+01
2.823357820510863814e+00 -2.019090414047241211e+00 -6.747006177902221680e-01 1.100000000000000000e+01
3.476208448410034180e+00 -2.487803220748900923e+00 -6.770483851432800293e-01 1.000000000000000000e+01
4.449462413787841797e+00 -3.186677217483520952e+00 -6.719875335693359375e-01 1.400000000000000000e+01
6.133457183837890625e+00 -4.394362926483154297e+00 -6.601175665855407715e-01 1.100000000000000000e+01
2.057265281677246094e+00 -1.480473995208740012e+00 -6.791411638259887695e-01 2.400000000000000000e+01
2.390998363494873047e+00 -1.721906065940856934e+00 -6.802520155906677246e-01 1.300000000000000000e+01
2.819478511810303178e+00 -2.031228542327880859e+00 -6.754638552665710449e-01 1.100000000000000000e+01
3.461093664169311968e+00 -2.495301246643065962e+00 -6.757968664169311523e-01 1.000000000000000000e+01
4.486607074737548828e+00 -3.237033605575561968e+00 -6.792997121810913086e-01 1.400000000000000000e+01
6.118080615997313565e+00 -4.415746212005615234e+00 -6.601175665855407715e-01 1.200000000000000000e+01
2.053648948669434038e+00 -1.488780021667480025e+00 -6.796588301658630371e-01 2.300000000000000000e+01
2.377086400985718218e+00 -1.724520087242126021e+00 -6.780024766921997070e-01 1.100000000000000000e+01
2.821904420852661133e+00 -2.047976970672606978e+00 -6.777535676956176758e-01 1.100000000000000000e+01
3.458755731582642046e+00 -2.512010812759398970e+00 -6.770483851432800293e-01 1.000000000000000000e+01
4.486520767211914062e+00 -3.260844707489014116e+00 -6.810058951377868652e-01 1.500000000000000000e+01
6.086514472961425781e+00 -4.425358772277832031e+00 -6.583744883537292480e-01 1.000000000000000000e+01
2.064040899276732954e+00 -1.507332801818848100e+00 -6.848351955413818359e-01 2.200000000000000000e+01
2.380492210388184038e+00 -1.739706158638000044e+00 -6.807019114494323730e-01 1.100000000000000000e+01
2.805229187011719194e+00 -2.050862789154053178e+00 -6.754638552665710449e-01 1.100000000000000000e+01
3.456343173980712891e+00 -2.528734445571898970e+00 -6.782998442649841309e-01 1.000000000000000000e+01
4.476712703704833984e+00 -3.277658224105834961e+00 -6.812496185302734375e-01 1.400000000000000000e+01
6.029238700866699219e+00 -4.415968418121337891e+00 -6.538423895835876465e-01 1.200000000000000000e+01
2.054098367691040039e+00 -1.511094212532043013e+00 -6.832822561264038086e-01 2.000000000000000000e+01
2.364989042282104048e+00 -1.741073131561279075e+00 -6.780024766921997070e-01 1.100000000000000000e+01
2.805957317352294922e+00 -2.066463232040404829e+00 -6.773719191551208496e-01 1.100000000000000000e+01
3.447494983673096147e+00 -2.540783882141112837e+00 -6.782998442649841309e-01 1.000000000000000000e+01
4.462049007415770596e+00 -3.290908336639403853e+00 -6.807621717453002930e-01 1.400000000000000000e+01
5.997754573822020596e+00 -4.425158500671386719e+00 -6.520992517471313477e-01 1.100000000000000000e+01
2.036394119262694868e+00 -1.509053587913512962e+00 -6.791411638259887695e-01 2.000000000000000000e+01
2.382376670837401900e+00 -1.766729712486267090e+00 -6.847510337829589844e-01 1.100000000000000000e+01
2.792419910430908203e+00 -2.071566343307495117e+00 -6.758454442024230957e-01 1.100000000000000000e+01
3.444949388504027876e+00 -2.557512521743773970e+00 -6.795513033866882324e-01 1.000000000000000000e+01
4.472842693328857422e+00 -3.323037624359130859e+00 -6.841744780540466309e-01 1.500000000000000000e+01
6.062227249145507812e+00 -4.505491256713867188e+00 -6.608148217201232910e-01 1.000000000000000000e+01
2.034740209579468218e+00 -1.517753720283508079e+00 -6.801764369010925293e-01 2.000000000000000000e+01
2.361198186874390093e+00 -1.762548446655272993e+00 -6.802520155906677246e-01 1.100000000000000000e+01
2.800055742263793945e+00 -2.090900897979735884e+00 -6.792800426483154297e-01 1.100000000000000000e+01
3.430568218231201172e+00 -2.563592433929442915e+00 -6.782998442649841309e-01 1.000000000000000000e+01
4.465560436248779297e+00 -3.339450597763061968e+00 -6.846619844436645508e-01 1.500000000000000000e+01
6.051233291625976562e+00 -4.526900768280029297e+00 -6.611634492874145508e-01 6.000000000000000000e+00
2.035607814788817915e+00 -1.529488921165466087e+00 -6.822469830513000488e-01 1.600000000000000000e+01
2.356588840484619141e+00 -1.771950960159301980e+00 -6.807019114494323730e-01 1.200000000000000000e+01
2.795877933502196822e+00 -2.103022336959838867e+00 -6.800432801246643066e-01 1.100000000000000000e+01
3.424755096435546875e+00 -2.577927827835083008e+00 -6.789255738258361816e-01 1.000000000000000000e+01
4.453876495361328125e+00 -3.355018138885498047e+00 -6.846619844436645508e-01 1.400000000000000000e+01
5.943105697631835938e+00 -4.478451251983642578e+00 -6.510533690452575684e-01 7.000000000000000000e+00
2.034608840942382812e+00 -1.540437817573546919e+00 -6.837999224662780762e-01 1.900000000000000000e+01
2.354738235473632812e+00 -1.784106969833374023e+00 -6.820515990257263184e-01 1.100000000000000000e+01
2.775634288787841797e+00 -2.103768587112427202e+00 -6.769903302192687988e-01 1.100000000000000000e+01
3.421579122543334961e+00 -2.595237970352172852e+00 -6.801770329475402832e-01 1.000000000000000000e+01
4.443130970001220703e+00 -3.372519969940185991e+00 -6.849057078361511230e-01 1.200000000000000000e+01
5.942519187927246094e+00 -4.512252330780029297e+00 -6.527965068817138672e-01 7.000000000000000000e+00
2.027683019638061968e+00 -1.546359062194823997e+00 -6.832822561264038086e-01 1.500000000000000000e+01
2.345397949218750000e+00 -1.789951086044311968e+00 -6.811518073081970215e-01 1.100000000000000000e+01
2.768273830413817915e+00 -2.113444566726685014e+00 -6.769903302192687988e-01 1.100000000000000000e+01
3.418777942657471147e+00 -2.611962556838988814e+00 -6.814285516738891602e-01 1.000000000000000000e+01
4.429754734039306641e+00 -3.386803150177001953e+00 -6.846619844436645508e-01 1.000000000000000000e+01
5.915654182434082031e+00 -4.524495601654052734e+00 -6.515763401985168457e-01 7.000000000000000000e+00
2.013080835342406782e+00 -1.546366572380065918e+00 -6.801764369010925293e-01 1.400000000000000000e+01
2.345315456390380859e+00 -1.802877783775330034e+00 -6.829513907432556152e-01 1.100000000000000000e+01
2.763992309570312944e+00 -2.125488281250000000e+00 -6.777535676956176758e-01 1.100000000000000000e+01
3.419032573699951172e+00 -2.631108760833739790e+00 -6.833057403564453125e-01 1.000000000000000000e+01
4.438351631164550781e+00 -3.417990684509276900e+00 -6.878305673599243164e-01 1.200000000000000000e+01
5.879306316375732422e+00 -4.529310226440429688e+00 -6.493102908134460449e-01 7.000000000000000000e+00
2.012254476547241211e+00 -1.556930661201477051e+00 -6.817293763160705566e-01 1.400000000000000000e+01
2.342089653015137163e+00 -1.813439607620239036e+00 -6.838511824607849121e-01 1.100000000000000000e+01
2.767421007156372070e+00 -2.143538951873778853e+00 -6.804248690605163574e-01 1.200000000000000000e+01
3.394214630126953125e+00 -2.630925655364989790e+00 -6.801770329475402832e-01 1.000000000000000000e+01
4.429530620574951172e+00 -3.435896158218383789e+00 -6.883180737495422363e-01 1.200000000000000000e+01
5.907534599304199219e+00 -4.584005355834960938e+00 -6.541910171508789062e-01 6.000000000000000000e+00
2.015950202941894975e+00 -1.571070313453674094e+00 -6.848351955413818359e-01 1.400000000000000000e+01
2.329598665237427202e+00 -1.816810250282288042e+00 -6.820515990257263184e-01 1.100000000000000000e+01
2.758373737335205078e+00 -2.151978254318236861e+00 -6.800432801246643066e-01 1.200000000000000000e+01
3.385010480880736861e+00 -2.642757654190063032e+00 -6.801770329475402832e-01 1.000000000000000000e+01
4.428460121154785156e+00 -3.459892034530640093e+00 -6.900241971015930176e-01 1.200000000000000000e+01
5.900916576385498047e+00 -4.611959934234619141e+00 -6.552368998527526855e-01 6.000000000000000000e+00
2.010453701019287109e+00 -1.578097701072693093e+00 -6.848351955413818359e-01 1.500000000000000000e+01
2.323242664337158203e+00 -1.824931025505065918e+00 -6.820515990257263184e-01 1.200000000000000000e+01
2.747757911682128906e+00 -2.159167766571044922e+00 -6.792800426483154297e-01 1.100000000000000000e+01
3.388187170028686968e+00 -2.664325714111328125e+00 -6.826800107955932617e-01 1.000000000000000000e+01
4.405435562133789062e+00 -3.466736078262329102e+00 -6.883180737495422363e-01 1.200000000000000000e+01
5.726664543151854581e+00 -4.508059024810791016e+00 -6.376314163208007812e-01 1.500000000000000000e+01
1.997906804084778054e+00 -1.578418016433716042e+00 -6.822469830513000488e-01 1.400000000000000000e+01
2.323612689971923828e+00 -1.837055087089539018e+00 -6.838511824607849121e-01 1.200000000000000000e+01
2.745580673217772993e+00 -2.171442985534667969e+00 -6.804248690605163574e-01 1.000000000000000000e+01
3.382898092269897017e+00 -2.677408695220946822e+00 -6.833057403564453125e-01 1.000000000000000000e+01
4.403859615325927734e+00 -3.487953901290893999e+00 -6.897804737091064453e-01 1.200000000000000000e+01
5.782747268676757812e+00 -4.581706047058104581e+00 -6.454754471778869629e-01 1.100000000000000000e+01
1.983314871788024902e+00 -1.578165173530579057e+00 -6.791411638259887695e-01 1.400000000000000000e+01
2.326332807540893999e+00 -1.852438330650330034e+00 -6.865506172180175781e-01 1.300000000000000000e+01
2.736448526382445845e+00 -2.179790496826171875e+00 -6.800432801246643066e-01 1.100000000000000000e+01
3.370442152023314986e+00 -2.686738252639770952e+00 -6.826800107955932617e-01 1.000000000000000000e+01
4.388554096221923828e+00 -3.500829219818114790e+00 -6.892930269241333008e-01 1.400000000000000000e+01
5.814995765686035156e+00 -4.640388488769531250e+00 -6.508790850639343262e-01 6.000000000000000000e+00
1.982316374778748003e+00 -1.588703036308289018e+00 -6.806941032409667969e-01 1.300000000000000000e+01
2.310731172561645952e+00 -1.853232026100158913e+00 -6.838511824607849121e-01 1.100000000000000000e+01
2.736479759216309038e+00 -2.195472002029418945e+00 -6.819513440132141113e-01 1.100000000000000000e+01
3.357962608337401900e+00 -2.696013689041138139e+00 -6.820542812347412109e-01 1.100000000000000000e+01
4.382496833801270419e+00 -3.521100044250487837e+00 -6.902679800987243652e-01 1.200000000000000000e+01
5.806527137756347656e+00 -4.666899204254150391e+00 -6.517506241798400879e-01 8.000000000000000000e+00
1.988784670829772949e+00 -1.605320096015929954e+00 -6.848351955413818359e-01 1.500000000000000000e+01
2.295152425765991211e+00 -1.853939533233643022e+00 -6.811518073081970215e-01 1.100000000000000000e+01
2.731853485107421875e+00 -2.207478523254394975e+00 -6.827145814895629883e-01 1.100000000000000000e+01
3.345459222793579102e+00 -2.705234527587891069e+00 -6.814285516738891602e-01 1.100000000000000000e+01
4.367093086242675781e+00 -3.533879041671752930e+00 -6.897804737091064453e-01 1.200000000000000000e+01
5.819624423980712891e+00 -4.710957527160645419e+00 -6.550625562667846680e-01 8.000000000000000000e+00
1.984386205673217995e+00 -1.613817453384398970e+00 -6.853528022766113281e-01 1.400000000000000000e+01
2.288341999053955078e+00 -1.862339258193969949e+00 -6.811518073081970215e-01 1.100000000000000000e+01
2.713086843490601030e+00 -2.208799839019774947e+00 -6.800432801246643066e-01 1.200000000000000000e+01
3.347773313522338867e+00 -2.727459669113159180e+00 -6.839314699172973633e-01 1.000000000000000000e+01
4.357188701629638672e+00 -3.552370071411132812e+00 -6.902679800987243652e-01 1.200000000000000000e+01
5.803863048553466797e+00 -4.733515262603759766e+00 -6.552368998527526855e-01 6.000000000000000000e+00
1.980235338211060014e+00 -1.621958494186400923e+00 -6.858704686164855957e-01 1.400000000000000000e+01
2.287855863571166992e+00 -1.875257015228271040e+00 -6.829513907432556152e-01 1.400000000000000000e+01
2.708396434783935991e+00 -2.220746517181396040e+00 -6.808065176010131836e-01 1.100000000000000000e+01
3.344340562820435014e+00 -2.744141101837158203e+00 -6.851829290390014648e-01 1.000000000000000000e+01
4.347830295562744141e+00 -3.570077419281005859e+00 -6.907554268836975098e-01 1.200000000000000000e+01
5.830412864685058594e+00 -4.789155006408691406e+00 -6.601175665855407715e-01 7.000000000000000000e+00
1.968884110450745073e+00 -1.623600006103516069e+00 -6.837999224662780762e-01 1.300000000000000000e+01
2.290642976760863814e+00 -1.890275597572327104e+00 -6.856508255004882812e-01 1.300000000000000000e+01
2.697989225387572798e+00 -2.227216005325316939e+00 -6.800432801246643066e-01 1.100000000000000000e+01
3.332176446914672852e+00 -2.752700090408325195e+00 -6.845571994781494141e-01 1.100000000000000000e+01
4.345147609710693359e+00 -3.592064619064331055e+00 -6.922178864479064941e-01 1.200000000000000000e+01
5.826782226562500000e+00 -4.818621158599854404e+00 -6.615120768547058105e-01 7.000000000000000000e+00
1.963204741477966087e+00 -1.630462884902954102e+00 -6.837999224662780762e-01 1.400000000000000000e+01
2.293022871017456055e+00 -1.905733346939086914e+00 -6.883502006530761719e-01 1.300000000000000000e+01
2.702275514602661133e+00 -2.246661186218262163e+00 -6.830962300300598145e-01 1.000000000000000000e+01
3.317991971969604048e+00 -2.760524511337279829e+00 -6.836186051368713379e-01 1.100000000000000000e+01
4.344786643981933594e+00 -3.617371320724486861e+00 -6.941677927970886230e-01 1.200000000000000000e+01
5.767060279846191406e+00 -4.803228378295898438e+00 -6.566313505172729492e-01 7.000000000000000000e+00
1.965197324752808061e+00 -1.643159985542296919e+00 -6.863881349563598633e-01 1.400000000000000000e+01
2.267261266708374023e+00 -1.897069811820984109e+00 -6.825014948844909668e-01 1.300000000000000000e+01
2.700832366943358931e+00 -2.260650396347045898e+00 -6.846227049827575684e-01 1.100000000000000000e+01
3.317905426025391069e+00 -2.779122829437255859e+00 -6.854958534240722656e-01 1.100000000000000000e+01
4.326682090759277344e+00 -3.626658439636230025e+00 -6.931928396224975586e-01 1.200000000000000000e+01
5.683925628662109375e+00 -4.765999794006347656e+00 -6.489616632461547852e-01 6.000000000000000000e+00
1.966838240623473899e+00 -1.656231522560120073e+00 -6.889762878417968750e-01 1.500000000000000000e+01
2.265095949172974077e+00 -1.908739686012268066e+00 -6.838511824607849121e-01 1.200000000000000000e+01
2.685419559478760210e+00 -2.263737440109252930e+00 -6.827145814895629883e-01 1.000000000000000000e+01
3.300634860992432085e+00 -2.784318923950194868e+00 -6.839314699172973633e-01 1.000000000000000000e+01
2.851995849609375000e+01 -2.406712341308594105e+01 4.582043647766113281e+00 1.900000000000000000e+01
4.310962200164794922e+00 -3.639178276062012163e+00 -6.927053332328796387e-01 1.200000000000000000e+01
5.728143692016601562e+00 -4.837230205535888672e+00 -6.559340953826904297e-01 9.000000000000000000e+00
1.956624865531920943e+00 -1.659338474273682085e+00 -6.874234080314636230e-01 1.400000000000000000e+01
2.262876987457274947e+00 -1.920417547225951926e+00 -6.852009296417236328e-01 1.200000000000000000e+01
2.680494546890258789e+00 -2.275638580322266069e+00 -6.834778189659118652e-01 1.000000000000000000e+01
3.307455301284790039e+00 -2.809891939163208008e+00 -6.873730421066284180e-01 1.100000000000000000e+01
2.839039611816405895e+01 -2.412796401977539062e+01 4.574731349945068359e+00 1.900000000000000000e+01
4.310332298278808594e+00 -3.664490461349486861e+00 -6.946552395820617676e-01 1.200000000000000000e+01
5.512400627136229581e+00 -4.688103675842285156e+00 -6.330993175506591797e-01 6.000000000000000000e+00
1.946413755416869895e+00 -1.662394404411315918e+00 -6.858704686164855957e-01 1.500000000000000000e+01
2.259122371673583984e+00 -1.930837035179137962e+00 -6.861007213592529297e-01 1.300000000000000000e+01
2.674026966094971147e+00 -2.286257266998291016e+00 -6.838594675064086914e-01 1.100000000000000000e+01
3.299127817153931108e+00 -2.822704315185546875e+00 -6.876859068870544434e-01 1.000000000000000000e+01
4.309577941894531250e+00 -3.689842462539672852e+00 -6.966051459312438965e-01 1.200000000000000000e+01
5.517187595367431641e+00 -4.725461959838867188e+00 -6.355396509170532227e-01 6.000000000000000000e+00
1.940599083900452104e+00 -1.669178485870361106e+00 -6.858704686164855957e-01 1.600000000000000000e+01
2.253845691680908203e+00 -1.939982414245605025e+00 -6.865506172180175781e-01 1.200000000000000000e+01
2.663054704666138139e+00 -2.293015480041503906e+00 -6.830962300300598145e-01 1.000000000000000000e+01
3.277282953262329102e+00 -2.823887586593627930e+00 -6.851829290390014648e-01 1.000000000000000000e+01
4.305691719055175781e+00 -3.712641000747681108e+00 -6.980676054954528809e-01 1.200000000000000000e+01
5.488589763641357422e+00 -4.734281063079833984e+00 -6.341452002525329590e-01 6.000000000000000000e+00
1.943521857261657937e+00 -1.683531522750854048e+00 -6.889762878417968750e-01 1.500000000000000000e+01
2.239697694778441939e+00 -1.941455721855164018e+00 -6.843010783195495605e-01 1.300000000000000000e+01
2.665417194366455078e+00 -2.311300516128540039e+00 -6.857675313949584961e-01 1.000000000000000000e+01
3.270389556884766069e+00 -2.837899684906005859e+00 -6.858087182044982910e-01 1.000000000000000000e+01
4.301699161529541016e+00 -3.735457420349121094e+00 -6.995300054550170898e-01 1.200000000000000000e+01
5.556262016296386719e+00 -4.826580524444580078e+00 -6.439066529273986816e-01 7.000000000000000000e+00
1.937928438186645952e+00 -1.689967155456542969e+00 -6.889762878417968750e-01 1.500000000000000000e+01
2.236183643341064009e+00 -1.951434850692749023e+00 -6.852009296417236328e-01 1.300000000000000000e+01
2.654779911041260210e+00 -2.317544460296630859e+00 -6.850042939186096191e-01 1.000000000000000000e+01
3.269886732101439986e+00 -2.856526613235474077e+00 -6.876859068870544434e-01 1.000000000000000000e+01
4.280321121215820312e+00 -3.741862773895264116e+00 -6.980676054954528809e-01 1.200000000000000000e+01
5.640711784362792969e+00 -4.932855129241943359e+00 -6.555854678153991699e-01 9.000000000000000000e+00
1.932017564773560014e+00 -1.696721553802490012e+00 -6.889762878417968750e-01 1.600000000000000000e+01
2.236677408218383789e+00 -1.965660810470581055e+00 -6.874504089355468750e-01 1.400000000000000000e+01
2.643725156784058061e+00 -2.324204683303833008e+00 -6.842410564422607422e-01 1.000000000000000000e+01
3.268794536590576172e+00 -2.875751972198485884e+00 -6.895630955696105957e-01 1.000000000000000000e+01
4.267233371734619141e+00 -3.756781101226807085e+00 -6.980676054954528809e-01 1.200000000000000000e+01
5.614487171173095703e+00 -4.944614410400390625e+00 -6.545396447181701660e-01 8.000000000000000000e+00
1.917400479316710982e+00 -1.695776224136352983e+00 -6.858704686164855957e-01 1.400000000000000000e+01
2.237098693847655806e+00 -1.979913949966431108e+00 -6.896999478340148926e-01 1.500000000000000000e+01
2.637065887451171875e+00 -2.334720373153686968e+00 -6.846227049827575684e-01 1.100000000000000000e+01
3.261693477630614790e+00 -2.889764547348022017e+00 -6.901888847351074219e-01 1.000000000000000000e+01
4.267462253570556641e+00 -3.783505916595458984e+00 -7.002612352371215820e-01 1.200000000000000000e+01
5.558437824249267578e+00 -4.929809570312500000e+00 -6.500075459480285645e-01 7.000000000000000000e+00
1.914354681968688965e+00 -1.705028533935547097e+00 -6.869057416915893555e-01 1.600000000000000000e+01
2.231628656387329102e+00 -1.989007472991942915e+00 -6.901498436927795410e-01 1.300000000000000000e+01
2.637692451477050781e+00 -2.351750373840332031e+00 -6.869123578071594238e-01 1.100000000000000000e+01
3.239794731140137163e+00 -2.890611410140991211e+00 -6.876859068870544434e-01 1.000000000000000000e+01
2.831509971618651988e+01 -2.527219390869140980e+01 4.660039901733398438e+00 2.000000000000000000e+01
4.266075611114501953e+00 -3.808955669403076172e+00 -7.022111415863037109e-01 1.100000000000000000e+01
5.544167518615722656e+00 -4.951836585998535156e+00 -6.503561735153198242e-01 1.200000000000000000e+01
1.913005113601685014e+00 -1.715236425399780051e+00 -6.884586811065673828e-01 1.400000000000000000e+01
2.213416814804077148e+00 -1.985985398292541948e+00 -6.865506172180175781e-01 1.300000000000000000e+01
2.637184381484984907e+00 -2.367041349411011186e+00 -6.888204813003540039e-01 1.200000000000000000e+01
3.233130455017089844e+00 -2.903979063034058061e+00 -6.883116364479064941e-01 1.000000000000000000e+01
4.253420829772949219e+00 -3.823081731796265093e+00 -7.022111415863037109e-01 1.100000000000000000e+01
5.515863418579101562e+00 -4.959537506103515625e+00 -6.489616632461547852e-01 8.000000000000000000e+00
1.908440113067626953e+00 -1.723198294639586958e+00 -6.889762878417968750e-01 1.500000000000000000e+01
2.207916975021361861e+00 -1.995006084442138894e+00 -6.870005130767822266e-01 1.300000000000000000e+01
2.624536514282227007e+00 -2.372282981872559038e+00 -6.876755952835083008e-01 1.100000000000000000e+01
3.231763839721680132e+00 -2.923197746276855025e+00 -6.901888847351074219e-01 1.000000000000000000e+01
4.237106800079345703e+00 -3.835241317749022993e+00 -7.017236948013305664e-01 1.100000000000000000e+01
5.489656448364257812e+00 -4.970737457275390625e+00 -6.479157805442810059e-01 1.900000000000000000e+01
3.748196792602539062e+01 -3.398657226562500000e+01 -8.831616044044494629e-01 1.300000000000000000e+01
1.902413368225098100e+00 -1.729849457740783913e+00 -6.889762878417968750e-01 1.500000000000000000e+01
2.208146333694458008e+00 -2.009258508682250977e+00 -6.892500519752502441e-01 1.400000000000000000e+01
2.606076717376708984e+00 -2.372179031372069868e+00 -6.850042939186096191e-01 1.000000000000000000e+01
3.230302333831787109e+00 -2.942442417144774947e+00 -6.920660734176635742e-01 1.000000000000000000e+01
4.223693370819091797e+00 -3.850008249282836914e+00 -7.017236948013305664e-01 1.100000000000000000e+01
5.475216388702392578e+00 -4.992554664611816406e+00 -6.482644081115722656e-01 1.800000000000000000e+01
1.893513917922974077e+00 -1.733870267868041992e+00 -6.879410147666931152e-01 1.700000000000000000e+01
2.199682474136352983e+00 -2.015637636184691939e+00 -6.888001561164855957e-01 1.500000000000000000e+01
2.606463909149169922e+00 -2.389220952987670898e+00 -6.872940063476562500e-01 1.000000000000000000e+01
3.214188814163208008e+00 -2.948359012603760210e+00 -6.908146142959594727e-01 1.000000000000000000e+01
4.230701923370361328e+00 -3.883521556854248047e+00 -7.051360011100769043e-01 1.100000000000000000e+01
5.446015834808349609e+00 -5.000855445861816406e+00 -6.468698978424072266e-01 1.300000000000000000e+01
1.889986157417296919e+00 -1.743418455123900923e+00 -6.889762878417968750e-01 1.700000000000000000e+01
2.192280054092406782e+00 -2.023686408996582031e+00 -6.888001561164855957e-01 1.200000000000000000e+01
2.599131822586060014e+00 -2.400089979171752930e+00 -6.876755952835083008e-01 1.000000000000000000e+01
3.193205356597899947e+00 -2.950735330581665039e+00 -6.886245012283325195e-01 9.000000000000000000e+00
4.210609912872313565e+00 -3.893610954284667969e+00 -7.041610479354858398e-01 1.100000000000000000e+01
5.459826946258544922e+00 -5.050547599792479581e+00 -6.507048010826110840e-01 9.000000000000000000e+00
1.886719822883605957e+00 -1.752634644508362038e+00 -6.900115609169006348e-01 1.600000000000000000e+01
2.183775424957274947e+00 -2.029999732971190962e+00 -6.883502006530761719e-01 1.300000000000000000e+01
2.589300394058227983e+00 -2.407811164855957031e+00 -6.872940063476562500e-01 1.000000000000000000e+01
3.185778141021728960e+00 -2.964555025100708008e+00 -6.892502307891845703e-01 1.000000000000000000e+01
4.205709457397460938e+00 -3.916401863098144975e+00 -7.056235074996948242e-01 1.100000000000000000e+01
5.497562408447265625e+00 -5.121180534362792969e+00 -6.573286056518554688e-01 7.000000000000000000e+00
1.887644410133362038e+00 -1.765808582305907981e+00 -6.925997734069824219e-01 1.600000000000000000e+01
2.175253391265869141e+00 -2.036278486251831055e+00 -6.879003047943115234e-01 1.200000000000000000e+01
2.589477777481079102e+00 -2.424886465072631836e+00 -6.895837187767028809e-01 1.000000000000000000e+01
3.185500383377075195e+00 -2.985112667083739790e+00 -6.914403438568115234e-01 1.000000000000000000e+01
