2.143953084945679155e+00 2.771950721740723100e+00 -5.550295114517211914e-01 1.000000000000000000e+01
2.656064033508300781e+00 3.431591272354125977e+00 -5.328127741813659668e-01 7.000000000000000000e+00
3.445864915847777876e+00 4.450396537780761719e+00 -4.924299418926239014e-01 9.000000000000000000e+00
5.002105236053466797e+00 6.455651760101318359e+00 -4.280034601688385010e-01 1.000000000000000000e+00
8.295630455017089844e+00 1.069851779937743963e+01 -2.363055795431137085e-01 2.000000000000000000e+00
1.374469161033629927e+00 1.767491817474365012e+00 -5.999425649642944336e-01 2.200000000000000000e+01
1.575006961822509988e+00 2.023914098739624023e+00 -5.920711755752563477e-01 1.300000000000000000e+01
1.808997154235840066e+00 2.323759078979492188e+00 -5.724269747734069824e-01 1.100000000000000000e+01
2.147546052932738814e+00 2.756658554077147993e+00 -5.534651279449462891e-01 1.000000000000000000e+01
2.669246912002563032e+00 3.423864603042602983e+00 -5.330564975738525391e-01 9.000000000000000000e+00
3.465054512023925781e+00 4.443054199218750000e+00 -4.929528832435607910e-01 9.000000000000000000e+00
5.017236232757568359e+00 6.428704738616943359e+00 -4.273754060268402100e-01 1.000000000000000000e+00
8.332924842834472656e+00 1.066949462890625000e+01 -2.363055795431137085e-01 2.000000000000000000e+00
1.383895754814147949e+00 1.767487406730652078e+00 -6.014954447746276855e-01 2.300000000000000000e+01
1.570892691612244096e+00 2.004874706268310991e+00 -5.880220532417297363e-01 1.300000000000000000e+01
1.820326447486876997e+00 2.322382926940917969e+00 -5.735718607902526855e-01 1.200000000000000000e+01
2.157894849777222124e+00 2.751076221466064009e+00 -5.537779927253723145e-01 9.000000000000000000e+00
2.678134679794311968e+00 3.411871194839477983e+00 -5.325690507888793945e-01 9.000000000000000000e+00
3.477308273315430132e+00 4.428405284881591797e+00 -4.926042556762694757e-01 8.000000000000000000e+00
5.018782615661621094e+00 6.386905193328857422e+00 -4.257006645202637274e-01 2.000000000000000000e+00
8.385565757751464844e+00 1.066380977630615057e+01 -2.367942482233046930e-01 2.000000000000000000e+00
1.388860702514647993e+00 1.761129021644592063e+00 -6.009778380393981934e-01 2.200000000000000000e+01
1.586332201957703081e+00 2.010087251663208008e+00 -5.911713838577270508e-01 1.300000000000000000e+01
1.823555946350098100e+00 2.309850931167602983e+00 -5.720453858375549316e-01 1.200000000000000000e+01
2.169933795928955078e+00 2.746627092361450195e+00 -5.544037222862243652e-01 9.000000000000000000e+00
2.680178880691527876e+00 3.390044212341309038e+00 -5.306191444396972656e-01 9.000000000000000000e+00
3.495217084884643999e+00 4.419365406036376953e+00 -4.929528832435607910e-01 9.000000000000000000e+00
5.053441524505615234e+00 6.385008335113525391e+00 -4.267473816871643066e-01 2.000000000000000000e+00
8.385491371154785156e+00 1.058744621276854936e+01 -2.357470989227294922e-01 2.000000000000000000e+00
1.393491864204406960e+00 1.755000829696655051e+00 -6.004601716995239258e-01 1.900000000000000000e+01
1.585715293884276900e+00 1.995661258697509988e+00 -5.884719491004943848e-01 1.300000000000000000e+01
1.825097560882567915e+00 2.296106815338135210e+00 -5.701372623443603516e-01 1.200000000000000000e+01
2.181489467620850053e+00 2.742507934570312944e+00 -5.550295114517211914e-01 9.000000000000000000e+00
2.702532529830933061e+00 3.395115852355957031e+00 -5.328127741813659668e-01 9.000000000000000000e+00
3.517299652099608931e+00 4.417102336883544922e+00 -4.939987361431121826e-01 9.000000000000000000e+00
5.074587345123291016e+00 6.368215560913085938e+00 -4.267473816871643066e-01 2.000000000000000000e+00
8.410580635070800781e+00 1.054707336425781072e+01 -2.354678660631180087e-01 2.000000000000000000e+00
1.394783258438109907e+00 1.744091033935547097e+00 -5.983896255493164062e-01 1.900000000000000000e+01
1.603630542755126953e+00 2.003807306289672852e+00 -5.925210714340209961e-01 1.500000000000000000e+01
1.838009238243103027e+00 2.295852422714232954e+00 -5.716637372970581055e-01 1.200000000000000000e+01
2.189814090728760210e+00 2.733334779739379883e+00 -5.547165870666503906e-01 1.000000000000000000e+01
2.711884021759033203e+00 3.382564067840576172e+00 -5.323252677917480469e-01 7.000000000000000000e+00
3.523970842361450195e+00 4.393918037414550781e+00 -4.927785694599152166e-01 8.000000000000000000e+00
5.101786136627197266e+00 6.356693744659423828e+00 -4.271660745143889826e-01 2.000000000000000000e+00
8.477397918701171875e+00 1.055506896972656072e+01 -2.363055795431137085e-01 2.000000000000000000e+00
1.404802560806273970e+00 1.743480086326598899e+00 -5.999425649642944336e-01 2.200000000000000000e+01
1.610964059829711914e+00 1.997916340827941895e+00 -5.925210714340209961e-01 1.500000000000000000e+01
1.846411585807800071e+00 2.289100408554077148e+00 -5.716637372970581055e-01 1.200000000000000000e+01
2.197336196899414062e+00 2.722216129302978960e+00 -5.540908575057983398e-01 1.000000000000000000e+01
2.739231824874877930e+00 3.391132593154906782e+00 -5.352501273155212402e-01 7.000000000000000000e+00
3.542556285858153853e+00 4.384071826934813565e+00 -4.931271970272064209e-01 8.000000000000000000e+00
5.132585048675537109e+00 6.347270011901854581e+00 -4.277940988540648859e-01 2.000000000000000000e+00
8.478290557861328125e+00 1.047729206085205078e+01 -2.352584451436995905e-01 2.000000000000000000e+00
1.412097215652466042e+00 1.740065813064574973e+00 -6.004601716995239258e-01 1.700000000000000000e+01
1.606871843338012917e+00 1.978666186332703081e+00 -5.884719491004943848e-01 1.400000000000000000e+01
1.861818313598633035e+00 2.291784048080443892e+00 -5.739534497261047363e-01 1.100000000000000000e+01
2.201840639114379883e+00 2.708398342132567915e+00 -5.528393983840942383e-01 1.000000000000000000e+01
2.746041536331177202e+00 3.375390768051147017e+00 -5.342751741409301758e-01 7.000000000000000000e+00
3.552807331085205078e+00 4.365498065948486328e+00 -4.924299418926239014e-01 8.000000000000000000e+00
5.140836238861083984e+00 6.312280178070068359e+00 -4.266427159309387207e-01 3.000000000000000000e+00
8.572923660278320312e+00 1.051893806457520064e+01 -2.368640601634978970e-01 2.000000000000000000e+00
1.415415048599242942e+00 1.732381582260132058e+00 -5.994248986244201660e-01 1.700000000000000000e+01
1.609723925590514915e+00 1.968800663948059082e+00 -5.871222615242004395e-01 1.600000000000000000e+01
1.864436030387877974e+00 2.279518604278564009e+00 -5.724269747734069824e-01 1.100000000000000000e+01
2.215814590454102007e+00 2.707196474075316939e+00 -5.540908575057983398e-01 1.000000000000000000e+01
2.745898962020874023e+00 3.352444648742675781e+00 -5.320815443992614746e-01 9.000000000000000000e+00
3.577366352081298828e+00 4.366021633148193359e+00 -4.938244521617888849e-01 9.000000000000000000e+00
5.154141902923583984e+00 6.285931110382080078e+00 -4.260146915912628174e-01 3.000000000000000000e+00
8.549409866333007812e+00 1.041934013366699041e+01 -2.352584451436995905e-01 2.000000000000000000e+00
1.422681093215941939e+00 1.728922009468079057e+00 -5.999425649642944336e-01 1.600000000000000000e+01
1.625257849693297896e+00 1.973700165748595969e+00 -5.902715921401977539e-01 1.400000000000000000e+01
1.872381687164307085e+00 2.272996664047241211e+00 -5.724269747734069824e-01 1.100000000000000000e+01
2.234046459197998047e+00 2.710115194320679155e+00 -5.562809705734252930e-01 1.100000000000000000e+01
2.762637138366699219e+00 3.348964452743529829e+00 -5.330564975738525391e-01 9.000000000000000000e+00
3.584975957870482954e+00 4.344287395477294922e+00 -4.927785694599152166e-01 8.000000000000000000e+00
5.192585468292236328e+00 6.287921905517578125e+00 -4.273754060268402100e-01 2.000000000000000000e+00
8.585727691650390625e+00 1.038943386077881037e+01 -2.352584451436995905e-01 2.000000000000000000e+00
1.422544002532958984e+00 1.716508150100708008e+00 -5.973543524742126465e-01 1.700000000000000000e+01
1.635869503021240012e+00 1.972514986991882102e+00 -5.916212797164916992e-01 1.500000000000000000e+01
1.877797484397887962e+00 2.263425111770629883e+00 -5.716637372970581055e-01 1.200000000000000000e+01
2.238445758819580078e+00 2.696220874786376953e+00 -5.550295114517211914e-01 1.000000000000000000e+01
2.776847600936890093e+00 3.342354297637939009e+00 -5.335440039634704590e-01 9.000000000000000000e+00
3.595024824142456055e+00 4.325617790222167969e+00 -4.920813143253325861e-01 9.000000000000000000e+00
5.206840038299561435e+00 6.260544776916503906e+00 -4.267473816871643066e-01 2.000000000000000000e+00
8.606591224670410156e+00 1.034095668792724965e+01 -2.348395884037018100e-01 2.000000000000000000e+00
1.431002855300903098e+00 1.714498400688170943e+00 -5.983896255493164062e-01 1.700000000000000000e+01
1.638997197151184082e+00 1.962305665016174094e+00 -5.902715921401977539e-01 1.400000000000000000e+01
1.891980886459351030e+00 2.264389514923096147e+00 -5.735718607902526855e-01 1.200000000000000000e+01
2.240241050720214844e+00 2.679298162460327148e+00 -5.531522631645202637e-01 9.000000000000000000e+00
2.788497686386107954e+00 3.332641124725341797e+00 -5.335440039634704590e-01 1.000000000000000000e+01
3.613938570022583008e+00 4.317625999450683594e+00 -4.926042556762694757e-01 9.000000000000000000e+00
5.223531723022460938e+00 6.236207008361816406e+00 -4.263286888599395752e-01 2.000000000000000000e+00
8.632358551025390625e+00 1.029859066009520951e+01 -2.345603406429291049e-01 2.000000000000000000e+00
1.441951036453247070e+00 1.715407967567444070e+00 -6.004601716995239258e-01 1.700000000000000000e+01
1.640819191932678001e+00 1.950607419013977051e+00 -5.884719491004943848e-01 1.400000000000000000e+01
1.902401685714721902e+00 2.260775804519652876e+00 -5.743350982666015625e-01 1.200000000000000000e+01
2.252124547958374023e+00 2.674484014511107954e+00 -5.537779927253723145e-01 9.000000000000000000e+00
2.794996976852416992e+00 3.316815137863159180e+00 -5.325690507888793945e-01 9.000000000000000000e+00
3.625135421752930132e+00 4.300414562225341797e+00 -4.920813143253325861e-01 9.000000000000000000e+00
5.219511985778808594e+00 6.187402725219726562e+00 -4.242352545261383057e-01 3.000000000000000000e+00
8.686313629150390625e+00 1.028978729248047053e+01 -2.350490093231200894e-01 2.000000000000000000e+00
1.452923059463500977e+00 1.716261982917786089e+00 -6.025307178497314453e-01 1.700000000000000000e+01
1.647618055343627930e+00 1.944867968559264915e+00 -5.884719491004943848e-01 1.100000000000000000e+01
1.905204415321350098e+00 2.248130321502685991e+00 -5.728086233139038086e-01 1.200000000000000000e+01
2.266557216644287109e+00 2.672632455825806108e+00 -5.550295114517211914e-01 9.000000000000000000e+00
2.802704334259033203e+00 3.302497863769530806e+00 -5.318378210067749023e-01 1.000000000000000000e+01
3.654308557510375977e+00 4.304441928863525391e+00 -4.939987361431121826e-01 9.000000000000000000e+00
5.244957923889160156e+00 6.173711776733398438e+00 -4.245492815971375067e-01 3.000000000000000000e+00
8.716998100280761719e+00 1.025331020355224965e+01 -2.349093854427337924e-01 2.000000000000000000e+00
1.453891634941101074e+00 1.705299615859984907e+00 -6.004601716995239258e-01 1.800000000000000000e+01
1.656926512718200906e+00 1.942069888114928977e+00 -5.893717408180236816e-01 1.400000000000000000e+01
1.909216761589050071e+00 2.236986398696898970e+00 -5.716637372970581055e-01 1.100000000000000000e+01
2.281004190444945845e+00 2.670712947845458984e+00 -5.562809705734252930e-01 9.000000000000000000e+00
2.818084478378295898e+00 3.297221660614014116e+00 -5.325690507888793945e-01 9.000000000000000000e+00
3.658953666687012163e+00 4.279544830322265625e+00 -4.926042556762694757e-01 8.000000000000000000e+00
5.272968292236328125e+00 6.162953853607177734e+00 -4.250726401805878241e-01 2.000000000000000000e+00
8.739729881286621094e+00 1.020762920379639027e+01 -2.345603406429291049e-01 2.000000000000000000e+00
1.452284574508666992e+00 1.691419959068297896e+00 -5.973543524742126465e-01 1.600000000000000000e+01
1.668775558471679910e+00 1.942186594009398970e+00 -5.911713838577270508e-01 1.100000000000000000e+01
1.918293356895446999e+00 2.231797218322753906e+00 -5.720453858375549316e-01 1.200000000000000000e+01
2.290312767028809038e+00 2.662734270095825195e+00 -5.562809705734252930e-01 9.000000000000000000e+00
2.832166671752930132e+00 3.290373563766479048e+00 -5.330564975738525391e-01 9.000000000000000000e+00
3.679069757461547852e+00 4.272785663604736328e+00 -4.933015108108521063e-01 9.000000000000000000e+00
5.304878711700438565e+00 6.156614780426025391e+00 -4.259100258350371759e-01 2.000000000000000000e+00
8.796201705932617188e+00 1.020129108428955078e+01 -2.351188212633132935e-01 2.000000000000000000e+00
1.458179831504821999e+00 1.686340212821960005e+00 -5.973543524742126465e-01 1.600000000000000000e+01
1.680645465850830078e+00 1.942244172096251997e+00 -5.929709672927856445e-01 1.300000000000000000e+01
1.927357077598571999e+00 2.226571798324584961e+00 -5.724269747734069824e-01 1.200000000000000000e+01
2.291833400726317915e+00 2.645764827728271040e+00 -5.544037222862243652e-01 9.000000000000000000e+00
2.854037046432495117e+00 3.292467355728148970e+00 -5.350064039230346680e-01 9.000000000000000000e+00
3.696572780609130859e+00 4.262928009033203125e+00 -4.936501383781433105e-01 6.000000000000000000e+00
5.315865039825438565e+00 6.125991821289063388e+00 -4.250726401805878241e-01 2.000000000000000000e+00
8.776689529418945312e+00 1.010711002349854049e+01 -2.336528152227402011e-01 2.000000000000000000e+00
1.461520075798034890e+00 1.678326129913330078e+00 -5.963190793991088867e-01 1.600000000000000000e+01
1.679733157157897949e+00 1.927550792694092019e+00 -5.902715921401977539e-01 1.000000000000000000e+01
1.942857980728148970e+00 2.228709936141968218e+00 -5.747166872024536133e-01 1.300000000000000000e+01
2.301054954528809038e+00 2.637748718261719194e+00 -5.544037222862243652e-01 9.000000000000000000e+00
2.852457761764525923e+00 3.267530441284180132e+00 -5.325690507888793945e-01 9.000000000000000000e+00
3.710120201110839844e+00 4.248497962951660156e+00 -4.934758245944976807e-01 8.000000000000000000e+00
5.339844703674316406e+00 6.110406398773193359e+00 -4.252819716930388849e-01 2.000000000000000000e+00
8.825080871582031250e+00 1.009146499633789062e+01 -2.340018600225448886e-01 2.000000000000000000e+00
3.644866943359375000e+01 4.166431427001953125e+01 1.483291912078857067e+01 1.900000000000000000e+01
1.476971387863158958e+00 1.685349464416503906e+00 -6.004601716995239258e-01 1.600000000000000000e+01
1.687065362930298074e+00 1.923729300498961958e+00 -5.907214879989624023e-01 9.000000000000000000e+00
1.947260618209839089e+00 2.219643592834473100e+00 -5.739534497261047363e-01 1.200000000000000000e+01
2.314543247222899947e+00 2.636444807052611861e+00 -5.556552410125732422e-01 9.000000000000000000e+00
2.869259595870972124e+00 3.266009807586669922e+00 -5.337877273559570312e-01 1.000000000000000000e+01
3.723448753356934038e+00 4.236821174621582031e+00 -4.934758245944976807e-01 8.000000000000000000e+00
5.345825195312500000e+00 6.078603267669677734e+00 -4.242352545261383057e-01 2.000000000000000000e+00
8.854098320007324219e+00 1.006068801879882990e+01 -2.339320629835129062e-01 2.000000000000000000e+00
1.485401988029479980e+00 1.683080554008484109e+00 -6.014954447746276855e-01 1.900000000000000000e+01
1.691190123558043990e+00 1.914907336235045943e+00 -5.898216366767883301e-01 7.000000000000000000e+00
1.947197556495666948e+00 2.204005002975463867e+00 -5.716637372970581055e-01 1.300000000000000000e+01
2.334199190139770952e+00 2.640188932418822798e+00 -5.581581592559814453e-01 9.000000000000000000e+00
2.876696586608887163e+00 3.251513957977294922e+00 -5.330564975738525391e-01 9.000000000000000000e+00
3.747458696365356001e+00 4.234241962432861328e+00 -4.946959912776947021e-01 8.000000000000000000e+00
5.380252838134765625e+00 6.074857234954833984e+00 -4.252819716930388849e-01 2.000000000000000000e+00
8.846719741821289062e+00 9.981831550598144531e+00 -2.328151017427443903e-01 2.000000000000000000e+00
1.475867629051208052e+00 1.660557746887207031e+00 -5.952838063240051270e-01 1.600000000000000000e+01
1.703044533729553001e+00 1.914816856384276900e+00 -5.916212797164916992e-01 7.000000000000000000e+00
1.958794116973876953e+00 2.201594829559326172e+00 -5.728086233139038086e-01 1.200000000000000000e+01
2.332892417907714844e+00 2.620222091674805132e+00 -5.556552410125732422e-01 9.000000000000000000e+00
2.895952224731444868e+00 3.250345468521118164e+00 -5.345189571380615234e-01 9.000000000000000000e+00
3.744982481002808061e+00 4.201799392700195312e+00 -4.924299418926239014e-01 9.000000000000000000e+00
5.404084205627441406e+00 6.059020519256591797e+00 -4.254913330078125000e-01 2.000000000000000000e+00
8.916129112243652344e+00 9.989678382873535156e+00 -2.337226271629332941e-01 2.000000000000000000e+00
1.482943534851073997e+00 1.656835317611693892e+00 -5.958014130592346191e-01 1.700000000000000000e+01
1.711018204689026101e+00 1.910312056541443093e+00 -5.920711755752563477e-01 7.000000000000000000e+00
1.971707582473755105e+00 2.200592756271361861e+00 -5.743350982666015625e-01 1.300000000000000000e+01
2.339387178421020952e+00 2.609121322631835938e+00 -5.550295114517211914e-01 9.000000000000000000e+00
2.907280445098876953e+00 3.240216970443726030e+00 -5.345189571380615234e-01 9.000000000000000000e+00
3.763619184494018999e+00 4.193149566650390625e+00 -4.929528832435607910e-01 6.000000000000000000e+00
5.417193412780761719e+00 6.031204700469970703e+00 -4.248632788658142090e-01 2.000000000000000000e+00
8.964312553405761719e+00 9.973366737365722656e+00 -2.340716719627380094e-01 2.000000000000000000e+00
1.502945423126220925e+00 1.667433381080626997e+00 -6.014954447746276855e-01 1.600000000000000000e+01
1.707234263420104980e+00 1.892751455307007058e+00 -5.884719491004943848e-01 8.000000000000000000e+00
1.982007503509521040e+00 2.196612119674683061e+00 -5.750983357429504395e-01 1.200000000000000000e+01
2.349804401397705078e+00 2.602405548095703125e+00 -5.553423762321472168e-01 9.000000000000000000e+00
2.915911436080933061e+00 3.227103233337401900e+00 -5.340314507484436035e-01 9.000000000000000000e+00
3.791593313217163086e+00 4.194767475128173828e+00 -4.946959912776947021e-01 6.000000000000000000e+00
5.448931694030761719e+00 6.024108409881591797e+00 -4.257006645202637274e-01 2.000000000000000000e+00
9.036645889282226562e+00 9.983526229858398438e+00 -2.350490093231200894e-01 2.000000000000000000e+00
1.506159901618957964e+00 1.659316062927246094e+00 -6.004601716995239258e-01 1.600000000000000000e+01
1.715141057968140093e+00 1.888223052024841087e+00 -5.889218449592590332e-01 1.000000000000000000e+01
1.981741309165955034e+00 2.180962085723876953e+00 -5.728086233139038086e-01 1.200000000000000000e+01
2.370834589004517046e+00 2.607341051101685014e+00 -5.581581592559814453e-01 9.000000000000000000e+00
2.923150300979613814e+00 3.212500333786011186e+00 -5.333002209663391113e-01 9.000000000000000000e+00
3.807553768157958984e+00 4.182980060577392578e+00 -4.948703050613402765e-01 8.000000000000000000e+00
5.467236518859863281e+00 6.002098083496093750e+00 -4.254913330078125000e-01 2.000000000000000000e+00
9.052580833435058594e+00 9.931231498718261719e+00 -2.345603406429291049e-01 2.000000000000000000e+00
1.504122376441956010e+00 1.645493149757385032e+00 -5.973543524742126465e-01 1.600000000000000000e+01
1.720406413078308105e+00 1.880786657333374023e+00 -5.884719491004943848e-01 1.200000000000000000e+01
1.989342212677001953e+00 2.174031257629394975e+00 -5.728086233139038086e-01 1.200000000000000000e+01
2.371917247772216797e+00 2.590308189392089844e+00 -5.562809705734252930e-01 9.000000000000000000e+00
2.941051959991455078e+00 3.209594964981079102e+00 -5.345189571380615234e-01 1.000000000000000000e+01
3.812707901000977007e+00 4.159382820129395419e+00 -4.936501383781433105e-01 6.000000000000000000e+00
5.490854740142822266e+00 5.985920906066895419e+00 -4.257006645202637274e-01 2.000000000000000000e+00
9.041214942932128906e+00 9.849484443664550781e+00 -2.333735823631286899e-01 2.000000000000000000e+00
1.513782143592834029e+00 1.644496798515320046e+00 -5.989072918891906738e-01 1.700000000000000000e+01
1.736203312873840110e+00 1.884803056716918945e+00 -5.916212797164916992e-01 1.500000000000000000e+01
1.999579668045043945e+00 2.169961452484130859e+00 -5.735718607902526855e-01 1.200000000000000000e+01
2.380944728851317915e+00 2.582012891769409180e+00 -5.562809705734252930e-01 9.000000000000000000e+00
2.953583717346190962e+00 3.200767993927001953e+00 -5.347626805305480957e-01 9.000000000000000000e+00
3.828554868698120117e+00 4.147512435913085938e+00 -4.938244521617888849e-01 9.000000000000000000e+00
5.506295204162597656e+00 5.960849285125732422e+00 -4.252819716930388849e-01 2.000000000000000000e+00
9.121692657470703125e+00 9.867791175842285156e+00 -2.345603406429291049e-01 2.000000000000000000e+00
1.519227266311645952e+00 1.639467835426331010e+00 -5.989072918891906738e-01 1.800000000000000000e+01
1.735818743705749956e+00 1.871890544891356978e+00 -5.893717408180236816e-01 1.400000000000000000e+01
2.014775514602661133e+00 2.171954631805419922e+00 -5.758615732192993164e-01 1.300000000000000000e+01
2.385462045669556108e+00 2.569759845733643022e+00 -5.553423762321472168e-01 8.000000000000000000e+00
2.972287893295288086e+00 3.199682474136352983e+00 -5.362251400947570801e-01 9.000000000000000000e+00
3.846356391906737837e+00 4.139172554016113281e+00 -4.943473637104033869e-01 8.000000000000000000e+00
5.528751850128173828e+00 5.945482254028320312e+00 -4.254913330078125000e-01 2.000000000000000000e+00
9.132569313049316406e+00 9.814065933227539062e+00 -2.340018600225448886e-01 2.000000000000000000e+00
1.530212759971619096e+00 1.639804363250731978e+00 -6.009778380393981934e-01 1.900000000000000000e+01
1.739682197570801003e+00 1.862971425056457964e+00 -5.884719491004943848e-01 1.300000000000000000e+01
2.021004676818848100e+00 2.163473844528197798e+00 -5.754799246788024902e-01 1.200000000000000000e+01
2.395766496658325195e+00 2.562860488891602007e+00 -5.556552410125732422e-01 9.000000000000000000e+00
2.978014230728148970e+00 3.183489084243773970e+00 -5.352501273155212402e-01 9.000000000000000000e+00
3.849890470504761186e+00 4.114082813262938565e+00 -4.929528832435607910e-01 6.000000000000000000e+00
5.546741485595703125e+00 5.923231601715087891e+00 -4.252819716930388849e-01 1.000000000000000000e+00
9.142158508300781250e+00 9.755863189697265625e+00 -2.333735823631286899e-01 2.000000000000000000e+00
1.537250399589539018e+00 1.635860800743103027e+00 -6.014954447746276855e-01 1.900000000000000000e+01
1.747509598731995073e+00 1.858307123184204102e+00 -5.889218449592590332e-01 1.600000000000000000e+01
2.024508714675902876e+00 2.152116060256958008e+00 -5.743350982666015625e-01 1.300000000000000000e+01
2.412822008132935014e+00 2.563112020492554155e+00 -5.575324296951293945e-01 9.000000000000000000e+00
2.986386299133300781e+00 3.170184612274169922e+00 -5.347626805305480957e-01 9.000000000000000000e+00
3.856029272079468218e+00 4.091918945312500000e+00 -4.919070005416870117e-01 6.000000000000000000e+00
5.564642906188964844e+00 5.900927543640136719e+00 -4.250726401805878241e-01 2.000000000000000000e+00
9.187136650085449219e+00 9.735526084899902344e+00 -2.336528152227402011e-01 2.000000000000000000e+00
1.540295600891113059e+00 1.627678394317626953e+00 -6.004601716995239258e-01 1.600000000000000000e+01
1.763365149497986062e+00 1.862100601196289062e+00 -5.920711755752563477e-01 1.700000000000000000e+01
2.027958154678345171e+00 2.140760421752930132e+00 -5.731902122497558594e-01 1.200000000000000000e+01
2.429908275604248047e+00 2.563275814056396040e+00 -5.594096183776855469e-01 9.000000000000000000e+00
2.994701623916625977e+00 3.156860351562500000e+00 -5.342751741409301758e-01 9.000000000000000000e+00
3.889489889144897017e+00 4.098667144775390625e+00 -4.943473637104033869e-01 8.000000000000000000e+00
5.587957859039306641e+00 5.884363651275634766e+00 -4.252819716930388849e-01 2.000000000000000000e+00
9.221063613891601562e+00 9.703397750854492188e+00 -2.336528152227402011e-01 2.000000000000000000e+00
1.535305976867676003e+00 1.611103653907776101e+00 -5.963190793991088867e-01 1.600000000000000000e+01
1.773889064788817915e+00 1.860164880752563032e+00 -5.934208631515502930e-01 1.900000000000000000e+01
2.042194128036499023e+00 2.140771150588988814e+00 -5.750983357429504395e-01 1.200000000000000000e+01
2.430656909942626953e+00 2.546205043792725053e+00 -5.575324296951293945e-01 9.000000000000000000e+00
3.012558937072753906e+00 3.153564691543579102e+00 -5.354939103126525879e-01 1.000000000000000000e+01
3.895514249801636186e+00 4.076422691345214844e+00 -4.933015108108521063e-01 8.000000000000000000e+00
5.622267723083496094e+00 5.879257202148438388e+00 -4.263286888599395752e-01 1.000000000000000000e+00
9.260409355163574219e+00 9.676930427551269531e+00 -2.337924391031264981e-01 2.000000000000000000e+00
1.544933319091797097e+00 1.609916210174560991e+00 -5.978720188140869141e-01 1.700000000000000000e+01
1.774972200393676980e+00 1.848339200019835982e+00 -5.916212797164916992e-01 1.500000000000000000e+01
2.051014423370360884e+00 2.135045289993286133e+00 -5.754799246788024902e-01 1.200000000000000000e+01
2.434054136276245117e+00 2.532008647918701172e+00 -5.562809705734252930e-01 9.000000000000000000e+00
3.026301145553588867e+00 3.145890951156616211e+00 -5.359813570976257324e-01 1.000000000000000000e+01
3.913864374160767046e+00 4.067106723785400391e+00 -4.938244521617888849e-01 9.000000000000000000e+00
5.667693138122558594e+00 5.885491371154785156e+00 -4.282127916812896729e-01 1.000000000000000000e+00
9.302456855773925781e+00 9.653185844421386719e+00 -2.340018600225448886e-01 2.000000000000000000e+00
1.555913329124450906e+00 1.610070347785949929e+00 -5.999425649642944336e-01 1.800000000000000000e+01
1.777349233627318892e+00 1.837929487228393999e+00 -5.902715921401977539e-01 1.400000000000000000e+01
2.062549829483031782e+00 2.132106065750122070e+00 -5.766248106956481934e-01 1.200000000000000000e+01
2.448373556137084961e+00 2.529173851013184038e+00 -5.575324296951293945e-01 9.000000000000000000e+00
3.031738996505736861e+00 3.129604816436768022e+00 -5.350064039230346680e-01 1.000000000000000000e+01
3.933583498001099077e+00 4.059143543243408203e+00 -4.945216774940490723e-01 8.000000000000000000e+00
5.668736934661865234e+00 5.845598697662354404e+00 -4.267473816871643066e-01 1.000000000000000000e+00
9.327740669250488281e+00 9.612045288085937500e+00 -2.337924391031264981e-01 2.000000000000000000e+00
3.942602157592772727e+01 4.062770843505858664e+01 1.516938400268555043e+01 2.000000000000000000e+01
1.566913247108459029e+00 1.610167384147644043e+00 -6.020131111145019531e-01 1.600000000000000000e+01
1.782394409179687944e+00 1.830318093299865945e+00 -5.898216366767883301e-01 1.400000000000000000e+01
2.068609714508057085e+00 2.123487234115601030e+00 -5.762431621551513672e-01 1.200000000000000000e+01
2.454429149627685991e+00 2.517783164978026900e+00 -5.569067001342773438e-01 9.000000000000000000e+00
3.037100315093994141e+00 3.113319158554077148e+00 -5.340314507484436035e-01 1.000000000000000000e+01
3.951903104782104048e+00 4.049665451049804688e+00 -4.950446188449860174e-01 6.000000000000000000e+00
5.675153255462645596e+00 5.811485767364501953e+00 -4.257006645202637274e-01 2.000000000000000000e+00
9.361236572265625000e+00 9.579426765441894531e+00 -2.337924391031264981e-01 2.000000000000000000e+00
1.568467855453490989e+00 1.600548624992371050e+00 -6.004601716995239258e-01 1.600000000000000000e+01
1.790137052536010964e+00 1.825476646423340066e+00 -5.902715921401977539e-01 1.200000000000000000e+01
2.069135189056396040e+00 2.109246015548706055e+00 -5.743350982666015625e-01 1.200000000000000000e+01
2.468738317489624023e+00 2.514838933944702148e+00 -5.581581592559814453e-01 9.000000000000000000e+00
3.050731420516968218e+00 3.105530977249145952e+00 -5.345189571380615234e-01 1.000000000000000000e+01
3.961825609207152876e+00 4.031582832336425781e+00 -4.945216774940490723e-01 8.000000000000000000e+00
5.703806877136229581e+00 5.800184726715087891e+00 -4.263286888599395752e-01 1.000000000000000000e+00
9.414254188537597656e+00 9.566645622253417969e+00 -2.342811077833175937e-01 2.000000000000000000e+00
1.567260622978210005e+00 1.588188648223876953e+00 -5.978720188140869141e-01 1.600000000000000000e+01
1.806083202362060991e+00 1.828922986984252930e+00 -5.934208631515502930e-01 1.300000000000000000e+01
2.080624341964722124e+00 2.106200695037841797e+00 -5.754799246788024902e-01 1.100000000000000000e+01
2.474724292755126953e+00 2.503396511077880859e+00 -5.575324296951293945e-01 9.000000000000000000e+00
3.061553239822388139e+00 3.094862937927246094e+00 -5.345189571380615234e-01 1.000000000000000000e+01
3.964662790298461914e+00 4.006399631500244141e+00 -4.931271970272064209e-01 9.000000000000000000e+00
5.724018573760986328e+00 5.780239582061767578e+00 -4.263286888599395752e-01 2.000000000000000000e+00
9.436329841613769531e+00 9.522362709045410156e+00 -2.340018600225448886e-01 2.000000000000000000e+00
1.573880076408386008e+00 1.584353208541869895e+00 -5.983896255493164062e-01 1.500000000000000000e+01
1.808016538619994895e+00 1.818777561187743919e+00 -5.920711755752563477e-01 1.200000000000000000e+01
2.088981628417969194e+00 2.100681543350220171e+00 -5.758615732192993164e-01 1.200000000000000000e+01
2.481618881225585938e+00 2.493776082992554155e+00 -5.572195649147033691e-01 1.000000000000000000e+01
3.083005189895629883e+00 3.095946311950684038e+00 -5.364688634872436523e-01 1.000000000000000000e+01
3.980739116668701172e+00 3.996053457260131836e+00 -4.934758245944976807e-01 6.000000000000000000e+00
5.748795509338378906e+00 5.766884326934813565e+00 -4.267473816871643066e-01 1.000000000000000000e+00
9.490451812744140625e+00 9.513669967651367188e+00 -2.345603406429291049e-01 2.000000000000000000e+00
1.578034639358520952e+00 1.577483892440795898e+00 -5.978720188140869141e-01 1.500000000000000000e+01
1.810218214988708052e+00 1.808323621749877930e+00 -5.907214879989624023e-01 1.200000000000000000e+01
2.097691059112548828e+00 2.094763994216918945e+00 -5.762431621551513672e-01 1.300000000000000000e+01
2.487512111663817915e+00 2.482307672500609907e+00 -5.565938353538513184e-01 1.000000000000000000e+01
3.085359573364257812e+00 3.076755523681641069e+00 -5.350064039230346680e-01 1.000000000000000000e+01
4.008773803710938388e+00 3.996199846267700195e+00 -4.952189326286315918e-01 9.000000000000000000e+00
5.768890380859375000e+00 5.746781826019287109e+00 -4.267473816871643066e-01 1.000000000000000000e+00
9.512265205383300781e+00 9.469197273254394531e+00 -2.342811077833175937e-01 2.000000000000000000e+00
1.593128681182861106e+00 1.581493020057678001e+00 -6.014954447746276855e-01 1.600000000000000000e+01
1.813752412796020952e+00 1.799248814582824929e+00 -5.898216366767883301e-01 1.100000000000000000e+01
2.099414110183715820e+00 2.081899404525756836e+00 -5.747166872024536133e-01 1.200000000000000000e+01
2.505983591079711914e+00 2.483342647552489790e+00 -5.587838888168334961e-01 1.000000000000000000e+01
3.098901510238647017e+00 3.068760395050048828e+00 -5.354939103126525879e-01 1.000000000000000000e+01
4.021283149719238281e+00 3.980780601501464844e+00 -4.950446188449860174e-01 8.000000000000000000e+00
5.811633586883544922e+00 5.749083518981933594e+00 -4.284221231937407892e-01 1.000000000000000000e+00
9.556637763977050781e+00 9.447182655334472656e+00 -2.345603406429291049e-01 2.000000000000000000e+00
1.591760635375977007e+00 1.569141268730164018e+00 -5.989072918891906738e-01 1.600000000000000000e+01
1.825574994087219016e+00 1.798377037048340066e+00 -5.916212797164916992e-01 1.100000000000000000e+01
2.103870868682860884e+00 2.071803331375122070e+00 -5.739534497261047363e-01 1.200000000000000000e+01
2.514636754989624023e+00 2.474580049514770952e+00 -5.587838888168334961e-01 9.000000000000000000e+00
3.105348587036132812e+00 3.053749084472655806e+00 -5.347626805305480957e-01 1.000000000000000000e+01
4.032312393188476562e+00 3.963925838470458984e+00 -4.946959912776947021e-01 6.000000000000000000e+00
5.845914363861083984e+00 5.742758750915527344e+00 -4.294688701629639227e-01 1.000000000000000000e+00
9.575285911560058594e+00 9.399757385253906250e+00 -2.342112958431243896e-01 2.000000000000000000e+00
1.598608732223510964e+00 1.564926862716675027e+00 -5.994248986244201660e-01 1.600000000000000000e+01
1.837413549423217995e+00 1.797444581985474077e+00 -5.934208631515502930e-01 1.100000000000000000e+01
2.118108272552489790e+00 2.071310043334960938e+00 -5.758615732192993164e-01 1.300000000000000000e+01
2.523259401321411133e+00 2.465787172317504883e+00 -5.587838888168334961e-01 9.000000000000000000e+00
3.121670246124268022e+00 3.048438310623168945e+00 -5.357376337051391602e-01 1.000000000000000000e+01
4.058955669403076172e+00 3.962352275848389116e+00 -4.962647855281829834e-01 8.000000000000000000e+00
5.848768711090087891e+00 5.705581665039063388e+00 -4.282127916812896729e-01 1.000000000000000000e+00
9.610902786254882812e+00 9.369068145751953125e+00 -2.342811077833175937e-01 2.000000000000000000e+00
1.602676391601562944e+00 1.557990550994873047e+00 -5.989072918891906738e-01 1.700000000000000000e+01
1.843676567077636941e+00 1.791019916534424050e+00 -5.934208631515502930e-01 1.200000000000000000e+01
2.126734018325806108e+00 2.065271615982056108e+00 -5.762431621551513672e-01 1.300000000000000000e+01
2.517675161361693892e+00 2.443207502365111861e+00 -5.556552410125732422e-01 9.000000000000000000e+00
3.137992382049560991e+00 3.043051004409790039e+00 -5.367125868797302246e-01 1.000000000000000000e+01
4.065609455108642578e+00 3.941225767135620117e+00 -4.953932464122772217e-01 9.000000000000000000e+00
5.865780353546142578e+00 5.682351589202880859e+00 -4.280034601688385010e-01 1.000000000000000000e+00
9.629180908203125000e+00 9.321554183959960938e+00 -2.339320629835129062e-01 2.000000000000000000e+00
1.609223723411560059e+00 1.554009318351746050e+00 -5.994248986244201660e-01 1.600000000000000000e+01
1.838387489318848100e+00 1.774070382118225098e+00 -5.898216366767883301e-01 1.100000000000000000e+01
2.133570909500122070e+00 2.058207750320435014e+00 -5.762431621551513672e-01 1.200000000000000000e+01
2.531451940536499023e+00 2.440329074859619141e+00 -5.569067001342773438e-01 9.000000000000000000e+00
3.139488458633422852e+00 3.024364948272705078e+00 -5.352501273155212402e-01 1.000000000000000000e+01
4.062870025634765625e+00 3.912519931793212891e+00 -4.934758245944976807e-01 8.000000000000000000e+00
5.847174167633056641e+00 5.626861095428466797e+00 -4.252819716930388849e-01 2.000000000000000000e+00
9.723459243774414062e+00 9.350559234619140625e+00 -2.354678660631180087e-01 2.000000000000000000e+00
1.613244056701659934e+00 1.547045469284058061e+00 -5.989072918891906738e-01 1.600000000000000000e+01
1.851603865623473899e+00 1.774384021759032981e+00 -5.920711755752563477e-01 1.300000000000000000e+01
2.139324665069580078e+00 2.049389362335205078e+00 -5.758615732192993164e-01 1.300000000000000000e+01
2.545662641525268999e+00 2.436941862106322798e+00 -5.581581592559814453e-01 9.000000000000000000e+00
3.150026321411132812e+00 3.013387680053710938e+00 -5.352501273155212402e-01 1.000000000000000000e+01
4.103861808776854581e+00 3.924477100372314009e+00 -4.967877268791198730e-01 9.000000000000000000e+00
5.886995315551757812e+00 5.625734806060791016e+00 -4.267473816871643066e-01 2.000000000000000000e+00
9.735793113708496094e+00 9.297225952148437500e+00 -2.349791973829269132e-01 2.000000000000000000e+00
1.615836501121520996e+00 1.538740277290344016e+00 -5.978720188140869141e-01 1.700000000000000000e+01
1.856374740600585938e+00 1.766566514968872070e+00 -5.916212797164916992e-01 1.100000000000000000e+01
2.149310350418090820e+00 2.044615745544434038e+00 -5.766248106956481934e-01 1.300000000000000000e+01
2.557017087936400923e+00 2.430763006210327148e+00 -5.587838888168334961e-01 9.000000000000000000e+00
3.163404226303101030e+00 3.005108118057250977e+00 -5.357376337051391602e-01 1.000000000000000000e+01
4.104533195495604581e+00 3.897780179977416992e+00 -4.952189326286315918e-01 9.000000000000000000e+00
5.926879405975341797e+00 5.624398708343505859e+00 -4.282127916812896729e-01 2.000000000000000000e+00
9.750775337219238281e+00 9.246673583984375000e+00 -2.345603406429291049e-01 2.000000000000000000e+00
1.622601509094238059e+00 1.534417867660522017e+00 -5.983896255493164062e-01 1.600000000000000000e+01
1.863946199417114036e+00 1.761414289474487083e+00 -5.920711755752563477e-01 1.200000000000000000e+01
2.150725603103638139e+00 2.031708002090454102e+00 -5.750983357429504395e-01 1.300000000000000000e+01
2.562613487243651900e+00 2.419110536575316939e+00 -5.581581592559814453e-01 9.000000000000000000e+00
3.170986890792847124e+00 2.991322994232178178e+00 -5.352501273155212402e-01 1.000000000000000000e+01
4.110866069793701172e+00 3.876594305038452148e+00 -4.943473637104033869e-01 9.000000000000000000e+00
5.934847831726074219e+00 5.592717647552490234e+00 -4.273754060268402100e-01 2.000000000000000000e+00
9.771346092224121094e+00 9.201613426208496094e+00 -2.342811077833175937e-01 2.000000000000000000e+00
1.632172465324402078e+00 1.532711982727051003e+00 -5.999425649642944336e-01 1.700000000000000000e+01
1.872925400733947976e+00 1.757564187049865945e+00 -5.929709672927856445e-01 1.200000000000000000e+01
2.164963722229003906e+00 2.030904054641724077e+00 -5.770063996315002441e-01 1.200000000000000000e+01
2.562395095825194868e+00 2.402044773101807085e+00 -5.562809705734252930e-01 9.000000000000000000e+00
3.184306621551514116e+00 2.982950210571289062e+00 -5.357376337051391602e-01 1.000000000000000000e+01
4.143278598785400391e+00 3.879925251007080078e+00 -4.966134130954741877e-01 1.100000000000000000e+01
5.960166931152343750e+00 5.577425479888916016e+00 -4.277940988540648859e-01 2.000000000000000000e+00
9.803405761718750000e+00 9.167448997497558594e+00 -2.342811077833175937e-01 2.000000000000000000e+00
1.637512683868407981e+00 1.527005314826965110e+00 -5.999425649642944336e-01 1.600000000000000000e+01
1.870494961738585982e+00 1.743044495582581010e+00 -5.902715921401977539e-01 1.300000000000000000e+01
2.173476219177246094e+00 2.024672746658325195e+00 -5.773880481719970703e-01 1.200000000000000000e+01
2.570764303207397017e+00 2.393085479736328125e+00 -5.562809705734252930e-01 9.000000000000000000e+00
3.194699764251708984e+00 2.971816778182982954e+00 -5.357376337051391602e-01 1.000000000000000000e+01
4.161174297332763672e+00 3.869509220123291016e+00 -4.971363544464110773e-01 9.000000000000000000e+00
5.979599475860595703e+00 5.556586742401123047e+00 -4.277940988540648859e-01 2.000000000000000000e+00
9.867584228515625000e+00 9.163108825683593750e+00 -2.350490093231200894e-01 2.000000000000000000e+00
1.648502826690674050e+00 1.526530265808105025e+00 -6.020131111145019531e-01 1.900000000000000000e+01
1.883719444274901900e+00 1.743122339248657005e+00 -5.925210714340209961e-01 1.300000000000000000e+01
2.176206827163695845e+00 2.013074159622191939e+00 -5.762431621551513672e-01 1.300000000000000000e+01
2.583453655242919922e+00 2.388119935989379883e+00 -5.572195649147033691e-01 1.000000000000000000e+01
3.202137470245360884e+00 2.957953214645386186e+00 -5.352501273155212402e-01 1.000000000000000000e+01
4.162945747375488281e+00 3.844147205352783203e+00 -4.957418739795684814e-01 9.000000000000000000e+00
6.022444248199462891e+00 5.557351589202880859e+00 -4.294688701629639227e-01 2.000000000000000000e+00
9.878928184509277344e+00 9.109629631042480469e+00 -2.345603406429291049e-01 2.000000000000000000e+00
1.658087372779845969e+00 1.524689555168152078e+00 -6.035659909248352051e-01 1.900000000000000000e+01
1.888357758522033913e+00 1.735217809677124023e+00 -5.920711755752563477e-01 1.200000000000000000e+01
2.177437067031859907e+00 2.000153064727783203e+00 -5.747166872024536133e-01 1.300000000000000000e+01
2.597594976425170898e+00 2.384430885314940962e+00 -5.584710240364074707e-01 1.000000000000000000e+01
3.216831684112548828e+00 2.950783252716064009e+00 -5.359813570976257324e-01 1.000000000000000000e+01
4.179275989532470703e+00 3.832285404205321822e+00 -4.960905015468596857e-01 9.000000000000000000e+00
6.056531906127929688e+00 5.549788951873779297e+00 -4.305155873298645020e-01 1.000000000000000000e+00
9.901818275451660156e+00 9.066987991333007812e+00 -2.343509197235106867e-01 2.000000000000000000e+00
1.651986837387084961e+00 1.508471250534058061e+00 -5.994248986244201660e-01 1.900000000000000000e+01
1.905919432640075906e+00 1.739123940467834029e+00 -5.956704020500183105e-01 1.300000000000000000e+01
2.184405803680419922e+00 1.992540121078490989e+00 -5.747166872024536133e-01 1.300000000000000000e+01
2.607362270355225053e+00 2.376679658889770952e+00 -5.587838888168334961e-01 9.000000000000000000e+00
3.228579759597777876e+00 2.940873146057128906e+00 -5.362251400947570801e-01 1.000000000000000000e+01
4.186735153198242188e+00 3.812308073043822798e+00 -4.953932464122772217e-01 9.000000000000000000e+00
6.064049243927001953e+00 5.517860412597656250e+00 -4.296782016754149836e-01 2.000000000000000000e+00
9.942284584045410156e+00 9.040440559387207031e+00 -2.345603406429291049e-01 2.000000000000000000e+00
1.657242298126220925e+00 1.502695560455322044e+00 -5.994248986244201660e-01 2.000000000000000000e+01
1.904757976531981978e+00 1.725917935371398926e+00 -5.934208631515502930e-01 1.400000000000000000e+01
2.197168111801147017e+00 1.990175008773803933e+00 -5.762431621551513672e-01 1.200000000000000000e+01
2.609784364700316939e+00 2.362261295318603960e+00 -5.575324296951293945e-01 9.000000000000000000e+00
3.244714498519897017e+00 2.934911966323852983e+00 -5.372000932693481445e-01 1.000000000000000000e+01
4.207406044006347656e+00 3.804351568222045898e+00 -4.962647855281829834e-01 9.000000000000000000e+00
6.074381828308104581e+00 5.488625049591063565e+00 -4.290501773357390802e-01 1.000000000000000000e+00
9.961907386779785156e+00 8.994959831237792969e+00 -2.342811077833175937e-01 2.000000000000000000e+00
1.662216305732727051e+00 1.497191667556762917e+00 -5.994248986244201660e-01 1.900000000000000000e+01
1.906125545501708984e+00 1.715680837631226030e+00 -5.920711755752563477e-01 1.500000000000000000e+01
2.215431213378905806e+00 1.993383288383484109e+00 -5.792961120605468750e-01 1.400000000000000000e+01
2.629354953765869141e+00 2.364160060882567915e+00 -5.600354075431823730e-01 9.000000000000000000e+00
3.258858919143677202e+00 2.928116083145142046e+00 -5.379312634468078613e-01 9.000000000000000000e+00
4.221480846405029297e+00 3.791709899902344194e+00 -4.964390993118286133e-01 8.000000000000000000e+00
6.098494529724121094e+00 5.473787784576416016e+00 -4.294688701629639227e-01 2.000000000000000000e+00
1.000358963012694957e+01 8.972557067871093750e+00 -2.345603406429291049e-01 2.000000000000000000e+00
1.673192024230957031e+00 1.496531844139098899e+00 -6.014954447746276855e-01 2.000000000000000000e+01
1.901932120323180930e+00 1.699926257133484109e+00 -5.889218449592590332e-01 1.200000000000000000e+01
2.209199666976929155e+00 1.973865270614624023e+00 -5.758615732192993164e-01 1.300000000000000000e+01
2.642011880874633789e+00 2.358914375305175781e+00 -5.609740018844604492e-01 1.000000000000000000e+01
3.249804258346558061e+00 2.899542331695557085e+00 -5.347626805305480957e-01 1.000000000000000000e+01
4.248072624206542969e+00 3.788886547088623047e+00 -4.980079233646392822e-01 9.000000000000000000e+00
6.117564678192138672e+00 5.452466964721679688e+00 -4.294688701629639227e-01 2.000000000000000000e+00
1.002290248870849965e+01 8.926942825317382812e+00 -2.342811077833175937e-01 2.000000000000000000e+00
1.678405642509460005e+00 1.490682244300842063e+00 -6.014954447746276855e-01 2.000000000000000000e+01
1.912226796150207964e+00 1.697157621383666992e+00 -5.902715921401977539e-01 1.300000000000000000e+01
2.210201978683472124e+00 1.960929989814758079e+00 -5.743350982666015625e-01 1.500000000000000000e+01
2.642839431762694868e+00 2.343125343322753906e+00 -5.594096183776855469e-01 9.000000000000000000e+00
3.268820762634276900e+00 2.896079063415526900e+00 -5.362251400947570801e-01 1.000000000000000000e+01
4.241882801055908203e+00 3.756862163543701172e+00 -4.957418739795684814e-01 9.000000000000000000e+00
6.139551162719726562e+00 5.433726787567138672e+00 -4.296782016754149836e-01 2.000000000000000000e+00
1.006598567962645951e+01 8.902500152587890625e+00 -2.345603406429291049e-01 2.000000000000000000e+00
1.676354527473449929e+00 1.478425383567810059e+00 -5.989072918891906738e-01 1.900000000000000000e+01
1.935683250427246094e+00 1.705934047698975053e+00 -5.956704020500183105e-01 1.200000000000000000e+01
2.218506574630736861e+00 1.954500794410706010e+00 -5.747166872024536133e-01 1.400000000000000000e+01
2.651002407073975053e+00 2.333885908126831055e+00 -5.594096183776855469e-01 9.000000000000000000e+00
3.289342880249022993e+00 2.893829584121704102e+00 -5.379312634468078613e-01 1.000000000000000000e+01
4.248986244201660156e+00 3.736769437789916992e+00 -4.950446188449860174e-01 9.000000000000000000e+00
6.155480861663818359e+00 5.409625530242919922e+00 -4.294688701629639227e-01 2.000000000000000000e+00
1.011803531646729049e+01 8.885783195495605469e+00 -2.350490093231200894e-01 2.000000000000000000e+00
1.686802387237549050e+00 1.478244662284851074e+00 -6.009778380393981934e-01 1.600000000000000000e+01
1.927838802337646040e+00 1.688289642333983931e+00 -5.916212797164916992e-01 1.300000000000000000e+01
2.230544567108153853e+00 1.952694177627563032e+00 -5.762431621551513672e-01 1.400000000000000000e+01
2.649400949478148970e+00 2.317742109298706055e+00 -5.575324296951293945e-01 9.000000000000000000e+00
3.296923398971558061e+00 2.882174968719481978e+00 -5.376875400543212891e-01 1.000000000000000000e+01
4.275707244873046875e+00 3.736512899398804155e+00 -4.967877268791198730e-01 9.000000000000000000e+00
6.187489032745361328e+00 5.403398513793945312e+00 -4.305155873298645020e-01 2.000000000000000000e+00
3.623005294799804688e+01 3.162776756286621094e+01 1.110313415527343928e+01 1.400000000000000000e+01
1.020014095306395951e+01 8.901285171508789062e+00 -2.363055795431137085e-01 2.000000000000000000e+00
1.690494894981384055e+00 1.471079468727112038e+00 -6.004601716995239258e-01 1.600000000000000000e+01
1.924897193908690962e+00 1.673877477645874023e+00 -5.889218449592590332e-01 1.200000000000000000e+01
2.235865592956542969e+00 1.943608283996582031e+00 -5.758615732192993164e-01 1.300000000000000000e+01
2.657475233078002930e+00 2.308479785919189009e+00 -5.575324296951293945e-01 9.000000000000000000e+00
3.303965806961060014e+00 2.868046522140502930e+00 -5.372000932693481445e-01 1.000000000000000000e+01
4.285714626312255859e+00 3.718953609466553178e+00 -4.964390993118286133e-01 9.000000000000000000e+00
6.194241046905517578e+00 5.371299266815186435e+00 -4.296782016754149836e-01 2.000000000000000000e+00
1.017674541473389027e+01 8.818482398986816406e+00 -2.350490093231200894e-01 2.000000000000000000e+00
1.701466560363769975e+00 1.470221877098083052e+00 -6.025307178497314453e-01 1.800000000000000000e+01
1.938103199005126953e+00 1.673516154289246050e+00 -5.911713838577270508e-01 1.200000000000000000e+01
2.244122505187987837e+00 1.937074542045593040e+00 -5.762431621551513672e-01 1.200000000000000000e+01
2.672996044158935991e+00 2.305640697479248047e+00 -5.590967535972595215e-01 1.000000000000000000e+01
3.685245132446289062e+01 3.177652549743651988e+01 5.974766254425048828e+00 4.900000000000000000e+01
3.309446096420288086e+00 2.852607727050780806e+00 -5.364688634872436523e-01 9.000000000000000000e+00
4.298669815063476562e+00 3.703970909118651900e+00 -4.964390993118286133e-01 9.000000000000000000e+00
6.203871250152587891e+00 5.341825485229492188e+00 -4.290501773357390802e-01 2.000000000000000000e+00
1.020140171051025035e+01 8.777688026428222656e+00 -2.349093854427337924e-01 2.000000000000000000e+00
1.696325182914734109e+00 1.455467939376831055e+00 -5.989072918891906738e-01 1.600000000000000000e+01
1.948371291160583052e+00 1.670546054840087891e+00 -5.925210714340209961e-01 1.100000000000000000e+01
