1.978934288024901988e+01 -3.692751169204711914e+00 -3.513867557048798163e-01 1.000000000000000000e+01
3.522092437744141336e+01 -6.578692436218261719e+00 9.600633621215820312e+00 7.000000000000000000e+00
2.371319532394409180e+00 -4.459225833415985107e-01 -6.465299725532531738e-01 2.000000000000000000e+01
2.744261264801024947e+00 -5.170454978942871094e-01 -6.447097063064575195e-01 1.300000000000000000e+01
3.206406831741333008e+00 -6.046977043151855469e-01 -6.342490911483764648e-01 1.100000000000000000e+01
3.880119800567626953e+00 -7.331562638282775879e-01 -6.254249811172485352e-01 1.000000000000000000e+01
4.987296581268311435e+00 -9.441626071929931641e-01 -6.232398152351379395e-01 1.000000000000000000e+01
6.647850990295410156e+00 -1.259729981422424094e+00 -5.919618010520935059e-01 6.000000000000000000e+00
1.045268154144286932e+01 -1.984503626823425071e+00 -5.575872659683227539e-01 2.000000000000000000e+00
3.323340606689453125e+01 -6.315568923950195312e+00 7.809850692749023438e+00 1.900000000000000000e+01
1.977043914794921875e+01 -3.760685443878173828e+00 -3.512820303440093994e-01 1.000000000000000000e+01
3.531278228759766336e+01 -6.717113018035888672e+00 9.631691932678222656e+00 7.000000000000000000e+00
2.381132364273070845e+00 -4.563792049884796143e-01 -6.496357917785644531e-01 2.000000000000000000e+01
2.736698389053345171e+00 -5.255191326141357422e-01 -6.433600187301635742e-01 1.400000000000000000e+01
3.208132505416870117e+00 -6.166276335716247559e-01 -6.350123286247253418e-01 1.100000000000000000e+01
3.867838144302368164e+00 -7.448282241821289062e-01 -6.238606572151184082e-01 1.100000000000000000e+01
4.993715763092041016e+00 -9.634460210800170898e-01 -6.244584918022155762e-01 1.000000000000000000e+01
3.609100723266602273e+01 -6.969632625579833984e+00 5.821865081787109375e+00 1.300000000000000000e+01
6.647325992584229404e+00 -1.283683180809020996e+00 -5.923104286193847656e-01 6.000000000000000000e+00
1.049275207519531072e+01 -2.030083417892456055e+00 -5.600994229316711426e-01 2.000000000000000000e+00
3.334890747070313211e+01 -6.458212852478027344e+00 7.842243671417236328e+00 9.000000000000000000e+00
2.077999496459960938e+01 -4.027931213378906250e+00 -3.694674372673035223e-01 1.000000000000000000e+01
2.379686832427978960e+00 -4.638574719429016113e-01 -6.496357917785644531e-01 1.800000000000000000e+01
2.733121156692504883e+00 -5.337405800819396973e-01 -6.429101228713989258e-01 1.200000000000000000e+01
3.213886499404906782e+00 -6.282097101211547852e-01 -6.365388035774230957e-01 1.100000000000000000e+01
3.867417812347412109e+00 -7.573553323745727539e-01 -6.241735219955444336e-01 1.100000000000000000e+01
4.988716602325438565e+00 -9.787473082542419434e-01 -6.242147684097290039e-01 1.000000000000000000e+01
3.772945785522460938e+01 -7.402225494384765625e+00 6.089680671691895419e+00 1.400000000000000000e+01
6.670630931854248047e+00 -1.309934854507446067e+00 -5.947507619857788086e-01 5.000000000000000000e+00
1.047848415374756037e+01 -2.061495065689086914e+00 -5.596807003021240234e-01 2.000000000000000000e+00
3.330551147460938211e+01 -6.558431625366210938e+00 7.836844921112061435e+00 9.000000000000000000e+00
2.043174362182616832e+01 -4.027068614959716797e+00 -3.634987175464630127e-01 6.000000000000000000e+00
3.668394470214843750e+01 -7.237006187438964844e+00 1.001888561248778942e+01 8.000000000000000000e+00
2.381842851638793945e+00 -4.729137718677520752e-01 -6.506710648536682129e-01 1.700000000000000000e+01
2.748443126678466797e+00 -5.466993451118469238e-01 -6.469592452049255371e-01 1.200000000000000000e+01
3.209748744964600053e+00 -6.390411257743835449e-01 -6.361572146415710449e-01 1.200000000000000000e+01
3.880248308181763139e+00 -7.739416956901550293e-01 -6.266764402389526367e-01 1.100000000000000000e+01
3.760787963867188211e+01 -7.507970809936523438e+00 4.708787918090820312e+00 2.000000000000000000e+01
4.975536823272705078e+00 -9.942103624343872070e-01 -6.229960918426513672e-01 9.000000000000000000e+00
3.847687911987304688e+01 -7.695423126220703125e+00 6.214828491210938388e+00 1.400000000000000000e+01
6.691415786743164062e+00 -1.338291406631469949e+00 -5.970168113708496094e-01 6.000000000000000000e+00
1.049080753326416016e+01 -2.101983070373535156e+00 -5.607274174690246582e-01 2.000000000000000000e+00
3.361105346679688211e+01 -6.740556716918945312e+00 7.914227962493895596e+00 1.900000000000000000e+01
1.974704170227051137e+01 -3.963772058486938032e+00 -3.515612781047821045e-01 6.000000000000000000e+00
2.378284215927124023e+00 -4.808422327041625977e-01 -6.501534581184387207e-01 2.100000000000000000e+01
2.735058307647705078e+00 -5.539687275886535645e-01 -6.442598104476928711e-01 1.500000000000000000e+01
3.195953845977783203e+00 -6.479009389877319336e-01 -6.338675022125244141e-01 1.200000000000000000e+01
3.893009901046752930e+00 -7.906267642974853516e-01 -6.291794180870056152e-01 1.000000000000000000e+01
3.759311676025391336e+01 -7.641573429107666016e+00 4.710249900817871094e+00 2.000000000000000000e+01
4.979816913604736328e+00 -1.013155221939086914e+00 -6.239710450172424316e-01 9.000000000000000000e+00
6.667180538177490234e+00 -1.357665061950684038e+00 -5.952737331390380859e-01 6.000000000000000000e+00
3.508837509155272727e+01 -7.151566505432128906e+00 6.960711956024169922e+00 6.000000000000000000e+01
1.052254581451416016e+01 -2.146574258804320845e+00 -5.628208518028259277e-01 2.000000000000000000e+00
3.378207397460938211e+01 -6.897604942321777344e+00 7.960117816925048828e+00 9.000000000000000000e+00
1.818923377990723012e+01 -3.717174530029296875e+00 -3.240562975406646729e-01 3.000000000000000000e+00
2.370914697647095171e+00 -4.879727363586425781e-01 -6.486005187034606934e-01 2.000000000000000000e+01
2.738833665847777876e+00 -5.646930336952209473e-01 -6.456094980239868164e-01 1.300000000000000000e+01
3.212900161743164062e+00 -6.630207300186157227e-01 -6.376836895942687988e-01 1.300000000000000000e+01
3.878619670867919922e+00 -8.018116354942321777e-01 -6.273022294044494629e-01 1.100000000000000000e+01
4.987913131713867188e+00 -1.032947182655334029e+00 -6.254334449768066406e-01 9.000000000000000000e+00
6.658498764038085938e+00 -1.380120873451232910e+00 -5.949251055717468262e-01 5.000000000000000000e+00
1.053454399108887074e+01 -2.187352180480957031e+00 -5.638675689697265625e-01 2.000000000000000000e+00
1.808217430114746094e+01 -3.761097431182860884e+00 -3.223808407783507746e-01 6.000000000000000000e+00
3.561888885498046875e+01 -7.415225505828857422e+00 9.748678207397460938e+00 7.000000000000000000e+00
2.374869346618651900e+00 -4.974339306354523260e-01 -6.501534581184387207e-01 2.100000000000000000e+01
2.744474649429320845e+00 -5.758506059646606445e-01 -6.474091410636901855e-01 1.300000000000000000e+01
3.214408874511719194e+00 -6.750388145446777344e-01 -6.384469270706176758e-01 1.300000000000000000e+01
3.877730131149291992e+00 -8.157523274421691895e-01 -6.276150941848754883e-01 1.100000000000000000e+01
3.713869857788085938e+01 -7.819581508636474609e+00 4.660039901733398438e+00 2.000000000000000000e+01
4.995931625366210938e+00 -1.052807927131653054e+00 -6.268959045410156250e-01 9.000000000000000000e+00
6.661438941955566406e+00 -1.404999613761902078e+00 -5.956223607063293457e-01 5.000000000000000000e+00
1.050730323791504084e+01 -2.219982624053955078e+00 -5.628208518028259277e-01 2.000000000000000000e+00
1.798285484313964844e+01 -3.805974721908568892e+00 -3.208450376987457275e-01 3.000000000000000000e+00
3.707207107543945312e+01 -7.846105575561523438e+00 1.015347099304199041e+01 8.000000000000000000e+00
2.373118400573730025e+00 -5.057207345962524414e-01 -6.501534581184387207e-01 2.100000000000000000e+01
2.725295782089232954e+00 -5.817656517028808594e-01 -6.433600187301635742e-01 1.500000000000000000e+01
3.217792749404906782e+00 -6.874856352806091309e-01 -6.395917534828186035e-01 1.200000000000000000e+01
3.888380527496337891e+00 -8.321769833564758301e-01 -6.298051476478576660e-01 1.000000000000000000e+01
3.741398239135742188e+01 -8.014032363891601562e+00 4.698063373565673828e+00 2.000000000000000000e+01
4.990285396575927734e+00 -1.069824457168579102e+00 -6.266521811485290527e-01 1.000000000000000000e+01
6.674026489257813388e+00 -1.432005643844604048e+00 -5.971911549568176270e-01 6.000000000000000000e+00
1.051511192321776988e+01 -2.260004043579102007e+00 -5.636582374572753906e-01 2.000000000000000000e+00
1.802028656005859020e+01 -3.879666328430175781e+00 -3.217525780200958252e-01 3.000000000000000000e+00
2.386442661285399947e+00 -5.172752737998962402e-01 -6.542945504188537598e-01 2.100000000000000000e+01
2.728961467742919922e+00 -5.925155878067016602e-01 -6.447097063064575195e-01 1.400000000000000000e+01
3.215373277664185014e+00 -6.987136602401733398e-01 -6.395917534828186035e-01 1.200000000000000000e+01
3.885452032089232954e+00 -8.457449078559875488e-01 -6.298051476478576660e-01 1.000000000000000000e+01
3.737414169311522727e+01 -8.142047882080078125e+00 4.696600914001464844e+00 2.000000000000000000e+01
4.980701923370361328e+00 -1.085968613624572976e+00 -6.259209513664245605e-01 1.000000000000000000e+01
6.672880172729492188e+00 -1.456143260002136008e+00 -5.975397825241088867e-01 6.000000000000000000e+00
1.055008506774901988e+01 -2.306077718734741211e+00 -5.659610033035278320e-01 2.000000000000000000e+00
1.909664344787598012e+01 -4.181202411651611328e+00 -3.412294387817382812e-01 3.000000000000000000e+00
3.767689514160156250e+01 -8.249340057373046875e+00 1.033464431762694957e+01 8.000000000000000000e+00
2.375189781188964844e+00 -5.235232710838317871e-01 -6.517063379287719727e-01 2.000000000000000000e+01
2.734488248825072798e+00 -6.037183403968811035e-01 -6.465093493461608887e-01 1.400000000000000000e+01
3.209080696105957031e+00 -7.090859413146972656e-01 -6.388285160064697266e-01 1.200000000000000000e+01
3.897905826568603960e+00 -8.627175092697143555e-01 -6.323081254959106445e-01 1.100000000000000000e+01
4.988509178161621094e+00 -1.105925798416137917e+00 -6.273833513259887695e-01 9.000000000000000000e+00
6.671646595001220703e+00 -1.480290174484252930e+00 -5.978884100914001465e-01 5.000000000000000000e+00
1.063945484161376953e+01 -2.364555835723876953e+00 -5.711946487426757812e-01 3.000000000000000000e+00
3.633491897583007812e+01 -8.081875801086425781e+00 8.593580245971679688e+00 1.100000000000000000e+01
1.913658714294433949e+01 -4.260003089904785156e+00 -3.422067761421204168e-01 6.000000000000000000e+00
3.774068832397460938e+01 -8.408383369445800781e+00 1.036052608489990057e+01 8.000000000000000000e+00
2.362037181854248047e+00 -5.292765498161315918e-01 -6.486005187034606934e-01 2.000000000000000000e+01
2.738068580627440962e+00 -6.145401000976562500e-01 -6.478590369224548340e-01 1.200000000000000000e+01
3.206586122512816939e+00 -7.202834486961364746e-01 -6.388285160064697266e-01 1.200000000000000000e+01
3.904506444931029829e+00 -8.784865140914916992e-01 -6.338724493980407715e-01 1.100000000000000000e+01
4.994300842285156250e+00 -1.125514268875122070e+00 -6.286020874977111816e-01 1.000000000000000000e+01
6.666439056396484375e+00 -1.503569602966309038e+00 -5.978884100914001465e-01 7.000000000000000000e+00
1.057269191741943004e+01 -2.388476610183715820e+00 -5.680544972419738770e-01 2.000000000000000000e+00
1.883684349060058949e+01 -4.262342453002929688e+00 -3.371106684207916260e-01 6.000000000000000000e+00
2.363942623138428178e+00 -5.383763909339904785e-01 -6.496357917785644531e-01 2.000000000000000000e+01
2.735906600952147993e+00 -6.240940093994140625e-01 -6.478590369224548340e-01 1.500000000000000000e+01
3.211708307266234907e+00 -7.332199811935424805e-01 -6.403549909591674805e-01 1.200000000000000000e+01
3.882159471511840820e+00 -8.877071142196655273e-01 -6.307437419891357422e-01 1.100000000000000000e+01
5.009691715240479404e+00 -1.147372484207153098e+00 -6.310394406318664551e-01 1.000000000000000000e+01
3.612902069091796875e+01 -8.281287193298339844e+00 5.870672702789306641e+00 1.300000000000000000e+01
6.676686286926270419e+00 -1.530391693115233931e+00 -5.992828607559204102e-01 3.000000000000000000e+00
1.056429004669188920e+01 -2.425367593765258789e+00 -5.680544972419738770e-01 2.000000000000000000e+00
1.808518981933594105e+01 -4.158675193786621094e+00 -3.239166736602783203e-01 3.000000000000000000e+00
3.796346282958983664e+01 -8.736644744873046875e+00 1.043817234039306996e+01 8.000000000000000000e+00
2.367790699005126953e+00 -5.475181937217712402e-01 -6.511887311935424805e-01 2.100000000000000000e+01
2.724329710006713867e+00 -6.309646964073181152e-01 -6.456094980239868164e-01 1.300000000000000000e+01
3.205434083938599077e+00 -7.429797053337097168e-01 -6.395917534828186035e-01 1.200000000000000000e+01
3.890739679336547852e+00 -9.032562375068664551e-01 -6.326209902763366699e-01 1.100000000000000000e+01
5.005859375000000000e+00 -1.163978934288024902e+00 -6.310394406318664551e-01 1.000000000000000000e+01
3.594120788574218750e+01 -8.357169151306152344e+00 5.844391822814941406e+00 1.300000000000000000e+01
6.690979957580566406e+00 -1.557039737701416016e+00 -6.010259985923767090e-01 5.000000000000000000e+00
1.059509181976318004e+01 -2.469454050064086914e+00 -5.701479315757751465e-01 3.000000000000000000e+00
1.806740570068359020e+01 -4.217715740203857422e+00 -3.238468468189240057e-01 1.500000000000000000e+01
3.666785049438477273e+01 -8.559865951538085938e+00 1.008928394317626953e+01 8.000000000000000000e+00
2.371507167816162109e+00 -5.571054220199584961e-01 -6.527416110038757324e-01 2.000000000000000000e+01
2.718316555023192915e+00 -6.395778656005859375e-01 -6.447097063064575195e-01 1.300000000000000000e+01
3.206643104553223100e+00 -7.550641894340515137e-01 -6.403549909591674805e-01 1.200000000000000000e+01
3.887562990188599077e+00 -9.168319702148437500e-01 -6.326209902763366699e-01 1.100000000000000000e+01
4.253704452514647727e+01 -1.003965473175049006e+01 5.366394519805908203e+00 3.300000000000000000e+01
4.984378337860107422e+00 -1.177338600158690962e+00 -6.288458108901977539e-01 9.000000000000000000e+00
3.607181549072266336e+01 -8.527016639709472656e+00 5.870672702789306641e+00 1.300000000000000000e+01
6.673870086669921875e+00 -1.577636122703552024e+00 -5.999801158905029297e-01 3.000000000000000000e+00
1.062139034271240057e+01 -2.514705419540404829e+00 -5.720319747924804688e-01 3.000000000000000000e+00
3.785079956054688211e+01 -8.968479156494140625e+00 8.980496406555175781e+00 1.200000000000000000e+01
1.799225425720214844e+01 -4.266453742980957031e+00 -3.227648138999938965e-01 1.200000000000000000e+01
2.362031698226929155e+00 -5.635866522789001465e-01 -6.506710648536682129e-01 2.000000000000000000e+01
2.719858407974243164e+00 -6.499685645103454590e-01 -6.456094980239868164e-01 1.400000000000000000e+01
3.202078342437744141e+00 -7.657962441444396973e-01 -6.399733424186706543e-01 1.200000000000000000e+01
3.888180971145629883e+00 -9.313167333602905273e-01 -6.332467198371887207e-01 1.100000000000000000e+01
3.625880813598632812e+01 -8.691584587097167969e+00 4.578143596649169922e+00 1.900000000000000000e+01
5.005332469940186435e+00 -1.200750112533568892e+00 -6.320143938064575195e-01 1.000000000000000000e+01
6.679946422576904297e+00 -1.603713274002074973e+00 -6.010259985923767090e-01 5.000000000000000000e+00
1.063585090637207031e+01 -2.557368755340576172e+00 -5.732880830764770508e-01 3.000000000000000000e+00
3.777758407592772727e+01 -9.090517997741699219e+00 8.970598220825195312e+00 1.200000000000000000e+01
3.637055206298828125e+01 -8.758656501770019531e+00 1.002406120300292969e+01 8.000000000000000000e+00
2.358172416687012163e+00 -5.713733434677124023e-01 -6.501534581184387207e-01 1.900000000000000000e+01
4.233263397216796875e+01 -1.026480770111083984e+01 7.603315114974975586e-01 4.400000000000000000e+01
2.732723236083983931e+00 -6.631351113319396973e-01 -6.492087244987487793e-01 1.400000000000000000e+01
3.201293706893920898e+00 -7.774322032928466797e-01 -6.403549909591674805e-01 1.200000000000000000e+01
3.886825799942017046e+00 -9.453502297401428223e-01 -6.335595846176147461e-01 1.000000000000000000e+01
3.625139617919921875e+01 -8.823732376098632812e+00 4.581068515777587891e+00 1.900000000000000000e+01
5.003039360046386719e+00 -1.218684434890747070e+00 -6.322581768035888672e-01 9.000000000000000000e+00
6.678179264068604404e+00 -1.627964615821837935e+00 -6.013746261596679688e-01 5.000000000000000000e+00
1.064238166809082031e+01 -2.598268985748291016e+00 -5.741254687309265137e-01 3.000000000000000000e+00
3.771154403686522727e+01 -9.214005470275878906e+00 8.962499618530273438e+00 1.200000000000000000e+01
2.356163501739501953e+00 -5.796014070510864258e-01 -6.501534581184387207e-01 1.900000000000000000e+01
2.730391740798950195e+00 -6.726700663566589355e-01 -6.492087244987487793e-01 1.400000000000000000e+01
3.194747924804687944e+00 -7.876621484756469727e-01 -6.395917534828186035e-01 1.100000000000000000e+01
3.868160009384154829e+00 -9.551237225532531738e-01 -6.310566067695617676e-01 1.000000000000000000e+01
5.002608776092529297e+00 -1.237093925476073997e+00 -6.327456235885620117e-01 9.000000000000000000e+00
6.680191993713378906e+00 -1.653180480003356934e+00 -6.020718812942504883e-01 5.000000000000000000e+00
1.068365001678466975e+01 -2.647894144058227983e+00 -5.768468976020812988e-01 3.000000000000000000e+00
3.602604293823242188e+01 -8.935565948486328125e+00 8.569285392761230469e+00 1.100000000000000000e+01
1.818142700195312855e+01 -4.512921333312988281e+00 -3.269882798194885254e-01 3.000000000000000000e+00
3.911907577514647727e+01 -9.709980964660644531e+00 1.080000114440917969e+01 1.900000000000000000e+01
2.361623287200928178e+00 -5.896944999694824219e-01 -6.522240042686462402e-01 1.900000000000000000e+01
2.718574523925780806e+00 -6.798329949378967285e-01 -6.469592452049255371e-01 1.500000000000000000e+01
4.241983413696289062e+01 -1.061578083038330078e+01 2.291686773300170898e+00 3.100000000000000000e+01
3.205310821533203125e+00 -8.021454215049743652e-01 -6.422630548477172852e-01 1.100000000000000000e+01
3.882047414779663086e+00 -9.729423522949218750e-01 -6.338724493980407715e-01 1.100000000000000000e+01
3.633139419555664062e+01 -9.112334251403808594e+00 4.599105358123779297e+00 1.900000000000000000e+01
5.009812355041503906e+00 -1.257448434829711914e+00 -6.342080831527709961e-01 9.000000000000000000e+00
3.729198455810546875e+01 -9.360179901123046875e+00 6.089680671691895419e+00 1.400000000000000000e+01
6.680177688598632812e+00 -1.677944660186768022e+00 -6.025947928428649902e-01 3.000000000000000000e+00
1.070533275604248047e+01 -2.692966699600220171e+00 -5.785216689109802246e-01 3.000000000000000000e+00
3.552219009399414062e+01 -8.942332267761230469e+00 8.456809997558593750e+00 1.100000000000000000e+01
1.806860923767089844e+01 -4.551933288574218750e+00 -3.252430558204650879e-01 3.000000000000000000e+00
2.361423015594481978e+00 -5.984090566635131836e-01 -6.527416110038757324e-01 1.800000000000000000e+01
2.716184854507445845e+00 -6.893184185028076172e-01 -6.469592452049255371e-01 1.500000000000000000e+01
3.192976951599121094e+00 -8.109128475189208984e-01 -6.403549909591674805e-01 1.100000000000000000e+01
3.882456541061400923e+00 -9.874610900878906250e-01 -6.344981789588928223e-01 1.100000000000000000e+01
5.005392551422119141e+00 -1.274928212165832964e+00 -6.342080831527709961e-01 1.000000000000000000e+01
6.703239917755126953e+00 -1.708634495735168013e+00 -6.052094697952270508e-01 5.000000000000000000e+00
1.069586753845215021e+01 -2.730319023132324219e+00 -5.785216689109802246e-01 3.000000000000000000e+00
3.570600128173828125e+01 -9.121258735656738281e+00 8.508098602294921875e+00 1.100000000000000000e+01
3.657412719726563211e+01 -9.349825859069824219e+00 1.011516571044922053e+01 8.000000000000000000e+00
2.359319925308227983e+00 -6.066483259201049805e-01 -6.527416110038757324e-01 1.800000000000000000e+01
2.721310853958129883e+00 -7.007393240928649902e-01 -6.487588286399841309e-01 1.500000000000000000e+01
3.199632644653319868e+00 -8.245030045509338379e-01 -6.422630548477172852e-01 1.200000000000000000e+01
3.886636734008789062e+00 -1.002981781959533913e+00 -6.357496380805969238e-01 1.100000000000000000e+01
3.621691894531250000e+01 -9.352846145629882812e+00 4.592768192291259766e+00 1.900000000000000000e+01
5.008599281311035156e+00 -1.294379353523253950e+00 -6.351830363273620605e-01 1.000000000000000000e+01
6.676016807556152344e+00 -1.726535320281981978e+00 -6.032920479774475098e-01 5.000000000000000000e+00
1.068627166748047053e+01 -2.767637968063354048e+00 -5.785216689109802246e-01 3.000000000000000000e+00
3.568149185180664062e+01 -9.247796058654785156e+00 8.509898185729980469e+00 1.100000000000000000e+01
3.630400848388671875e+01 -9.422662734985351562e+00 1.004994392395020064e+01 8.000000000000000000e+00
2.353449344635010210e+00 -6.139049530029296875e-01 -6.517063379287719727e-01 1.800000000000000000e+01
2.733932018280028853e+00 -7.141744494438171387e-01 -6.523580551147460938e-01 1.500000000000000000e+01
3.194835662841796875e+00 -8.351702094078063965e-01 -6.418814659118652344e-01 1.200000000000000000e+01
3.885023117065430132e+00 -1.017042875289916992e+00 -6.360625624656677246e-01 1.100000000000000000e+01
3.586528396606445312e+01 -9.395701408386230469e+00 4.552307605743408203e+00 1.900000000000000000e+01
5.007891178131104404e+00 -1.312861442565917969e+00 -6.356704831123352051e-01 9.000000000000000000e+00
3.642593002319335938e+01 -9.556163787841796875e+00 5.964533329010009766e+00 1.300000000000000000e+01
6.695002555847167969e+00 -1.756401062011718972e+00 -6.055580973625183105e-01 5.000000000000000000e+00
1.067654609680175959e+01 -2.804923057556151900e+00 -5.785216689109802246e-01 3.000000000000000000e+00
2.584445381164551137e+01 -6.799453735351563388e+00 -4.664679169654846191e-01 4.000000000000000000e+00
3.628750610351563211e+01 -9.546931266784667969e+00 1.005408477783202947e+01 8.000000000000000000e+00
2.356894731521606001e+00 -6.235986948013305664e-01 -6.532592773437500000e-01 1.900000000000000000e+01
2.718236207962036133e+00 -7.202194929122924805e-01 -6.492087244987487793e-01 1.400000000000000000e+01
3.195696353912353960e+00 -8.473235368728637695e-01 -6.426447033882141113e-01 1.200000000000000000e+01
3.875721693038939986e+00 -1.029077053070067915e+00 -6.351239085197448730e-01 1.100000000000000000e+01
3.610469818115233664e+01 -9.593223571777343750e+00 4.586918354034423828e+00 1.900000000000000000e+01
5.007114887237548828e+00 -1.331354498863219993e+00 -6.361579895019531250e-01 9.000000000000000000e+00
3.585784530639647727e+01 -9.541034698486328125e+00 5.876929759979248047e+00 1.300000000000000000e+01
6.692681312561035156e+00 -1.780784845352173074e+00 -6.059067249298095703e-01 5.000000000000000000e+00
1.068984889984131037e+01 -2.848345041275023970e+00 -5.797777175903320312e-01 3.000000000000000000e+00
3.610463714599608664e+01 -9.633696556091308594e+00 1.001267337799072088e+01 8.000000000000000000e+00
2.352947950363159180e+00 -6.309106945991516113e-01 -6.527416110038757324e-01 1.800000000000000000e+01
4.226431655883789062e+01 -1.134050273895264027e+01 7.638220191001892090e-01 4.500000000000000000e+01
2.708304643630981001e+00 -7.272081375122070312e-01 -6.474091410636901855e-01 1.400000000000000000e+01
3.192868947982788086e+00 -8.579161763191223145e-01 -6.426447033882141113e-01 1.200000000000000000e+01
3.876102924346923828e+00 -1.042950272560120073e+00 -6.357496380805969238e-01 1.100000000000000000e+01
5.006505966186523438e+00 -1.348984241485595925e+00 -6.366454362869262695e-01 9.000000000000000000e+00
3.569417953491210938e+01 -9.617663383483886719e+00 5.855029106140136719e+00 1.300000000000000000e+01
6.696357727050781250e+00 -1.805562257766724077e+00 -6.067782640457153320e-01 5.000000000000000000e+00
1.069577026367188033e+01 -2.887943029403686968e+00 -5.806151032447814941e-01 3.000000000000000000e+00
3.613216781616210938e+01 -9.769506454467773438e+00 1.002923774719237926e+01 8.000000000000000000e+00
2.360052347183227983e+00 -6.416543126106262207e-01 -6.553298234939575195e-01 1.900000000000000000e+01
2.709510326385498047e+00 -7.376812696456909180e-01 -6.483089327812194824e-01 1.400000000000000000e+01
4.019382095336914062e+01 -1.095055770874023082e+01 2.183246850967406782e+00 2.700000000000000000e+01
3.191748857498168945e+00 -8.695722222328186035e-01 -6.430262923240661621e-01 1.200000000000000000e+01
3.872438669204711914e+00 -1.056474089622498003e+00 -6.357496380805969238e-01 1.200000000000000000e+01
3.642156600952147727e+01 -9.943318367004394531e+00 4.635665893554688388e+00 1.900000000000000000e+01
5.003681182861328125e+00 -1.366975188255310059e+00 -6.368891596794128418e-01 1.000000000000000000e+01
6.722686290740966797e+00 -1.837857723236083984e+00 -6.097415685653686523e-01 5.000000000000000000e+00
1.068562412261963068e+01 -2.925260782241820845e+00 -5.806151032447814941e-01 3.000000000000000000e+00
3.556702041625977273e+01 -9.756729125976562500e+00 9.882228851318359375e+00 7.000000000000000000e+00
2.359660387039185014e+00 -6.504018902778625488e-01 -6.558474898338317871e-01 2.000000000000000000e+01
2.716311216354370117e+00 -7.497271895408630371e-01 -6.505584716796875000e-01 1.500000000000000000e+01
3.184909343719481978e+00 -8.796628117561340332e-01 -6.422630548477172852e-01 1.200000000000000000e+01
3.611679458618164062e+01 -9.982139587402343750e+00 3.278276205062866211e+00 4.700000000000000000e+01
3.880150556564331055e+00 -1.073144435882567915e+00 -6.376268863677978516e-01 1.200000000000000000e+01
4.996966361999511719e+00 -1.383903145790100098e+00 -6.366454362869262695e-01 9.000000000000000000e+00
3.819433593750000000e+01 -1.058504867553710938e+01 6.277402400970458984e+00 1.400000000000000000e+01
6.706629753112792969e+00 -1.858652591705322044e+00 -6.088700294494628906e-01 6.000000000000000000e+00
3.608896255493164062e+01 -1.000835514068604049e+01 7.279744625091552734e+00 6.200000000000000000e+01
1.074848079681395951e+01 -2.982837677001953125e+00 -5.845926403999328613e-01 3.000000000000000000e+00
3.855447387695313211e+01 -1.070659637451172053e+01 9.237839698791503906e+00 1.200000000000000000e+01
3.560520172119141336e+01 -9.894275665283203125e+00 9.901899337768554688e+00 7.000000000000000000e+00
2.346212148666381836e+00 -6.555156707763671875e-01 -6.527416110038757324e-01 1.900000000000000000e+01
2.715554475784302202e+00 -7.597293257713317871e-01 -6.510083675384521484e-01 1.400000000000000000e+01
3.183709859848022017e+00 -8.913041353225708008e-01 -6.426447033882141113e-01 1.200000000000000000e+01
3.872576951980590820e+00 -1.085615634918212891e+00 -6.370011568069458008e-01 1.100000000000000000e+01
3.662266921997070312e+01 -1.027348041534424006e+01 4.670277118682861328e+00 2.000000000000000000e+01
5.009305953979492188e+00 -1.406165838241576926e+00 -6.388391256332397461e-01 9.000000000000000000e+00
6.700100898742675781e+00 -1.882051706314086914e+00 -6.088700294494628906e-01 5.000000000000000000e+00
1.074184799194335938e+01 -3.021420478820800781e+00 -5.848019719123840332e-01 3.000000000000000000e+00
3.814169692993164062e+01 -1.073551464080811080e+01 9.147859573364257812e+00 1.200000000000000000e+01
3.549234771728516336e+01 -9.996503829956054688e+00 9.880158424377441406e+00 7.000000000000000000e+00
2.343909740447998047e+00 -6.637014746665954590e-01 -6.527416110038757324e-01 1.900000000000000000e+01
2.711010932922362837e+00 -7.686721682548522949e-01 -6.505584716796875000e-01 1.500000000000000000e+01
3.188134193420410156e+00 -9.045554399490356445e-01 -6.441711783409118652e-01 1.200000000000000000e+01
3.861163139343262163e+00 -1.096967458724976030e+00 -6.357496380805969238e-01 1.100000000000000000e+01
3.695319366455078125e+01 -1.050547885894775035e+01 4.717074871063232422e+00 2.000000000000000000e+01
5.010095119476318359e+00 -1.425272583961487038e+00 -6.395702958106994629e-01 1.000000000000000000e+01
6.695406913757324219e+00 -1.905973553657531960e+00 -6.090443134307861328e-01 5.000000000000000000e+00
3.512701034545897727e+01 -1.000619220733642933e+01 7.099621295928955078e+00 6.100000000000000000e+01
1.076965141296387074e+01 -3.069848060607910156e+00 -5.868954062461853027e-01 3.000000000000000000e+00
3.801028823852539062e+01 -1.084186172485351918e+01 9.125364303588867188e+00 1.200000000000000000e+01
3.852789306640625000e+01 -1.100404453277588068e+01 1.073633193969726918e+01 9.000000000000000000e+00
2.349006414413452148e+00 -6.740104556083679199e-01 -6.548121571540832520e-01 2.000000000000000000e+01
2.704565525054932085e+00 -7.770544290542602539e-01 -6.496586203575134277e-01 1.500000000000000000e+01
3.196278095245360884e+00 -9.189333915710449219e-01 -6.464608907699584961e-01 1.200000000000000000e+01
3.855412244796752930e+00 -1.109892368316649947e+00 -6.354367733001708984e-01 1.400000000000000000e+01
4.995552062988281250e+00 -1.440003156661987083e+00 -6.383516192436218262e-01 9.000000000000000000e+00
6.707856655120849609e+00 -1.934855103492737038e+00 -6.107874512672424316e-01 3.000000000000000000e+00
1.079724597930908025e+01 -3.118506431579589844e+00 -5.889888405799865723e-01 3.000000000000000000e+00
3.825303268432617188e+01 -1.105563640594482067e+01 9.192850112915039062e+00 1.200000000000000000e+01
2.350349426269530806e+00 -6.832844614982604980e-01 -6.558474898338317871e-01 1.800000000000000000e+01
2.705578565597534180e+00 -7.875797152519226074e-01 -6.505584716796875000e-01 1.500000000000000000e+01
3.187396287918090820e+00 -9.284377098083496094e-01 -6.453160047531127930e-01 1.300000000000000000e+01
3.872374534606934038e+00 -1.129427552223206010e+00 -6.388783454895019531e-01 1.100000000000000000e+01
3.643304443359375000e+01 -1.063306331634520951e+01 4.660039901733398438e+00 2.000000000000000000e+01
4.986684322357177734e+00 -1.456319212913512962e+00 -6.378641724586486816e-01 9.000000000000000000e+00
6.706799030303955078e+00 -1.959934711456299050e+00 -6.113103628158569336e-01 3.000000000000000000e+00
3.531256866455078125e+01 -1.032611751556395951e+01 7.151521205902099609e+00 6.100000000000000000e+01
1.078629493713379084e+01 -3.156177043914794922e+00 -5.889888405799865723e-01 3.000000000000000000e+00
3.718932723999022727e+01 -1.088901329040526988e+01 8.946303367614746094e+00 1.200000000000000000e+01
3.839822387695313211e+01 -1.125753211975098012e+01 1.072183799743651988e+01 9.000000000000000000e+00
2.347949981689453125e+00 -6.914845705032348633e-01 -6.558474898338317871e-01 1.900000000000000000e+01
2.708420515060424805e+00 -7.986727356910705566e-01 -6.519081592559814453e-01 1.400000000000000000e+01
3.178487062454224077e+00 -9.378913044929504395e-01 -6.441711783409118652e-01 1.200000000000000000e+01
3.874091625213623047e+00 -1.144616961479187012e+00 -6.398169398307800293e-01 1.300000000000000000e+01
3.630052185058593750e+01 -1.073203372955322088e+01 4.647852897644042969e+00 1.900000000000000000e+01
4.996798515319824219e+00 -1.478222131729125977e+00 -6.398140788078308105e-01 9.000000000000000000e+00
3.630094528198242188e+01 -1.073904800415039062e+01 5.995820045471191406e+00 1.300000000000000000e+01
6.707558155059813565e+00 -1.985595941543579102e+00 -6.120076179504394531e-01 3.000000000000000000e+00
1.081350994110107067e+01 -3.205160617828369141e+00 -5.910822749137878418e-01 3.000000000000000000e+00
3.826609802246093750e+01 -1.136399936676025035e+01 1.069595623016357067e+01 9.000000000000000000e+00
2.336265802383422852e+00 -6.969150900840759277e-01 -6.532592773437500000e-01 2.100000000000000000e+01
2.701881647109984907e+00 -8.070065975189208984e-01 -6.510083675384521484e-01 1.400000000000000000e+01
3.186480045318603960e+00 -9.523537158966064453e-01 -6.464608907699584961e-01 1.300000000000000000e+01
3.870072603225708008e+00 -1.158133029937743919e+00 -6.398169398307800293e-01 1.000000000000000000e+01
5.008722305297851562e+00 -1.500783205032349077e+00 -6.420077085494995117e-01 1.100000000000000000e+01
6.692952632904052734e+00 -2.006708860397338867e+00 -6.113103628158569336e-01 3.000000000000000000e+00
1.080225658416748047e+01 -3.242887258529663086e+00 -5.910822749137878418e-01 3.000000000000000000e+00
3.889793395996093750e+01 -1.169214248657226918e+01 1.088334083557129084e+01 1.000000000000000000e+01
2.333818912506103960e+00 -7.050659060478210449e-01 -6.532592773437500000e-01 1.900000000000000000e+01
2.710239887237548828e+00 -8.198183178901672363e-01 -6.537077426910400391e-01 1.400000000000000000e+01
3.181257247924805132e+00 -9.629020690917968750e-01 -6.460792422294616699e-01 1.300000000000000000e+01
3.852773189544678178e+00 -1.167624592781066895e+00 -6.376268863677978516e-01 1.100000000000000000e+01
5.009151935577392578e+00 -1.519986987113953081e+00 -6.427389383316040039e-01 9.000000000000000000e+00
6.697345733642578125e+00 -2.033532619476317915e+00 -6.123562455177307129e-01 3.000000000000000000e+00
1.082526683807373047e+01 -3.291031360626221147e+00 -5.929663777351379395e-01 3.000000000000000000e+00
3.841498565673828125e+01 -1.170066547393799006e+01 1.076014328002930043e+01 9.000000000000000000e+00
2.342427492141724077e+00 -7.165990471839904785e-01 -6.563650965690612793e-01 1.900000000000000000e+01
2.705498456954956055e+00 -8.287031054496765137e-01 -6.532578468322753906e-01 1.500000000000000000e+01
3.181630849838256836e+00 -9.751514792442321777e-01 -6.468424797058105469e-01 1.300000000000000000e+01
3.865669965744018999e+00 -1.186281800270081010e+00 -6.404427289962768555e-01 1.100000000000000000e+01
3.632657623291016336e+01 -1.115469646453857067e+01 4.665889739990234375e+00 2.000000000000000000e+01
4.992430210113525391e+00 -1.533964753150939941e+00 -6.412764787673950195e-01 9.000000000000000000e+00
3.592214202880858664e+01 -1.103736972808838068e+01 5.952018737792968750e+00 1.300000000000000000e+01
6.676875591278076172e+00 -2.052799701690673828e+00 -6.111360788345336914e-01 3.000000000000000000e+00
1.081371307373047053e+01 -3.328798532485961914e+00 -5.929663777351379395e-01 3.000000000000000000e+00
3.904132461547852273e+01 -1.202559947967528942e+01 9.431298255920410156e+00 1.200000000000000000e+01
3.922520446777343750e+01 -1.208973407745360973e+01 1.099825668334960938e+01 1.000000000000000000e+01
2.341757297515869141e+00 -7.253428697586059570e-01 -6.568827629089355469e-01 1.900000000000000000e+01
2.693282604217528853e+00 -8.352558612823486328e-01 -6.510083675384521484e-01 1.400000000000000000e+01
3.172582387924193892e+00 -9.845059514045715332e-01 -6.456976532936096191e-01 1.200000000000000000e+01
3.865278482437133789e+00 -1.200940489768981934e+00 -6.410684585571289062e-01 1.000000000000000000e+01
4.987045288085938388e+00 -1.551382184028625044e+00 -6.412764787673950195e-01 9.000000000000000000e+00
3.588899230957031250e+01 -1.117130470275879084e+01 5.953269958496093750e+00 1.300000000000000000e+01
6.692497730255126953e+00 -2.083199739456177202e+00 -6.132277846336364746e-01 2.000000000000000000e+00
1.080202770233153942e+01 -3.366525173187255859e+00 -5.929663777351379395e-01 3.000000000000000000e+00
2.341054439544678178e+00 -7.340906858444213867e-01 -6.574003696441650391e-01 1.900000000000000000e+01
2.695928573608397993e+00 -8.464032411575317383e-01 -6.523580551147460938e-01 1.500000000000000000e+01
3.169126510620117188e+00 -9.955742955207824707e-01 -6.456976532936096191e-01 1.200000000000000000e+01
3.862947225570679155e+00 -1.215018272399901900e+00 -6.413813233375549316e-01 1.100000000000000000e+01
3.559265518188477273e+01 -1.120183563232422053e+01 4.581556320190429688e+00 1.900000000000000000e+01
4.992960453033447266e+00 -1.572358369827270952e+00 -6.427389383316040039e-01 9.000000000000000000e+00
6.685185432434082031e+00 -2.106548070907593218e+00 -6.132277846336364746e-01 2.000000000000000000e+00
3.480771255493164062e+01 -1.097482872009276988e+01 7.094278335571289062e+00 6.100000000000000000e+01
1.077497291564941051e+01 -3.399403572082519975e+00 -5.921289920806884766e-01 3.000000000000000000e+00
1.367195892333984020e+01 -4.318623542785645419e+00 -2.502675056457520086e-01 2.000000000000000000e+00
3.999828338623046875e+01 -1.263443851470947088e+01 1.123947620391846058e+01 1.000000000000000000e+01
2.327429771423339844e+00 -7.387512922286987305e-01 -6.542945504188537598e-01 1.900000000000000000e+01
2.705958127975463867e+00 -8.599401116371154785e-01 -6.555073857307434082e-01 1.500000000000000000e+01
3.171244859695435014e+00 -1.008415341377258079e+00 -6.468424797058105469e-01 1.200000000000000000e+01
3.843624114990233931e+00 -1.223700881004333052e+00 -6.388783454895019531e-01 1.100000000000000000e+01
3.559494781494141336e+01 -1.133926486968993963e+01 4.586918354034423828e+00 1.900000000000000000e+01
4.995006561279296875e+00 -1.592188954353332964e+00 -6.437138915061950684e-01 9.000000000000000000e+00
6.708162307739257812e+00 -2.139557600021361861e+00 -6.160168051719665527e-01 3.000000000000000000e+00
3.467567443847656250e+01 -1.106641864776610973e+01 7.075197696685791016e+00 6.100000000000000000e+01
1.082011890411376953e+01 -3.455221414566040039e+00 -5.952691435813903809e-01 3.000000000000000000e+00
1.365680027008056996e+01 -4.366321563720703125e+00 -2.502675056457520086e-01 2.000000000000000000e+00
2.332193851470946822e+00 -7.492345571517944336e-01 -6.563650965690612793e-01 1.900000000000000000e+01
2.697374343872069868e+00 -8.675903677940368652e-01 -6.541576385498046875e-01 1.400000000000000000e+01
3.169574260711669922e+00 -1.020080447196960005e+00 -6.472241282463073730e-01 1.200000000000000000e+01
3.843089580535889116e+00 -1.238321900367737038e+00 -6.395040750503540039e-01 1.100000000000000000e+01
4.985640048980712891e+00 -1.608396172523498979e+00 -6.432263851165771484e-01 9.000000000000000000e+00
6.685484409332275391e+00 -2.158064126968383789e+00 -6.146222949028015137e-01 2.000000000000000000e+00
1.076998233795166016e+01 -3.480685472488402876e+00 -5.931757092475891113e-01 3.000000000000000000e+00
2.335075855255126953e+00 -7.591627836227416992e-01 -6.579180359840393066e-01 1.900000000000000000e+01
2.686917304992675781e+00 -8.745880126953125000e-01 -6.523580551147460938e-01 1.600000000000000000e+01
3.180928230285644975e+00 -1.036001920700073020e+00 -6.502770781517028809e-01 1.300000000000000000e+01
3.846255779266356978e+00 -1.254178762435913086e+00 -6.407555937767028809e-01 1.100000000000000000e+01
4.972446918487548828e+00 -1.623325228691101074e+00 -6.422514319419860840e-01 9.000000000000000000e+00
6.693061828613281250e+00 -2.186336994171143022e+00 -6.160168051719665527e-01 2.000000000000000000e+00
1.081091976165770951e+01 -3.535641908645629883e+00 -5.961065292358398438e-01 3.000000000000000000e+00
2.341721773147583008e+00 -7.699189186096191406e-01 -6.605061888694763184e-01 1.900000000000000000e+01
2.693257570266724077e+00 -8.865398764610290527e-01 -6.546075940132141113e-01 1.600000000000000000e+01
3.171880960464477983e+00 -1.044702053070067915e+00 -6.491321921348571777e-01 1.200000000000000000e+01
3.853331804275513139e+00 -1.270638227462768999e+00 -6.426327824592590332e-01 1.100000000000000000e+01
4.963266372680664062e+00 -1.638560891151428001e+00 -6.417639851570129395e-01 9.000000000000000000e+00
6.719828128814697266e+00 -2.219768762588500977e+00 -6.191543936729431152e-01 3.000000000000000000e+00
1.079913616180419922e+01 -3.571472883224486861e+00 -5.961065292358398438e-01 3.000000000000000000e+00
3.900516891479492188e+01 -1.290727806091308949e+01 9.485285758972167969e+00 1.200000000000000000e+01
4.047316360473632812e+01 -1.340089416503906072e+01 1.142375469207764027e+01 1.100000000000000000e+01
2.331687450408935991e+00 -7.756491899490356445e-01 -6.584356427192687988e-01 2.000000000000000000e+01
2.690146446228026900e+00 -8.959357142448425293e-01 -6.546075940132141113e-01 1.600000000000000000e+01
3.162627220153809038e+00 -1.053905606269835982e+00 -6.479873657226562500e-01 1.200000000000000000e+01
3.846999168395996094e+00 -1.283455967903136985e+00 -6.423199176788330078e-01 1.000000000000000000e+01
4.968813419342041016e+00 -1.659649372100830078e+00 -6.432263851165771484e-01 9.000000000000000000e+00
6.687473297119140625e+00 -2.235001802444458008e+00 -6.168883442878723145e-01 5.000000000000000000e+00
1.080933189392090021e+01 -3.616751909255981001e+00 -5.973625779151916504e-01 3.000000000000000000e+00
4.044575500488281250e+01 -1.355651283264159979e+01 1.142996692657471058e+01 1.100000000000000000e+01
2.319811105728148970e+00 -7.807027101516723633e-01 -6.558474898338317871e-01 1.900000000000000000e+01
2.694389581680297852e+00 -9.078094363212585449e-01 -6.564071774482727051e-01 1.500000000000000000e+01
3.162649869918822798e+00 -1.066193103790282981e+00 -6.487506031990051270e-01 1.200000000000000000e+01
3.846238851547241211e+00 -1.298140048980712891e+00 -6.429456472396850586e-01 1.000000000000000000e+01
4.974273681640625000e+00 -1.680796384811400923e+00 -6.446888446807861328e-01 9.000000000000000000e+00
6.672080993652343750e+00 -2.255779266357421875e+00 -6.161910891532897949e-01 3.000000000000000000e+00
1.083447742462158025e+01 -3.667268514633179155e+00 -5.994560718536376953e-01 3.000000000000000000e+00
4.009319686889647727e+01 -1.358639812469482067e+01 1.134300327301025035e+01 1.100000000000000000e+01
2.320729255676269975e+00 -7.900407314300537109e-01 -6.568827629089355469e-01 1.900000000000000000e+01
2.696738004684447798e+00 -9.190950989723205566e-01 -6.577568650245666504e-01 1.400000000000000000e+01
3.157050848007202148e+00 -1.076592683792114036e+00 -6.483689546585083008e-01 1.300000000000000000e+01
3.832336902618408203e+00 -1.308366894721985085e+00 -6.413813233375549316e-01 1.100000000000000000e+01
4.974011421203613281e+00 -1.700075626373291016e+00 -6.454200148582458496e-01 1.100000000000000000e+01
6.677362918853759766e+00 -2.283568620681763139e+00 -6.174112558364868164e-01 6.000000000000000000e+00
1.068934059143066051e+01 -3.659779071807860884e+00 -5.921289920806884766e-01 3.000000000000000000e+00
4.010765838623046875e+01 -1.374756431579590021e+01 1.136060333251952947e+01 1.100000000000000000e+01
2.328917026519774947e+00 -8.019104599952697754e-01 -6.599885821342468262e-01 2.100000000000000000e+01
2.671405315399169922e+00 -9.208817481994628906e-01 -6.523580551147460938e-01 1.400000000000000000e+01
3.169977188110352007e+00 -1.093367576599121094e+00 -6.518035531044006348e-01 1.300000000000000000e+01
3.831480979919434038e+00 -1.323025822639465110e+00 -6.420070528984069824e-01 1.000000000000000000e+01
4.969923019409179688e+00 -1.718076467514038086e+00 -6.456637978553771973e-01 9.000000000000000000e+00
6.701360702514648438e+00 -2.317934751510620117e+00 -6.203745603561401367e-01 5.000000000000000000e+00
1.047078323364257990e+01 -3.625833988189696822e+00 -5.807197690010070801e-01 1.200000000000000000e+01
4.015434265136718750e+01 -1.392038726806640980e+01 1.138752079010009943e+01 1.100000000000000000e+01
2.331576824188231978e+00 -8.119409680366516113e-01 -6.615414619445800781e-01 2.000000000000000000e+01
2.679215192794799805e+00 -9.340502023696899414e-01 -6.550574898719787598e-01 1.400000000000000000e+01
3.155019044876099077e+00 -1.100546479225158913e+00 -6.495138406753540039e-01 1.300000000000000000e+01
3.830569267272949219e+00 -1.337694644927978960e+00 -6.426327824592590332e-01 9.000000000000000000e+00
4.945157051086425781e+00 -1.728863000869750977e+00 -6.432263851165771484e-01 9.000000000000000000e+00
6.695109367370604581e+00 -2.341970682144165039e+00 -6.205489039421081543e-01 5.000000000000000000e+00
1.060697937011718928e+01 -3.714511394500731978e+00 -5.889888405799865723e-01 3.000000000000000000e+00
4.067181015014647727e+01 -1.426697731018066051e+01 1.154902362823485973e+01 1.100000000000000000e+01
2.315973281860352007e+00 -8.155829310417175293e-01 -6.579180359840393066e-01 1.900000000000000000e+01
2.675938367843627930e+00 -9.433966875076293945e-01 -6.550574898719787598e-01 1.400000000000000000e+01
4.003970718383789062e+01 -1.412377548217773082e+01 2.225115537643433061e+00 2.900000000000000000e+01
3.143752336502075195e+00 -1.108940482139586958e+00 -6.479873657226562500e-01 1.300000000000000000e+01
3.838914871215819868e+00 -1.355662107467650923e+00 -6.448228359222412109e-01 1.000000000000000000e+01
4.969037055969238281e+00 -1.756700873374938965e+00 -6.471261978149414062e-01 9.000000000000000000e+00
6.686893939971923828e+00 -2.365326642990111861e+00 -6.205489039421081543e-01 5.000000000000000000e+00
1.083869934082031072e+01 -3.838184833526610884e+00 -6.025962233543395996e-01 3.000000000000000000e+00
3.997536087036132812e+01 -1.416386985778808949e+01 9.791219711303710938e+00 1.300000000000000000e+01
4.051138687133789062e+01 -1.436175060272216975e+01 1.151692962646484020e+01 1.100000000000000000e+01
2.318572044372559038e+00 -8.256063461303710938e-01 -6.594709157943725586e-01 1.900000000000000000e+01
2.683642625808715820e+00 -9.566578269004821777e-01 -6.577568650245666504e-01 1.400000000000000000e+01
3.156504631042480025e+00 -1.125843405723571999e+00 -6.514219045639038086e-01 1.300000000000000000e+01
3.826718091964722124e+00 -1.366397023200988992e+00 -6.435713768005371094e-01 1.000000000000000000e+01
4.966613292694091797e+00 -1.775371670722960982e+00 -6.476137042045593262e-01 9.000000000000000000e+00
6.682348728179931641e+00 -2.389995813369750977e+00 -6.208975315093994141e-01 3.000000000000000000e+00
1.086284351348876953e+01 -3.889461040496826172e+00 -6.046896576881408691e-01 3.000000000000000000e+00
2.313858270645142046e+00 -8.330402374267578125e-01 -6.589533090591430664e-01 2.100000000000000000e+01
2.676620244979857954e+00 -9.646981358528137207e-01 -6.568570733070373535e-01 1.400000000000000000e+01
3.156249284744263139e+00 -1.138186812400818093e+00 -6.521851420402526855e-01 1.200000000000000000e+01
3.814493179321289062e+00 -1.377063393592834029e+00 -6.423199176788330078e-01 1.100000000000000000e+01
4.973454475402832031e+00 -1.797420501708983931e+00 -6.493198871612548828e-01 1.100000000000000000e+01
6.685206890106201172e+00 -2.417372226715087891e+00 -6.219433546066284180e-01 2.000000000000000000e+00
3.515053176879882812e+01 -1.271737670898438033e+01 7.266006469726563388e+00 6.200000000000000000e+01
1.089051628112792969e+01 -3.942311763763428178e+00 -6.069924235343933105e-01 3.000000000000000000e+00
4.079518508911132812e+01 -1.478375911712645951e+01 1.162666893005370916e+01 1.100000000000000000e+01
2.320013046264647993e+00 -8.444157242774963379e-01 -6.615414619445800781e-01 1.900000000000000000e+01
2.662250757217406782e+00 -9.700325131416320801e-01 -6.541576385498046875e-01 1.400000000000000000e+01
3.155946016311645952e+00 -1.150542140007019043e+00 -6.529483795166015625e-01 1.300000000000000000e+01
3.811518669128417969e+00 -1.391047358512877974e+00 -6.426327824592590332e-01 1.000000000000000000e+01
4.972743511199951172e+00 -1.816813826560973899e+00 -6.500510573387145996e-01 9.000000000000000000e+00
6.701055049896240234e+00 -2.449585914611815962e+00 -6.242094039916992188e-01 3.000000000000000000e+00
1.085418128967284979e+01 -3.972066164016724077e+00 -6.057363748550415039e-01 3.000000000000000000e+00
3.967845153808593750e+01 -1.452810478210449041e+01 9.755227088928222656e+00 1.300000000000000000e+01
4.427409362792968750e+01 -1.622830772399901988e+01 1.263502788543700994e+01 1.400000000000000000e+01
2.313425302505493164e+00 -8.511748313903808594e-01 -6.605061888694763184e-01 1.800000000000000000e+01
2.667991638183594194e+00 -9.826872944831848145e-01 -6.564071774482727051e-01 1.500000000000000000e+01
3.144541978836060014e+00 -1.158835887908935991e+00 -6.514219045639038086e-01 1.300000000000000000e+01
3.819612741470336914e+00 -1.409129500389098899e+00 -6.448228359222412109e-01 1.000000000000000000e+01
4.951474189758300781e+00 -1.828659057617187944e+00 -6.481011509895324707e-01 9.000000000000000000e+00
6.713021278381347656e+00 -2.480558395385742188e+00 -6.261268854141235352e-01 3.000000000000000000e+00
1.078030776977539062e+01 -3.987756729125977007e+00 -6.023868322372436523e-01 6.000000000000000000e+00
2.314061403274536133e+00 -8.605917692184448242e-01 -6.615414619445800781e-01 1.900000000000000000e+01
2.662718772888184038e+00 -9.913144111633300781e-01 -6.559572815895080566e-01 1.400000000000000000e+01
3.142317533493041992e+00 -1.170490622520446999e+00 -6.518035531044006348e-01 1.300000000000000000e+01
3.822074174880981001e+00 -1.425214648246764915e+00 -6.460743546485900879e-01 1.000000000000000000e+01
