2.033276557922362837e+00 2.154644727706909180e+00 -5.758615732192993164e-01 1.200000000000000000e+01
2.408707618713378906e+00 2.550701618194580078e+00 -5.556552410125732422e-01 9.000000000000000000e+00
2.984545230865478960e+00 3.158275604248046875e+00 -5.335440039634704590e-01 9.000000000000000000e+00
3.895300865173339844e+00 4.120605468750000000e+00 -4.960905015468596857e-01 8.000000000000000000e+00
5.573905467987061435e+00 5.892179489135742188e+00 -4.250726401805878241e-01 2.000000000000000000e+00
9.227163314819335938e+00 9.747222900390625000e+00 -2.342811077833175937e-01 2.000000000000000000e+00
1.541520357131958008e+00 1.623855829238892046e+00 -5.999425649642944336e-01 1.600000000000000000e+01
1.760919332504272017e+00 1.853677034378051980e+00 -5.902715921401977539e-01 1.600000000000000000e+01
2.027261018753052202e+00 2.133302688598632812e+00 -5.720453858375549316e-01 1.200000000000000000e+01
2.423041582107543945e+00 2.548003911972045898e+00 -5.569067001342773438e-01 9.000000000000000000e+00
2.992814540863037109e+00 3.144962310791016069e+00 -5.330564975738525391e-01 9.000000000000000000e+00
3.906913280487060991e+00 4.104096889495849609e+00 -4.957418739795684814e-01 6.000000000000000000e+00
5.633011817932128906e+00 5.913177967071533203e+00 -4.280034601688385010e-01 1.000000000000000000e+00
9.247332572937011719e+00 9.700480461120605469e+00 -2.339320629835129062e-01 2.000000000000000000e+00
1.537834882736206055e+00 1.608690023422240989e+00 -5.963190793991088867e-01 1.600000000000000000e+01
1.771420478820801003e+00 1.851743459701538086e+00 -5.916212797164916992e-01 1.500000000000000000e+01
2.044196844100952148e+00 2.136142253875731978e+00 -5.747166872024536133e-01 1.100000000000000000e+01
2.442851066589355025e+00 2.550944089889525923e+00 -5.594096183776855469e-01 1.000000000000000000e+01
3.014761924743651900e+00 3.145962238311768022e+00 -5.350064039230346680e-01 1.000000000000000000e+01
3.907427787780762163e+00 4.076051712036132812e+00 -4.939987361431121826e-01 8.000000000000000000e+00
5.637026786804199219e+00 5.876183509826660156e+00 -4.267473816871643066e-01 1.000000000000000000e+00
9.283906936645507812e+00 9.671027183532714844e+00 -2.340018600225448886e-01 2.000000000000000000e+00
1.547460198402405007e+00 1.607487440109252930e+00 -5.978720188140869141e-01 1.900000000000000000e+01
1.775169491767883079e+00 1.842741847038269043e+00 -5.907214879989624023e-01 1.500000000000000000e+01
2.054365634918212891e+00 2.131820917129517046e+00 -5.754799246788024902e-01 1.200000000000000000e+01
2.438028335571289062e+00 2.528182029724121094e+00 -5.562809705734252930e-01 9.000000000000000000e+00
3.029860496520996094e+00 3.139704942703247070e+00 -5.357376337051391602e-01 1.000000000000000000e+01
3.927167177200316939e+00 4.068121433258056641e+00 -4.946959912776947021e-01 9.000000000000000000e+00
5.643627166748046875e+00 5.842106342315673828e+00 -4.257006645202637274e-01 2.000000000000000000e+00
9.317608833312988281e+00 9.638561248779296875e+00 -2.340018600225448886e-01 2.000000000000000000e+00
1.559785127639770952e+00 1.609011411666869895e+00 -6.004601716995239258e-01 1.600000000000000000e+01
1.774806618690490945e+00 1.829540491104125977e+00 -5.884719491004943848e-01 1.400000000000000000e+01
2.067263603210449219e+00 2.130272626876831055e+00 -5.770063996315002441e-01 1.100000000000000000e+01
2.449590921401977983e+00 2.522490739822388139e+00 -5.569067001342773438e-01 9.000000000000000000e+00
3.029734134674071822e+00 3.117720603942871094e+00 -5.337877273559570312e-01 1.000000000000000000e+01
3.938565969467163086e+00 4.051530838012695312e+00 -4.943473637104033869e-01 6.000000000000000000e+00
5.652844429016113281e+00 5.810917854309082031e+00 -4.248632788658142090e-01 2.000000000000000000e+00
9.351197242736816406e+00 9.605978012084960938e+00 -2.340018600225448886e-01 2.000000000000000000e+00
1.567810773849487083e+00 1.606595396995543990e+00 -6.014954447746276855e-01 1.600000000000000000e+01
1.783586859703063965e+00 1.826433420181273970e+00 -5.893717408180236816e-01 1.400000000000000000e+01
2.064713001251221147e+00 2.113574981689453125e+00 -5.743350982666015625e-01 1.200000000000000000e+01
2.462085008621215820e+00 2.518591403961182085e+00 -5.578452944755554199e-01 1.000000000000000000e+01
3.035891771316527876e+00 3.103399515151977983e+00 -5.330564975738525391e-01 1.000000000000000000e+01
3.956160306930541992e+00 4.042719841003417969e+00 -4.948703050613402765e-01 8.000000000000000000e+00
5.669288158416748047e+00 5.789286613464354581e+00 -4.246539473533629816e-01 1.000000000000000000e+00
9.374602317810058594e+00 9.566346168518066406e+00 -2.337924391031264981e-01 2.000000000000000000e+00
1.572055220603943093e+00 1.599735021591186968e+00 -6.009778380393981934e-01 1.500000000000000000e+01
1.800882339477539062e+00 1.831312060356139915e+00 -5.929709672927856445e-01 1.400000000000000000e+01
2.073455095291138139e+00 2.107754468917847124e+00 -5.747166872024536133e-01 1.200000000000000000e+01
2.466704130172729048e+00 2.505758523941040039e+00 -5.569067001342773438e-01 9.000000000000000000e+00
3.050885438919066939e+00 3.097025871276855025e+00 -5.337877273559570312e-01 1.000000000000000000e+01
3.971646308898925781e+00 4.030304908752441406e+00 -4.950446188449860174e-01 9.000000000000000000e+00
5.697876453399658203e+00 5.777994155883789062e+00 -4.252819716930388849e-01 1.000000000000000000e+00
9.407938003540039062e+00 9.533564567565917969e+00 -2.337924391031264981e-01 2.000000000000000000e+00
1.570835471153259055e+00 1.587371945381164995e+00 -5.983896255493164062e-01 1.600000000000000000e+01
1.807263851165771040e+00 1.825014710426331010e+00 -5.929709672927856445e-01 1.300000000000000000e+01
2.079418182373046875e+00 2.099109172821044922e+00 -5.743350982666015625e-01 1.200000000000000000e+01
2.478217124938964844e+00 2.499938726425170898e+00 -5.575324296951293945e-01 9.000000000000000000e+00
3.067269563674927202e+00 3.091994524002075195e+00 -5.347626805305480957e-01 1.000000000000000000e+01
3.980076789855957031e+00 4.010759830474854404e+00 -4.943473637104033869e-01 9.000000000000000000e+00
5.746157169342041016e+00 5.786413669586181641e+00 -4.273754060268402100e-01 2.000000000000000000e+00
9.472168922424316406e+00 9.531872749328613281e+00 -2.345603406429291049e-01 2.000000000000000000e+00
1.572275996208190918e+00 1.577773809432982954e+00 -5.968367457389831543e-01 1.500000000000000000e+01
1.808119177818297896e+00 1.813175439834594949e+00 -5.911713838577270508e-01 1.100000000000000000e+01
2.089505910873413086e+00 2.094617605209351030e+00 -5.750983357429504395e-01 1.300000000000000000e+01
2.484137296676636186e+00 2.488476753234862837e+00 -5.569067001342773438e-01 9.000000000000000000e+00
3.080849885940552202e+00 3.084077835083007812e+00 -5.352501273155212402e-01 1.000000000000000000e+01
3.984194517135620117e+00 3.986976861953734907e+00 -4.931271970272064209e-01 9.000000000000000000e+00
5.771969795227050781e+00 5.771969795227050781e+00 -4.277940988540648859e-01 2.000000000000000000e+00
9.505384445190429688e+00 9.498750686645507812e+00 -2.345603406429291049e-01 2.000000000000000000e+00
1.585984230041503906e+00 1.580457806587219016e+00 -5.999425649642944336e-01 1.600000000000000000e+01
1.810294747352600098e+00 1.802727699279784934e+00 -5.898216366767883301e-01 1.300000000000000000e+01
2.103761672973632812e+00 2.094236612319945845e+00 -5.770063996315002441e-01 1.400000000000000000e+01
2.491408109664916992e+00 2.478397130966186968e+00 -5.565938353538513184e-01 1.000000000000000000e+01
3.097227811813354048e+00 3.078902721405028853e+00 -5.362251400947570801e-01 1.000000000000000000e+01
4.007979869842529297e+00 3.982875823974608931e+00 -4.943473637104033869e-01 8.000000000000000000e+00
5.789247989654541016e+00 5.748971939086914062e+00 -4.275847673416138250e-01 1.000000000000000000e+00
9.527127265930175781e+00 9.454243659973144531e+00 -2.342811077833175937e-01 2.000000000000000000e+00
1.594237804412842019e+00 1.577629804611206055e+00 -6.009778380393981934e-01 1.500000000000000000e+01
1.820733428001404031e+00 1.800508379936218040e+00 -5.911713838577270508e-01 1.000000000000000000e+01
2.106870412826538086e+00 2.082739591598511186e+00 -5.758615732192993164e-01 1.300000000000000000e+01
2.501449584960937944e+00 2.471073627471923828e+00 -5.569067001342773438e-01 9.000000000000000000e+00
3.102305412292480025e+00 3.062494277954102007e+00 -5.352501273155212402e-01 1.000000000000000000e+01
4.036039829254150391e+00 3.982855796813964844e+00 -4.960905015468596857e-01 6.000000000000000000e+00
5.840566635131835938e+00 5.759581089019775391e+00 -4.298875331878662109e-01 1.000000000000000000e+00
9.534433364868164062e+00 9.395666122436523438e+00 -2.336528152227402011e-01 2.000000000000000000e+00
3.867529296875000000e+01 3.811239624023438211e+01 1.454925346374512074e+01 1.800000000000000000e+01
1.599186182022094949e+00 1.572613477706908958e+00 -6.009778380393981934e-01 1.600000000000000000e+01
1.827770829200745073e+00 1.796145319938659890e+00 -5.916212797164916992e-01 1.200000000000000000e+01
2.106400489807128906e+00 2.069231510162353960e+00 -5.739534497261047363e-01 1.300000000000000000e+01
2.514838933944702148e+00 2.468738317489624023e+00 -5.581581592559814453e-01 9.000000000000000000e+00
3.643118286132813211e+01 3.575086212158203125e+01 6.267252922058104581e+00 5.400000000000000000e+01
3.111911296844481978e+00 3.052733182907104048e+00 -5.352501273155212402e-01 1.000000000000000000e+01
4.045687198638916016e+00 3.967366456985474077e+00 -4.957418739795684814e-01 8.000000000000000000e+00
5.830101966857910156e+00 5.713245868682861328e+00 -4.277940988540648859e-01 1.000000000000000000e+00
9.589620590209960938e+00 9.390850067138671875e+00 -2.342811077833175937e-01 2.000000000000000000e+00
1.594990849494934082e+00 1.557573676109313965e+00 -5.973543524742126465e-01 1.900000000000000000e+01
1.835424065589905007e+00 1.791115283966064009e+00 -5.920711755752563477e-01 1.100000000000000000e+01
2.122042417526245117e+00 2.070091724395751953e+00 -5.762431621551513672e-01 1.300000000000000000e+01
2.523441076278686968e+00 2.459944725036621094e+00 -5.581581592559814453e-01 9.000000000000000000e+00
3.131079912185668945e+00 3.050163030624390093e+00 -5.367125868797302246e-01 1.000000000000000000e+01
4.050947189331054688e+00 3.944880247116088867e+00 -4.946959912776947021e-01 6.000000000000000000e+00
5.835695743560791016e+00 5.678930759429931641e+00 -4.267473816871643066e-01 1.000000000000000000e+00
9.619475364685058594e+00 9.354530334472656250e+00 -2.342112958431243896e-01 2.000000000000000000e+00
1.599031209945678933e+00 1.550651788711548074e+00 -5.968367457389831543e-01 1.500000000000000000e+01
1.838866233825684038e+00 1.781985282897948997e+00 -5.911713838577270508e-01 1.200000000000000000e+01
2.122205018997191939e+00 2.055841684341431108e+00 -5.743350982666015625e-01 1.200000000000000000e+01
2.526335477828979048e+00 2.445625543594359907e+00 -5.569067001342773438e-01 9.000000000000000000e+00
3.143134593963623047e+00 3.040595054626464844e+00 -5.369563102722167969e-01 9.000000000000000000e+00
4.066124916076660156e+00 3.932100772857666016e+00 -4.948703050613402765e-01 8.000000000000000000e+00
5.872718334197998047e+00 5.675180912017822266e+00 -4.280034601688385010e-01 1.000000000000000000e+00
9.666454315185546875e+00 9.334786415100097656e+00 -2.345603406429291049e-01 2.000000000000000000e+00
1.615566492080688032e+00 1.555781006813049094e+00 -6.009778380393981934e-01 1.800000000000000000e+01
1.839458584785460982e+00 1.770150542259216087e+00 -5.893717408180236816e-01 1.200000000000000000e+01
2.139272451400756836e+00 2.057948827743529829e+00 -5.770063996315002441e-01 1.400000000000000000e+01
2.534856796264647993e+00 2.436792135238647017e+00 -5.569067001342773438e-01 9.000000000000000000e+00
3.149434566497803178e+00 3.025479316711425781e+00 -5.362251400947570801e-01 1.000000000000000000e+01
4.082699775695800781e+00 3.920643329620360884e+00 -4.952189326286315918e-01 9.000000000000000000e+00
5.869435310363770419e+00 5.632520675659179688e+00 -4.263286888599395752e-01 1.000000000000000000e+00
9.698980331420898438e+00 9.300987243652343750e+00 -2.345603406429291049e-01 2.000000000000000000e+00
1.619320869445801003e+00 1.549079537391663042e+00 -6.004601716995239258e-01 1.600000000000000000e+01
1.850953102111815962e+00 1.769427299499511941e+00 -5.911713838577270508e-01 1.100000000000000000e+01
2.141826868057250977e+00 2.046774148941040039e+00 -5.758615732192993164e-01 1.300000000000000000e+01
2.548638105392456055e+00 2.433829784393310991e+00 -5.581581592559814453e-01 9.000000000000000000e+00
3.156577825546265093e+00 3.012277841567993164e+00 -5.357376337051391602e-01 1.000000000000000000e+01
4.094236850738525391e+00 3.905707836151123047e+00 -4.950446188449860174e-01 8.000000000000000000e+00
5.893863677978515625e+00 5.618538379669188565e+00 -4.267473816871643066e-01 2.000000000000000000e+00
9.744248390197753906e+00 9.282566070556640625e+00 -2.349093854427337924e-01 2.000000000000000000e+00
1.624718308448791948e+00 1.543417692184448020e+00 -6.004601716995239258e-01 1.600000000000000000e+01
1.857118248939513938e+00 1.762955546379088911e+00 -5.911713838577270508e-01 1.100000000000000000e+01
2.151806592941284180e+00 2.041988372802733931e+00 -5.766248106956481934e-01 1.300000000000000000e+01
2.565718412399291992e+00 2.433074235916138139e+00 -5.600354075431823730e-01 1.000000000000000000e+01
3.161309719085692915e+00 2.995779275894165039e+00 -5.347626805305480957e-01 1.000000000000000000e+01
4.100613594055175781e+00 3.884541511535644975e+00 -4.941730499267578125e-01 9.000000000000000000e+00
5.927944660186767578e+00 5.611660957336425781e+00 -4.277940988540648859e-01 2.000000000000000000e+00
9.776591300964355469e+00 9.248496055603027344e+00 -2.349093854427337924e-01 2.000000000000000000e+00
1.619120359420775923e+00 1.526849269866942915e+00 -5.963190793991088867e-01 1.600000000000000000e+01
1.872076749801635964e+00 1.764155864715575950e+00 -5.938707590103149414e-01 1.100000000000000000e+01
2.154989242553710938e+00 2.030049324035644975e+00 -5.754799246788024902e-01 1.200000000000000000e+01
2.565988779067993164e+00 2.415529966354370117e+00 -5.581581592559814453e-01 9.000000000000000000e+00
3.186727523803710938e+00 2.997773885726929155e+00 -5.372000932693481445e-01 1.000000000000000000e+01
4.116274833679199219e+00 3.870850801467895952e+00 -4.943473637104033869e-01 9.000000000000000000e+00
5.957205295562744141e+00 5.598102569580078125e+00 -4.284221231937407892e-01 2.000000000000000000e+00
9.810422897338867188e+00 9.212600708007812500e+00 -2.349093854427337924e-01 2.000000000000000000e+00
1.634310960769653098e+00 1.530431509017943892e+00 -5.999425649642944336e-01 1.700000000000000000e+01
1.878223419189452903e+00 1.757610440254210982e+00 -5.938707590103149414e-01 1.300000000000000000e+01
2.166363477706909180e+00 2.026538133621215820e+00 -5.766248106956481934e-01 1.200000000000000000e+01
2.574404954910277876e+00 2.406558275222777876e+00 -5.581581592559814453e-01 9.000000000000000000e+00
3.195721626281737837e+00 2.985276699066162109e+00 -5.369563102722167969e-01 1.000000000000000000e+01
4.123936653137207031e+00 3.851019382476807085e+00 -4.936501383781433105e-01 9.000000000000000000e+00
5.953346729278563565e+00 5.555471897125244141e+00 -4.267473816871643066e-01 1.000000000000000000e+00
9.819121360778808594e+00 9.156478881835937500e+00 -2.343509197235106867e-01 2.000000000000000000e+00
1.643620491027832031e+00 1.528950929641724077e+00 -6.014954447746276855e-01 1.600000000000000000e+01
1.869768500328063965e+00 1.738104343414307085e+00 -5.893717408180236816e-01 1.100000000000000000e+01
2.175948143005371094e+00 2.022015810012816939e+00 -5.773880481719970703e-01 1.300000000000000000e+01
2.576581001281737837e+00 2.392631292343140093e+00 -5.569067001342773438e-01 9.000000000000000000e+00
3.202693462371826172e+00 2.971962451934814009e+00 -5.364688634872436523e-01 9.000000000000000000e+00
4.160055637359619141e+00 3.859002590179442915e+00 -4.964390993118286133e-01 9.000000000000000000e+00
5.980525016784667969e+00 5.543846130371093750e+00 -4.273754060268402100e-01 2.000000000000000000e+00
9.869969367980957031e+00 9.142892837524414062e+00 -2.348395884037018100e-01 2.000000000000000000e+00
1.651785612106323020e+00 1.525825977325439009e+00 -6.025307178497314453e-01 1.900000000000000000e+01
1.880120038986206055e+00 1.735532402992248979e+00 -5.907214879989624023e-01 1.200000000000000000e+01
2.180107593536376953e+00 2.011745214462279829e+00 -5.766248106956481934e-01 1.400000000000000000e+01
2.584917306900023970e+00 2.383622884750366211e+00 -5.569067001342773438e-01 1.000000000000000000e+01
3.201369524002075195e+00 2.950003147125244141e+00 -5.345189571380615234e-01 9.000000000000000000e+00
4.167639255523681641e+00 3.839058160781859907e+00 -4.957418739795684814e-01 9.000000000000000000e+00
6.005717754364013672e+00 5.528347015380859375e+00 -4.277940988540648859e-01 2.000000000000000000e+00
9.901823997497558594e+00 9.108384132385253906e+00 -2.348395884037018100e-01 2.000000000000000000e+00
1.649983525276184082e+00 1.513521432876586914e+00 -5.999425649642944336e-01 1.900000000000000000e+01
1.886166691780090110e+00 1.728959083557128906e+00 -5.907214879989624023e-01 1.200000000000000000e+01
2.176984310150146040e+00 1.994838595390320046e+00 -5.739534497261047363e-01 1.300000000000000000e+01
2.607790470123291016e+00 2.387925624847412109e+00 -5.600354075431823730e-01 9.000000000000000000e+00
3.221898794174193892e+00 2.948190927505493164e+00 -5.362251400947570801e-01 1.000000000000000000e+01
4.183954715728759766e+00 3.827176570892333984e+00 -4.960905015468596857e-01 9.000000000000000000e+00
6.048565864562988281e+00 5.528910160064697266e+00 -4.294688701629639227e-01 2.000000000000000000e+00
9.909934997558593750e+00 9.052186012268066406e+00 -2.342811077833175937e-01 2.000000000000000000e+00
1.652400374412537065e+00 1.505150914192199929e+00 -5.989072918891906738e-01 1.900000000000000000e+01
1.900837063789367898e+00 1.730235219001770020e+00 -5.934208631515502930e-01 1.200000000000000000e+01
2.191194772720336914e+00 1.993833780288696067e+00 -5.758615732192993164e-01 1.300000000000000000e+01
2.610264062881470171e+00 2.373492479324340820e+00 -5.587838888168334961e-01 9.000000000000000000e+00
3.235108613967895952e+00 2.939596414566040039e+00 -5.367125868797302246e-01 1.000000000000000000e+01
4.194338798522949219e+00 3.809869289398192915e+00 -4.957418739795684814e-01 9.000000000000000000e+00
6.067828178405761719e+00 5.507762908935546875e+00 -4.294688701629639227e-01 2.000000000000000000e+00
9.953321456909179688e+00 9.028286933898925781e+00 -2.345603406429291049e-01 2.000000000000000000e+00
1.657905817031859907e+00 1.499084472656250000e+00 -5.989072918891906738e-01 1.900000000000000000e+01
1.904274106025696023e+00 1.720643758773803933e+00 -5.925210714340209961e-01 1.400000000000000000e+01
2.199944734573363814e+00 1.987105250358581987e+00 -5.762431621551513672e-01 1.300000000000000000e+01
2.617479324340819868e+00 2.362585783004761186e+00 -5.584710240364074707e-01 1.000000000000000000e+01
3.245861053466796875e+00 2.927719354629517046e+00 -5.367125868797302246e-01 1.000000000000000000e+01
4.196436882019042969e+00 3.783797025680541992e+00 -4.943473637104033869e-01 9.000000000000000000e+00
6.093909740447998047e+00 5.490833759307861328e+00 -4.298875331878662109e-01 2.000000000000000000e+00
9.986345291137695312e+00 8.991745948791503906e+00 -2.345603406429291049e-01 2.000000000000000000e+00
1.668878316879272017e+00 1.498450756072998047e+00 -6.009778380393981934e-01 2.000000000000000000e+01
1.905917286872863992e+00 1.710081815719604048e+00 -5.911713838577270508e-01 1.300000000000000000e+01
2.212713479995727983e+00 1.984657406806946023e+00 -5.777696371078491211e-01 1.300000000000000000e+01
2.624239444732666016e+00 2.352116346359252930e+00 -5.581581592559814453e-01 9.000000000000000000e+00
3.256061077117919922e+00 2.916371583938599077e+00 -5.367125868797302246e-01 1.000000000000000000e+01
4.224462985992431641e+00 3.782416105270386186e+00 -4.960905015468596857e-01 6.000000000000000000e+00
6.107085227966308594e+00 5.464201927185058594e+00 -4.294688701629639227e-01 2.000000000000000000e+00
9.996801376342773438e+00 8.938172340393066406e+00 -2.340716719627380094e-01 2.000000000000000000e+00
1.675279974937438965e+00 1.494194269180298074e+00 -6.014954447746276855e-01 2.100000000000000000e+01
1.913032412528991921e+00 1.705048799514770952e+00 -5.916212797164916992e-01 1.300000000000000000e+01
2.216351032257080078e+00 1.974696755409240945e+00 -5.770063996315002441e-01 1.400000000000000000e+01
2.642352342605590820e+00 2.352596044540404829e+00 -5.603482723236083984e-01 1.000000000000000000e+01
3.265714168548583984e+00 2.905557870864868164e+00 -5.367125868797302246e-01 1.000000000000000000e+01
4.253358840942382812e+00 3.782951593399047852e+00 -4.980079233646392822e-01 9.000000000000000000e+00
6.119200229644775391e+00 5.438612461090087891e+00 -4.290501773357390802e-01 2.000000000000000000e+00
1.002040576934813920e+01 8.899660110473632812e+00 -2.339320629835129062e-01 2.000000000000000000e+00
1.676146864891052024e+00 1.484494805335998979e+00 -5.999425649642944336e-01 1.900000000000000000e+01
1.921891093254088911e+00 1.700943708419800027e+00 -5.925210714340209961e-01 1.400000000000000000e+01
2.214408159255981001e+00 1.959142923355102983e+00 -5.747166872024536133e-01 1.600000000000000000e+01
2.649068355560303178e+00 2.342049837112427202e+00 -5.600354075431823730e-01 9.000000000000000000e+00
3.278811931610106978e+00 2.896769523620605025e+00 -5.372000932693481445e-01 1.000000000000000000e+01
4.241150856018066406e+00 3.745660305023192915e+00 -4.950446188449860174e-01 9.000000000000000000e+00
6.144137382507324219e+00 5.422505855560302734e+00 -4.294688701629639227e-01 2.000000000000000000e+00
1.009640312194824041e+01 8.904309272766113281e+00 -2.349791973829269132e-01 2.000000000000000000e+00
3.603799819946289062e+01 3.178295135498046875e+01 1.287521266937256037e+01 1.400000000000000000e+01
1.679609894752501997e+00 1.477652311325073020e+00 -5.994248986244201660e-01 1.900000000000000000e+01
1.933375358581542969e+00 1.699707865715027078e+00 -5.943207144737243652e-01 1.300000000000000000e+01
2.225317001342772993e+00 1.955676913261414018e+00 -5.758615732192993164e-01 1.300000000000000000e+01
2.650883197784423828e+00 2.328038215637207031e+00 -5.587838888168334961e-01 1.000000000000000000e+01
3.288399934768677202e+00 2.885880470275878906e+00 -5.372000932693481445e-01 1.000000000000000000e+01
4.253548622131347656e+00 3.731575489044189009e+00 -4.950446188449860174e-01 9.000000000000000000e+00
6.174099922180175781e+00 5.412634372711181641e+00 -4.303062260150908869e-01 2.000000000000000000e+00
1.018303298950194957e+01 8.920851707458496094e+00 -2.363055795431137085e-01 2.000000000000000000e+00
3.597754287719727273e+01 3.151814842224121094e+01 1.281620121002197088e+01 1.400000000000000000e+01
1.689122319221497026e+00 1.475593209266663042e+00 -6.009778380393981934e-01 1.900000000000000000e+01
1.931956410408020020e+00 1.686540961265563965e+00 -5.920711755752563477e-01 1.200000000000000000e+01
2.232129812240601030e+00 1.947897195816040039e+00 -5.758615732192993164e-01 1.300000000000000000e+01
2.653038263320922852e+00 2.313577651977539062e+00 -5.575324296951293945e-01 9.000000000000000000e+00
3.307432889938354048e+00 2.882209300994873047e+00 -5.386624932289123535e-01 1.000000000000000000e+01
4.269552707672119141e+00 3.719322443008422852e+00 -4.953932464122772217e-01 9.000000000000000000e+00
6.162827491760253906e+00 5.364822387695313388e+00 -4.282127916812896729e-01 2.000000000000000000e+00
1.013867378234862926e+01 8.819629669189453125e+00 -2.345603406429291049e-01 2.000000000000000000e+00
1.691344261169434038e+00 1.467156291007996050e+00 -5.999425649642944336e-01 1.700000000000000000e+01
1.933414220809936968e+00 1.675957560539246050e+00 -5.907214879989624023e-01 1.200000000000000000e+01
2.249301671981811968e+00 1.949093461036681907e+00 -5.785328745841979980e-01 1.400000000000000000e+01
2.670058012008666992e+00 2.312061309814453125e+00 -5.594096183776855469e-01 9.000000000000000000e+00
3.305464506149291992e+00 2.860255241394042969e+00 -5.367125868797302246e-01 1.000000000000000000e+01
4.297578334808349609e+00 3.717430830001831055e+00 -4.971363544464110773e-01 9.000000000000000000e+00
6.211736679077148438e+00 5.369399547576904297e+00 -4.303062260150908869e-01 2.000000000000000000e+00
1.020571804046631037e+01 8.815557479858398438e+00 -2.353980541229248047e-01 2.000000000000000000e+00
3.583121109008789062e+01 3.095050621032714844e+01 1.268679237365723012e+01 1.400000000000000000e+01
1.699382662773132102e+00 1.463765025138854980e+00 -6.009778380393981934e-01 1.800000000000000000e+01
1.945160388946532981e+00 1.674283623695373979e+00 -5.925210714340209961e-01 1.200000000000000000e+01
2.248650789260863814e+00 1.934827685356139915e+00 -5.766248106956481934e-01 1.200000000000000000e+01
2.678112268447875977e+00 2.302726984024047852e+00 -5.594096183776855469e-01 1.000000000000000000e+01
3.313922882080078125e+00 2.847405910491942915e+00 -5.364688634872436523e-01 9.000000000000000000e+00
4.313551425933837891e+00 3.705003261566162109e+00 -4.974849820137023926e-01 9.000000000000000000e+00
6.212254524230957031e+00 5.332073688507080078e+00 -4.290501773357390802e-01 2.000000000000000000e+00
1.018785572052001953e+01 8.738219261169433594e+00 -2.342811077833175937e-01 2.000000000000000000e+00
3.593903350830078125e+01 3.082524299621582031e+01 1.268679237365723012e+01 1.400000000000000000e+01
1.704227328300476074e+00 1.458121657371520996e+00 -6.009778380393981934e-01 1.700000000000000000e+01
1.952183008193969949e+00 1.669090390205383079e+00 -5.929709672927856445e-01 1.300000000000000000e+01
2.249084711074829102e+00 1.922258019447327104e+00 -5.750983357429504395e-01 1.000000000000000000e+01
2.697750329971313032e+00 2.304096460342406782e+00 -5.619125962257385254e-01 1.500000000000000000e+01
3.700730133056641336e+01 3.159605216979980113e+01 5.974766254425048828e+00 4.900000000000000000e+01
3.323347091674805132e+00 2.836400747299193892e+00 -5.364688634872436523e-01 9.000000000000000000e+00
4.316719532012938565e+00 3.682919502258300781e+00 -4.964390993118286133e-01 9.000000000000000000e+00
6.235981941223145419e+00 5.316627025604248047e+00 -4.294688701629639227e-01 2.000000000000000000e+00
1.021982097625732067e+01 8.706980705261230469e+00 -2.343509197235106867e-01 2.000000000000000000e+00
3.602340698242188211e+01 3.069086074829101918e+01 1.268058013916015980e+01 1.400000000000000000e+01
1.701945424079895020e+00 1.445909976959228960e+00 -5.983896255493164062e-01 1.900000000000000000e+01
1.965425252914428933e+00 1.668571829795836958e+00 -5.952205061912536621e-01 1.400000000000000000e+01
2.255780935287476030e+00 1.914395570755005105e+00 -5.750983357429504395e-01 9.000000000000000000e+00
2.698244094848632812e+00 2.288277387619018999e+00 -5.603482723236083984e-01 1.000000000000000000e+01
3.336256504058837891e+00 2.827349662780762163e+00 -5.369563102722167969e-01 1.000000000000000000e+01
4.338670253753662109e+00 3.675556182861328125e+00 -4.974849820137023926e-01 9.000000000000000000e+00
6.291087150573729581e+00 5.325798511505126953e+00 -4.319809973239899237e-01 2.000000000000000000e+00
1.021961879730224965e+01 8.645423889160156250e+00 -2.336528152227402011e-01 2.000000000000000000e+00
3.644837570190429688e+01 3.082308197021484020e+01 1.279031944274901988e+01 1.400000000000000000e+01
1.710187196731566939e+00 1.442153096199036089e+00 -5.994248986244201660e-01 1.900000000000000000e+01
1.968547344207763894e+00 1.658845543861388938e+00 -5.943207144737243652e-01 1.200000000000000000e+01
2.265785455703734907e+00 1.908644437789916992e+00 -5.758615732192993164e-01 7.000000000000000000e+00
2.699056625366210938e+00 2.272011756896973100e+00 -5.587838888168334961e-01 1.100000000000000000e+01
3.351154088973999023e+00 2.818936347961425781e+00 -5.376875400543212891e-01 1.000000000000000000e+01
4.349062919616699219e+00 3.657064914703369141e+00 -4.971363544464110773e-01 9.000000000000000000e+00
6.295274257659912109e+00 5.289855957031250000e+00 -4.309342503547667902e-01 2.000000000000000000e+00
1.026655101776123047e+01 8.620767593383789062e+00 -2.340018600225448886e-01 2.000000000000000000e+00
1.719654321670532005e+00 1.439895272254944070e+00 -6.009778380393981934e-01 1.800000000000000000e+01
1.962369203567505105e+00 1.641959547996520996e+00 -5.907214879989624023e-01 1.100000000000000000e+01
2.267916202545166016e+00 1.896944999694823997e+00 -5.747166872024536133e-01 6.000000000000000000e+00
2.713033676147460938e+00 2.267643928527832031e+00 -5.600354075431823730e-01 1.100000000000000000e+01
3.359450101852416992e+00 2.805948972702025923e+00 -5.374438166618347168e-01 9.000000000000000000e+00
4.370978355407714844e+00 3.649523258209228960e+00 -4.981822371482849121e-01 9.000000000000000000e+00
6.295298099517822266e+00 5.252494812011718750e+00 -4.296782016754149836e-01 2.000000000000000000e+00
1.035187244415283025e+01 8.630978584289550781e+00 -2.352584451436995905e-01 2.000000000000000000e+00
3.607212829589843750e+01 3.007550239562987926e+01 1.258430004119873047e+01 1.400000000000000000e+01
1.725905060768126997e+00 1.435420155525207964e+00 -6.014954447746276855e-01 2.100000000000000000e+01
1.964805960655211958e+00 1.632951974868773970e+00 -5.898216366767883301e-01 1.200000000000000000e+01
2.272684335708618164e+00 1.888159275054932085e+00 -5.743350982666015625e-01 9.000000000000000000e+00
2.722058296203612837e+00 2.259896516799927202e+00 -5.603482723236083984e-01 1.000000000000000000e+01
3.365680932998656782e+00 2.792258024215697798e+00 -5.369563102722167969e-01 9.000000000000000000e+00
4.396859169006347656e+00 3.646455287933350053e+00 -4.997510313987731934e-01 9.000000000000000000e+00
6.334210395812988281e+00 5.249432086944580078e+00 -4.311436116695404053e-01 2.000000000000000000e+00
1.033731365203857067e+01 8.560890197753906250e+00 -2.342811077833175937e-01 2.000000000000000000e+00
3.632272338867188211e+01 3.007013320922851918e+01 1.263502788543700994e+01 1.400000000000000000e+01
1.735373854637145996e+00 1.433077096939086914e+00 -6.030483841896057129e-01 1.700000000000000000e+01
1.987027525901793990e+00 1.639727234840393066e+00 -5.947706103324890137e-01 1.500000000000000000e+01
2.274717807769774947e+00 1.876466751098633035e+00 -5.731902122497558594e-01 1.200000000000000000e+01
2.726881742477416992e+00 2.247867822647095171e+00 -5.597225427627563477e-01 1.000000000000000000e+01
3.375407218933105025e+00 2.780492782592772993e+00 -5.369563102722167969e-01 9.000000000000000000e+00
4.388028144836425781e+00 3.613353967666625977e+00 -4.973106682300568182e-01 9.000000000000000000e+00
6.358664989471436435e+00 5.232365608215332031e+00 -4.315623044967650812e-01 2.000000000000000000e+00
1.037948989868164062e+01 8.534914970397949219e+00 -2.345603406429291049e-01 2.000000000000000000e+00
3.638866424560546875e+01 2.991126441955566051e+01 1.262156963348389027e+01 1.400000000000000000e+01
1.726426482200623003e+00 1.416589498519897017e+00 -5.983896255493164062e-01 1.600000000000000000e+01
1.989155173301696999e+00 1.631005525588989036e+00 -5.938707590103149414e-01 1.200000000000000000e+01
2.289711952209473100e+00 1.876778483390808105e+00 -5.754799246788024902e-01 1.300000000000000000e+01
2.743099451065063032e+00 2.246800184249877930e+00 -5.615997314453125000e-01 1.000000000000000000e+01
3.393342733383179155e+00 2.777418851852416992e+00 -5.384187698364257812e-01 9.000000000000000000e+00
4.407068252563476562e+00 3.605859279632567915e+00 -4.981822371482849121e-01 1.100000000000000000e+01
6.381256103515625000e+00 5.217420578002929688e+00 -4.319809973239899237e-01 2.000000000000000000e+00
3.648610305786132812e+01 2.982101631164551137e+01 1.087908267974854049e+01 1.300000000000000000e+01
1.042173767089843928e+01 8.514916419982910156e+00 -2.349093854427337924e-01 2.000000000000000000e+00
3.624605178833007812e+01 2.960371780395508168e+01 1.253978252410889027e+01 1.300000000000000000e+01
1.738849282264709029e+00 1.416655421257019043e+00 -6.009778380393981934e-01 1.800000000000000000e+01
2.000881433486938032e+00 1.628973484039307085e+00 -5.956704020500183105e-01 1.300000000000000000e+01
2.314521789550780806e+00 1.883645415306091087e+00 -5.800593495368957520e-01 1.300000000000000000e+01
2.738665103912353960e+00 2.227240562438964844e+00 -5.590967535972595215e-01 1.000000000000000000e+01
3.395314455032349077e+00 2.759297132492064986e+00 -5.372000932693481445e-01 1.000000000000000000e+01
4.418081760406494141e+00 3.589197397232056108e+00 -4.980079233646392822e-01 1.100000000000000000e+01
6.377720832824707031e+00 5.177490711212158203e+00 -4.305155873298645020e-01 2.000000000000000000e+00
1.042344379425049006e+01 8.455809593200683594e+00 -2.342811077833175937e-01 2.000000000000000000e+00
3.644219589233397727e+01 2.955245780944823863e+01 1.257187652587890980e+01 1.400000000000000000e+01
1.740779876708983931e+00 1.408147215843200906e+00 -5.999425649642944336e-01 1.800000000000000000e+01
1.995946645736693892e+00 1.613403797149657981e+00 -5.925210714340209961e-01 1.100000000000000000e+01
2.314974784851074219e+00 1.870619058609009011e+00 -5.785328745841979980e-01 1.400000000000000000e+01
2.752570390701293945e+00 2.222631216049193892e+00 -5.603482723236083984e-01 1.000000000000000000e+01
3.462370681762695312e+01 2.794779014587401988e+01 5.463402748107910156e+00 3.600000000000000000e+01
3.409559965133666992e+00 2.751168251037598100e+00 -5.379312634468078613e-01 9.000000000000000000e+00
4.442989826202392578e+00 3.583760499954224077e+00 -4.994024038314818781e-01 1.100000000000000000e+01
6.411304950714111328e+00 5.167730808258056641e+00 -4.315623044967650812e-01 2.000000000000000000e+00
3.680265808105468750e+01 2.965360260009765980e+01 1.091147613525390980e+01 1.300000000000000000e+01
1.051207542419433949e+01 8.467040061950683594e+00 -2.356074899435043057e-01 2.000000000000000000e+00
1.753215551376342995e+00 1.408110737800597922e+00 -6.025307178497314453e-01 2.100000000000000000e+01
1.998526692390441895e+00 1.603987336158751997e+00 -5.916212797164916992e-01 1.100000000000000000e+01
2.319958925247191939e+00 1.861298322677612083e+00 -5.781512856483459473e-01 1.500000000000000000e+01
2.768018245697021040e+00 2.219187498092650923e+00 -5.619125962257385254e-01 9.000000000000000000e+00
3.411396503448485884e+00 2.733043909072875977e+00 -5.367125868797302246e-01 1.000000000000000000e+01
4.474133968353270596e+00 3.583175182342528853e+00 -5.014941692352294922e-01 9.000000000000000000e+00
6.429304599761962891e+00 5.145319461822509766e+00 -4.315623044967650812e-01 2.000000000000000000e+00
1.050408554077148082e+01 8.400320053100585938e+00 -2.347697764635086060e-01 2.000000000000000000e+00
1.753588914871216042e+00 1.398368954658508079e+00 -6.009778380393981934e-01 1.900000000000000000e+01
2.004113435745238814e+00 1.597001314163208008e+00 -5.916212797164916992e-01 1.100000000000000000e+01
2.317228317260742188e+00 1.845849394798279031e+00 -5.758615732192993164e-01 1.300000000000000000e+01
2.772656679153441939e+00 2.207051277160644975e+00 -5.612868666648864746e-01 9.000000000000000000e+00
3.420915842056273970e+00 2.721119403839110884e+00 -5.367125868797302246e-01 1.000000000000000000e+01
4.463222026824951172e+00 3.548935413360596147e+00 -4.988794624805449884e-01 1.100000000000000000e+01
6.450353145599365234e+00 5.125330924987792969e+00 -4.317716360092163086e-01 2.000000000000000000e+00
1.053960800170898082e+01 8.368576049804687500e+00 -2.349093854427337924e-01 2.000000000000000000e+00
3.764022827148438211e+01 2.988679695129394887e+01 1.287831783294677912e+01 1.400000000000000000e+01
1.758459448814392090e+00 1.392239212989806907e+00 -6.009778380393981934e-01 1.900000000000000000e+01
2.018845558166503906e+00 1.597250699996948020e+00 -5.943207144737243652e-01 1.100000000000000000e+01
2.328277111053466797e+00 1.841403126716613992e+00 -5.770063996315002441e-01 1.400000000000000000e+01
2.783443450927733931e+00 2.199809312820435014e+00 -5.619125962257385254e-01 1.000000000000000000e+01
3.439740657806396040e+00 2.716543436050415039e+00 -5.381750464439392090e-01 1.000000000000000000e+01
4.455253601074218750e+00 3.517284870147705078e+00 -4.966134130954741877e-01 1.300000000000000000e+01
6.471341133117675781e+00 5.105257511138916016e+00 -4.319809973239899237e-01 2.000000000000000000e+00
1.060016345977783025e+01 8.356495857238769531e+00 -2.356074899435043057e-01 2.000000000000000000e+00
1.757233381271362083e+00 1.381317138671875000e+00 -5.989072918891906738e-01 1.800000000000000000e+01
2.018278837203979048e+00 1.585378766059875044e+00 -5.925210714340209961e-01 1.100000000000000000e+01
2.345499277114868164e+00 1.841752052307128906e+00 -5.796777009963989258e-01 1.400000000000000000e+01
2.784888982772827148e+00 2.185202121734619141e+00 -5.606611371040344238e-01 1.000000000000000000e+01
3.452326536178588867e+00 2.706969738006591797e+00 -5.386624932289123535e-01 1.000000000000000000e+01
4.467504024505615234e+00 3.501711845397949219e+00 -4.966134130954741877e-01 1.100000000000000000e+01
6.495411396026611328e+00 5.087563514709472656e+00 -4.323996603488922119e-01 2.000000000000000000e+00
1.063556766510009943e+01 8.324373245239257812e+00 -2.357470989227294922e-01 2.000000000000000000e+00
1.771182060241698997e+00 1.382306218147278054e+00 -6.020131111145019531e-01 1.800000000000000000e+01
2.017653703689575195e+00 1.573530316352844016e+00 -5.907214879989624023e-01 1.100000000000000000e+01
2.350365638732910156e+00 1.832346439361572044e+00 -5.792961120605468750e-01 1.400000000000000000e+01
2.792499780654906782e+00 2.175467729568481001e+00 -5.606611371040344238e-01 9.000000000000000000e+00
3.453922510147095171e+00 2.688805341720581055e+00 -5.374438166618347168e-01 9.000000000000000000e+00
4.484417438507080078e+00 3.489766836166381836e+00 -4.971363544464110773e-01 1.100000000000000000e+01
6.522590637207031250e+00 5.072215557098388672e+00 -4.330277144908905029e-01 2.000000000000000000e+00
1.064561271667479936e+01 8.272473335266113281e+00 -2.353282421827316007e-01 2.000000000000000000e+00
1.772942185401916948e+00 1.373748660087585005e+00 -6.009778380393981934e-01 1.700000000000000000e+01
2.029297590255736861e+00 1.571249961853026900e+00 -5.925210714340209961e-01 1.200000000000000000e+01
2.352089881896973100e+00 1.820526003837585005e+00 -5.781512856483459473e-01 1.300000000000000000e+01
2.806326866149901900e+00 2.170541048049927202e+00 -5.619125962257385254e-01 1.000000000000000000e+01
3.457004547119141069e+00 2.671876668930054155e+00 -5.364688634872436523e-01 9.000000000000000000e+00
4.504454612731933594e+00 3.480182647705078125e+00 -4.980079233646392822e-01 1.100000000000000000e+01
6.543418407440186435e+00 5.051857948303222656e+00 -4.332370460033416748e-01 1.000000000000000000e+00
3.899843597412108664e+01 3.009794998168944957e+01 1.137307548522949041e+01 1.400000000000000000e+01
1.068708992004395064e+01 8.245034217834472656e+00 -2.356074899435043057e-01 2.000000000000000000e+00
1.785382747650146040e+00 1.373441100120543990e+00 -6.035659909248352051e-01 1.900000000000000000e+01
2.040949821472167969e+00 1.568907499313354048e+00 -5.943207144737243652e-01 1.100000000000000000e+01
2.353760004043579102e+00 1.808715820312500000e+00 -5.770063996315002441e-01 1.300000000000000000e+01
2.817019701004027876e+00 2.163137912750244141e+00 -5.625383257865905762e-01 9.000000000000000000e+00
3.475759267807006836e+00 2.667043924331665039e+00 -5.379312634468078613e-01 9.000000000000000000e+00
4.524479866027832031e+00 3.470500946044921875e+00 -4.988794624805449884e-01 9.000000000000000000e+00
6.567353248596191406e+00 5.033846378326416016e+00 -4.336557388305664062e-01 1.000000000000000000e+00
1.069357967376708984e+01 8.190655708312988281e+00 -2.351188212633132935e-01 2.000000000000000000e+00
1.776111483573914018e+00 1.356957674026489036e+00 -5.989072918891906738e-01 1.900000000000000000e+01
2.049239158630371094e+00 1.564495921134948953e+00 -5.952205061912536621e-01 1.200000000000000000e+01
2.361305713653564009e+00 1.802091598510741965e+00 -5.773880481719970703e-01 1.200000000000000000e+01
2.824177503585814986e+00 2.153784513473511186e+00 -5.625383257865905762e-01 9.000000000000000000e+00
3.481426715850830078e+00 2.653096675872803178e+00 -5.374438166618347168e-01 9.000000000000000000e+00
4.548642635345458984e+00 3.465137243270874023e+00 -5.002739429473876953e-01 9.000000000000000000e+00
6.599902153015136719e+00 5.024137973785400391e+00 -4.347024559974669855e-01 2.000000000000000000e+00
1.074933052062987926e+01 8.176941871643066406e+00 -2.357470989227294922e-01 2.000000000000000000e+00
1.786994099617003950e+00 1.355419397354125977e+00 -6.009778380393981934e-01 1.900000000000000000e+01
2.054687738418579102e+00 1.557333230972290039e+00 -5.952205061912536621e-01 1.100000000000000000e+01
2.373841047286986861e+00 1.798580646514893022e+00 -5.789144635200500488e-01 1.200000000000000000e+01
2.819079160690308061e+00 2.134374141693114790e+00 -5.600354075431823730e-01 9.000000000000000000e+00
3.508080244064331055e+00 2.654102802276610884e+00 -5.401249527931213379e-01 9.000000000000000000e+00
4.547997951507568359e+00 3.439623832702637163e+00 -4.988794624805449884e-01 9.000000000000000000e+00
6.591904640197753906e+00 4.981802463531494141e+00 -4.330277144908905029e-01 2.000000000000000000e+00
1.077780818939208984e+01 8.139369964599609375e+00 -2.357470989227294922e-01 2.000000000000000000e+00
1.799430727958678977e+00 1.354983806610106978e+00 -6.035659909248352051e-01 1.900000000000000000e+01
2.047654151916503906e+00 1.540777921676635964e+00 -5.916212797164916992e-01 1.200000000000000000e+01
2.378535985946654829e+00 1.789103269577025923e+00 -5.785328745841979980e-01 1.100000000000000000e+01
2.835986614227294922e+00 2.131642103195189986e+00 -5.619125962257385254e-01 9.000000000000000000e+00
3.515736103057860884e+00 2.640649080276488814e+00 -5.398811697959899902e-01 9.000000000000000000e+00
4.606181621551513672e+00 3.458419084548950195e+00 -5.039345026016235352e-01 9.000000000000000000e+00
6.618839740753173828e+00 4.965953826904296875e+00 -4.336557388305664062e-01 2.000000000000000000e+00
1.079335403442382990e+01 8.092103004455566406e+00 -2.354678660631180087e-01 2.000000000000000000e+00
1.810338735580443892e+00 1.353321075439452903e+00 -6.056365370750427246e-01 1.800000000000000000e+01
2.054581165313721147e+00 1.534787178039551003e+00 -5.920711755752563477e-01 1.200000000000000000e+01
2.386339664459228960e+00 1.781964302062988059e+00 -5.789144635200500488e-01 1.000000000000000000e+01
2.843410253524779829e+00 2.121729612350463867e+00 -5.619125962257385254e-01 9.000000000000000000e+00
3.509018421173096147e+00 2.616494655609130859e+00 -5.374438166618347168e-01 9.000000000000000000e+00
4.602251529693604404e+00 3.430412530899047852e+00 -5.021913647651672363e-01 8.000000000000000000e+00
6.639337539672851562e+00 4.945205688476563388e+00 -4.338650703430175781e-01 1.000000000000000000e+00
3.147225189208984020e+01 2.343306922912598012e+01 9.058778762817382812e+00 1.200000000000000000e+01
1.082153511047362926e+01 8.054377555847167969e+00 -2.354678660631180087e-01 2.000000000000000000e+00
3.225426483154296875e+01 2.400657844543457031e+01 1.077360153198242010e+01 9.000000000000000000e+00
1.810632228851317915e+00 1.343223810195923074e+00 -6.040836572647094727e-01 1.900000000000000000e+01
2.061758279800415039e+00 1.528406977653502974e+00 -5.925210714340209961e-01 1.100000000000000000e+01
2.384968042373656782e+00 1.767361521720886008e+00 -5.770063996315002441e-01 1.100000000000000000e+01
2.859105348587036133e+00 2.117171525955200195e+00 -5.634769201278686523e-01 1.000000000000000000e+01
3.524967670440673828e+00 2.608338832855225053e+00 -5.384187698364257812e-01 9.000000000000000000e+00
4.606784343719482422e+00 3.407597064971923828e+00 -5.013198256492614746e-01 9.000000000000000000e+00
6.660630226135253906e+00 4.923212051391601562e+00 -4.340744316577910822e-01 2.000000000000000000e+00
3.149209976196289062e+01 2.326892280578612926e+01 9.039882659912109375e+00 1.200000000000000000e+01
1.085098361968993963e+01 8.014660835266113281e+00 -2.354678660631180087e-01 2.000000000000000000e+00
3.227677154541016336e+01 2.383999252319335938e+01 1.075186061859131037e+01 9.000000000000000000e+00
1.807532191276550071e+00 1.331167340278625044e+00 -6.014954447746276855e-01 2.000000000000000000e+01
2.074928522109984907e+00 1.526975989341736062e+00 -5.947706103324890137e-01 1.400000000000000000e+01
2.392704248428345171e+00 1.760189056396483931e+00 -5.773880481719970703e-01 1.200000000000000000e+01
2.860111713409423828e+00 2.102498292922974077e+00 -5.622254610061645508e-01 1.000000000000000000e+01
3.540450334548950195e+00 2.600719451904296875e+00 -5.393937230110168457e-01 9.000000000000000000e+00
4.626680850982666016e+00 3.397391796112060991e+00 -5.021913647651672363e-01 8.000000000000000000e+00
6.664892673492431641e+00 4.890480041503906250e+00 -4.332370460033416748e-01 2.000000000000000000e+00
3.156056213378905895e+01 2.314963150024414062e+01 9.036283493041992188e+00 1.200000000000000000e+01
1.091759681701659979e+01 8.005113601684570312e+00 -2.363055795431137085e-01 2.000000000000000000e+00
3.231718826293945312e+01 2.368727111816405895e+01 1.073633193969726918e+01 9.000000000000000000e+00
1.816846370697021040e+00 1.328270196914673074e+00 -6.030483841896057129e-01 1.900000000000000000e+01
2.073951721191405806e+00 1.515125632286071999e+00 -5.929709672927856445e-01 1.100000000000000000e+01
2.416274070739746094e+00 1.764562606811522993e+00 -5.815858244895935059e-01 1.200000000000000000e+01
2.862646341323852983e+00 2.089008569717406782e+00 -5.612868666648864746e-01 1.100000000000000000e+01
3.552714824676514116e+00 2.590684175491333008e+00 -5.398811697959899902e-01 1.000000000000000000e+01
4.575720310211181641e+00 3.335449695587158203e+00 -4.953932464122772217e-01 9.000000000000000000e+00
6.694838047027587891e+00 4.876592636108398438e+00 -4.340744316577910822e-01 2.000000000000000000e+00
3.165062904357910156e+01 2.304620552062987926e+01 9.038983345031738281e+00 1.200000000000000000e+01
1.097134208679199041e+01 7.985783576965332031e+00 -2.368640601634978970e-01 2.000000000000000000e+00
3.176454925537109020e+01 2.312067413330078125e+01 1.052720546722411932e+01 9.000000000000000000e+00
1.815217852592468040e+00 1.317381381988524947e+00 -6.009778380393981934e-01 2.100000000000000000e+01
2.072917699813843218e+00 1.503300666809082031e+00 -5.911713838577270508e-01 1.000000000000000000e+01
2.412881851196289062e+00 1.749203681945801003e+00 -5.792961120605468750e-01 1.100000000000000000e+01
2.868321180343627930e+00 2.077844619750977007e+00 -5.609740018844604492e-01 1.300000000000000000e+01
3.556912422180175781e+00 2.574775218963623047e+00 -5.391499996185302734e-01 1.000000000000000000e+01
4.671269893646240234e+00 3.380192995071411133e+00 -5.044574141502380371e-01 9.000000000000000000e+00
6.708582878112792969e+00 4.850852966308593750e+00 -4.338650703430175781e-01 1.000000000000000000e+00
3.178142166137694957e+01 2.297211456298828125e+01 9.053380012512207031e+00 1.200000000000000000e+01
1.099266719818115057e+01 7.942753314971923828e+00 -2.367244362831116000e-01 2.000000000000000000e+00
3.184506225585937855e+01 2.300965499877930043e+01 1.052720546722411932e+01 9.000000000000000000e+00
1.828979969024657981e+00 1.318131685256958008e+00 -6.040836572647094727e-01 1.900000000000000000e+01
2.081053972244263139e+00 1.498696088790893999e+00 -5.920711755752563477e-01 1.100000000000000000e+01
2.417075872421265093e+00 1.740045547485352007e+00 -5.789144635200500488e-01 1.200000000000000000e+01
2.883213520050048828e+00 2.074089050292969194e+00 -5.625383257865905762e-01 1.100000000000000000e+01
3.557371854782104048e+00 2.557172536849976030e+00 -5.379312634468078613e-01 9.000000000000000000e+00
3.162065696716308949e+01 2.273011779785155895e+01 6.167898178100585938e+00 1.400000000000000000e+01
4.711576938629150391e+00 3.385611534118651900e+00 -5.075950622558593750e-01 9.000000000000000000e+00
6.721387386322020596e+00 4.826250076293945312e+00 -4.336557388305664062e-01 1.000000000000000000e+00
