-3.380893707275391336e+01 5.870206356048583984e+00 -5.989665985107421875e-01 1.300000000000000000e+01
-2.458560943603516069e+00 4.304141998291016180e-01 -6.687884330749511719e-01 1.600000000000000000e+01
-4.476093292236328125e+01 7.844238281250000000e+00 7.932118773460388184e-01 5.000000000000000000e+01
-2.859949111938477007e+00 5.017132163047790527e-01 -6.703541278839111328e-01 1.100000000000000000e+01
-4.484333038330078125e+01 7.874813079833984375e+00 2.386101007461547852e+00 3.600000000000000000e+01
-3.391649484634398970e+00 5.955981612205505371e-01 -6.693579554557800293e-01 1.100000000000000000e+01
-4.489549255371093750e+01 7.892051219940186435e+00 3.988072395324707031e+00 5.400000000000000000e+01
-4.167230606079101562e+00 7.332954406738281250e-01 -6.701652407646179199e-01 1.000000000000000000e+01
-4.488471603393554688e+01 7.906309604644775391e+00 5.595996379852294922e+00 7.900000000000000000e+01
-5.483590602874755859e+00 9.669049978256225586e-01 -6.836870312690734863e-01 1.000000000000000000e+01
-7.844316482543945312e+00 1.384576320648192915e+00 -6.968973278999328613e-01 1.000000000000000000e+00
-1.411131858825683949e+01 2.495825290679932085e+00 -7.510209679603576660e-01 4.000000000000000000e+00
-3.373704910278320312e+01 5.979112625122070312e+00 -5.980590581893920898e-01 6.000000000000000000e+00
-2.466475248336791992e+00 4.411229193210601807e-01 -6.713765859603881836e-01 1.600000000000000000e+01
-4.481061935424804688e+01 8.022338867187500000e+00 7.946080565452575684e-01 5.000000000000000000e+01
-2.848500251770019975e+00 5.104733109474182129e-01 -6.681046485900878906e-01 1.300000000000000000e+01
-4.482202911376953125e+01 8.040530204772949219e+00 2.386519670486450195e+00 3.600000000000000000e+01
-3.397173404693603960e+00 6.094118356704711914e-01 -6.708844304084777832e-01 1.200000000000000000e+01
-4.491333007812500000e+01 8.064999580383300781e+00 3.992255926132202148e+00 5.400000000000000000e+01
-4.164515018463134766e+00 7.485641837120056152e-01 -6.701652407646179199e-01 1.000000000000000000e+01
-4.485934448242188211e+01 8.071470260620117188e+00 5.596484184265136719e+00 7.900000000000000000e+01
-5.464380741119384766e+00 9.841818809509277344e-01 -6.817371249198913574e-01 1.200000000000000000e+01
-7.811738014221191406e+00 1.408368825912476030e+00 -6.944569349288940430e-01 1.000000000000000000e+00
-1.400380420684813920e+01 2.529776334762572798e+00 -7.457873821258544922e-01 4.000000000000000000e+00
-3.374245452880858664e+01 6.107711791992188388e+00 -5.985477566719055176e-01 1.300000000000000000e+01
-2.483925104141234907e+00 4.531973004341124933e-01 -6.765530109405517578e-01 1.400000000000000000e+01
-4.480201339721679688e+01 8.182300567626953125e+00 7.949571013450622559e-01 5.000000000000000000e+01
-2.835199117660522017e+00 5.183106660842895508e-01 -6.654052138328552246e-01 1.200000000000000000e+01
-4.480547714233397727e+01 8.199095726013183594e+00 2.387147665023804155e+00 3.600000000000000000e+01
-3.375713586807250977e+00 6.177325248718261719e-01 -6.670682430267333984e-01 1.100000000000000000e+01
-4.488490676879882812e+01 8.221727371215820312e+00 3.992255926132202148e+00 5.400000000000000000e+01
-4.167705535888671875e+00 7.641652822494506836e-01 -6.711038351058959961e-01 1.000000000000000000e+01
-4.488166046142578125e+01 8.237326622009277344e+00 5.602821350097656250e+00 8.000000000000000000e+01
-5.439435482025145596e+00 9.993045926094055176e-01 -6.790559887886047363e-01 1.200000000000000000e+01
-7.806774139404296875e+00 1.435628294944762962e+00 -6.944569349288940430e-01 1.000000000000000000e+00
-1.399488830566406072e+01 2.578643321990966797e+00 -7.457873821258544922e-01 4.000000000000000000e+00
-3.373666000366210938e+01 6.228362083435058594e+00 -5.988269448280334473e-01 1.300000000000000000e+01
-2.463335514068603960e+00 4.583312869071959894e-01 -6.713765859603881836e-01 1.400000000000000000e+01
-4.482036209106445312e+01 8.347426414489746094e+00 7.957948446273803711e-01 5.000000000000000000e+01
-2.844866991043090820e+00 5.303469896316528320e-01 -6.681046485900878906e-01 1.200000000000000000e+01
-4.481192398071289062e+01 8.362041473388671875e+00 2.389031648635863814e+00 3.600000000000000000e+01
-3.373536825180054155e+00 6.295121908187866211e-01 -6.670682430267333984e-01 1.200000000000000000e+01
-4.487551879882813211e+01 8.382012367248535156e+00 3.993999004364014116e+00 5.400000000000000000e+01
-4.174721717834472656e+00 7.805237770080566406e-01 -6.726682186126708984e-01 1.000000000000000000e+01
-4.488385391235352273e+01 8.399785041809082031e+00 5.606720924377441406e+00 8.000000000000000000e+01
-5.449572086334229404e+00 1.020844221115112083e+00 -6.807621717453002930e-01 1.000000000000000000e+01
-7.809548377990722656e+00 1.464339017868041992e+00 -6.951541900634765625e-01 1.000000000000000000e+00
-1.398580169677734020e+01 2.627478837966918945e+00 -7.457873821258544922e-01 4.000000000000000000e+00
-3.374615859985352273e+01 6.352005481719970703e+00 -5.993854403495788574e-01 1.300000000000000000e+01
-2.454128503799438032e+00 4.654871225357056219e-01 -6.693060398101806641e-01 1.500000000000000000e+01
-4.479487991333007812e+01 8.504573822021484375e+00 7.958646416664123535e-01 5.000000000000000000e+01
-2.846827268600463867e+00 5.410018563270568848e-01 -6.690044403076171875e-01 1.300000000000000000e+01
-4.486094665527343750e+01 8.533341407775878906e+00 2.393218517303466797e+00 3.600000000000000000e+01
-3.375176191329956055e+00 6.420179009437561035e-01 -6.678314805030822754e-01 1.200000000000000000e+01
-4.485773086547852273e+01 8.540842056274414062e+00 3.995044946670531782e+00 5.400000000000000000e+01
-4.158388614654541016e+00 7.925028800964355469e-01 -6.704781055450439453e-01 9.000000000000000000e+00
-4.489325714111328125e+01 8.563846588134765625e+00 5.611595630645751953e+00 8.000000000000000000e+01
-5.445975303649902344e+00 1.039860486984252930e+00 -6.807621717453002930e-01 1.000000000000000000e+01
-7.761336326599121094e+00 1.483362078666687012e+00 -6.913193464279174805e-01 1.000000000000000000e+00
-1.397654533386229936e+01 2.676282405853271040e+00 -7.457873821258544922e-01 4.000000000000000000e+00
-3.369235610961914062e+01 6.463734626770020419e+00 -5.988269448280334473e-01 1.300000000000000000e+01
-2.452488899230957031e+00 4.740507900714874268e-01 -6.693060398101806641e-01 1.500000000000000000e+01
-4.479240798950195312e+01 8.666202545166015625e+00 7.963532805442810059e-01 5.000000000000000000e+01
-2.841095209121704102e+00 5.501948595046997070e-01 -6.681046485900878906e-01 1.300000000000000000e+01
-4.484657287597656250e+01 8.692924499511718750e+00 2.394056081771851030e+00 3.600000000000000000e+01
-3.365205049514770952e+00 6.523011922836303711e-01 -6.663050055503845215e-01 1.100000000000000000e+01
-4.487458419799804688e+01 8.706480979919433594e+00 3.999228477478026900e+00 5.400000000000000000e+01
-4.140083312988281250e+00 8.040008544921875000e-01 -6.679751873016357422e-01 9.000000000000000000e+00
-4.490206527709960938e+01 8.728076934814453125e+00 5.616470336914063388e+00 8.000000000000000000e+01
-5.442312717437744141e+00 1.058864116668700950e+00 -6.807621717453002930e-01 1.000000000000000000e+01
-7.740465641021729404e+00 1.507398366928101030e+00 -6.899248361587524414e-01 1.000000000000000000e+00
-3.358912277221679688e+01 6.565575122833251953e+00 -5.973958969116210938e-01 1.900000000000000000e+01
-2.452714443206787109e+00 4.829819202423096258e-01 -6.698237061500549316e-01 1.600000000000000000e+01
-4.480504608154296875e+01 8.831011772155761719e+00 7.971212267875671387e-01 5.100000000000000000e+01
-2.833421707153319868e+00 5.589772462844848633e-01 -6.667549014091491699e-01 1.200000000000000000e+01
-4.484338760375977273e+01 8.854831695556640625e+00 2.395521402359008789e+00 3.600000000000000000e+01
-3.376389980316162109e+00 6.667062044143676758e-01 -6.689763665199279785e-01 1.200000000000000000e+01
-4.489474105834960938e+01 8.873113632202148438e+00 4.003760337829589844e+00 5.400000000000000000e+01
-4.141127586364746094e+00 8.192142248153686523e-01 -6.686009168624877930e-01 9.000000000000000000e+00
-4.489663696289063211e+01 8.889773368835449219e+00 5.619639396667479581e+00 8.000000000000000000e+01
-5.426899909973145419e+00 1.075539469718933105e+00 -6.792997121810913086e-01 1.000000000000000000e+01
-7.727339744567871094e+00 1.532857775688170943e+00 -6.892276406288146973e-01 1.000000000000000000e+00
-3.364248657226563211e+01 6.698011398315429688e+00 -5.987571477890014648e-01 6.000000000000000000e+00
-2.462378501892089844e+00 4.938197433948516846e-01 -6.729295253753662109e-01 1.500000000000000000e+01
-4.481707763671875000e+01 8.996015548706054688e+00 7.978891134262084961e-01 5.100000000000000000e+01
-2.831453323364257812e+00 5.688642859458923340e-01 -6.667549014091491699e-01 1.300000000000000000e+01
-4.482003784179688211e+01 9.012885093688964844e+00 2.395940065383911133e+00 3.600000000000000000e+01
-3.362493753433227983e+00 6.761656999588012695e-01 -6.666866540908813477e-01 1.200000000000000000e+01
-4.487911987304688211e+01 9.032916069030761719e+00 4.005155086517333984e+00 5.400000000000000000e+01
-4.144052028656005859e+00 8.348348140716552734e-01 -6.695395112037658691e-01 1.000000000000000000e+01
-4.488284683227539062e+01 9.049969673156738281e+00 5.621832847595214844e+00 8.100000000000000000e+01
-5.409491539001464844e+00 1.091727375984191895e+00 -6.775935292243957520e-01 1.200000000000000000e+01
-7.725847721099854404e+00 1.560610771179198997e+00 -6.895762085914611816e-01 2.000000000000000000e+00
-1.384987449645995916e+01 2.802688121795653853e+00 -7.405537962913513184e-01 4.000000000000000000e+00
-3.366985702514647727e+01 6.825734615325927734e+00 -5.996646881103515625e-01 1.300000000000000000e+01
-2.445497274398804155e+00 4.993202686309813898e-01 -6.687884330749511719e-01 1.600000000000000000e+01
-4.481675338745117188e+01 9.158807754516601562e+00 7.984476089477539062e-01 5.100000000000000000e+01
-2.831359386444091797e+00 5.791350007057189941e-01 -6.672048568725585938e-01 1.200000000000000000e+01
-4.481178283691406250e+01 9.174088478088378906e+00 2.397196054458618164e+00 3.600000000000000000e+01
-3.358189821243286133e+00 6.875051259994506836e-01 -6.663050055503845215e-01 1.200000000000000000e+01
-4.492929077148438211e+01 9.206315994262695312e+00 4.012475967407226562e+00 5.400000000000000000e+01
-4.141112804412841797e+00 8.492951989173889160e-01 -6.695395112037658691e-01 1.000000000000000000e+01
-4.488598632812500000e+01 9.213769912719726562e+00 5.626220226287841797e+00 4.000000000000000000e+01
-5.409536838531494141e+00 1.111402392387389915e+00 -6.780810356140136719e-01 1.200000000000000000e+01
-7.706692218780517578e+00 1.584760427474976030e+00 -6.883560419082641602e-01 2.000000000000000000e+00
-1.374219799041748047e+01 2.830867528915404829e+00 -7.353202104568481445e-01 4.000000000000000000e+00
-3.367716217041016336e+01 6.949688911437988281e+00 -6.002231836318969727e-01 1.300000000000000000e+01
-2.436350345611571822e+00 5.054308772087097168e-01 -6.667178869247436523e-01 1.500000000000000000e+01
-4.479950332641602273e+01 9.301997184753417969e+00 7.986570000648498535e-01 5.100000000000000000e+01
-2.835249900817871094e+00 5.892165899276733398e-01 -6.685545444488525391e-01 1.300000000000000000e+01
-4.488833236694335938e+01 9.336787223815917969e+00 2.402848482131958008e+00 3.600000000000000000e+01
-3.350246906280518022e+00 6.968523859977722168e-01 -6.651601791381835938e-01 1.200000000000000000e+01
-4.138423919677734375e+00 8.623006343841552734e-01 -6.695395112037658691e-01 1.000000000000000000e+01
-5.409904956817626953e+00 1.129202604293823020e+00 -6.785684823989868164e-01 1.200000000000000000e+01
-7.703625679016113281e+00 1.609371304512023926e+00 -6.885303854942321777e-01 1.000000000000000000e+00
-3.366690444946289062e+01 7.057916164398193359e+00 -6.004325747489929199e-01 1.300000000000000000e+01
-2.442131996154785156e+00 5.155283212661743164e-01 -6.687884330749511719e-01 1.600000000000000000e+01
-2.835082530975341797e+00 5.995130538940429688e-01 -6.690044403076171875e-01 1.200000000000000000e+01
-6.125323486328125000e+01 1.296391868591308949e+01 3.281255006790161133e+00 5.500000000000000000e+01
-3.353556156158446822e+00 7.097622156143188477e-01 -6.663050055503845215e-01 1.200000000000000000e+01
-4.119929313659667969e+00 8.734636306762695312e-01 -6.670365333557128906e-01 1.000000000000000000e+01
-5.396221160888671875e+00 1.146017909049988015e+00 -6.773498058319091797e-01 1.200000000000000000e+01
-7.694063186645507812e+00 1.635423660278320090e+00 -6.881817579269409180e-01 2.000000000000000000e+00
-3.357752609252929688e+01 7.161627769470214844e+00 -5.992807149887084961e-01 1.900000000000000000e+01
-2.445983886718750000e+00 5.252666473388671875e-01 -6.703413128852844238e-01 1.500000000000000000e+01
-2.813920974731444868e+00 6.053074598312377930e-01 -6.645054221153259277e-01 1.300000000000000000e+01
-3.341461896896361861e+00 7.193979024887084961e-01 -6.643969416618347168e-01 1.200000000000000000e+01
-4.114924430847167969e+00 8.874231576919555664e-01 -6.667236685752868652e-01 1.100000000000000000e+01
-5.386366844177246094e+00 1.163589715957642046e+00 -6.766185760498046875e-01 1.200000000000000000e+01
-7.641570568084716797e+00 1.652166008949280007e+00 -6.839982867240905762e-01 1.000000000000000000e+00
-3.361680984497070312e+01 7.292781829833984375e+00 -6.004325747489929199e-01 1.300000000000000000e+01
-2.444135427474976030e+00 5.338014960289001465e-01 -6.703413128852844238e-01 1.500000000000000000e+01
-2.811790943145751953e+00 6.151261925697326660e-01 -6.645054221153259277e-01 1.300000000000000000e+01
-3.354272842407227007e+00 7.344166636466979980e-01 -6.674498915672302246e-01 1.300000000000000000e+01
-4.117590427398681641e+00 9.030510187149047852e-01 -6.676623225212097168e-01 1.000000000000000000e+01
-5.359006404876708984e+00 1.177273392677306907e+00 -6.736937165260314941e-01 1.200000000000000000e+01
-7.670783042907714844e+00 1.686531066894531028e+00 -6.871358752250671387e-01 1.000000000000000000e+00
-3.359896087646483664e+01 7.411805152893066406e+00 -6.005722284317016602e-01 1.300000000000000000e+01
-2.434713602066040039e+00 5.406547188758850098e-01 -6.682707667350769043e-01 1.600000000000000000e+01
-2.813431024551392046e+00 6.257836818695068359e-01 -6.654052138328552246e-01 1.300000000000000000e+01
-3.328692674636840820e+00 7.410016059875488281e-01 -6.628704667091369629e-01 1.200000000000000000e+01
-4.106700897216796875e+00 9.156989455223083496e-01 -6.664108037948608398e-01 1.000000000000000000e+01
-5.354864120483398438e+00 1.195972681045532005e+00 -6.736937165260314941e-01 1.200000000000000000e+01
-7.657071590423583984e+00 1.711558341979980025e+00 -6.864386200904846191e-01 1.000000000000000000e+00
-3.371727752685546875e+01 7.561423301696777344e+00 -6.031551957130432129e-01 1.300000000000000000e+01
-2.427158355712891069e+00 5.478740930557250977e-01 -6.667178869247436523e-01 1.700000000000000000e+01
-2.813130378723144975e+00 6.360303163528442383e-01 -6.658551096916198730e-01 1.200000000000000000e+01
-3.331830501556396040e+00 7.539162635803222656e-01 -6.640152931213378906e-01 1.200000000000000000e+01
-4.097700119018554688e+00 9.287185668945312500e-01 -6.654722094535827637e-01 1.000000000000000000e+01
-5.358400344848632812e+00 1.216415166854857954e+00 -6.746686697006225586e-01 1.200000000000000000e+01
-7.616078853607177734e+00 1.730330586433411089e+00 -6.833010315895080566e-01 1.000000000000000000e+00
-3.365168380737304688e+01 7.670184612274169922e+00 -6.024570465087890625e-01 6.000000000000000000e+00
-2.425230979919434038e+00 5.563430786132812500e-01 -6.667178869247436523e-01 1.800000000000000000e+01
-2.807094573974608931e+00 6.449733376502990723e-01 -6.649553179740905762e-01 1.300000000000000000e+01
-3.329178571701049805e+00 7.655419111251831055e-01 -6.640152931213378906e-01 1.200000000000000000e+01
-4.096358299255371094e+00 9.434598684310913086e-01 -6.657850742340087891e-01 1.000000000000000000e+01
-5.350252628326416016e+00 1.234219670295715110e+00 -6.741812229156494141e-01 1.200000000000000000e+01
-7.609992504119873047e+00 1.756905198097229004e+00 -6.833010315895080566e-01 1.000000000000000000e+00
-3.354288101196289062e+01 7.768653869628906250e+00 -6.009910702705383301e-01 2.000000000000000000e+01
-2.419511318206787109e+00 5.639283061027526855e-01 -6.656825542449951172e-01 1.900000000000000000e+01
-2.801030635833739790e+00 6.538819670677185059e-01 -6.640555262565612793e-01 1.300000000000000000e+01
-3.332221269607543945e+00 7.784981727600097656e-01 -6.651601791381835938e-01 1.300000000000000000e+01
-4.089192867279052734e+00 9.568529725074768066e-01 -6.651593446731567383e-01 1.000000000000000000e+01
-5.330450057983398438e+00 1.249264359474181907e+00 -6.722313165664672852e-01 1.200000000000000000e+01
-7.568897724151611328e+00 1.775268912315369096e+00 -6.801634430885314941e-01 1.000000000000000000e+00
-3.360704803466796875e+01 7.907218933105468750e+00 -6.026315689086914062e-01 2.000000000000000000e+01
-2.419308185577393022e+00 5.732378959655761719e-01 -6.662002205848693848e-01 2.100000000000000000e+01
-2.809991598129272017e+00 6.668436527252197266e-01 -6.667549014091491699e-01 1.300000000000000000e+01
-3.319794893264770952e+00 7.884379029273986816e-01 -6.632520556449890137e-01 1.200000000000000000e+01
-4.093345642089843750e+00 9.736626148223876953e-01 -6.664108037948608398e-01 1.000000000000000000e+01
-5.321973323822020596e+00 1.267872929573059082e+00 -6.717438101768493652e-01 1.200000000000000000e+01
-7.562340259552001953e+00 1.802998423576354980e+00 -6.801634430885314941e-01 1.000000000000000000e+00
-3.364590835571289062e+01 8.046621322631835938e+00 -6.038532853126525879e-01 1.300000000000000000e+01
-2.415414094924927202e+00 5.812274217605590820e-01 -6.656825542449951172e-01 1.900000000000000000e+01
-2.803857803344727007e+00 6.757351160049438477e-01 -6.658551096916198730e-01 1.400000000000000000e+01
-3.307479858398437944e+00 7.977198362350463867e-01 -6.613439917564392090e-01 1.200000000000000000e+01
-4.080321311950683594e+00 9.856260418891906738e-01 -6.648464798927307129e-01 9.000000000000000000e+00
-5.309797763824462891e+00 1.284575223922729048e+00 -6.707688570022583008e-01 1.200000000000000000e+01
-7.579237937927246094e+00 1.835010886192321999e+00 -6.822551488876342773e-01 0.000000000000000000e+00
-3.358458328247070312e+01 8.155995368957519531e+00 -6.032598614692687988e-01 2.000000000000000000e+01
-2.402110576629639116e+00 5.869041085243225098e-01 -6.625767350196838379e-01 2.000000000000000000e+01
-2.807160615921020952e+00 6.869078874588012695e-01 -6.672048568725585938e-01 1.200000000000000000e+01
-3.308489084243773970e+00 8.101941347122192383e-01 -6.621072292327880859e-01 1.200000000000000000e+01
-4.069181919097900391e+00 9.979808926582336426e-01 -6.635950207710266113e-01 1.000000000000000000e+01
-5.297570228576660156e+00 1.301208019256592019e+00 -6.697939038276672363e-01 1.100000000000000000e+01
-7.553438186645507812e+00 1.856700301170348899e+00 -6.805120110511779785e-01 1.000000000000000000e+00
-1.323611164093017933e+01 3.258450269699097124e+00 -7.143858075141906738e-01 4.000000000000000000e+00
-3.359667968750000000e+01 8.283230781555175781e+00 -6.039928793907165527e-01 1.300000000000000000e+01
-2.407547473907471147e+00 5.971457362174987793e-01 -6.646472811698913574e-01 2.000000000000000000e+01
-2.799072027206420898e+00 6.952931284904479980e-01 -6.658551096916198730e-01 1.300000000000000000e+01
-3.303735494613647017e+00 8.212643861770629883e-01 -6.617255806922912598e-01 1.200000000000000000e+01
-4.063756465911865234e+00 1.011701703071594016e+00 -6.632821559906005859e-01 1.000000000000000000e+01
-5.300700187683104581e+00 1.321613073348999023e+00 -6.707688570022583008e-01 1.200000000000000000e+01
-7.514048099517822266e+00 1.874855637550354004e+00 -6.775487661361694336e-01 2.000000000000000000e+00
-1.312777328491210938e+01 3.280423402786254883e+00 -7.091522216796875000e-01 4.000000000000000000e+00
-3.361800003051757812e+01 8.413076400756835938e+00 -6.049004197120666504e-01 1.300000000000000000e+01
-2.401807069778441939e+00 6.041836142539978027e-01 -6.636120080947875977e-01 2.000000000000000000e+01
-2.785412788391112837e+00 7.017149925231933594e-01 -6.631557345390319824e-01 1.300000000000000000e+01
-3.302897691726685014e+00 8.326953649520874023e-01 -6.621072292327880859e-01 1.200000000000000000e+01
-4.058464050292968750e+00 1.024688482284545898e+00 -6.629692912101745605e-01 1.000000000000000000e+01
-5.288590431213378906e+00 1.337237000465393066e+00 -6.697939038276672363e-01 1.100000000000000000e+01
-7.525173187255859375e+00 1.904161572456360085e+00 -6.791175603866577148e-01 2.000000000000000000e+00
-1.314392757415770951e+01 3.330807209014893022e+00 -7.106176018714904785e-01 4.000000000000000000e+00
-3.371783828735352273e+01 8.556976318359375000e+00 -6.072041392326354980e-01 6.000000000000000000e+00
-2.412786245346068892e+00 6.159085035324096680e-01 -6.672354936599731445e-01 1.900000000000000000e+01
-2.782946348190308061e+00 7.114335894584655762e-01 -6.631557345390319824e-01 1.300000000000000000e+01
-3.298068761825561968e+00 8.437330126762390137e-01 -6.617255806922912598e-01 1.400000000000000000e+01
-4.054862499237061435e+00 1.038848876953125000e+00 -6.629692912101745605e-01 1.000000000000000000e+01
-5.245434284210205078e+00 1.345822811126708984e+00 -6.649191379547119141e-01 1.100000000000000000e+01
-7.503042221069335938e+00 1.926453828811645952e+00 -6.777230501174926758e-01 1.000000000000000000e+00
-1.300842285156250000e+01 3.344835996627808061e+00 -7.039186358451843262e-01 4.000000000000000000e+00
-3.371487808227539062e+01 8.681602478027343750e+00 -6.076927781105041504e-01 1.300000000000000000e+01
-2.405011177062987837e+00 6.228739023208618164e-01 -6.656825542449951172e-01 1.900000000000000000e+01
-2.791764020919799805e+00 7.240790128707885742e-01 -6.658551096916198730e-01 1.400000000000000000e+01
-3.297003746032714844e+00 8.557334542274475098e-01 -6.621072292327880859e-01 1.300000000000000000e+01
-4.053123474121093750e+00 1.053493618965148926e+00 -6.632821559906005859e-01 1.000000000000000000e+01
-6.088368988037108664e+01 1.583632087707520064e+01 7.724322795867919922e+00 6.300000000000000000e+01
-5.267599582672119141e+00 1.371125221252440962e+00 -6.683315038681030273e-01 1.100000000000000000e+01
-7.492415904998779297e+00 1.951628208160399947e+00 -6.773744225502014160e-01 1.000000000000000000e+00
-1.299666786193848012e+01 3.390223503112792969e+00 -7.039186358451843262e-01 4.000000000000000000e+00
-3.378110504150391336e+01 8.824506759643554688e+00 -6.094380617141723633e-01 1.400000000000000000e+01
-2.399085283279418945e+00 6.302834153175354004e-01 -6.646472811698913574e-01 1.900000000000000000e+01
-2.796757936477661133e+00 7.358030080795288086e-01 -6.676547527313232422e-01 1.300000000000000000e+01
-3.286402463912963867e+00 8.652375340461730957e-01 -6.605807542800903320e-01 1.300000000000000000e+01
-4.041780948638916016e+00 1.065620899200439009e+00 -6.620306372642517090e-01 1.000000000000000000e+01
-6.088178253173828125e+01 1.606292724609375000e+01 7.731147289276123047e+00 6.300000000000000000e+01
-5.251265525817871094e+00 1.386463761329651101e+00 -6.668690443038940430e-01 1.100000000000000000e+01
-7.454737186431884766e+00 1.969626545906066895e+00 -6.745854616165161133e-01 1.000000000000000000e+00
-1.291524505615234020e+01 3.417178392410277876e+00 -7.001504302024841309e-01 4.000000000000000000e+00
-3.370756912231445312e+01 8.931103706359863281e+00 -6.086701154708862305e-01 1.300000000000000000e+01
-2.391270637512207031e+00 6.371617913246154785e-01 -6.630944013595581055e-01 1.900000000000000000e+01
-2.790406703948975053e+00 7.445561885833740234e-01 -6.667549014091491699e-01 1.400000000000000000e+01
-3.281465291976929155e+00 8.761975169181823730e-01 -6.601991057395935059e-01 1.300000000000000000e+01
-4.022769927978515625e+00 1.075640678405761941e+00 -6.595277190208435059e-01 9.000000000000000000e+00
-5.232970714569091797e+00 1.401191473007201926e+00 -6.651628613471984863e-01 1.100000000000000000e+01
-7.436269283294677734e+00 1.992542386054992898e+00 -6.735395789146423340e-01 1.000000000000000000e+00
-1.282993602752686080e+01 3.442571401596068892e+00 -6.961728930473327637e-01 4.000000000000000000e+00
-3.372640228271483664e+01 9.062202453613281250e+00 -6.095776557922363281e-01 2.100000000000000000e+01
-2.396491765975952148e+00 6.475206017494201660e-01 -6.651649475097656250e-01 1.900000000000000000e+01
-2.774623155593872070e+00 7.507292032241821289e-01 -6.636056303977966309e-01 1.400000000000000000e+01
-3.293547153472899947e+00 8.917513489723205566e-01 -6.632520556449890137e-01 1.300000000000000000e+01
-4.020896911621093750e+00 1.090193152427672896e+00 -6.598405838012695312e-01 8.000000000000000000e+00
-5.218469142913818359e+00 1.416848778724669966e+00 -6.639441847801208496e-01 1.100000000000000000e+01
-7.410041809082031250e+00 2.013263940811156782e+00 -6.717964410781860352e-01 2.000000000000000000e+00
-1.286409378051757990e+01 3.499919176101685014e+00 -6.986849904060363770e-01 4.000000000000000000e+00
-3.371771621704102273e+01 9.186182022094726562e+00 -6.099964976310729980e-01 7.000000000000000000e+00
-2.399921178817749023e+00 6.569944024085998535e-01 -6.667178869247436523e-01 1.900000000000000000e+01
-2.764600753784180132e+00 7.578652501106262207e-01 -6.618059873580932617e-01 1.300000000000000000e+01
-3.279211997985839844e+00 8.995519876480102539e-01 -6.609623432159423828e-01 1.400000000000000000e+01
-4.022974014282226562e+00 1.105090618133544922e+00 -6.607791781425476074e-01 1.000000000000000000e+01
-5.204172134399414062e+00 1.431513547897339089e+00 -6.627255082130432129e-01 9.000000000000000000e+00
-7.426376342773438388e+00 2.044170379638671875e+00 -6.738882064819335938e-01 1.000000000000000000e+00
-1.275614356994629084e+01 3.516022920608520952e+00 -6.934514045715332031e-01 4.000000000000000000e+00
-3.372947311401367188e+01 9.309648513793945312e+00 -6.107644438743591309e-01 7.000000000000000000e+00
-2.382721185684204102e+00 6.612349152565002441e-01 -6.625767350196838379e-01 1.900000000000000000e+01
-2.765693664550780806e+00 7.685544490814208984e-01 -6.627057790756225586e-01 1.300000000000000000e+01
-3.264703035354613814e+00 9.078372120857238770e-01 -6.586726307868957520e-01 1.300000000000000000e+01
-4.022898197174072266e+00 1.120186448097229004e+00 -6.614049077033996582e-01 1.000000000000000000e+01
-5.204879760742188388e+00 1.451270341873168945e+00 -6.634566783905029297e-01 1.100000000000000000e+01
-7.392328262329101562e+00 2.062584400177001953e+00 -6.714478135108947754e-01 2.000000000000000000e+00
-1.274379348754882990e+01 3.560528755187987837e+00 -6.934514045715332031e-01 4.000000000000000000e+00
-3.369677352905272727e+01 9.427330017089843750e+00 -6.107644438743591309e-01 7.000000000000000000e+00
-2.378538846969604048e+00 6.690250635147094727e-01 -6.620591282844543457e-01 2.000000000000000000e+01
-2.762994050979613814e+00 7.782038450241088867e-01 -6.627057790756225586e-01 1.300000000000000000e+01
-3.265293359756470171e+00 9.202927947044372559e-01 -6.594358682632446289e-01 1.300000000000000000e+01
-4.022765636444091797e+00 1.135295271873473899e+00 -6.620306372642517090e-01 1.000000000000000000e+01
-5.195961952209472656e+00 1.468350172042846902e+00 -6.629692316055297852e-01 1.100000000000000000e+01
-7.365911483764648438e+00 2.082954406738280806e+00 -6.697047352790832520e-01 2.000000000000000000e+00
-1.253911685943604049e+01 3.550576210021973100e+00 -6.829842329025268555e-01 4.000000000000000000e+00
-3.352129364013671875e+01 9.504529953002929688e+00 -6.081814765930175781e-01 1.300000000000000000e+01
-2.378046989440917969e+00 6.778532266616821289e-01 -6.625767350196838379e-01 1.900000000000000000e+01
-2.764008522033690962e+00 7.889134287834167480e-01 -6.636056303977966309e-01 1.300000000000000000e+01
-3.277163267135620117e+00 9.359985589981079102e-01 -6.624888181686401367e-01 1.600000000000000000e+01
-4.003584384918212891e+00 1.144985079765320046e+00 -6.595277190208435059e-01 9.000000000000000000e+00
-5.194621562957763672e+00 1.487571597099303977e+00 -6.634566783905029297e-01 1.100000000000000000e+01
-7.350934505462645596e+00 2.106458187103271040e+00 -6.690074801445007324e-01 2.000000000000000000e+00
-1.262263584136963068e+01 3.621866941452025923e+00 -6.882178187370300293e-01 4.000000000000000000e+00
-3.360707473754882812e+01 9.655719757080078125e+00 -6.103455424308776855e-01 1.400000000000000000e+01
-2.381234169006348100e+00 6.877582073211669922e-01 -6.641296744346618652e-01 1.900000000000000000e+01
-2.750005722045897993e+00 7.953084707260131836e-01 -6.609061956405639648e-01 1.400000000000000000e+01
-3.268218517303466797e+00 9.457949995994567871e-01 -6.613439917564392090e-01 1.300000000000000000e+01
-3.995768547058105025e+00 1.157853722572327104e+00 -6.589019894599914551e-01 1.000000000000000000e+01
-5.183677673339843750e+00 1.504035592079163042e+00 -6.627255082130432129e-01 9.000000000000000000e+00
-7.312922954559326172e+00 2.123216390609741211e+00 -6.662185192108154297e-01 2.000000000000000000e+00
-1.255238056182860973e+01 3.649179458618164062e+00 -6.850776672363281250e-01 4.000000000000000000e+00
-3.350020217895507812e+01 9.751732826232910156e+00 -6.090191602706909180e-01 6.000000000000000000e+00
-2.389943599700928178e+00 6.993212699890136719e-01 -6.672354936599731445e-01 1.900000000000000000e+01
-2.743472576141356978e+00 8.038070797920227051e-01 -6.600064039230346680e-01 1.300000000000000000e+01
-3.257361173629761186e+00 9.549881219863891602e-01 -6.598175168037414551e-01 1.300000000000000000e+01
-3.991702556610106978e+00 1.171794414520263894e+00 -6.589019894599914551e-01 1.000000000000000000e+01
-5.163159847259520596e+00 1.517642378807068093e+00 -6.607756018638610840e-01 9.000000000000000000e+00
-7.328403949737548828e+00 2.155476808547974077e+00 -6.683102250099182129e-01 2.000000000000000000e+00
-1.250124835968017933e+01 3.681688308715819868e+00 -6.829842329025268555e-01 4.000000000000000000e+00
-3.353500747680664062e+01 9.888972282409667969e+00 -6.102757453918457031e-01 7.000000000000000000e+00
-2.376497745513916016e+00 7.039507031440734863e-01 -6.641296744346618652e-01 2.000000000000000000e+01
-2.748265266418457031e+00 8.151168227195739746e-01 -6.618059873580932617e-01 1.400000000000000000e+01
-3.244765996932982954e+00 9.629917740821838379e-01 -6.579093933105468750e-01 1.300000000000000000e+01
-3.991581916809082031e+00 1.186150312423706055e+00 -6.595277190208435059e-01 9.000000000000000000e+00
-5.146683216094970703e+00 1.531358957290648970e+00 -6.593131422996520996e-01 9.000000000000000000e+00
-7.321216106414794922e+00 2.179766893386840820e+00 -6.683102250099182129e-01 2.000000000000000000e+00
-1.248897075653075994e+01 3.723123788833618164e+00 -6.829842329025268555e-01 4.000000000000000000e+00
-3.345604324340820312e+01 9.986397743225097656e+00 -6.094380617141723633e-01 7.000000000000000000e+00
-2.357372522354125977e+00 7.072457075119018555e-01 -6.594709157943725586e-01 2.200000000000000000e+01
-2.749135732650756836e+00 8.258264064788818359e-01 -6.627057790756225586e-01 1.400000000000000000e+01
-3.241384744644165039e+00 9.743122458457946777e-01 -6.579093933105468750e-01 1.200000000000000000e+01
-3.976067781448363814e+00 1.196660637855530007e+00 -6.576504707336425781e-01 9.000000000000000000e+00
-5.154610633850097656e+00 1.553324222564697044e+00 -6.610193252563476562e-01 1.100000000000000000e+01
-7.302117347717285156e+00 2.201858282089232954e+00 -6.672643423080444336e-01 2.000000000000000000e+00
-1.247589778900145951e+01 3.766695737838745117e+00 -6.829842329025268555e-01 4.000000000000000000e+00
-3.344778060913085938e+01 1.011122131347656072e+01 -6.099267005920410156e-01 7.000000000000000000e+00
-2.360434770584106001e+00 7.171549201011657715e-01 -6.610238552093505859e-01 1.900000000000000000e+01
-2.740643262863159180e+00 8.337161540985107422e-01 -6.613560914993286133e-01 1.200000000000000000e+01
-3.236085891723632812e+00 9.850491285324096680e-01 -6.575278043746948242e-01 1.200000000000000000e+01
-3.968087434768677202e+00 1.209380626678467019e+00 -6.570247411727905273e-01 9.000000000000000000e+00
-5.145359992980957031e+00 1.570148944854736106e+00 -6.605318188667297363e-01 1.100000000000000000e+01
-7.271520137786865234e+00 2.220351696014403853e+00 -6.651726365089416504e-01 2.000000000000000000e+00
-1.246267414093017933e+01 3.810221910476685014e+00 -6.829842329025268555e-01 4.000000000000000000e+00
-3.351171112060546875e+01 1.025835037231444957e+01 -6.117417216300964355e-01 1.400000000000000000e+01
-2.363456487655640093e+00 7.270941138267517090e-01 -6.625767350196838379e-01 2.100000000000000000e+01
-2.728404283523560014e+00 8.404094576835632324e-01 -6.591066122055053711e-01 1.400000000000000000e+01
-3.238256216049193892e+00 9.980739951133728027e-01 -6.586726307868957520e-01 1.100000000000000000e+01
-3.967616796493529829e+00 1.224389433860779031e+00 -6.576504707336425781e-01 9.000000000000000000e+00
-5.128468036651611328e+00 1.584583997726439986e+00 -6.590694189071655273e-01 1.100000000000000000e+01
-7.256111621856688565e+00 2.243366479873656782e+00 -6.644753813743591309e-01 3.000000000000000000e+00
-1.239969158172607067e+01 3.838345766067504883e+00 -6.802627444267272949e-01 4.000000000000000000e+00
-3.368580245971679688e+01 1.044038486480713068e+01 -6.155812740325927734e-01 1.400000000000000000e+01
-2.366437435150146040e+00 7.370631694793701172e-01 -6.641296744346618652e-01 2.000000000000000000e+01
-2.729174852371215820e+00 8.510885238647460938e-01 -6.600064039230346680e-01 1.400000000000000000e+01
-3.238500833511352983e+00 1.010541081428528054e+00 -6.594358682632446289e-01 1.100000000000000000e+01
-3.965204238891602007e+00 1.238820552825927956e+00 -6.579633355140686035e-01 8.000000000000000000e+00
-5.107748985290527344e+00 1.597734928131103960e+00 -6.571195125579833984e-01 1.100000000000000000e+01
-7.236827850341796875e+00 2.265110492706298828e+00 -6.634294986724853516e-01 2.000000000000000000e+00
-1.238621807098389027e+01 3.881605386734008789e+00 -6.802627444267272949e-01 4.000000000000000000e+00
-3.367205047607421875e+01 1.056509017944335938e+01 -6.160001158714294434e-01 1.400000000000000000e+01
-2.365692615509033203e+00 7.458999752998352051e-01 -6.646472811698913574e-01 2.100000000000000000e+01
-2.731762409210205078e+00 8.623698949813842773e-01 -6.613560914993286133e-01 1.500000000000000000e+01
-3.208744525909423828e+00 1.013560652732848899e+00 -6.540932655334472656e-01 1.100000000000000000e+01
-3.964622497558594194e+00 1.253845453262329102e+00 -6.585891246795654297e-01 8.000000000000000000e+00
-5.117280960083007812e+00 1.620348572731018066e+00 -6.590694189071655273e-01 1.100000000000000000e+01
-7.202286720275878906e+00 2.281933069229125977e+00 -6.609891653060913086e-01 2.000000000000000000e+00
-3.361590957641602273e+01 1.067651081085205078e+01 -6.156510710716247559e-01 1.400000000000000000e+01
-2.346510887145996094e+00 7.488671541213989258e-01 -6.599885821342468262e-01 1.800000000000000000e+01
-2.725023031234741211e+00 8.707140088081359863e-01 -6.604562997817993164e-01 1.300000000000000000e+01
-3.212666988372803178e+00 1.027146577835083008e+00 -6.556196808815002441e-01 1.200000000000000000e+01
-3.941408157348632812e+00 1.261654734611511008e+00 -6.554604172706604004e-01 8.000000000000000000e+00
-5.111593723297119141e+00 1.638201355934143066e+00 -6.590694189071655273e-01 1.100000000000000000e+01
-7.186688423156738281e+00 2.304626226425170898e+00 -6.602919101715087891e-01 2.000000000000000000e+00
-1.233980083465575994e+01 3.961876630783081055e+00 -6.792160272598266602e-01 3.000000000000000000e+00
-3.360889434814453125e+01 1.080357837677001953e+01 -6.162095665931701660e-01 1.400000000000000000e+01
-2.351235866546630859e+00 7.594285011291503906e-01 -6.620591282844543457e-01 1.800000000000000000e+01
-2.718258619308472124e+00 8.790215849876403809e-01 -6.595565080642700195e-01 1.500000000000000000e+01
-3.209061861038208008e+00 1.038354635238647017e+00 -6.556196808815002441e-01 1.100000000000000000e+01
-3.933221817016602007e+00 1.274187564849853960e+00 -6.548346877098083496e-01 8.000000000000000000e+00
-5.105844020843505859e+00 1.656034111976623979e+00 -6.590694189071655273e-01 1.100000000000000000e+01
-7.178599834442138672e+00 2.329698562622069868e+00 -6.602919101715087891e-01 2.000000000000000000e+00
-1.229930305480957031e+01 3.996285676956177202e+00 -6.777506470680236816e-01 3.000000000000000000e+00
-3.357098007202147727e+01 1.092082977294922053e+01 -6.162095665931701660e-01 1.400000000000000000e+01
-2.346734285354613814e+00 7.670310139656066895e-01 -6.615414619445800781e-01 2.100000000000000000e+01
-6.076895523071289062e+01 1.987409591674805043e+01 1.116011619567871094e+00 5.100000000000000000e+01
-2.709617376327515093e+00 8.866865038871765137e-01 -6.582067608833312988e-01 1.400000000000000000e+01
-3.209149360656737837e+00 1.050771832466125044e+00 -6.563829183578491211e-01 1.100000000000000000e+01
-3.924995899200439009e+00 1.286678671836853027e+00 -6.542089581489562988e-01 8.000000000000000000e+00
-5.084943294525145596e+00 1.668894529342650923e+00 -6.571195125579833984e-01 1.100000000000000000e+01
-7.185567378997802734e+00 2.359715223312377930e+00 -6.616864204406738281e-01 2.000000000000000000e+00
-1.219041156768799006e+01 4.008003234863281250e+00 -6.725170612335205078e-01 3.000000000000000000e+00
-3.359343719482421875e+01 1.105795478820800959e+01 -6.173264980316162109e-01 7.000000000000000000e+00
-2.345876693725585938e+00 7.758245468139648438e-01 -6.620591282844543457e-01 1.900000000000000000e+01
-2.708355903625487837e+00 8.967519402503967285e-01 -6.586567163467407227e-01 1.500000000000000000e+01
-3.201734781265258789e+00 1.060732603073119895e+00 -6.556196808815002441e-01 1.200000000000000000e+01
-3.931730270385742188e+00 1.304102897644042969e+00 -6.560861468315124512e-01 9.000000000000000000e+00
-5.071551322937011719e+00 1.684131741523742898e+00 -6.561445593833923340e-01 1.100000000000000000e+01
-7.124345779418945312e+00 2.367192745208739790e+00 -6.568056941032409668e-01 1.000000000000000000e+00
-1.217634677886963068e+01 4.050531387329101562e+00 -6.725170612335205078e-01 3.000000000000000000e+00
-3.343320846557617188e+01 1.113471126556395951e+01 -6.150926351547241211e-01 7.000000000000000000e+00
-2.350482463836669922e+00 7.864603996276855469e-01 -6.641296744346618652e-01 1.900000000000000000e+01
-6.081835174560546875e+01 2.036133956909180043e+01 1.119502067565917969e+00 5.000000000000000000e+01
-2.707056999206542969e+00 9.068194031715393066e-01 -6.591066122055053711e-01 1.400000000000000000e+01
-3.186843633651732954e+00 1.068158745765686035e+00 -6.533300280570983887e-01 1.100000000000000000e+01
-3.925281286239624023e+00 1.317190885543823020e+00 -6.557732820510864258e-01 9.000000000000000000e+00
-5.065641403198242188e+00 1.701824426651000977e+00 -6.561445593833923340e-01 1.100000000000000000e+01
-7.108485221862792969e+00 2.389507532119750977e+00 -6.561084389686584473e-01 1.000000000000000000e+00
-1.216213321685791016e+01 4.093009948730468750e+00 -6.725170612335205078e-01 3.000000000000000000e+00
-3.338276672363281250e+01 1.124751663208007990e+01 -6.148831844329833984e-01 7.000000000000000000e+00
-2.329424142837523970e+00 7.884665727615356445e-01 -6.589533090591430664e-01 1.800000000000000000e+01
-6.074690628051757812e+01 2.057351112365723012e+01 1.119502067565917969e+00 5.000000000000000000e+01
-2.714948892593383789e+00 9.200159311294555664e-01 -6.618059873580932617e-01 1.400000000000000000e+01
-3.183095693588256836e+00 1.079276442527770996e+00 -6.533300280570983887e-01 1.100000000000000000e+01
-3.926271200180054155e+00 1.332789540290832964e+00 -6.567118763923645020e-01 9.000000000000000000e+00
-5.070947170257568359e+00 1.723328948020935059e+00 -6.576069593429565430e-01 1.100000000000000000e+01
-7.122736454010009766e+00 2.422003269195557085e+00 -6.582001447677612305e-01 1.000000000000000000e+00
-1.214777183532715021e+01 4.135438919067382812e+00 -6.725170612335205078e-01 3.000000000000000000e+00
-3.333194732666016336e+01 1.136010456085205078e+01 -6.146737337112426758e-01 7.000000000000000000e+00
-2.328485488891602007e+00 7.972187399864196777e-01 -6.594709157943725586e-01 1.900000000000000000e+01
-6.086389923095703125e+01 2.085023880004883168e+01 1.122992515563965066e+00 5.000000000000000000e+01
-2.702503681182860884e+00 9.263278841972351074e-01 -6.595565080642700195e-01 1.500000000000000000e+01
-3.186737298965454102e+00 1.092928528785706010e+00 -6.548564434051513672e-01 1.300000000000000000e+01
-3.904780149459838867e+00 1.340713262557982954e+00 -6.538960933685302734e-01 9.000000000000000000e+00
-5.064900875091552734e+00 1.741019368171691895e+00 -6.576069593429565430e-01 1.100000000000000000e+01
-7.099166393280029297e+00 2.441667556762694868e+00 -6.568056941032409668e-01 2.000000000000000000e+00
-3.326562118530272727e+01 1.146726226806640980e+01 -6.141850948333740234e-01 1.400000000000000000e+01
-2.331164836883544922e+00 8.072382211685180664e-01 -6.610238552093505859e-01 2.000000000000000000e+01
-6.079074859619141336e+01 2.106256675720214844e+01 1.122992515563965066e+00 5.000000000000000000e+01
-2.688206195831298828e+00 9.319258928298950195e-01 -6.568570733070373535e-01 1.600000000000000000e+01
-3.184757709503173828e+00 1.104689002037047896e+00 -6.552380919456481934e-01 1.200000000000000000e+01
-3.898210287094116211e+00 1.353687286376952903e+00 -6.535831689834594727e-01 8.000000000000000000e+00
-6.095483779907227273e+01 2.117901611328125000e+01 7.923213481903076172e+00 6.300000000000000000e+01
-5.051292419433593750e+00 1.756081104278564009e+00 -6.566320061683654785e-01 1.100000000000000000e+01
-7.109417915344238281e+00 2.472979068756103960e+00 -6.585487723350524902e-01 2.000000000000000000e+00
-3.330847167968750000e+01 1.161227607727050959e+01 -6.157209277153015137e-01 7.000000000000000000e+00
-2.328475236892700195e+00 8.149642348289489746e-01 -6.610238552093505859e-01 1.800000000000000000e+01
-6.078850936889647727e+01 2.128783416748046875e+01 1.124249100685120073e+00 5.000000000000000000e+01
-2.683262109756470171e+00 9.401907920837402344e-01 -6.564071774482727051e-01 1.400000000000000000e+01
-3.173666000366210938e+00 1.112645864486693892e+00 -6.537116169929504395e-01 1.300000000000000000e+01
-3.895563840866088867e+00 1.367260932922363059e+00 -6.538960933685302734e-01 9.000000000000000000e+00
-6.088426971435546875e+01 2.138103294372558949e+01 7.923213481903076172e+00 6.300000000000000000e+01
-5.030458927154541016e+00 1.767557740211487038e+00 -6.546820998191833496e-01 1.100000000000000000e+01
-7.074863433837890625e+00 2.487289667129517046e+00 -6.561084389686584473e-01 2.000000000000000000e+00
-3.334522247314453125e+01 1.174924850463867010e+01 -6.171171069145202637e-01 1.400000000000000000e+01
-2.323795080184936968e+00 8.224425911903381348e-01 -6.605061888694763184e-01 1.900000000000000000e+01
-6.083447265625000000e+01 2.154261589050292969e+01 1.126483082771301047e+00 4.900000000000000000e+01
-2.679963827133179155e+00 9.495514035224914551e-01 -6.564071774482727051e-01 1.400000000000000000e+01
-6.089402389526367188e+01 2.158762931823730113e+01 3.385926961898804155e+00 4.900000000000000000e+01
-3.162361145019530806e+00 1.121093273162842019e+00 -6.521851420402526855e-01 1.300000000000000000e+01
-3.883321046829224077e+00 1.378207921981811968e+00 -6.526445746421813965e-01 9.000000000000000000e+00
-5.016776084899902344e+00 1.782448053359984907e+00 -6.537071466445922852e-01 1.300000000000000000e+01
-7.017328739166259766e+00 2.494618892669678178e+00 -6.515763401985168457e-01 2.000000000000000000e+00
-1.196917343139648082e+01 4.259677410125732422e+00 -6.658180356025695801e-01 3.000000000000000000e+00
-3.332284545898438211e+01 1.187228488922118963e+01 -6.174661517143249512e-01 1.400000000000000000e+01
-2.313923358917235884e+00 8.271378874778747559e-01 -6.584356427192687988e-01 1.900000000000000000e+01
-6.076649093627929688e+01 2.173362731933594105e+01 1.126483082771301047e+00 4.900000000000000000e+01
-2.682471752166748047e+00 9.599357843399047852e-01 -6.577568650245666504e-01 1.500000000000000000e+01
-3.160671949386597124e+00 1.131684422492980957e+00 -6.525667905807495117e-01 1.300000000000000000e+01
-3.884550571441649947e+00 1.392400503158568892e+00 -6.535831689834594727e-01 9.000000000000000000e+00
-5.014888286590576172e+00 1.799540877342223899e+00 -6.541946530342102051e-01 1.100000000000000000e+01
-6.990705013275145596e+00 2.509919643402100053e+00 -6.498332023620605469e-01 2.000000000000000000e+00
-3.327785491943358664e+01 1.197420501708984020e+01 -6.173264980316162109e-01 7.000000000000000000e+00
-2.307388305664062944e+00 8.338966965675354004e-01 -6.574003696441650391e-01 1.900000000000000000e+01
-6.087831115722656250e+01 2.201360893249512074e+01 1.129973530769347922e+00 4.900000000000000000e+01
-2.675439596176147017e+00 9.679675698280334473e-01 -6.568570733070373535e-01 1.500000000000000000e+01
-3.156702280044556108e+00 1.142710328102112038e+00 -6.525667905807495117e-01 1.200000000000000000e+01
-3.870380640029906782e+00 1.402586460113524947e+00 -6.520188450813293457e-01 9.000000000000000000e+00
-5.004844188690186435e+00 1.815681219100951926e+00 -6.537071466445922852e-01 1.100000000000000000e+01
-7.000629425048828125e+00 2.541104316711425781e+00 -6.515763401985168457e-01 2.000000000000000000e+00
-1.187308120727539062e+01 4.314409255981445312e+00 -6.620498299598693848e-01 3.000000000000000000e+00
-3.319827270507813211e+01 1.207662105560302912e+01 -6.166284084320068359e-01 7.000000000000000000e+00
-2.302502155303955078e+00 8.416848778724670410e-01 -6.568827629089355469e-01 1.800000000000000000e+01
-6.079721832275391336e+01 2.223659133911133168e+01 1.129973530769347922e+00 4.900000000000000000e+01
-2.662723779678345171e+00 9.744185209274291992e-01 -6.546075940132141113e-01 1.400000000000000000e+01
-3.159867048263549805e+00 1.156972527503967063e+00 -6.540932655334472656e-01 1.200000000000000000e+01
-3.859649896621704102e+00 1.414723277091979980e+00 -6.510802507400512695e-01 8.000000000000000000e+00
-4.998155593872070312e+00 1.834012627601623979e+00 -6.537071466445922852e-01 1.100000000000000000e+01
-7.002490520477294922e+00 2.570865869522095171e+00 -6.526222229003906250e-01 2.000000000000000000e+00
-3.323635864257813211e+01 1.222859954833984020e+01 -6.181642413139343262e-01 7.000000000000000000e+00
-2.312234640121459961e+00 8.544041514396667480e-01 -6.605061888694763184e-01 1.900000000000000000e+01
-6.081300735473632812e+01 2.248334884643555043e+01 1.131718754768372026e+00 4.800000000000000000e+01
-2.653823137283325195e+00 9.816789627075195312e-01 -6.532578468322753906e-01 1.200000000000000000e+01
-3.142920970916748047e+00 1.163225412368773970e+00 -6.514219045639038086e-01 1.200000000000000000e+01
-3.856540203094481978e+00 1.428873658180237038e+00 -6.513931155204772949e-01 8.000000000000000000e+00
-4.967527866363525391e+00 1.842474102973937988e+00 -6.505385637283325195e-01 6.000000000000000000e+00
-6.974794864654541016e+00 2.588361740112305132e+00 -6.508790850639343262e-01 2.000000000000000000e+00
-1.184190464019775035e+01 4.399260044097900391e+00 -6.620498299598693848e-01 3.000000000000000000e+00
-3.308851242065429688e+01 1.230550765991210938e+01 -6.162095665931701660e-01 1.400000000000000000e+01
-2.303658723831177202e+00 8.608444333076477051e-01 -6.589533090591430664e-01 1.800000000000000000e+01
-2.659333229064940962e+00 9.948130249977111816e-01 -6.555073857307434082e-01 1.200000000000000000e+01
-3.133120298385620117e+00 1.172672390937804954e+00 -6.502770781517028809e-01 1.200000000000000000e+01
-3.860526323318481001e+00 1.446464300155640093e+00 -6.529574394226074219e-01 8.000000000000000000e+00
-4.983045101165770596e+00 1.869034290313720925e+00 -6.534634232521057129e-01 6.000000000000000000e+00
-6.965261459350585938e+00 2.613908052444458008e+00 -6.508790850639343262e-01 2.000000000000000000e+00
-1.182570075988770064e+01 4.442633152008056641e+00 -6.620498299598693848e-01 3.000000000000000000e+00
-3.313677215576171875e+01 1.246189498901367010e+01 -6.179547905921936035e-01 1.400000000000000000e+01
-2.293410778045653853e+00 8.661503195762634277e-01 -6.568827629089355469e-01 1.700000000000000000e+01
