-1.227045774459839089e+00 -1.385460495948791948e+00 -4.958972930908203125e-01 5.000000000000000000e+01
-1.136453628540039062e+00 -1.282721519470215066e+00 2.991342544555664062e-02 4.600000000000000000e+01
-1.286084771156311035e+00 -1.451100707054137962e+00 -4.476526081562042236e-01 1.000000000000000000e+00
-1.107473254203795943e+00 -1.249571800231934038e+00 8.750572055578231812e-02 5.700000000000000000e+01
-2.550159454345703125e+00 -2.876355886459351030e+00 -7.472079992294311523e-01 1.200000000000000000e+01
-1.105208039283751997e+00 -1.246139407157897949e+00 1.457244008779526034e-01 6.200000000000000000e+01
-3.202745199203491211e+00 -3.609876155853271040e+00 -7.643387913703918457e-01 1.100000000000000000e+01
-1.113452911376952903e+00 -1.254553079605102983e+00 2.059591859579086026e-01 9.600000000000000000e+01
-3.990767240524291992e+00 -4.494909286499023438e+00 -7.380407452583312988e-01 1.600000000000000000e+01
-1.114778757095336914e+00 -1.255605459213257058e+00 2.659385800361632746e-01 5.900000000000000000e+01
-4.878120422363281250e+00 -5.492428302764892578e+00 -6.426864266395568848e-01 9.000000000000000000e+00
-1.117500901222229004e+00 -1.257786989212035911e+00 3.270466327667235773e-01 6.600000000000000000e+01
-1.129097580909729004e+00 -1.269946336746216042e+00 3.923146426677703857e-01 6.300000000000000000e+01
-2.516242790222167969e+01 -2.829135704040526988e+01 -6.608877182006835938e-01 8.000000000000000000e+00
-1.114396691322327104e+00 -1.252971172332763894e+00 4.493098556995391846e-01 8.000000000000000000e+01
-1.229302644729614036e+00 -1.378285408020019975e+00 -4.948620200157166082e-01 6.200000000000000000e+01
-1.147580623626708984e+00 -1.286207318305969016e+00 3.008794784545898091e-02 3.500000000000000000e+01
-1.254808545112610085e+00 -1.405894160270690918e+00 -4.350553452968596857e-01 1.500000000000000000e+01
-1.122687339782715066e+00 -1.257423043251038042e+00 8.834309130907058716e-02 5.100000000000000000e+01
-2.557569265365601030e+00 -2.864507675170897993e+00 -7.464447617530822754e-01 1.000000000000000000e+00
-1.105569601058959961e+00 -1.237815976142883079e+00 1.452014744281769076e-01 6.500000000000000000e+01
-1.120471000671386941e+00 -1.253618955612183061e+00 2.064466625452041904e-01 9.800000000000000000e+01
-4.028926372528076172e+00 -4.506108760833740234e+00 -7.421842813491821289e-01 1.500000000000000000e+01
-1.120690107345581055e+00 -1.252983570098876953e+00 2.662514448165894110e-01 5.900000000000000000e+01
-4.922499656677246094e+00 -5.503582954406738281e+00 -6.459983587265014648e-01 5.000000000000000000e+00
-1.133666396141052024e+00 -1.267046451568603960e+00 3.304811716079711914e-01 6.500000000000000000e+01
-1.136123538017272949e+00 -1.268900990486145020e+00 3.932144343852996826e-01 7.400000000000000000e+01
-1.121559858322143999e+00 -1.251755833625793013e+00 4.503451287746428888e-01 8.200000000000000000e+01
-1.236688017845154031e+00 -1.376860380172729048e+00 -4.958972930908203125e-01 5.900000000000000000e+01
-1.249286770820617898e+00 -1.389910817146301047e+00 -4.314561188220977783e-01 4.300000000000000000e+01
-1.129521131515502930e+00 -1.256664037704467995e+00 8.855243772268295288e-02 5.000000000000000000e+01
-1.109883546829224077e+00 -1.233949303627013938e+00 1.452014744281769076e-01 6.100000000000000000e+01
-1.122184157371520996e+00 -1.246749281883239968e+00 2.059591859579086026e-01 9.500000000000000000e+01
-4.188086032867431641e+00 -4.651340484619140625e+00 -7.685080766677856445e-01 1.000000000000000000e+00
-1.130345225334167036e+00 -1.254935026168823020e+00 2.675029337406157892e-01 6.600000000000000000e+01
-1.119683742523192915e+00 -1.242662191390990989e+00 3.251385390758513849e-01 7.300000000000000000e+01
-1.139240860939026101e+00 -1.263480186462401900e+00 3.927645385265349787e-01 8.300000000000000000e+01
-1.125704646110534890e+00 -1.248029708862304910e+00 4.503451287746428888e-01 8.600000000000000000e+01
-1.228527545928955078e+00 -1.358208060264586958e+00 -4.907208979129791260e-01 5.000000000000000000e+01
-1.239745616912842019e+00 -1.369649052619934082e+00 -4.265072047710419256e-01 4.800000000000000000e+01
-1.152665138244628906e+00 -1.273444056510925071e+00 9.001784771680831909e-02 4.900000000000000000e+01
-1.242631316184998003e+00 -1.372355580329895020e+00 -3.598657548427581787e-01 7.000000000000000000e+00
-1.120871901512145996e+00 -1.237450957298279031e+00 1.460730284452438077e-01 6.200000000000000000e+01
-1.258744359016418013e+00 -1.389175772666930930e+00 -2.969126105308533270e-01 2.000000000000000000e+00
-1.121196508407592995e+00 -1.236941337585448997e+00 2.049842327833175937e-01 9.800000000000000000e+01
-1.125428795814513938e+00 -1.240739822387695090e+00 2.653128504753112793e-01 6.000000000000000000e+01
-1.116098999977112038e+00 -1.230022668838500977e+00 3.228488266468048096e-01 7.300000000000000000e+01
-1.141024231910706010e+00 -1.256610393524169922e+00 3.918647468090056818e-01 8.100000000000000000e+01
-1.132652044296265093e+00 -1.246952652931212935e+00 4.513804018497467041e-01 8.800000000000000000e+01
-1.234325408935547097e+00 -1.355555057525634988e+00 -4.912385344505310059e-01 4.900000000000000000e+01
-1.231155395507812944e+00 -1.351125955581665039e+00 -4.220081865787506104e-01 3.900000000000000000e+01
-1.157103300094604048e+00 -1.269412755966186968e+00 9.001784771680831909e-02 5.600000000000000000e+01
-1.239240050315856934e+00 -1.359521746635437012e+00 -3.575760722160338800e-01 2.900000000000000000e+01
-1.128996610641479048e+00 -1.238143920898437944e+00 1.465959548950195035e-01 6.100000000000000000e+01
-1.236719369888306108e+00 -1.355805516242980957e+00 -2.906552255153656006e-01 2.700000000000000000e+01
-1.127968311309814009e+00 -1.236149191856384055e+00 2.054717093706130981e-01 8.600000000000000000e+01
-1.122662425041198953e+00 -1.229903221130371094e+00 2.637484967708588202e-01 6.900000000000000000e+01
-1.122819900512695090e+00 -1.229213833808898926e+00 3.236120641231536865e-01 7.300000000000000000e+01
-1.254309535026550071e+00 -1.372681736946105957e+00 -9.744954854249954224e-02 1.000000000000000000e+00
-1.139925956726073997e+00 -1.247066259384155051e+00 3.900651335716248114e-01 8.000000000000000000e+01
-1.142213463783263938e+00 -1.248693227767943892e+00 4.534509778022766113e-01 8.200000000000000000e+01
-1.237743973731995073e+00 -1.349814295768738015e+00 -4.907208979129791260e-01 5.000000000000000000e+01
-1.273345112800597922e+00 -1.388152360916137917e+00 3.288033232092856667e-02 1.000000000000000000e+00
-1.233229160308837891e+00 -1.343948483467102051e+00 -4.211083650588989258e-01 3.700000000000000000e+01
-1.172109365463257058e+00 -1.277341365814208984e+00 9.085521847009658813e-02 3.800000000000000000e+01
-1.237340092658997026e+00 -1.347956180572509988e+00 -3.556679785251616877e-01 3.800000000000000000e+01
-1.134659290313720925e+00 -1.235662937164307085e+00 1.467702686786651889e-01 6.200000000000000000e+01
-1.236099243164062944e+00 -1.345661282539367898e+00 -2.894037663936614990e-01 4.300000000000000000e+01
-1.138992190361022949e+00 -1.239512801170348899e+00 2.066904008388519010e-01 9.300000000000000000e+01
-1.231903553009032981e+00 -1.340154409408568892e+00 -2.235083729028702060e-01 6.000000000000000000e+00
-1.117803096771240012e+00 -1.215601682662964089e+00 2.615584135055541992e-01 7.200000000000000000e+01
-1.244758248329163042e+00 -1.353664398193358931e+00 -1.608895063400269110e-01 3.000000000000000000e+00
-1.132420420646667036e+00 -1.231066584587096946e+00 3.251385390758513849e-01 7.600000000000000000e+01
-1.246921777725219949e+00 -1.355067610740662065e+00 -9.650750458240509033e-02 2.100000000000000000e+01
-1.140312671661376953e+00 -1.238778233528136985e+00 3.887154161930084229e-01 6.900000000000000000e+01
-1.236725211143494096e+00 -1.343045473098755105e+00 -3.186809271574019692e-02 6.000000000000000000e+00
-1.143947482109070046e+00 -1.241856694221497026e+00 4.524157047271729071e-01 8.600000000000000000e+01
-1.229342222213744895e+00 -1.331292629241942915e+00 -4.855445325374603271e-01 5.000000000000000000e+01
-1.246974587440490945e+00 -1.349914550781250000e+00 3.207752481102942727e-02 1.500000000000000000e+01
-1.239235401153564009e+00 -1.341066837310791016e+00 -4.215582907199860174e-01 4.900000000000000000e+01
-1.234041810035706010e+00 -1.334978938102721946e+00 -3.533782660961151123e-01 4.600000000000000000e+01
-1.137612938880919966e+00 -1.230231881141663042e+00 1.465959548950195035e-01 6.100000000000000000e+01
-1.238106131553649902e+00 -1.338438034057616965e+00 -2.887780368328093927e-01 4.500000000000000000e+01
-1.147356629371643066e+00 -1.239900350570678933e+00 2.074216157197951993e-01 6.600000000000000000e+01
-1.252755999565124956e+00 -1.353327155113219993e+00 -2.264332473278045932e-01 3.100000000000000000e+01
-1.127195596694946067e+00 -1.217686772346497026e+00 2.628099024295806885e-01 7.600000000000000000e+01
-1.229170203208922896e+00 -1.327383041381835938e+00 -1.582748293876647949e-01 3.700000000000000000e+01
-1.132708191871643066e+00 -1.222785472869873047e+00 3.239936828613281250e-01 7.700000000000000000e+01
-1.247571706771851030e+00 -1.346311926841736062e+00 -9.619348496198654175e-02 3.500000000000000000e+01
-1.148604273796081987e+00 -1.239077687263488992e+00 3.900651335716248114e-01 6.900000000000000000e+01
-1.237326622009276900e+00 -1.334321498870850053e+00 -3.176337853074073792e-02 3.700000000000000000e+01
-1.140392541885375977e+00 -1.229358196258544922e+00 4.493098556995391846e-01 8.800000000000000000e+01
-1.233981847763061968e+00 -1.326993346214293990e+00 -4.855445325374603271e-01 5.200000000000000000e+01
-1.232611060142517090e+00 -1.325055480003356934e+00 3.158885613083838723e-02 3.000000000000000000e+01
-1.231961131095886008e+00 -1.323893427848815918e+00 -4.175091683864594061e-01 5.000000000000000000e+01
-1.239503860473633035e+00 -1.331998944282531960e+00 9.535611420869827271e-02 3.400000000000000000e+01
-1.230668187141418013e+00 -1.322041153907776101e+00 -3.510885536670684814e-01 5.300000000000000000e+01
-1.140542507171631081e+00 -1.224795341491698997e+00 1.464216411113739014e-01 6.200000000000000000e+01
-1.234691977500915971e+00 -1.325435638427733931e+00 -2.869008183479309082e-01 5.000000000000000000e+01
-1.142204523086548074e+00 -1.225721836090087891e+00 2.057154476642608920e-01 5.000000000000000000e+01
-1.253411650657654031e+00 -1.344589829444885032e+00 -2.257020175457001010e-01 4.000000000000000000e+01
-1.134133100509643999e+00 -1.216634511947632058e+00 2.634356319904326837e-01 7.800000000000000000e+01
-1.235154986381530984e+00 -1.324541449546813965e+00 -1.584491431713103970e-01 6.100000000000000000e+01
-1.128934502601623979e+00 -1.210210442543030007e+00 3.217039704322814941e-01 7.700000000000000000e+01
-1.239999890327454057e+00 -1.328806757926940918e+00 -9.525144100189208984e-02 4.500000000000000000e+01
-1.160901069641113059e+00 -1.243607878684998003e+00 3.927645385265349787e-01 8.300000000000000000e+01
-1.246071219444274902e+00 -1.334378838539123979e+00 -3.186809271574019692e-02 4.700000000000000000e+01
-1.147314310073852983e+00 -1.228193402290344016e+00 4.503451287746428888e-01 8.600000000000000000e+01
-1.235965371131896973e+00 -1.319857716560363992e+00 -4.845092594623566229e-01 5.400000000000000000e+01
-1.219456553459167036e+00 -1.301772832870482954e+00 3.113509342074393879e-02 3.900000000000000000e+01
-1.224582314491271973e+00 -1.306787252426147017e+00 -4.134600460529326837e-01 4.900000000000000000e+01
-1.216832041740417036e+00 -1.298516750335692915e+00 9.326267242431640625e-02 4.000000000000000000e+01
-1.232590079307555930e+00 -1.314872622489928977e+00 -3.503253161907196045e-01 5.500000000000000000e+01
-1.148899555206299050e+00 -1.225166559219359907e+00 1.469445824623107910e-01 6.100000000000000000e+01
-1.235256552696228027e+00 -1.316795706748961958e+00 -2.859621942043303888e-01 4.800000000000000000e+01
-1.150551199913024902e+00 -1.226070046424865945e+00 2.064466625452041904e-01 8.200000000000000000e+01
-1.247228384017943892e+00 -1.328627943992614968e+00 -2.237521111965178888e-01 4.300000000000000000e+01
-1.138373136520385964e+00 -1.212668299674988015e+00 2.634356319904326837e-01 7.200000000000000000e+01
-1.232951521873473899e+00 -1.312960028648376021e+00 -1.575775891542434970e-01 5.200000000000000000e+01
-1.131807804107666016e+00 -1.204831480979918990e+00 3.213223516941071112e-01 8.600000000000000000e+01
-1.230953454971313032e+00 -1.309915661811829057e+00 -9.420472383499145508e-02 4.900000000000000000e+01
-1.163900256156920943e+00 -1.238128185272217019e+00 3.923146426677703857e-01 9.400000000000000000e+01
-1.243871927261352983e+00 -1.322737336158751997e+00 -3.169357031583786011e-02 4.500000000000000000e+01
-1.151380896568297896e+00 -1.224382042884827104e+00 4.503451287746428888e-01 8.600000000000000000e+01
-1.239239692687988059e+00 -1.314129829406738059e+00 -4.839916229248046875e-01 4.900000000000000000e+01
-1.218504428863524947e+00 -1.291689753532409890e+00 3.099547326564789165e-02 5.000000000000000000e+01
-1.217099070549011008e+00 -1.289749026298522949e+00 -4.094109237194060724e-01 5.000000000000000000e+01
-1.203537225723267046e+00 -1.275377631187438965e+00 9.190193563699722290e-02 5.200000000000000000e+01
-1.231781601905822976e+00 -1.304851531982422097e+00 -3.487988412380219061e-01 6.000000000000000000e+01
-1.160008788108825906e+00 -1.228391647338866965e+00 1.478161364793776911e-01 5.800000000000000000e+01
-1.237132549285888894e+00 -1.309603810310363992e+00 -2.853364646434783936e-01 4.900000000000000000e+01
-1.153460621833801047e+00 -1.220603585243225098e+00 2.062029242515563965e-01 9.900000000000000000e+01
-1.236858129501342995e+00 -1.308398127555846946e+00 -2.210709899663924893e-01 4.700000000000000000e+01
-1.135814070701598899e+00 -1.201509714126586914e+00 2.618713080883026123e-01 6.700000000000000000e+01
-1.237527012825011985e+00 -1.308648228645324929e+00 -1.575775891542434970e-01 5.500000000000000000e+01
-1.141403317451477051e+00 -1.206578254699707031e+00 3.228488266468048096e-01 9.300000000000000000e+01
-1.227281570434570090e+00 -1.296906828880310059e+00 -9.357669204473495483e-02 5.200000000000000000e+01
-1.158837199211121050e+00 -1.224151372909545898e+00 3.891653120517731268e-01 7.800000000000000000e+01
-1.240231752395630105e+00 -1.309675574302672896e+00 -3.148414194583892822e-02 4.800000000000000000e+01
-1.166489362716675027e+00 -1.231373548507689986e+00 4.544862508773804266e-01 7.800000000000000000e+01
-1.231620311737060991e+00 -1.297403335571289062e+00 -4.793328642845153809e-01 4.600000000000000000e+01
-1.221404075622559038e+00 -1.286191821098328081e+00 3.096056915819644928e-02 5.500000000000000000e+01
-1.230764508247375044e+00 -1.295595884323119895e+00 -4.125602245330811102e-01 5.400000000000000000e+01
-1.203854322433471902e+00 -1.266825318336487038e+00 9.158792346715927124e-02 4.600000000000000000e+01
-1.230692148208617942e+00 -1.295067071914673074e+00 -3.472723662853240967e-01 6.000000000000000000e+01
-1.166821360588073953e+00 -1.227426171302794966e+00 1.481647640466690063e-01 5.600000000000000000e+01
-1.241468548774719016e+00 -1.305494189262389915e+00 -2.853364646434783936e-01 4.800000000000000000e+01
-1.167079329490662065e+00 -1.226839661598206010e+00 2.079091072082520086e-01 7.500000000000000000e+01
-1.238453149795532005e+00 -1.301413297653198020e+00 -2.205835133790970126e-01 5.400000000000000000e+01
-1.131621718406677024e+00 -1.189150691032409890e+00 2.599940896034240723e-01 5.700000000000000000e+01
-1.240486145019531028e+00 -1.303094148635864036e+00 -1.574032753705978116e-01 5.800000000000000000e+01
-1.156229376792907937e+00 -1.214160442352294922e+00 3.259017765522003174e-01 9.300000000000000000e+01
-1.232953190803528054e+00 -1.294275999069214089e+00 -9.368136525154113770e-02 5.500000000000000000e+01
-1.160201549530029075e+00 -1.217480301856995073e+00 3.882655203342437744e-01 8.500000000000000000e+01
-1.228010535240172896e+00 -1.288186788558959961e+00 -3.106528334319591869e-02 5.100000000000000000e+01
-1.158355236053467019e+00 -1.215118169784545898e+00 4.498274922370911200e-01 7.300000000000000000e+01
-1.228132009506226030e+00 -1.284717679023742898e+00 -4.762270450592041016e-01 4.600000000000000000e+01
-1.223122119903564009e+00 -1.279030084609984907e+00 3.089075908064841877e-02 5.900000000000000000e+01
-1.229891180992126021e+00 -1.285659193992614968e+00 -4.107606112957000732e-01 6.100000000000000000e+01
-1.209649920463562012e+00 -1.264058351516724077e+00 9.169259667396545410e-02 4.500000000000000000e+01
-1.240634799003601074e+00 -1.296436905860901101e+00 -3.487988412380219061e-01 6.000000000000000000e+01
-1.172476530075073020e+00 -1.224784970283508079e+00 1.483390778303146085e-01 5.300000000000000000e+01
-1.237820506095886008e+00 -1.292592406272887962e+00 -2.834592461585999090e-01 4.800000000000000000e+01
-1.169981479644774947e+00 -1.221324920654297097e+00 2.076653540134429932e-01 6.200000000000000000e+01
-1.253976225852966087e+00 -1.308548331260680930e+00 -2.225334197282791138e-01 5.400000000000000000e+01
-1.125036597251892090e+00 -1.173587203025818093e+00 2.574911415576934814e-01 4.800000000000000000e+01
-1.233997106552124023e+00 -1.287249922752379927e+00 -1.560087800025939941e-01 5.900000000000000000e+01
-1.149589776992798074e+00 -1.198781132698059082e+00 3.228488266468048096e-01 9.300000000000000000e+01
-1.234698295593261941e+00 -1.287081718444823997e+00 -9.347201883792877197e-02 5.500000000000000000e+01
-1.164444208145142046e+00 -1.213423013687134011e+00 3.882655203342437744e-01 8.300000000000000000e+01
-1.236654162406920943e+00 -1.288220047950745073e+00 -3.116999752819538116e-02 5.200000000000000000e+01
-1.153434514999390093e+00 -1.201110720634460005e+00 4.462040364742279053e-01 7.000000000000000000e+01
-1.223230481147765891e+00 -1.270680546760559082e+00 -4.726035892963408869e-01 4.500000000000000000e+01
-1.215095520019531028e+00 -1.261789202690124956e+00 3.057661652565002094e-02 5.500000000000000000e+01
-1.228963494300842063e+00 -1.275744318962096946e+00 -4.089610278606414795e-01 5.300000000000000000e+01
-1.219598531723022017e+00 -1.265580892562865989e+00 9.211128205060958862e-02 5.200000000000000000e+01
-1.247877240180969016e+00 -1.294925689697266069e+00 -3.495620787143707275e-01 6.000000000000000000e+01
-1.179510235786437988e+00 -1.223553657531738059e+00 1.486876904964447021e-01 4.900000000000000000e+01
-1.229983925819396973e+00 -1.275466442108154075e+00 -2.806434333324431818e-01 5.000000000000000000e+01
-1.171481132507323997e+00 -1.214376091957092063e+00 2.071778774261474887e-01 7.800000000000000000e+01
-1.258536219596863015e+00 -1.304163098335265891e+00 -2.225334197282791138e-01 5.400000000000000000e+01
-1.120691895484924094e+00 -1.161321401596068892e+00 2.556139230728148859e-01 4.900000000000000000e+01
-1.241250514984131081e+00 -1.285801529884337935e+00 -1.563574075698853094e-01 5.900000000000000000e+01
-1.153767228126526101e+00 -1.194760918617248979e+00 3.228488266468048096e-01 1.000000000000000000e+02
-1.239183425903320090e+00 -1.282763957977294922e+00 -9.347201883792877197e-02 5.400000000000000000e+01
-1.174089550971985085e+00 -1.214956283569335938e+00 3.900651335716248114e-01 8.300000000000000000e+01
-1.235583901405334029e+00 -1.278144598007201926e+00 -3.103037923574447979e-02 5.200000000000000000e+01
-1.161439299583435059e+00 -1.201446056365967019e+00 4.477569460868834894e-01 7.500000000000000000e+01
-1.234381675720215066e+00 -1.273338317871093972e+00 -4.751917719841002863e-01 5.200000000000000000e+01
-1.222276806831360085e+00 -1.260411143302917036e+00 3.064642660319805145e-02 5.500000000000000000e+01
-1.230695366859436035e+00 -1.268649220466613992e+00 -4.080612063407897949e-01 5.300000000000000000e+01
-1.212881445884705034e+00 -1.249849438667296919e+00 9.127391129732131958e-02 5.600000000000000000e+01
-1.252389788627624956e+00 -1.290561914443969949e+00 -3.495620787143707275e-01 6.000000000000000000e+01
-1.189325213432312012e+00 -1.225147247314452903e+00 1.493849456310271939e-01 4.800000000000000000e+01
-1.233052492141724077e+00 -1.269748091697693093e+00 -2.803305685520172119e-01 4.900000000000000000e+01
-1.168797016143799050e+00 -1.203160166740417036e+00 2.059591859579086026e-01 9.600000000000000000e+01
-1.256163716316222922e+00 -1.292644023895263894e+00 -2.213147282600403110e-01 5.200000000000000000e+01
-1.162117481231689009e+00 -1.195449113845824973e+00 2.640613913536071777e-01 6.800000000000000000e+01
-1.244342446327209029e+00 -1.280032277107238992e+00 -1.561830937862395963e-01 6.000000000000000000e+01
-1.148349761962891069e+00 -1.180873990058898926e+00 3.201774954795836847e-01 1.000000000000000000e+02
-1.235297560691833052e+00 -1.269840836524962935e+00 -9.284398704767227173e-02 5.400000000000000000e+01
-1.178323388099669966e+00 -1.210850596427917036e+00 3.900651335716248114e-01 8.500000000000000000e+01
-1.245617389678955078e+00 -1.279555320739746094e+00 -3.116999752819538116e-02 5.200000000000000000e+01
-1.168530583381653054e+00 -1.199949145317078081e+00 4.487922191619873047e-01 7.500000000000000000e+01
-1.244661688804626021e+00 -1.274116873741149902e+00 -4.772623181343079168e-01 5.200000000000000000e+01
-1.228505015373229980e+00 -1.257138848304748979e+00 3.068133071064949036e-02 5.700000000000000000e+01
-1.246455550193787065e+00 -1.275062441825866921e+00 -4.116604328155518133e-01 5.000000000000000000e+01
-1.216275215148926003e+00 -1.243755102157592995e+00 9.116923809051513672e-02 6.100000000000000000e+01
-1.254590630531311035e+00 -1.282936334609984907e+00 -3.487988412380219061e-01 6.000000000000000000e+01
-1.202380180358886941e+00 -1.229116916656493919e+00 1.504308134317398071e-01 4.900000000000000000e+01
-1.239300489425658958e+00 -1.266416072845458984e+00 -2.806434333324431818e-01 5.100000000000000000e+01
-1.177574157714843972e+00 -1.202919006347656028e+00 2.066904008388519010e-01 1.000000000000000000e+02
-1.255562305450439009e+00 -1.282137989997863992e+00 -2.203397750854491910e-01 5.600000000000000000e+01
-1.160962820053101030e+00 -1.185536265373229980e+00 2.628099024295806885e-01 6.200000000000000000e+01
-1.252036690711975098e+00 -1.278091549873352051e+00 -1.565317213535309115e-01 5.900000000000000000e+01
-1.156997799873352051e+00 -1.180662512779236062e+00 3.213223516941071112e-01 1.000000000000000000e+02
-1.237367987632751021e+00 -1.262235760688781960e+00 -9.263464063405990601e-02 5.500000000000000000e+01
-1.174777388572693093e+00 -1.197969079017638938e+00 3.873657286167144775e-01 8.300000000000000000e+01
-1.242119193077086958e+00 -1.266198039054871050e+00 -3.096056915819644928e-02 5.400000000000000000e+01
-1.175626397132873979e+00 -1.198416352272033913e+00 4.498274922370911200e-01 7.300000000000000000e+01
-1.250456452369689941e+00 -1.271141648292541948e+00 -4.777799546718596857e-01 4.700000000000000000e+01
-1.232885718345642090e+00 -1.252842903137207031e+00 3.068133071064949036e-02 5.700000000000000000e+01
-1.257734298706054910e+00 -1.277647495269774947e+00 -4.139099419116973877e-01 5.100000000000000000e+01
-1.217806458473206010e+00 -1.236655831336975098e+00 9.095989167690277100e-02 6.300000000000000000e+01
-1.254928708076477051e+00 -1.274352550506592019e+00 -3.476539850234984796e-01 5.300000000000000000e+01
-1.210857868194580078e+00 -1.229170441627501997e+00 1.509537398815155029e-01 5.000000000000000000e+01
-1.250646233558655007e+00 -1.269117355346679910e+00 -2.822077870368958075e-01 4.800000000000000000e+01
-1.185946702957153098e+00 -1.203042268753051980e+00 2.074216157197951993e-01 9.800000000000000000e+01
-1.253060936927794966e+00 -1.270680189132689986e+00 -2.191210836172103882e-01 5.200000000000000000e+01
-1.166687488555907981e+00 -1.182679414749145952e+00 2.631227672100067139e-01 5.100000000000000000e+01
-1.248095154762268066e+00 -1.265202999114990012e+00 -1.554858386516571045e-01 6.100000000000000000e+01
-1.165248990058898926e+00 -1.180808901786803977e+00 3.224672079086304266e-01 9.000000000000000000e+01
-1.248782157897948997e+00 -1.265015721321105957e+00 -9.315799921751022339e-02 5.800000000000000000e+01
-1.181690573692321999e+00 -1.196634173393249956e+00 3.882655203342437744e-01 8.700000000000000000e+01
-1.242315411567687988e+00 -1.257586717605591042e+00 -3.085585497319697987e-02 5.600000000000000000e+01
-1.180010914802551047e+00 -1.194099426269531028e+00 4.498274922370911200e-01 7.300000000000000000e+01
-1.270976781845092995e+00 -1.283460259437561035e+00 -4.839916229248046875e-01 4.500000000000000000e+01
-1.231404304504394975e+00 -1.243064999580383079e+00 3.054171055555343975e-02 5.700000000000000000e+01
-1.274309515953063965e+00 -1.285927534103393999e+00 -4.179590642452239990e-01 5.800000000000000000e+01
-1.226119041442871094e+00 -1.236865878105164018e+00 9.127391129732131958e-02 6.800000000000000000e+01
-1.256383419036865012e+00 -1.267395615577697976e+00 -3.468907475471497137e-01 4.600000000000000000e+01
-1.206509828567505105e+00 -1.216660022735595925e+00 1.499078720808028897e-01 5.200000000000000000e+01
-1.256239056587219016e+00 -1.266365528106689009e+00 -2.825206518173217773e-01 5.000000000000000000e+01
-1.195522665977478027e+00 -1.204739093780518022e+00 2.083965837955475131e-01 8.600000000000000000e+01
-1.260064840316772017e+00 -1.269335627555846946e+00 -2.196085602045058927e-01 4.900000000000000000e+01
-1.171788930892943892e+00 -1.180410265922545943e+00 2.634356319904326837e-01 4.000000000000000000e+01
-1.243860483169556108e+00 -1.252574682235717995e+00 -1.544399708509444913e-01 6.300000000000000000e+01
-1.180227279663085938e+00 -1.188080906867980957e+00 3.255201578140258789e-01 9.800000000000000000e+01
-1.261417150497436968e+00 -1.269367933273314986e+00 -9.378603100776672363e-02 6.400000000000000000e+01
-1.188399910926819070e+00 -1.195473074913024902e+00 3.891653120517731268e-01 8.700000000000000000e+01
-1.243658781051635964e+00 -1.250624179840087891e+00 -3.078604489564895977e-02 5.600000000000000000e+01
-1.172858834266663042e+00 -1.179427742958069070e+00 4.456863999366760254e-01 7.300000000000000000e+01
-1.297275066375731978e+00 -1.300902724266052024e+00 -4.922738373279572088e-01 4.000000000000000000e+01
-1.231499075889586958e+00 -1.234511852264404075e+00 3.043699637055397034e-02 6.000000000000000000e+01
-1.277413845062256081e+00 -1.280092120170593040e+00 -4.175091683864594061e-01 5.100000000000000000e+01
-1.233251094818115012e+00 -1.235405445098876953e+00 9.148325026035308838e-02 6.600000000000000000e+01
-1.267734885215759055e+00 -1.269949436187743919e+00 -3.487988412380219061e-01 4.500000000000000000e+01
-1.214972972869873047e+00 -1.216670513153075950e+00 1.504308134317398071e-01 5.300000000000000000e+01
-1.262047886848449929e+00 -1.263370156288146973e+00 -2.828335165977478027e-01 4.900000000000000000e+01
-1.202527165412903054e+00 -1.203366875648498979e+00 2.088840603828429898e-01 4.300000000000000000e+01
-1.271505117416382058e+00 -1.271948933601378950e+00 -2.208272516727448065e-01 5.100000000000000000e+01
-1.180297851562500000e+00 -1.180297851562500000e+00 2.643742561340332031e-01 4.500000000000000000e+01
-1.249634027481079102e+00 -1.249634027481079102e+00 -1.546142846345900934e-01 6.500000000000000000e+01
-1.178813338279723899e+00 -1.178401947021483931e+00 3.239936828613281250e-01 9.800000000000000000e+01
-1.255951046943664995e+00 -1.255074501037598100e+00 -9.305333346128463745e-02 6.400000000000000000e+01
-1.195323109626770020e+00 -1.194072008132935014e+00 3.900651335716248114e-01 8.700000000000000000e+01
-1.253676652908324973e+00 -1.251927495002747026e+00 -3.092566505074501038e-02 5.600000000000000000e+01
-1.182642698287964089e+00 -1.180580377578734907e+00 4.477569460868834894e-01 7.200000000000000000e+01
-1.324848771095276101e+00 -1.319771528244018999e+00 -5.010736584663391113e-01 4.600000000000000000e+01
-1.244087815284729004e+00 -1.238887548446655051e+00 3.064642660319805145e-02 6.100000000000000000e+01
-1.284414052963257058e+00 -1.278598666191101074e+00 -4.184089601039885919e-01 5.000000000000000000e+01
-1.237341046333312988e+00 -1.231309056282043013e+00 9.148325026035308838e-02 6.000000000000000000e+01
-1.278897285461426003e+00 -1.272662639617919922e+00 -3.507069349288939875e-01 3.900000000000000000e+01
-1.216175913810729980e+00 -1.209824562072753906e+00 1.500821858644484919e-01 5.500000000000000000e+01
-1.270432591438293013e+00 -1.263356804847717063e+00 -2.837721109390258789e-01 5.000000000000000000e+01
-1.206511020660399947e+00 -1.199372649192810059e+00 2.088840603828429898e-01 7.200000000000000000e+01
-1.270083665847778098e+00 -1.262128472328186035e+00 -2.198522984981536865e-01 5.100000000000000000e+01
-1.195209503173827903e+00 -1.187723278999329057e+00 2.668772041797637939e-01 6.400000000000000000e+01
-1.250944137573241965e+00 -1.242674946784972922e+00 -1.542656719684601108e-01 7.300000000000000000e+01
-1.168783903121948020e+00 -1.160652637481689009e+00 3.201774954795836847e-01 8.700000000000000000e+01
-1.247349143028259055e+00 -1.238238930702209029e+00 -9.211128205060958862e-02 6.300000000000000000e+01
-1.196509718894958052e+00 -1.187356233596801980e+00 3.891653120517731268e-01 8.300000000000000000e+01
-1.257821321487426980e+00 -1.247763276100158913e+00 -3.092566505074501038e-02 5.600000000000000000e+01
-1.198689222335814986e+00 -1.189103960990905984e+00 4.524157047271729071e-01 6.400000000000000000e+01
-1.330821037292480025e+00 -1.316497445106505904e+00 -5.015913248062133789e-01 2.100000000000000000e+01
-1.245561003684998003e+00 -1.231725096702575906e+00 3.057661652565002094e-02 6.100000000000000000e+01
-1.295798778533935991e+00 -1.280957460403441939e+00 -4.206584692001342773e-01 4.900000000000000000e+01
-1.234528422355652078e+00 -1.219963073730468972e+00 9.095989167690277100e-02 6.300000000000000000e+01
-1.281935453414916992e+00 -1.266810774803162065e+00 -3.503253161907196045e-01 4.300000000000000000e+01
-1.230313420295715110e+00 -1.215373396873473899e+00 1.513023674488067905e-01 5.600000000000000000e+01
-1.281862497329711914e+00 -1.265854477882385032e+00 -2.853364646434783936e-01 4.900000000000000000e+01
-1.210690259933471902e+00 -1.195153832435607910e+00 2.088840603828429898e-01 9.600000000000000000e+01
-1.263177990913390891e+00 -1.246532678604125977e+00 -2.179023921489716131e-01 4.400000000000000000e+01
-1.190912008285522017e+00 -1.175218939781188965e+00 2.649999856948853094e-01 5.500000000000000000e+01
-1.266621351242064986e+00 -1.249494433403014915e+00 -1.556601524353027066e-01 7.500000000000000000e+01
-1.195194482803344949e+00 -1.178621768951416016e+00 3.262833952903748114e-01 8.500000000000000000e+01
-1.254508495330810991e+00 -1.236681580543518066e+00 -9.232062846422195435e-02 6.100000000000000000e+01
-1.192318916320801003e+00 -1.174965500831604004e+00 3.864659070968627930e-01 7.200000000000000000e+01
-1.260744571685791016e+00 -1.241961717605591042e+00 -3.089075908064841877e-02 5.900000000000000000e+01
-1.205585122108459029e+00 -1.187623977661133035e+00 4.534509778022766113e-01 7.000000000000000000e+01
-1.393528699874877930e+00 -1.368460893630981001e+00 -5.233321189880371094e-01 1.500000000000000000e+01
-1.258629322052001953e+00 -1.235556840896606001e+00 3.078604489564895977e-02 6.100000000000000000e+01
-1.301875829696655051e+00 -1.277564525604248047e+00 -4.211083650588989258e-01 2.500000000000000000e+01
-1.241843104362488015e+00 -1.218227386474608931e+00 9.116923809051513672e-02 6.300000000000000000e+01
-1.289372920989990012e+00 -1.264853358268738015e+00 -3.510885536670684814e-01 4.500000000000000000e+01
-1.234759688377379927e+00 -1.210855841636657937e+00 1.513023674488067905e-01 5.800000000000000000e+01
-1.294957280158997026e+00 -1.269444823265075906e+00 -2.872136831283568781e-01 4.800000000000000000e+01
-1.222151637077331987e+00 -1.197655320167541948e+00 2.101027518510817926e-01 1.000000000000000000e+02
-1.267738342285156028e+00 -1.241894602775573953e+00 -2.179023921489716131e-01 4.000000000000000000e+01
-1.192592978477478027e+00 -1.167873382568358931e+00 2.643742561340332031e-01 5.900000000000000000e+01
-1.262651443481445090e+00 -1.236479640007019043e+00 -1.546142846345900934e-01 6.800000000000000000e+01
-1.207923889160156028e+00 -1.182473540306091087e+00 3.285730779170989990e-01 7.400000000000000000e+01
-1.264742612838744895e+00 -1.237662911415100098e+00 -9.273931384086608887e-02 6.100000000000000000e+01
-1.199403405189513938e+00 -1.173312902450561968e+00 3.873657286167144775e-01 8.300000000000000000e+01
-1.256709933280945046e+00 -1.228943824768065962e+00 -3.068133071064949036e-02 5.600000000000000000e+01
-1.208548665046691895e+00 -1.181846618652343972e+00 4.529333412647246759e-01 7.200000000000000000e+01
-1.948764085769653098e+00 -1.900391578674315962e+00 -7.293520569801330566e-01 1.800000000000000000e+01
-1.254343152046204057e+00 -1.222780585289001021e+00 3.057661652565002094e-02 6.100000000000000000e+01
-2.290260076522827148e+00 -2.231851577758789062e+00 -7.382893562316894531e-01 1.200000000000000000e+01
-1.250379800796509011e+00 -1.218066096305846946e+00 9.148325026035308838e-02 6.500000000000000000e+01
-1.297999143600464089e+00 -1.264454722404479980e+00 -3.522334098815917969e-01 4.700000000000000000e+01
-1.236124038696289062e+00 -1.203758358955383079e+00 1.509537398815155029e-01 5.600000000000000000e+01
-1.293718814849853960e+00 -1.259405136108397993e+00 -2.859621942043303888e-01 4.400000000000000000e+01
-1.243396639823914018e+00 -1.209995150566101074e+00 2.130276113748550137e-01 1.000000000000000000e+02
-1.273488521575927956e+00 -1.238845944404602051e+00 -2.181461304426192960e-01 4.100000000000000000e+01
-1.199494719505310059e+00 -1.166457653045654075e+00 2.649999856948853094e-01 5.400000000000000000e+01
-1.264103055000304954e+00 -1.229286551475524902e+00 -1.542656719684601108e-01 6.700000000000000000e+01
-1.206413269042968972e+00 -1.172775983810425027e+00 3.270466327667235773e-01 7.200000000000000000e+01
-1.274784564971924050e+00 -1.238808274269104004e+00 -9.315799921751022339e-02 6.700000000000000000e+01
-1.209082841873168945e+00 -1.174550533294677956e+00 3.891653120517731268e-01 8.100000000000000000e+01
-1.268164992332458052e+00 -1.231515169143676980e+00 -3.085585497319697987e-02 5.400000000000000000e+01
-1.204555392265320046e+00 -1.169335484504699929e+00 4.498274922370911200e-01 7.500000000000000000e+01
-1.958161354064940962e+00 -1.896265387535094993e+00 -7.303873300552368164e-01 1.700000000000000000e+01
-1.255730271339416948e+00 -1.215613007545470969e+00 3.050680644810200084e-02 6.000000000000000000e+01
-2.302237749099731001e+00 -2.227909088134766069e+00 -7.396390438079833984e-01 1.400000000000000000e+01
-1.253188610076904075e+00 -1.212305426597594993e+00 9.137857705354690552e-02 6.100000000000000000e+01
-1.306638121604918990e+00 -1.264011263847351074e+00 -3.533782660961151123e-01 4.500000000000000000e+01
-1.243182897567749023e+00 -1.202206254005431907e+00 1.513023674488067905e-01 5.600000000000000000e+01
-1.291005730628967063e+00 -1.248016834259032981e+00 -2.843978703022003174e-01 3.500000000000000000e+01
-1.243330240249634011e+00 -1.201509118080138938e+00 2.122963964939116877e-01 1.000000000000000000e+02
-1.276377439498900923e+00 -1.233013868331908958e+00 -2.179023921489716131e-01 4.900000000000000000e+01
-1.213505864143372026e+00 -1.171869039535522017e+00 2.671900689601898193e-01 5.200000000000000000e+01
-1.272686004638672097e+00 -1.229018568992614968e+00 -1.547885984182358066e-01 6.100000000000000000e+01
-1.211912155151366965e+00 -1.169921278953552024e+00 3.274282217025756836e-01 5.900000000000000000e+01
-1.271915078163146973e+00 -1.227416396141052024e+00 -9.263464063405990601e-02 6.400000000000000000e+01
-1.227200627326965110e+00 -1.183852672576904075e+00 3.936643302440642755e-01 7.300000000000000000e+01
-1.276774287223815918e+00 -1.231245160102844016e+00 -3.096056915819644928e-02 5.700000000000000000e+01
-1.215379476547240989e+00 -1.172039628028870073e+00 4.524157047271729071e-01 8.200000000000000000e+01
-1.961983680725098100e+00 -1.886740446090698020e+00 -7.293520569801330566e-01 1.600000000000000000e+01
-1.257082700729369895e+00 -1.208450555801392046e+00 3.043699637055397034e-02 6.100000000000000000e+01
-2.298759698867797852e+00 -2.209057092666625977e+00 -7.360398769378662109e-01 1.400000000000000000e+01
-1.254531979560852051e+00 -1.205156207084655984e+00 9.116923809051513672e-02 5.700000000000000000e+01
-2.765081882476807085e+00 -2.656254053115845171e+00 -7.452999353408813477e-01 8.000000000000000000e+00
-1.253120064735413042e+00 -1.203379511833190918e+00 1.519996225833893100e-01 5.800000000000000000e+01
-1.306754589080810991e+00 -1.254446625709533913e+00 -2.869008183479309082e-01 2.900000000000000000e+01
-1.241787552833556907e+00 -1.191663861274719016e+00 2.113214433193207065e-01 9.800000000000000000e+01
-1.283538699150085005e+00 -1.231299400329590066e+00 -2.183898687362670898e-01 5.100000000000000000e+01
-1.233272314071655051e+00 -1.182665586471558061e+00 2.706316113471984863e-01 4.800000000000000000e+01
-1.281282424926758035e+00 -1.228705644607543945e+00 -1.553115397691726962e-01 5.900000000000000000e+01
-1.231578111648560014e+00 -1.180628418922424094e+00 3.316260278224945068e-01 5.500000000000000000e+01
-1.271865725517272949e+00 -1.218823432922363059e+00 -9.232062846422195435e-02 6.100000000000000000e+01
-1.228511095046997070e+00 -1.176865577697753906e+00 3.927645385265349787e-01 5.700000000000000000e+01
-1.286841511726378950e+00 -1.232313156127929910e+00 -3.110018745064735066e-02 5.800000000000000000e+01
-1.225044250488281028e+00 -1.173134565353393999e+00 4.544862508773804266e-01 8.000000000000000000e+01
-1.979404807090759055e+00 -1.890899419784545898e+00 -7.334931492805480957e-01 1.800000000000000000e+01
-1.271206498146056907e+00 -1.213942646980286089e+00 3.068133071064949036e-02 6.400000000000000000e+01
-2.306072711944580078e+00 -2.201421976089477983e+00 -7.360398769378662109e-01 1.100000000000000000e+01
-1.253977894783020020e+00 -1.197071790695189986e+00 9.085521847009658813e-02 5.400000000000000000e+01
-2.776715755462646040e+00 -2.649780988693236861e+00 -7.460631728172302246e-01 1.300000000000000000e+01
-1.262870311737060991e+00 -1.204718351364135964e+00 1.526968628168106079e-01 5.600000000000000000e+01
-1.309477686882019043e+00 -1.248743176460265891e+00 -2.865879535675048828e-01 1.300000000000000000e+01
-1.248606085777282937e+00 -1.190278768539428933e+00 2.118089199066162109e-01 9.500000000000000000e+01
-1.297674298286437988e+00 -1.236622571945189986e+00 -2.200960367918015081e-01 2.600000000000000000e+01
-1.236981630325316939e+00 -1.178785324096679910e+00 2.706316113471984863e-01 4.600000000000000000e+01
-1.289677739143372026e+00 -1.228572726249695046e+00 -1.558344662189483920e-01 5.900000000000000000e+01
-1.246860384941101074e+00 -1.187369108200073020e+00 3.346789777278900146e-01 5.000000000000000000e+01
-1.281686902046204057e+00 -1.220107436180114968e+00 -9.273931384086608887e-02 5.700000000000000000e+01
-1.236642003059386985e+00 -1.176815390586853027e+00 3.941142559051514227e-01 4.900000000000000000e+01
-1.290920853614806907e+00 -1.228039145469665971e+00 -3.110018745064735066e-02 6.300000000000000000e+01
-1.237325906753540039e+00 -1.177054762840270996e+00 4.575920701026917059e-01 7.600000000000000000e+01
-1.977583885192871094e+00 -1.876001119613647017e+00 -7.303873300552368164e-01 1.700000000000000000e+01
-1.276887178421020952e+00 -1.210873842239380105e+00 3.071623481810092926e-02 6.000000000000000000e+01
-2.315157175064086914e+00 -2.194699525833129883e+00 -7.364897727966308594e-01 1.200000000000000000e+01
-1.264155864715575950e+00 -1.197962880134582964e+00 9.127391129732131958e-02 5.800000000000000000e+01
-2.783098220825194868e+00 -2.637371301651000977e+00 -7.452999353408813477e-01 1.400000000000000000e+01
-1.268514275550842063e+00 -1.201673030853271040e+00 1.528711766004562100e-01 5.300000000000000000e+01
-3.495415449142456055e+00 -3.310075521469116211e+00 -7.624616026878356934e-01 1.100000000000000000e+01
-1.258519768714905007e+00 -1.191371917724608931e+00 2.127838730812073031e-01 9.500000000000000000e+01
-4.709054470062255859e+00 -4.456246376037597656e+00 -7.960505485534667969e-01 1.200000000000000000e+01
-1.255644083023071067e+00 -1.187818765640259011e+00 2.737603187561035156e-01 4.800000000000000000e+01
-1.291063547134398970e+00 -1.221325039863585982e+00 -1.554858386516571045e-01 6.300000000000000000e+01
-1.260982632637023926e+00 -1.192451953887939009e+00 3.373503088951110840e-01 5.400000000000000000e+01
-1.291743636131287065e+00 -1.221114277839661089e+00 -9.315799921751022339e-02 5.600000000000000000e+01
-1.249240517616271973e+00 -1.180522322654723899e+00 3.968136608600615900e-01 4.800000000000000000e+01
-1.287931442260741965e+00 -1.216659426689147949e+00 -3.092566505074501038e-02 5.900000000000000000e+01
-1.236013531684875044e+00 -1.167206406593322976e+00 4.555215239524840753e-01 6.100000000000000000e+01
-1.979901790618896040e+00 -1.865112662315369096e+00 -7.288344502449035645e-01 1.400000000000000000e+01
-1.278194546699523926e+00 -1.203667521476746050e+00 3.064642660319805145e-02 5.500000000000000000e+01
-2.334155559539794922e+00 -2.197290658950806108e+00 -7.400889396667480469e-01 1.200000000000000000e+01
-1.272484302520751953e+00 -1.197871208190917969e+00 9.158792346715927124e-02 5.700000000000000000e+01
-2.790857791900635210e+00 -2.626295089721680132e+00 -7.449183464050292969e-01 1.300000000000000000e+01
-1.259640336036681907e+00 -1.184951305389404075e+00 1.513023674488067905e-01 5.100000000000000000e+01
-3.501192092895507812e+00 -3.292441129684447798e+00 -7.612100839614868164e-01 1.200000000000000000e+01
-1.272795319557189941e+00 -1.196489095687865989e+00 2.144900411367416104e-01 9.300000000000000000e+01
-4.723134517669677734e+00 -4.438422203063964844e+00 -7.958068251609802246e-01 1.400000000000000000e+01
-1.258342862129210982e+00 -1.182075977325439009e+00 2.734474539756774902e-01 5.200000000000000000e+01
-1.289510369300842063e+00 -1.211354374885559082e+00 -1.547885984182358066e-01 6.100000000000000000e+01
-1.272293090820312944e+00 -1.194762706756592019e+00 3.392584025859832764e-01 5.200000000000000000e+01
-1.309103846549988015e+00 -1.228900432586669922e+00 -9.410005062818527222e-02 5.600000000000000000e+01
-1.271827220916748047e+00 -1.193490028381348100e+00 4.026623964309691828e-01 4.100000000000000000e+01
-1.292170524597167969e+00 -1.212156295776366965e+00 -3.092566505074501038e-02 6.100000000000000000e+01
-1.244104146957397017e+00 -1.167066335678101030e+00 4.570744335651398260e-01 5.300000000000000000e+01
-1.989221692085265891e+00 -1.860829710960387962e+00 -7.298697233200073242e-01 1.500000000000000000e+01
-1.279467225074768066e+00 -1.196466803550719993e+00 3.057661652565002094e-02 5.300000000000000000e+01
-2.330422639846802202e+00 -2.178483247756958008e+00 -7.364897727966308594e-01 1.200000000000000000e+01
-1.286871194839477983e+00 -1.202969431877136008e+00 9.232062846422195435e-02 5.400000000000000000e+01
-2.800008296966553178e+00 -2.616537094116210938e+00 -7.449183464050292969e-01 1.400000000000000000e+01
-1.271048784255981001e+00 -1.187347531318664995e+00 1.521739214658736905e-01 5.500000000000000000e+01
-3.509776115417480025e+00 -3.277503252029418945e+00 -7.605843544006347656e-01 1.100000000000000000e+01
-1.268257498741149902e+00 -1.183911323547363059e+00 2.130276113748550137e-01 9.100000000000000000e+01
-4.744404315948486328e+00 -4.427325725555419922e+00 -7.967817783355712891e-01 1.700000000000000000e+01
-1.268239259719849077e+00 -1.183066129684448020e+00 2.746989130973815918e-01 5.700000000000000000e+01
-1.303929209709167036e+00 -1.216359257698059082e+00 -1.560087800025939941e-01 5.800000000000000000e+01
-1.280763387680053933e+00 -1.194331169128417969e+00 3.404032588005065918e-01 4.900000000000000000e+01
-1.313385486602782981e+00 -1.224323272705077903e+00 -9.410005062818527222e-02 5.500000000000000000e+01
-1.293093681335448997e+00 -1.204985737800597922e+00 4.080612063407897949e-01 4.200000000000000000e+01
-1.300783514976501021e+00 -1.211727499961853027e+00 -3.103037923574447979e-02 5.700000000000000000e+01
-1.250997543334960938e+00 -1.165350079536437988e+00 4.581097066402434748e-01 5.200000000000000000e+01
-2.003106832504272017e+00 -1.860099077224731001e+00 -7.324578762054443359e-01 1.700000000000000000e+01
-1.289706230163573997e+00 -1.197211146354675071e+00 3.071623481810092926e-02 5.500000000000000000e+01
-2.329820632934569868e+00 -2.161973953247069868e+00 -7.337903380393981934e-01 1.300000000000000000e+01
-1.295873522758484109e+00 -1.202094316482543945e+00 9.263464063405990601e-02 5.600000000000000000e+01
-2.812458038330078125e+00 -2.608927488327025923e+00 -7.456815242767333984e-01 1.600000000000000000e+01
-1.284157633781433105e+00 -1.190809369087219016e+00 1.532197892665863037e-01 5.300000000000000000e+01
-3.517419099807738814e+00 -3.260588407516479048e+00 -7.596457600593566895e-01 1.200000000000000000e+01
-1.262395858764647993e+00 -1.169810175895690918e+00 2.113214433193207065e-01 8.800000000000000000e+01
-4.766424179077148438e+00 -4.415302753448486328e+00 -7.977567315101623535e-01 1.500000000000000000e+01
-1.279607057571410911e+00 -1.185343980789185014e+00 2.762632668018341064e-01 6.700000000000000000e+01
-1.309840559959412065e+00 -1.212925672531127930e+00 -1.561830937862395963e-01 5.000000000000000000e+01
-1.290895104408263938e+00 -1.194963574409485085e+00 3.419297337532042902e-01 4.600000000000000000e+01
-1.317864060401916948e+00 -1.219501256942749023e+00 -9.410005062818527222e-02 5.400000000000000000e+01
-1.310376405715941939e+00 -1.212147951126099077e+00 4.121103286743164062e-01 4.500000000000000000e+01
-1.314025044441222922e+00 -1.215097665786742942e+00 -3.123980760574341167e-02 5.600000000000000000e+01
-1.266811728477478027e+00 -1.171028733253479004e+00 4.622508287429810125e-01 6.600000000000000000e+01
-2.006747007369995117e+00 -1.850476384162903054e+00 -7.314226031303405762e-01 1.800000000000000000e+01
-1.308580517768860085e+00 -1.206255316734313965e+00 3.106528334319591869e-02 5.500000000000000000e+01
-2.340219259262084961e+00 -2.156469345092772993e+00 -7.346901297569274902e-01 1.300000000000000000e+01
-1.283696293830872026e+00 -1.182902574539185014e+00 9.148325026035308838e-02 5.300000000000000000e+01
-2.820103883743286133e+00 -2.597764015197753906e+00 -7.452999353408813477e-01 1.400000000000000000e+01
-1.292703509330749956e+00 -1.190368413925170898e+00 1.537427306175231934e-01 5.200000000000000000e+01
-3.527325868606566939e+00 -3.246952772140502930e+00 -7.593328952789306641e-01 1.100000000000000000e+01
-1.272314548492432085e+00 -1.170773148536681907e+00 2.122963964939116877e-01 8.200000000000000000e+01
-4.755509853363037109e+00 -4.374447345733642578e+00 -7.933694124221801758e-01 1.200000000000000000e+01
-1.283942937850951926e+00 -1.180646061897278054e+00 2.762632668018341064e-01 6.900000000000000000e+01
-1.302285313606261985e+00 -1.197093367576598899e+00 3.438377976417542059e-01 3.400000000000000000e+01
-1.322112917900085005e+00 -1.214893698692321999e+00 -9.410005062818527222e-02 4.600000000000000000e+01
-1.349043250083922896e+00 -1.239205837249756081e+00 4.229079782962799072e-01 2.000000000000000000e+01
-1.322677254676819070e+00 -1.214560985565185991e+00 -3.134452179074286721e-02 5.100000000000000000e+01
-1.278007507324218972e+00 -1.173131465911865012e+00 4.648390114307404120e-01 6.400000000000000000e+01
-2.010023355484008789e+00 -1.841201782226562944e+00 -7.303873300552368164e-01 2.300000000000000000e+01
-1.319947361946105957e+00 -1.208661556243896040e+00 3.123980760574341167e-02 5.700000000000000000e+01
-2.351670026779174805e+00 -2.152644395828247070e+00 -7.360398769378662109e-01 1.300000000000000000e+01
-1.297924518585205078e+00 -1.188079118728637917e+00 9.221595525741577148e-02 5.100000000000000000e+01
-2.817115783691405806e+00 -2.577795267105102983e+00 -7.422469854354858398e-01 1.400000000000000000e+01
-1.303994297981261985e+00 -1.192798852920532005e+00 1.546142846345900934e-01 4.900000000000000000e+01
-3.539531469345093218e+00 -3.236570835113524947e+00 -7.596457600593566895e-01 1.200000000000000000e+01
-1.287911653518676980e+00 -1.177262187004088911e+00 2.142463028430938998e-01 7.000000000000000000e+01
-4.819814682006835938e+00 -4.404181957244873047e+00 -8.016565442085266113e-01 1.000000000000000000e+01
