2.741584777832030806e+00 -4.656733274459838867e-01 -6.420103311538696289e-01 1.200000000000000000e+01
3.209016799926757812e+00 -5.456454753875732422e-01 -6.327226161956787109e-01 1.200000000000000000e+01
3.890724658966064009e+00 -6.629572510719299316e-01 -6.251121163368225098e-01 1.100000000000000000e+01
3.740478515625000000e+01 -6.380280017852783203e+00 4.659064769744873047e+00 2.000000000000000000e+01
4.966284275054931641e+00 -8.480104207992553711e-01 -6.186087727546691895e-01 9.000000000000000000e+00
6.622288227081298828e+00 -1.131968498229980025e+00 -5.877783298492431641e-01 6.000000000000000000e+00
1.040398597717284979e+01 -1.782123804092407005e+00 -5.531910657882690430e-01 2.000000000000000000e+00
3.409448242187500000e+01 -5.846251964569091797e+00 7.986212253570556641e+00 1.000000000000000000e+01
2.094247436523437855e+01 -3.594812393188477007e+00 -3.708985447883605957e-01 3.000000000000000000e+00
3.489470291137695312e+01 -5.989736557006835938e+00 9.486753463745117188e+00 7.000000000000000000e+00
2.375626564025878906e+00 -4.111960232257843018e-01 -6.460123658180236816e-01 1.600000000000000000e+01
5.975047302246093750e+01 -1.035292053222656072e+01 1.058488488197327104e+00 6.100000000000000000e+01
2.751462936401367188e+00 -4.772386252880095880e-01 -6.447097063064575195e-01 1.300000000000000000e+01
3.212895631790161133e+00 -5.578513145446777344e-01 -6.338675022125244141e-01 1.100000000000000000e+01
3.890332937240601030e+00 -6.768729686737060547e-01 -6.254249811172485352e-01 1.100000000000000000e+01
3.851265335083007812e+01 -6.707682132720947266e+00 4.799945831298828125e+00 2.000000000000000000e+01
4.975027084350585938e+00 -8.673865199089050293e-01 -6.200712323188781738e-01 1.000000000000000000e+01
3.894648361206054688e+01 -6.797249317169188565e+00 6.261758804321289062e+00 1.400000000000000000e+01
6.610445499420166016e+00 -1.153707385063170943e+00 -5.870810747146606445e-01 6.000000000000000000e+00
1.040163612365723012e+01 -1.819117784500122070e+00 -5.534003973007202148e-01 2.000000000000000000e+00
2.096525382995605113e+01 -3.674106597900391069e+00 -3.715268373489379883e-01 3.000000000000000000e+00
3.476405715942382812e+01 -6.098565101623535156e+00 9.457247734069824219e+00 1.400000000000000000e+01
2.372274398803710938e+00 -4.191498756408690851e-01 -6.454946994781494141e-01 1.600000000000000000e+01
2.745942592620850053e+00 -4.861606359481812079e-01 -6.438099145889282227e-01 1.200000000000000000e+01
3.214794874191284180e+00 -5.697482228279113770e-01 -6.346307396888732910e-01 1.200000000000000000e+01
3.880166769027709961e+00 -6.890670657157897949e-01 -6.241735219955444336e-01 1.000000000000000000e+01
4.989558696746826172e+00 -8.878773450851440430e-01 -6.222648620605468750e-01 1.000000000000000000e+01
3.590924835205078125e+01 -6.389945507049561435e+00 5.776812076568604404e+00 1.300000000000000000e+01
6.618147373199462891e+00 -1.178871512413024902e+00 -5.881269574165344238e-01 5.000000000000000000e+00
1.039129066467284979e+01 -1.854713320732116921e+00 -5.531910657882690430e-01 2.000000000000000000e+00
3.434442901611328125e+01 -6.136229515075683594e+00 8.054597854614257812e+00 1.000000000000000000e+01
2.081844520568848012e+01 -3.723326921463013139e+00 -3.691532909870148260e-01 7.000000000000000000e+00
3.528371810913085938e+01 -6.310404777526854581e+00 9.604257583618164062e+00 1.400000000000000000e+01
2.382204055786132812e+00 -4.294846951961516779e-01 -6.486005187034606934e-01 1.900000000000000000e+01
5.977513504028320312e+01 -1.078755950927734020e+01 1.060233712196350098e+00 6.100000000000000000e+01
2.736557960510253906e+00 -4.943570792675017755e-01 -6.420103311538696289e-01 1.300000000000000000e+01
3.218582391738892046e+00 -5.820145010948181152e-01 -6.357755661010742188e-01 1.100000000000000000e+01
3.726380157470703125e+01 -6.745109558105468750e+00 3.313138484954833984e+00 4.800000000000000000e+01
3.877737760543822798e+00 -7.026071548461914062e-01 -6.241735219955444336e-01 1.100000000000000000e+01
3.826956558227539062e+01 -6.940959930419921875e+00 4.775572299957275391e+00 2.000000000000000000e+01
4.994241714477539062e+00 -9.067071080207824707e-01 -6.232398152351379395e-01 1.000000000000000000e+01
6.645356178283691406e+00 -1.207665920257567915e+00 -5.909159183502197266e-01 5.000000000000000000e+00
1.042798233032226918e+01 -1.898846030235290971e+00 -5.554938316345214844e-01 2.000000000000000000e+00
3.420777130126953125e+01 -6.235109806060791016e+00 8.027603149414062500e+00 1.000000000000000000e+01
2.072269821166991832e+01 -3.780899524688721147e+00 -3.676872849464417059e-01 1.000000000000000000e+01
3.525654983520507812e+01 -6.438989639282226562e+00 9.603221893310546875e+00 2.200000000000000000e+01
2.388366937637329102e+00 -4.387782812118530273e-01 -6.506710648536682129e-01 1.900000000000000000e+01
5.973903656005858664e+01 -1.098572158813476918e+01 1.060233712196350098e+00 6.100000000000000000e+01
2.736820220947266069e+00 -5.037819147109985352e-01 -6.424602270126342773e-01 1.400000000000000000e+01
3.220496177673339844e+00 -5.933960080146789551e-01 -6.365388035774230957e-01 1.200000000000000000e+01
3.885099411010742188e+00 -7.172554731369018555e-01 -6.257378458976745605e-01 1.100000000000000000e+01
4.971687793731688565e+00 -9.196529388427734375e-01 -6.208024621009826660e-01 1.000000000000000000e+01
6.653069496154785156e+00 -1.231872558593750000e+00 -5.919618010520935059e-01 6.000000000000000000e+00
1.046090316772460938e+01 -1.940702319145203081e+00 -5.575872659683227539e-01 2.000000000000000000e+00
3.324807357788085938e+01 -6.174171447753906250e+00 7.807151317596436435e+00 9.000000000000000000e+00
1.981550788879394887e+01 -3.683320045471190962e+00 -3.518055975437163752e-01 1.000000000000000000e+01
3.526083755493164062e+01 -6.554308891296386719e+00 9.609951019287109375e+00 7.000000000000000000e+00
2.383023262023925781e+00 -4.464011490345001221e-01 -6.496357917785644531e-01 2.000000000000000000e+01
2.736960172653197798e+00 -5.136916041374206543e-01 -6.429101228713989258e-01 1.200000000000000000e+01
3.206828117370605025e+00 -6.024590730667114258e-01 -6.342490911483764648e-01 1.200000000000000000e+01
3.882571935653686968e+00 -7.308126091957092285e-01 -6.257378458976745605e-01 1.200000000000000000e+01
4.986003398895263672e+00 -9.403126835823059082e-01 -6.229960918426513672e-01 1.000000000000000000e+01
6.640897750854492188e+00 -1.253610253334044966e+00 -5.912645459175109863e-01 5.000000000000000000e+00
1.047761440277099965e+01 -1.981659770011902078e+00 -5.588433146476745605e-01 2.000000000000000000e+00
3.322440338134766336e+01 -6.289828777313232422e+00 7.806701183319091797e+00 1.900000000000000000e+01
1.976323509216308949e+01 -3.745020627975463867e+00 -3.511075079441071112e-01 1.000000000000000000e+01
3.540740203857421875e+01 -6.715902805328369141e+00 9.656538963317871094e+00 7.000000000000000000e+00
2.373860120773314986e+00 -4.532674551010131836e-01 -6.475652456283569336e-01 1.900000000000000000e+01
2.746634721755981001e+00 -5.254392027854919434e-01 -6.456094980239868164e-01 1.500000000000000000e+01
3.214346885681151900e+00 -6.154954433441162109e-01 -6.361572146415710449e-01 1.200000000000000000e+01
3.887757301330565962e+00 -7.458496093750000000e-01 -6.269893646240234375e-01 1.100000000000000000e+01
4.980741500854492188e+00 -9.573366641998291016e-01 -6.227523684501647949e-01 1.000000000000000000e+01
3.613587188720703125e+01 -6.945591449737548828e+00 5.828122615814208984e+00 1.300000000000000000e+01
6.646264076232910156e+00 -1.278665781021117942e+00 -5.921361446380615234e-01 6.000000000000000000e+00
1.050593376159667969e+01 -2.025025606155395952e+00 -5.607274174690246582e-01 2.000000000000000000e+00
3.322712326049804688e+01 -6.410564422607421875e+00 7.812550067901611328e+00 1.900000000000000000e+01
2.075727653503417969e+01 -4.008493900299072266e+00 -3.690136671066284180e-01 7.000000000000000000e+00
3.559358215332031250e+01 -6.873573780059813565e+00 9.713479042053222656e+00 7.000000000000000000e+00
2.376055955886840820e+00 -4.622888863086699884e-01 -6.486005187034606934e-01 1.800000000000000000e+01
2.742871046066284180e+00 -5.346506834030151367e-01 -6.451596021652221680e-01 1.400000000000000000e+01
3.223740339279174805e+00 -6.289675831794738770e-01 -6.384469270706176758e-01 1.100000000000000000e+01
3.879313945770264116e+00 -7.582790255546569824e-01 -6.260507106781005859e-01 1.100000000000000000e+01
4.987109661102294922e+00 -9.766243696212768555e-01 -6.239710450172424316e-01 1.000000000000000000e+01
6.653491020202636719e+00 -1.304157137870789018e+00 -5.931819677352905273e-01 8.000000000000000000e+00
1.047920322418213068e+01 -2.057837247848511186e+00 -5.596807003021240234e-01 2.000000000000000000e+00
3.327338027954102273e+01 -6.540040016174316406e+00 7.828746795654296875e+00 1.900000000000000000e+01
2.057441902160644887e+01 -4.047729015350341797e+00 -3.660118579864501953e-01 6.000000000000000000e+00
3.665993118286132812e+01 -7.218975067138671875e+00 1.001163864135742010e+01 8.000000000000000000e+00
2.378217935562133789e+00 -4.713311791419982910e-01 -6.496357917785644531e-01 1.700000000000000000e+01
2.737165212631226030e+00 -5.434628129005432129e-01 -6.442598104476928711e-01 1.400000000000000000e+01
3.217674016952515093e+00 -6.394513249397277832e-01 -6.376836895942687988e-01 1.200000000000000000e+01
3.884392976760863814e+00 -7.733585834503173828e-01 -6.273022294044494629e-01 1.000000000000000000e+01
4.985617160797119141e+00 -9.944149255752563477e-01 -6.242147684097290039e-01 9.000000000000000000e+00
6.680159568786621094e+00 -1.333615183830261008e+00 -5.959709882736206055e-01 6.000000000000000000e+00
1.049154090881348012e+01 -2.098320960998535156e+00 -5.607274174690246582e-01 2.000000000000000000e+00
3.360576248168945312e+01 -6.727293968200683594e+00 7.912428379058837891e+00 9.000000000000000000e+00
1.978371620178223012e+01 -3.963950157165526900e+00 -3.521895706653594971e-01 3.000000000000000000e+00
3.526060104370117188e+01 -7.064964771270751953e+00 9.635832786560058594e+00 7.000000000000000000e+00
2.387920141220093218e+00 -4.819228947162628174e-01 -6.527416110038757324e-01 1.900000000000000000e+01
2.733341455459595171e+00 -5.526278018951416016e-01 -6.438099145889282227e-01 1.500000000000000000e+01
3.215422153472899947e+00 -6.506792306900024414e-01 -6.376836895942687988e-01 1.100000000000000000e+01
3.893285751342772993e+00 -7.892677783966064453e-01 -6.291794180870056152e-01 1.000000000000000000e+01
3.761134338378906250e+01 -7.631608486175537109e+00 4.712200164794921875e+00 2.000000000000000000e+01
4.974334239959716797e+00 -1.010231614112854004e+00 -6.232398152351379395e-01 9.000000000000000000e+00
6.677416324615479404e+00 -1.357322096824645996e+00 -5.961452722549438477e-01 5.000000000000000000e+00
1.048415279388427912e+01 -2.134930610656737837e+00 -5.607274174690246582e-01 2.000000000000000000e+00
3.369282531738281250e+01 -6.867131233215332031e+00 7.938522815704345703e+00 9.000000000000000000e+00
1.821796035766601918e+01 -3.716420888900756836e+00 -3.245449364185333252e-01 3.000000000000000000e+00
2.378654003143310991e+00 -4.887002110481262207e-01 -6.506710648536682129e-01 2.200000000000000000e+01
2.733304500579833984e+00 -5.625584721565246582e-01 -6.442598104476928711e-01 1.300000000000000000e+01
3.203516960144042969e+00 -6.599186658859252930e-01 -6.357755661010742188e-01 1.200000000000000000e+01
3.894376039505004883e+00 -8.036515712738037109e-01 -6.298051476478576660e-01 1.000000000000000000e+01
4.982441425323486328e+00 -1.030000329017638938e+00 -6.247022747993469238e-01 9.000000000000000000e+00
3.794139480590820312e+01 -7.850379467010498047e+00 6.136610984802246094e+00 1.400000000000000000e+01
6.655077934265136719e+00 -1.376989126205443892e+00 -5.945764780044555664e-01 6.000000000000000000e+00
1.053530693054199041e+01 -2.183674812316894975e+00 -5.638675689697265625e-01 2.000000000000000000e+00
1.807956886291503906e+01 -3.753972291946411133e+00 -3.223110437393187921e-01 9.000000000000000000e+00
3.558871841430664062e+01 -7.389504909515380859e+00 9.739360809326171875e+00 7.000000000000000000e+00
2.376933813095093218e+00 -4.970003068447113037e-01 -6.506710648536682129e-01 2.100000000000000000e+01
2.742768287658690962e+00 -5.744931101799011230e-01 -6.469592452049255371e-01 1.300000000000000000e+01
3.206958293914794922e+00 -6.723054647445678711e-01 -6.369204521179199219e-01 1.300000000000000000e+01
3.891547203063964844e+00 -8.172405958175659180e-01 -6.298051476478576660e-01 1.000000000000000000e+01
3.714142608642578125e+01 -7.806617259979248047e+00 4.660039901733398438e+00 2.000000000000000000e+01
4.990470886230468750e+00 -1.049837946891784890e+00 -6.261646747589111328e-01 9.000000000000000000e+00
6.669727325439453125e+00 -1.404316306114196999e+00 -5.963196158409118652e-01 8.000000000000000000e+00
1.050807762145995916e+01 -2.216314792633057085e+00 -5.628208518028259277e-01 2.000000000000000000e+00
1.801939964294433949e+01 -3.807137966156005859e+00 -3.214733302593231201e-01 3.000000000000000000e+00
3.550847625732421875e+01 -7.508703708648681641e+00 9.724866867065429688e+00 7.000000000000000000e+00
2.365736484527587891e+00 -5.032843947410583496e-01 -6.480829119682312012e-01 1.900000000000000000e+01
2.744558095932006836e+00 -5.848759412765502930e-01 -6.478590369224548340e-01 1.400000000000000000e+01
3.206511974334716797e+00 -6.839052438735961914e-01 -6.373020410537719727e-01 1.200000000000000000e+01
3.879011869430541992e+00 -8.287559747695922852e-01 -6.282408237457275391e-01 1.000000000000000000e+01
3.738183593750000000e+01 -7.993500709533691406e+00 4.693675994873046875e+00 2.000000000000000000e+01
4.994540691375732422e+00 -1.068913340568542036e+00 -6.271396279335021973e-01 9.000000000000000000e+00
3.624383926391602273e+01 -7.763389110565186435e+00 5.870672702789306641e+00 1.300000000000000000e+01
6.686214923858642578e+00 -1.432179689407349077e+00 -5.982370376586914062e-01 6.000000000000000000e+00
1.051589965820313033e+01 -2.256333351135253906e+00 -5.636582374572753906e-01 2.000000000000000000e+00
4.178900527954102273e+01 -8.974044799804687500e+00 9.867702484130859375e+00 1.300000000000000000e+01
1.798645019531250000e+01 -3.865812301635742188e+00 -3.211242854595183771e-01 6.000000000000000000e+00
2.375294208526610884e+00 -5.139907598495483398e-01 -6.511887311935424805e-01 2.000000000000000000e+01
2.727263689041138139e+00 -5.911501646041870117e-01 -6.442598104476928711e-01 1.400000000000000000e+01
3.209861040115356001e+00 -6.963425874710083008e-01 -6.384469270706176758e-01 1.200000000000000000e+01
3.881886243820189986e+00 -8.435496091842651367e-01 -6.291794180870056152e-01 1.000000000000000000e+01
3.740801620483397727e+01 -8.135750770568847656e+00 4.700500488281250000e+00 2.000000000000000000e+01
5.002417087554931641e+00 -1.088874220848083052e+00 -6.286020874977111816e-01 9.000000000000000000e+00
6.665601253509520596e+00 -1.452117443084717019e+00 -5.968425273895263672e-01 5.000000000000000000e+00
1.058991622924805043e+01 -2.310911417007445845e+00 -5.680544972419738770e-01 2.000000000000000000e+00
1.912545204162598012e+01 -4.180514335632324219e+00 -3.417181074619293213e-01 6.000000000000000000e+00
2.386692523956298828e+00 -5.251851081848144531e-01 -6.548121571540832520e-01 2.100000000000000000e+01
2.728989601135253906e+00 -6.015053987503051758e-01 -6.451596021652221680e-01 1.400000000000000000e+01
3.205493688583374023e+00 -7.071198821067810059e-01 -6.380652785301208496e-01 1.200000000000000000e+01
3.886633634567261186e+00 -8.587995767593383789e-01 -6.304308772087097168e-01 1.100000000000000000e+01
4.990832805633544922e+00 -1.104613423347472922e+00 -6.276271343231201172e-01 9.000000000000000000e+00
6.674108505249023438e+00 -1.478392124176024947e+00 -5.980626940727233887e-01 6.000000000000000000e+00
1.058178520202637074e+01 -2.347862958908081055e+00 -5.680544972419738770e-01 2.000000000000000000e+00
3.630730056762695312e+01 -8.062432289123535156e+00 8.586381912231445312e+00 1.100000000000000000e+01
1.916149711608887074e+01 -4.258528709411621094e+00 -3.426256477832794189e-01 6.000000000000000000e+00
2.377303838729857954e+00 -5.318260192871093750e-01 -6.527416110038757324e-01 1.900000000000000000e+01
2.730676412582397017e+00 -6.118798851966857910e-01 -6.460594534873962402e-01 1.400000000000000000e+01
3.197258949279785156e+00 -7.170160412788391113e-01 -6.369204521179199219e-01 1.100000000000000000e+01
3.889394044876099077e+00 -8.736600875854492188e-01 -6.313694715499877930e-01 1.100000000000000000e+01
4.985010147094726562e+00 -1.121592164039612038e+00 -6.273833513259887695e-01 1.000000000000000000e+01
6.672794342041015625e+00 -1.502555489540100098e+00 -5.984113216400146484e-01 7.000000000000000000e+00
1.059300804138183949e+01 -2.389180183410644975e+00 -5.691012144088745117e-01 2.000000000000000000e+00
1.899437332153319957e+01 -4.291018486022949219e+00 -3.399030566215515137e-01 6.000000000000000000e+00
3.790251541137695312e+01 -8.569509506225585938e+00 1.041229057312012074e+01 8.000000000000000000e+00
2.366107940673828125e+00 -5.375665426254272461e-01 -6.501534581184387207e-01 1.900000000000000000e+01
2.740033388137816939e+00 -6.235262155532836914e-01 -6.487588286399841309e-01 1.400000000000000000e+01
3.200606346130371094e+00 -7.289224863052368164e-01 -6.380652785301208496e-01 1.200000000000000000e+01
3.884549617767333984e+00 -8.861136436462402344e-01 -6.310566067695617676e-01 1.000000000000000000e+01
5.004486083984375000e+00 -1.143422842025757058e+00 -6.303082704544067383e-01 1.000000000000000000e+01
6.677486419677734375e+00 -1.526895642280579057e+00 -5.992828607559204102e-01 5.000000000000000000e+00
1.061228275299072088e+01 -2.430537223815917969e+00 -5.705665946006774902e-01 3.000000000000000000e+00
1.813804054260253906e+01 -4.160830020904541016e+00 -3.248241841793059748e-01 3.000000000000000000e+00
3.799214935302733664e+01 -8.715322494506835938e+00 1.044438362121582031e+01 8.000000000000000000e+00
2.360452413558959961e+00 -5.449533462524414062e-01 -6.491181850433349609e-01 2.000000000000000000e+01
2.728347063064575195e+00 -6.308917403221130371e-01 -6.465093493461608887e-01 1.500000000000000000e+01
3.209518671035767046e+00 -7.427460551261901855e-01 -6.403549909591674805e-01 1.200000000000000000e+01
3.879508495330810991e+00 -8.992217779159545898e-01 -6.307437419891357422e-01 1.200000000000000000e+01
4.994663238525390625e+00 -1.159538030624390093e+00 -6.295770406723022461e-01 1.000000000000000000e+01
3.597345352172852273e+01 -8.358048439025878906e+00 5.849397659301757812e+00 1.300000000000000000e+01
6.658531188964843750e+00 -1.547038793563842995e+00 -5.980626940727233887e-01 5.000000000000000000e+00
1.062318706512450994e+01 -2.472093105316162109e+00 -5.716133117675781250e-01 3.000000000000000000e+00
1.803966331481933949e+01 -4.204599857330322266e+00 -3.233232796192169189e-01 1.200000000000000000e+01
3.664073562622070312e+01 -8.540049552917480469e+00 1.008100223541259943e+01 8.000000000000000000e+00
2.373582124710083008e+00 -5.567187070846557617e-01 -6.532592773437500000e-01 1.900000000000000000e+01
2.722333908081055132e+00 -6.395202875137329102e-01 -6.456094980239868164e-01 1.500000000000000000e+01
4.171972274780272727e+01 -9.808320999145507812e+00 2.246049880981444868e+00 2.900000000000000000e+01
3.204995155334473100e+00 -7.534955143928527832e-01 -6.399733424186706543e-01 1.200000000000000000e+01
3.882114410400391069e+00 -9.141166210174560547e-01 -6.316823959350585938e-01 1.000000000000000000e+01
4.254054641723632812e+01 -1.002480602264403942e+01 5.366394519805908203e+00 3.300000000000000000e+01
4.982856750488281250e+00 -1.175143003463744895e+00 -6.286020874977111816e-01 1.000000000000000000e+01
3.601090621948242188e+01 -8.492711067199707031e+00 5.860034942626953125e+00 1.300000000000000000e+01
6.686055183410645419e+00 -1.578052401542664018e+00 -6.010259985923767090e-01 5.000000000000000000e+00
1.059505558013916016e+01 -2.504565000534058061e+00 -5.705665946006774902e-01 3.000000000000000000e+00
3.780462265014647727e+01 -8.943601608276367188e+00 8.968798637390136719e+00 1.200000000000000000e+01
1.800930976867676137e+01 -4.263858795166015625e+00 -3.230440318584442139e-01 1.200000000000000000e+01
3.699266815185546875e+01 -8.765150070190429688e+00 1.018659973144531072e+01 8.000000000000000000e+00
2.371624469757080078e+00 -5.650006532669067383e-01 -6.532592773437500000e-01 2.000000000000000000e+01
2.721980571746826172e+00 -6.494714021682739258e-01 -6.460594534873962402e-01 1.400000000000000000e+01
3.209983825683594194e+00 -7.665023803710937500e-01 -6.414998173713684082e-01 1.200000000000000000e+01
3.884663581848144975e+00 -9.290405511856079102e-01 -6.326209902763366699e-01 1.100000000000000000e+01
4.988377094268798828e+00 -1.194841265678405984e+00 -6.298207640647888184e-01 1.000000000000000000e+01
6.680506229400634766e+00 -1.601381421089171919e+00 -6.010259985923767090e-01 5.000000000000000000e+00
1.061732196807860973e+01 -2.548993587493896040e+00 -5.722413659095764160e-01 3.000000000000000000e+00
3.776559448242188211e+01 -9.073688507080078125e+00 8.966999053955078125e+00 2.400000000000000000e+01
3.639086151123046875e+01 -8.756828308105468750e+00 1.002923774719237926e+01 8.000000000000000000e+00
2.365882396697998047e+00 -5.723671913146972656e-01 -6.522240042686462402e-01 1.900000000000000000e+01
2.719696998596190962e+00 -6.589689254760742188e-01 -6.460594534873962402e-01 1.300000000000000000e+01
3.203472614288330078e+00 -7.767773270606994629e-01 -6.407365798950195312e-01 1.200000000000000000e+01
3.890994787216186968e+00 -9.449257254600524902e-01 -6.341853141784667969e-01 1.100000000000000000e+01
3.631233978271483664e+01 -8.825141906738281250e+00 4.588380813598632812e+00 1.900000000000000000e+01
4.995748996734619141e+00 -1.215061426162719949e+00 -6.312832236289978027e-01 1.000000000000000000e+01
6.690362453460693359e+00 -1.628460645675658958e+00 -6.024205088615417480e-01 3.000000000000000000e+00
1.059671688079833984e+01 -2.583201169967650923e+00 -5.716133117675781250e-01 3.000000000000000000e+00
3.775640869140625000e+01 -9.211002349853515625e+00 8.972397804260253906e+00 1.200000000000000000e+01
1.819862174987792969e+01 -4.443076610565186435e+00 -3.269882798194885254e-01 3.000000000000000000e+00
3.711824035644531250e+01 -9.069044113159179688e+00 1.023836421966552912e+01 8.000000000000000000e+00
2.348861455917357954e+00 -5.769357085227966309e-01 -6.480829119682312012e-01 1.800000000000000000e+01
2.730626344680786133e+00 -6.717169284820556641e-01 -6.492087244987487793e-01 1.500000000000000000e+01
3.193116426467895952e+00 -7.860776185989379883e-01 -6.392101049423217773e-01 1.100000000000000000e+01
3.880000829696654829e+00 -9.566106200218200684e-01 -6.329338550567626953e-01 1.000000000000000000e+01
4.989550113677979404e+00 -1.232016563415526900e+00 -6.310394406318664551e-01 9.000000000000000000e+00
6.684637069702148438e+00 -1.651804447174072044e+00 -6.024205088615417480e-01 5.000000000000000000e+00
1.063804340362549006e+01 -2.632649660110474077e+00 -5.743348002433776855e-01 3.000000000000000000e+00
3.604429244995117188e+01 -8.926737785339355469e+00 8.572884559631347656e+00 1.100000000000000000e+01
1.818300247192383168e+01 -4.506574630737304688e+00 -3.269882798194885254e-01 3.000000000000000000e+00
3.912639617919921875e+01 -9.704547882080078125e+00 1.080155372619629084e+01 9.000000000000000000e+00
2.358079910278319868e+00 -5.879353880882263184e-01 -6.511887311935424805e-01 2.000000000000000000e+01
4.245764541625977273e+01 -1.059375190734862926e+01 7.638220191001892090e-01 4.500000000000000000e+01
2.730155706405640093e+00 -6.817166209220886230e-01 -6.496586203575134277e-01 1.400000000000000000e+01
4.242538833618164062e+01 -1.059356784820556996e+01 2.291686773300170898e+00 3.100000000000000000e+01
3.192257642745972124e+00 -7.976948618888854980e-01 -6.395917534828186035e-01 1.100000000000000000e+01
3.874721765518188032e+00 -9.696689844131469727e-01 -6.326209902763366699e-01 1.000000000000000000e+01
5.016027450561523438e+00 -1.257147312164307085e+00 -6.349392533302307129e-01 9.000000000000000000e+00
6.686560630798339844e+00 -1.677066922187804954e+00 -6.031177639961242676e-01 5.000000000000000000e+00
1.070627212524414062e+01 -2.689229726791381836e+00 -5.785216689109802246e-01 3.000000000000000000e+00
3.556877517700195312e+01 -8.940858840942382812e+00 8.467157363891601562e+00 1.100000000000000000e+01
1.808571052551269887e+01 -4.549528598785400391e+00 -3.255222737789154053e-01 3.000000000000000000e+00
2.363504648208618164e+00 -5.980586409568786621e-01 -6.532592773437500000e-01 2.000000000000000000e+01
2.712647199630736861e+00 -6.874128580093383789e-01 -6.460594534873962402e-01 1.400000000000000000e+01
3.200871944427489790e+00 -8.117285966873168945e-01 -6.418814659118652344e-01 1.200000000000000000e+01
3.871313333511352983e+00 -9.831883311271667480e-01 -6.326209902763366699e-01 1.100000000000000000e+01
5.005837440490722656e+00 -1.273180961608886941e+00 -6.342080831527709961e-01 1.000000000000000000e+01
6.709628582000732422e+00 -1.707768797874450906e+00 -6.057324409484863281e-01 5.000000000000000000e+00
1.064262962341308949e+01 -2.712772369384766069e+00 -5.755908489227294922e-01 3.000000000000000000e+00
3.570729446411132812e+01 -9.108312606811523438e+00 8.507648468017578125e+00 1.100000000000000000e+01
3.657950210571289062e+01 -9.344398498535156250e+00 1.011620140075683949e+01 8.000000000000000000e+00
2.368993282318114790e+00 -6.078134179115295410e-01 -6.553298234939575195e-01 1.700000000000000000e+01
2.717902421951293945e+00 -6.983444094657897949e-01 -6.478590369224548340e-01 1.400000000000000000e+01
3.194359779357910156e+00 -8.213608264923095703e-01 -6.411182284355163574e-01 1.200000000000000000e+01
3.875683546066284180e+00 -9.979910254478454590e-01 -6.338724493980407715e-01 1.100000000000000000e+01
3.622181320190429688e+01 -9.333881378173828125e+00 4.592768192291259766e+00 1.900000000000000000e+01
4.991976737976074219e+00 -1.287295460700988992e+00 -6.329893469810485840e-01 1.000000000000000000e+01
6.703928470611572266e+00 -1.730009317398071067e+00 -6.057324409484863281e-01 5.000000000000000000e+00
1.068771934509276988e+01 -2.762042284011840820e+00 -5.785216689109802246e-01 3.000000000000000000e+00
3.565425491333007812e+01 -9.220817565917968750e+00 8.502249717712402344e+00 1.100000000000000000e+01
3.631057739257813211e+01 -9.397315025329589844e+00 1.004994392395020064e+01 8.000000000000000000e+00
2.359379053115845171e+00 -6.141325235366821289e-01 -6.532592773437500000e-01 1.800000000000000000e+01
2.719219684600830078e+00 -7.088105082511901855e-01 -6.487588286399841309e-01 1.300000000000000000e+01
3.189573526382445845e+00 -8.320106863975524902e-01 -6.407365798950195312e-01 1.200000000000000000e+01
3.887466430664062944e+00 -1.015507817268372026e+00 -6.363754272460937500e-01 1.100000000000000000e+01
3.595086288452147727e+01 -9.398007392883300781e+00 4.562544345855712891e+00 1.900000000000000000e+01
5.002816677093505859e+00 -1.308732032775878906e+00 -6.349392533302307129e-01 9.000000000000000000e+00
3.640035247802733664e+01 -9.529086112976074219e+00 5.959527492523193359e+00 1.300000000000000000e+01
6.682429313659667969e+00 -1.749363303184509055e+00 -6.043379306793212891e-01 5.000000000000000000e+00
1.067801284790039062e+01 -2.799332380294799805e+00 -5.785216689109802246e-01 3.000000000000000000e+00
2.584801101684569957e+01 -6.785920619964599609e+00 -4.664679169654846191e-01 4.000000000000000000e+00
3.634688949584960938e+01 -9.548990249633789062e+00 1.006961345672607067e+01 8.000000000000000000e+00
2.349749565124512163e+00 -6.203919053077697754e-01 -6.511887311935424805e-01 1.800000000000000000e+01
2.724264860153197798e+00 -7.202905416488647461e-01 -6.505584716796875000e-01 1.400000000000000000e+01
3.196139574050902876e+00 -8.456501364707946777e-01 -6.426447033882141113e-01 1.200000000000000000e+01
3.887716770172119141e+00 -1.030083179473876953e+00 -6.370011568069458008e-01 1.100000000000000000e+01
3.596772766113281250e+01 -9.536669731140136719e+00 4.568881511688232422e+00 1.900000000000000000e+01
5.005892276763916016e+00 -1.328223466873168945e+00 -6.359142065048217773e-01 9.000000000000000000e+00
6.680133342742919922e+00 -1.773701190948486106e+00 -6.046865582466125488e-01 5.000000000000000000e+00
1.069133853912354049e+01 -2.842747449874877930e+00 -5.797777175903320312e-01 3.000000000000000000e+00
3.616567993164063211e+01 -9.629702568054199219e+00 1.002820301055908025e+01 8.000000000000000000e+00
2.356900215148925781e+00 -6.310886740684509277e-01 -6.537768840789794922e-01 1.900000000000000000e+01
4.230690383911132812e+01 -1.133610057830811080e+01 7.645201086997985840e-01 4.500000000000000000e+01
2.725498437881470171e+00 -7.308049798011779785e-01 -6.514582633972167969e-01 1.300000000000000000e+01
3.193168163299560991e+00 -8.568015694618225098e-01 -6.426447033882141113e-01 1.200000000000000000e+01
3.868835687637329102e+00 -1.039546847343445046e+00 -6.344981789588928223e-01 1.100000000000000000e+01
3.607607650756835938e+01 -9.700305938720703125e+00 4.586918354034423828e+00 1.900000000000000000e+01
5.005059242248535156e+00 -1.346720814704895020e+00 -6.364017128944396973e-01 9.000000000000000000e+00
3.579122924804688211e+01 -9.637112617492675781e+00 5.870672702789306641e+00 1.300000000000000000e+01
6.685444355010986328e+00 -1.800116539001465066e+00 -6.057324409484863281e-01 5.000000000000000000e+00
1.070449161529541016e+01 -2.886289358139038086e+00 -5.810337662696838379e-01 3.000000000000000000e+00
2.618611907958984020e+01 -7.070460319519042969e+00 -4.734488725662230890e-01 4.000000000000000000e+00
3.608911514282227273e+01 -9.751106262207031250e+00 1.001681423187256037e+01 8.000000000000000000e+00
2.354682922363280806e+00 -6.393119096755981445e-01 -6.537768840789794922e-01 1.900000000000000000e+01
2.707887172698975053e+00 -7.362241744995117188e-01 -6.478590369224548340e-01 1.400000000000000000e+01
3.199629783630371094e+00 -8.705196380615234375e-01 -6.445527672767639160e-01 1.200000000000000000e+01
3.880430698394774947e+00 -1.057199239730834961e+00 -6.370011568069458008e-01 1.200000000000000000e+01
3.642503356933593750e+01 -9.930603981018066406e+00 4.635665893554688388e+00 1.900000000000000000e+01
5.006073474884033203e+00 -1.365750908851623979e+00 -6.371329426765441895e-01 1.000000000000000000e+01
6.706028938293457031e+00 -1.830788373947143999e+00 -6.081727743148803711e-01 6.000000000000000000e+00
1.072132301330566051e+01 -2.931010961532593218e+00 -5.824992060661315918e-01 3.000000000000000000e+00
3.561684417724608664e+01 -9.750347137451171875e+00 9.894652366638183594e+00 7.000000000000000000e+00
2.358024835586547852e+00 -6.490654945373535156e-01 -6.553298234939575195e-01 2.000000000000000000e+01
2.710936784744263139e+00 -7.472254633903503418e-01 -6.492087244987487793e-01 1.500000000000000000e+01
3.190893888473511186e+00 -8.801170587539672852e-01 -6.434079408645629883e-01 1.200000000000000000e+01
3.876716852188109907e+00 -1.070738077163696067e+00 -6.370011568069458008e-01 1.100000000000000000e+01
4.982142925262451172e+00 -1.377925515174865945e+00 -6.346955299377441406e-01 1.000000000000000000e+01
3.819802856445313211e+01 -1.057171535491943004e+01 6.277402400970458984e+00 1.400000000000000000e+01
6.697677135467529297e+00 -1.853654265403748003e+00 -6.079984903335571289e-01 5.000000000000000000e+00
3.613786315917968750e+01 -1.000833320617675959e+01 7.288903713226318359e+00 6.200000000000000000e+01
1.071102714538574041e+01 -2.968417406082152876e+00 -5.824992060661315918e-01 3.000000000000000000e+00
3.865022277832031250e+01 -1.071865558624267933e+01 9.259884834289550781e+00 1.200000000000000000e+01
3.564415359497070312e+01 -9.898399353027343750e+00 9.912251472473144531e+00 7.000000000000000000e+00
2.359695911407471147e+00 -6.575073003768920898e-01 -6.563650965690612793e-01 2.000000000000000000e+01
2.706698894500731978e+00 -7.552146911621093750e-01 -6.487588286399841309e-01 1.400000000000000000e+01
3.188113212585449219e+00 -8.901371955871582031e-01 -6.434079408645629883e-01 1.200000000000000000e+01
3.608877563476563211e+01 -1.008295822143555043e+01 3.278276205062866211e+00 4.700000000000000000e+01
3.877138853073120117e+00 -1.083975553512573020e+00 -6.376268863677978516e-01 1.100000000000000000e+01
3.664512634277343750e+01 -1.025218868255615057e+01 4.672226905822753906e+00 2.000000000000000000e+01
5.006463050842285156e+00 -1.401597976684570090e+00 -6.383516192436218262e-01 9.000000000000000000e+00
6.705250263214111328e+00 -1.878448724746704102e+00 -6.092186570167541504e-01 5.000000000000000000e+00
1.072472476959229049e+01 -3.008525848388671875e+00 -5.837552547454833984e-01 3.000000000000000000e+00
3.812854385375977273e+01 -1.070309066772460938e+01 9.142910957336425781e+00 1.200000000000000000e+01
3.551047515869141336e+01 -9.974857330322265625e+00 9.883263587951660156e+00 7.000000000000000000e+00
2.338795185089110884e+00 -6.604898571968078613e-01 -6.511887311935424805e-01 1.800000000000000000e+01
2.719047784805297852e+00 -7.689004540443420410e-01 -6.523580551147460938e-01 1.600000000000000000e+01
3.181208610534667969e+00 -9.001912474632263184e-01 -6.426447033882141113e-01 1.200000000000000000e+01
3.882834196090697798e+00 -1.100195288658142090e+00 -6.391912102699279785e-01 1.200000000000000000e+01
3.691850280761718750e+01 -1.046776485443115057e+01 4.711712360382080078e+00 2.000000000000000000e+01
5.003449916839599609e+00 -1.419607162475585938e+00 -6.385953426361083984e-01 1.000000000000000000e+01
6.685235977172851562e+00 -1.898033857345581055e+00 -6.079984903335571289e-01 3.000000000000000000e+00
3.520197296142578125e+01 -1.000098133087158025e+01 7.113359451293945312e+00 6.100000000000000000e+01
1.071415710449218928e+01 -3.045943737030028853e+00 -5.837552547454833984e-01 3.000000000000000000e+00
3.801597595214843750e+01 -1.081478977203368963e+01 9.124914169311523438e+00 1.200000000000000000e+01
2.666442680358887074e+01 -7.590530395507813388e+00 -4.839203357696533203e-01 4.000000000000000000e+00
3.853556442260742188e+01 -1.097714424133300959e+01 1.073633193969726918e+01 9.000000000000000000e+00
2.347619056701660156e+00 -6.718388795852661133e-01 -6.542945504188537598e-01 2.000000000000000000e+01
2.714473962783813032e+00 -7.778502106666564941e-01 -6.519081592559814453e-01 1.500000000000000000e+01
3.183708429336547852e+00 -9.129137396812438965e-01 -6.437895298004150391e-01 1.200000000000000000e+01
3.861881971359252930e+00 -1.108835935592650923e+00 -6.363754272460937500e-01 1.100000000000000000e+01
3.685884475708007812e+01 -1.058999252319335938e+01 4.708787918090820312e+00 2.000000000000000000e+01
5.008003234863281250e+00 -1.439806222915648970e+00 -6.398140788078308105e-01 9.000000000000000000e+00
6.693887710571289062e+00 -1.925764799118041992e+00 -6.093929409980773926e-01 3.000000000000000000e+00
3.526118087768554688e+01 -1.015095424652099965e+01 7.132440090179443359e+00 6.100000000000000000e+01
1.079942035675049006e+01 -3.110967874526977983e+00 -5.889888405799865723e-01 3.000000000000000000e+00
3.752260208129882812e+01 -1.082324886322020951e+01 1.046405410766601918e+01 9.000000000000000000e+00
2.347115039825439009e+00 -6.805675029754638672e-01 -6.548121571540832520e-01 1.900000000000000000e+01
2.702384948730469194e+00 -7.846039533615112305e-01 -6.496586203575134277e-01 1.400000000000000000e+01
3.189929008483887163e+00 -9.267600178718566895e-01 -6.456976532936096191e-01 1.200000000000000000e+01
3.856091260910034180e+00 -1.121757864952086958e+00 -6.360625624656677246e-01 1.000000000000000000e+01
3.644045639038085938e+01 -1.060762500762938920e+01 4.660039901733398438e+00 2.000000000000000000e+01
5.020099639892578125e+00 -1.462275028228759988e+00 -6.420077085494995117e-01 9.000000000000000000e+00
6.704339981079101562e+00 -1.954136848449707031e+00 -6.109617352485656738e-01 5.000000000000000000e+00
1.078849601745604936e+01 -3.148645877838135210e+00 -5.889888405799865723e-01 3.000000000000000000e+00
2.699466896057128906e+01 -7.888679504394531250e+00 -4.909012913703917902e-01 4.000000000000000000e+00
3.848220443725585938e+01 -1.124569416046142933e+01 1.074254322052001953e+01 9.000000000000000000e+00
2.365113973617554155e+00 -6.947454810142517090e-01 -6.605061888694763184e-01 1.900000000000000000e+01
2.703368663787841797e+00 -7.951320409774780273e-01 -6.505584716796875000e-01 1.300000000000000000e+01
3.179141044616699219e+00 -9.356720447540283203e-01 -6.441711783409118652e-01 1.200000000000000000e+01
3.859731435775756836e+00 -1.137444853782654031e+00 -6.373140215873718262e-01 1.100000000000000000e+01
3.629277420043945312e+01 -1.070219612121582031e+01 4.645903110504150391e+00 1.900000000000000000e+01
5.003541469573974609e+00 -1.476418733596801980e+00 -6.405452489852905273e-01 1.100000000000000000e+01
3.630656433105468750e+01 -1.072003936767577947e+01 5.995820045471191406e+00 1.300000000000000000e+01
6.729962348937988281e+00 -1.987118959426880105e+00 -6.139250397682189941e-01 2.000000000000000000e+00
3.528359603881835938e+01 -1.042468833923340021e+01 7.151521205902099609e+00 6.100000000000000000e+01
1.077743911743164062e+01 -3.186285734176636186e+00 -5.889888405799865723e-01 3.000000000000000000e+00
2.703599548339844105e+01 -8.003293991088867188e+00 -4.921578466892241877e-01 4.000000000000000000e+00
3.826118087768554688e+01 -1.132621479034424006e+01 1.069181442260742010e+01 9.000000000000000000e+00
2.347861528396606001e+00 -6.985895037651062012e-01 -6.563650965690612793e-01 1.900000000000000000e+01
2.706179618835449219e+00 -8.062329292297363281e-01 -6.519081592559814453e-01 1.500000000000000000e+01
3.177736997604370117e+00 -9.473245143890380859e-01 -6.445527672767639160e-01 1.200000000000000000e+01
3.868987321853638139e+00 -1.154865980148314986e+00 -6.395040750503540039e-01 1.100000000000000000e+01
5.000258922576904297e+00 -1.494443893432616965e+00 -6.407890319824218750e-01 1.100000000000000000e+01
6.721076011657714844e+00 -2.010027885437012163e+00 -6.137507557868957520e-01 3.000000000000000000e+00
1.076625156402588068e+01 -3.223886489868164062e+00 -5.889888405799865723e-01 3.000000000000000000e+00
3.885964202880858664e+01 -1.165845108032226918e+01 1.087091732025145951e+01 9.000000000000000000e+00
2.345161676406859907e+00 -7.075995206832885742e-01 -6.563650965690612793e-01 2.000000000000000000e+01
2.712391376495360884e+00 -8.194357752799987793e-01 -6.541576385498046875e-01 1.300000000000000000e+01
3.170317411422729048e+00 -9.583829641342163086e-01 -6.437895298004150391e-01 1.200000000000000000e+01
3.868305921554564986e+00 -1.170857787132262962e+00 -6.401298046112060547e-01 1.100000000000000000e+01
3.713288497924804688e+01 -1.124644660949707031e+01 4.763872623443604404e+00 2.000000000000000000e+01
5.011581897735595703e+00 -1.518814086914062944e+00 -6.429826617240905762e-01 9.000000000000000000e+00
6.686615467071533203e+00 -2.027725458145142046e+00 -6.113103628158569336e-01 3.000000000000000000e+00
1.083405971527099965e+01 -3.289573669433594194e+00 -5.933851003646850586e-01 3.000000000000000000e+00
3.846916580200195312e+01 -1.169515991210938033e+01 1.077360153198242010e+01 9.000000000000000000e+00
2.342677593231201172e+00 -7.157813310623168945e-01 -6.563650965690612793e-01 1.900000000000000000e+01
2.703923940658568892e+00 -8.271885514259338379e-01 -6.528079509735107422e-01 1.500000000000000000e+01
3.178216457366942915e+00 -9.728915095329284668e-01 -6.460792422294616699e-01 1.200000000000000000e+01
3.854751825332642046e+00 -1.181459188461303933e+00 -6.385654807090759277e-01 1.100000000000000000e+01
3.635324096679688211e+01 -1.114899921417235973e+01 4.668814659118652344e+00 2.000000000000000000e+01
5.006249904632568359e+00 -1.536298513412476030e+00 -6.429826617240905762e-01 9.000000000000000000e+00
3.599960327148438211e+01 -1.105429363250732067e+01 5.964533329010009766e+00 1.300000000000000000e+01
6.702352046966552734e+00 -2.058071851730347124e+00 -6.134021282196044922e-01 5.000000000000000000e+00
1.078051090240479049e+01 -3.314458847045897993e+00 -5.910822749137878418e-01 3.000000000000000000e+00
3.908090972900391336e+01 -1.202285766601563033e+01 9.439846038818359375e+00 1.200000000000000000e+01
3.920726776123046875e+01 -1.206922149658202947e+01 1.099204444885254084e+01 1.000000000000000000e+01
2.338319063186645952e+00 -7.233834862709045410e-01 -6.558474898338317871e-01 1.900000000000000000e+01
4.533251571655272727e+01 -1.403275775909424006e+01 8.283261060714721680e-01 5.600000000000000000e+01
2.699158668518065962e+00 -8.360453844070434570e-01 -6.523580551147460938e-01 1.400000000000000000e+01
3.182301998138428178e+00 -9.863044619560241699e-01 -6.476057171821594238e-01 1.200000000000000000e+01
3.858150959014893022e+00 -1.197249412536621094e+00 -6.398169398307800293e-01 1.100000000000000000e+01
4.993273735046386719e+00 -1.551408290863037109e+00 -6.420077085494995117e-01 9.000000000000000000e+00
3.589106369018554688e+01 -1.115133953094482067e+01 5.952644348144531250e+00 1.300000000000000000e+01
6.681808948516845703e+00 -2.077314376831055132e+00 -6.121819615364074707e-01 2.000000000000000000e+00
1.078794574737549006e+01 -3.358005523681641069e+00 -5.921289920806884766e-01 3.000000000000000000e+00
3.921654129028320312e+01 -1.222210121154784979e+01 1.100653839111327947e+01 1.000000000000000000e+01
2.348684787750244141e+00 -7.355830073356628418e-01 -6.594709157943725586e-01 1.900000000000000000e+01
2.694364309310913086e+00 -8.448790907859802246e-01 -6.519081592559814453e-01 1.500000000000000000e+01
3.173220157623291016e+00 -9.956434965133666992e-01 -6.464608907699584961e-01 1.200000000000000000e+01
3.848294496536254883e+00 -1.208933472633362038e+00 -6.388783454895019531e-01 1.100000000000000000e+01
3.563822555541992188e+01 -1.120250606536865057e+01 4.586918354034423828e+00 1.900000000000000000e+01
4.984040737152099609e+00 -1.567637324333190918e+00 -6.415202021598815918e-01 9.000000000000000000e+00
6.723929882049561435e+00 -2.116177082061768022e+00 -6.167140603065490723e-01 3.000000000000000000e+00
3.490517044067382812e+01 -1.099216365814208984e+01 7.113359451293945312e+00 6.100000000000000000e+01
1.076853847503661932e+01 -3.393241167068481001e+00 -5.917103290557861328e-01 3.000000000000000000e+00
4.178198242187500000e+01 -1.317380905151367010e+01 1.011424922943115057e+01 1.300000000000000000e+01
1.367346572875976918e+01 -4.313850879669188565e+00 -2.502675056457520086e-01 2.000000000000000000e+00
2.340837001800537109e+00 -7.412084937095642090e-01 -6.579180359840393066e-01 1.900000000000000000e+01
2.691696882247924805e+00 -8.533394932746887207e-01 -6.519081592559814453e-01 1.500000000000000000e+01
3.166333913803101030e+00 -1.004420280456542969e+00 -6.456976532936096191e-01 1.200000000000000000e+01
3.867069959640502930e+00 -1.228192687034606934e+00 -6.426327824592590332e-01 1.100000000000000000e+01
3.560285568237304688e+01 -1.131441211700438920e+01 4.586918354034423828e+00 1.900000000000000000e+01
4.990441799163818359e+00 -1.586896777153014915e+00 -6.429826617240905762e-01 9.000000000000000000e+00
6.694465637207031250e+00 -2.130041122436522993e+00 -6.146222949028015137e-01 3.000000000000000000e+00
3.468339157104492188e+01 -1.104220867156982067e+01 7.075197696685791016e+00 6.100000000000000000e+01
1.084536457061767933e+01 -3.454941511154174805e+00 -5.965252518653869629e-01 3.000000000000000000e+00
1.368270683288574041e+01 -4.364077568054199219e+00 -2.506863772869110107e-01 2.000000000000000000e+00
3.988554382324218750e+01 -1.272143077850341975e+01 1.121773529052734020e+01 1.000000000000000000e+01
2.334556102752685991e+00 -7.481958270072937012e-01 -6.568827629089355469e-01 2.000000000000000000e+01
2.707257270812987837e+00 -8.686839938163757324e-01 -6.564071774482727051e-01 1.500000000000000000e+01
3.166547060012816939e+00 -1.016667008399962935e+00 -6.464608907699584961e-01 1.200000000000000000e+01
3.855236768722534180e+00 -1.239265680313109907e+00 -6.413813233375549316e-01 1.100000000000000000e+01
3.726391601562500000e+01 -1.198566055297851918e+01 4.806282997131347656e+00 2.000000000000000000e+01
4.981092453002929688e+00 -1.603090643882751021e+00 -6.424951553344726562e-01 9.000000000000000000e+00
6.675610542297363281e+00 -2.149731874465941939e+00 -6.135764122009277344e-01 2.000000000000000000e+00
1.080662631988525035e+01 -3.484197616577147993e+00 -5.950598120689392090e-01 3.000000000000000000e+00
2.332062244415283203e+00 -7.559333443641662598e-01 -6.568827629089355469e-01 2.000000000000000000e+01
2.696947336196898970e+00 -8.752506375312805176e-01 -6.546075940132141113e-01 1.600000000000000000e+01
3.165025472640991211e+00 -1.027768492698668990e+00 -6.468424797058105469e-01 1.200000000000000000e+01
3.843591690063477007e+00 -1.249600291252136008e+00 -6.401298046112060547e-01 1.100000000000000000e+01
4.987074851989746094e+00 -1.623286247253417969e+00 -6.439576148986816406e-01 9.000000000000000000e+00
6.672234058380126953e+00 -2.173091173171997070e+00 -6.139250397682189941e-01 2.000000000000000000e+00
1.082539463043213068e+01 -3.529921293258666992e+00 -5.967345833778381348e-01 3.000000000000000000e+00
4.073965072631835938e+01 -1.330790042877197088e+01 1.148380088806151988e+01 1.100000000000000000e+01
2.331244945526123047e+00 -7.646712660789489746e-01 -6.574003696441650391e-01 1.900000000000000000e+01
2.686470031738280806e+00 -8.822273612022399902e-01 -6.528079509735107422e-01 1.500000000000000000e+01
3.174474716186522993e+00 -1.043100237846374956e+00 -6.495138406753540039e-01 1.200000000000000000e+01
3.841082811355590820e+00 -1.263626694679260032e+00 -6.404427289962768555e-01 1.000000000000000000e+01
4.973836421966552734e+00 -1.638200521469115989e+00 -6.429826617240905762e-01 9.000000000000000000e+00
6.702453613281250000e+00 -2.208840847015380859e+00 -6.174112558364868164e-01 2.000000000000000000e+00
1.079783344268799006e+01 -3.562681198120117188e+00 -5.958971977233886719e-01 3.000000000000000000e+00
4.049484634399414062e+01 -1.338455009460449041e+01 1.142789649963379084e+01 1.100000000000000000e+01
2.343229532241820845e+00 -7.776722311973571777e-01 -6.615414619445800781e-01 1.900000000000000000e+01
2.688921928405762163e+00 -8.934429287910461426e-01 -6.541576385498046875e-01 1.600000000000000000e+01
3.170814275741577148e+00 -1.054174900054932085e+00 -6.495138406753540039e-01 1.300000000000000000e+01
3.840397119522095171e+00 -1.278274536132812944e+00 -6.410684585571289062e-01 1.000000000000000000e+01
4.968087673187255859e+00 -1.655552506446837935e+00 -6.429826617240905762e-01 9.000000000000000000e+00
6.706042766571044922e+00 -2.236004590988159180e+00 -6.184571385383605957e-01 3.000000000000000000e+00
1.081185436248778942e+01 -3.609204769134521040e+00 -5.973625779151916504e-01 3.000000000000000000e+00
4.046620178222656250e+01 -1.353194904327392933e+01 1.143307209014892933e+01 1.100000000000000000e+01
2.325849771499633789e+00 -7.809276580810546875e-01 -6.574003696441650391e-01 1.900000000000000000e+01
2.687633991241455078e+00 -9.034445285797119141e-01 -6.546075940132141113e-01 1.500000000000000000e+01
3.152228593826293945e+00 -1.060229659080504927e+00 -6.464608907699584961e-01 1.200000000000000000e+01
3.854632616043090820e+00 -1.297976136207581010e+00 -6.441971063613891602e-01 1.000000000000000000e+01
4.975446224212645596e+00 -1.677323222160338911e+00 -6.446888446807861328e-01 1.100000000000000000e+01
6.703860282897949219e+00 -2.261309862136840820e+00 -6.189801096916198730e-01 3.000000000000000000e+00
1.074242210388183949e+01 -3.627752304077147993e+00 -5.942224264144897461e-01 3.000000000000000000e+00
4.010030364990233664e+01 -1.356540393829346058e+01 1.134300327301025035e+01 1.100000000000000000e+01
2.313963413238524947e+00 -7.859351634979248047e-01 -6.548121571540832520e-01 1.800000000000000000e+01
2.686309099197388139e+00 -9.134479761123657227e-01 -6.550574898719787598e-01 1.400000000000000000e+01
3.155942916870117188e+00 -1.073755979537964089e+00 -6.479873657226562500e-01 1.300000000000000000e+01
3.840728759765625000e+00 -1.308238863945007102e+00 -6.426327824592590332e-01 1.100000000000000000e+01
4.984591484069824219e+00 -1.699806332588196023e+00 -6.466387510299682617e-01 1.100000000000000000e+01
6.678955554962158203e+00 -2.278906345367432085e+00 -6.174112558364868164e-01 5.000000000000000000e+00
