3.213336944580078125e+00 -7.170882821083068848e-01 -6.399733424186706543e-01 1.200000000000000000e+01
3.892234802246094194e+00 -8.700175285339355469e-01 -6.316823959350585938e-01 1.200000000000000000e+01
3.694064331054688211e+01 -8.263981819152832031e+00 4.647852897644042969e+00 1.900000000000000000e+01
4.991993427276611328e+00 -1.117672443389893022e+00 -6.281145811080932617e-01 9.000000000000000000e+00
6.668531894683837891e+00 -1.494259953498840110e+00 -5.978884100914001465e-01 6.000000000000000000e+00
1.060329914093017933e+01 -2.379835605621337891e+00 -5.695198774337768555e-01 2.000000000000000000e+00
1.866718482971191051e+01 -4.196562767028808594e+00 -3.339692354202271063e-01 6.000000000000000000e+00
3.772299575805664062e+01 -8.487408638000488281e+00 1.036052608489990057e+01 8.000000000000000000e+00
2.366576194763184038e+00 -5.355014801025390625e-01 -6.501534581184387207e-01 1.800000000000000000e+01
4.579524230957031250e+01 -1.037080764770507990e+01 8.195999264717102051e-01 5.400000000000000000e+01
2.740576505661011186e+00 -6.211348772048950195e-01 -6.487588286399841309e-01 1.400000000000000000e+01
3.206984996795653853e+00 -7.274320125579833984e-01 -6.392101049423217773e-01 1.200000000000000000e+01
3.873763799667357954e+00 -8.800975084304809570e-01 -6.291794180870056152e-01 1.100000000000000000e+01
5.001610755920410156e+00 -1.138174176216125044e+00 -6.298207640647888184e-01 1.000000000000000000e+01
3.614198684692382812e+01 -8.224526405334472656e+00 5.870672702789306641e+00 1.300000000000000000e+01
6.686586856842041016e+00 -1.522837519645690918e+00 -5.999801158905029297e-01 6.000000000000000000e+00
3.568189620971679688e+01 -8.132928848266601562e+00 7.113740921020507812e+00 6.100000000000000000e+01
1.060661125183104936e+01 -2.419498682022095171e+00 -5.701479315757751465e-01 3.000000000000000000e+00
1.865242385864258168e+01 -4.261697769165039062e+00 -3.339692354202271063e-01 3.000000000000000000e+00
3.797713851928710938e+01 -8.677000999450683594e+00 1.043817234039306996e+01 8.000000000000000000e+00
2.368457794189453125e+00 -5.446249842643737793e-01 -6.511887311935424805e-01 2.000000000000000000e+01
2.723199367523192915e+00 -6.271984577178955078e-01 -6.451596021652221680e-01 1.400000000000000000e+01
3.219731092453002930e+00 -7.421497702598571777e-01 -6.422630548477172852e-01 1.200000000000000000e+01
3.876442193984984907e+00 -8.949472308158874512e-01 -6.301180124282836914e-01 1.100000000000000000e+01
4.999541282653808594e+00 -1.156073331832885964e+00 -6.300644874572753906e-01 9.000000000000000000e+00
3.595138931274414062e+01 -8.313252449035644531e+00 5.844391822814941406e+00 1.300000000000000000e+01
6.663760662078857422e+00 -1.542125940322875977e+00 -5.984113216400146484e-01 5.000000000000000000e+00
1.059810066223145064e+01 -2.456507921218872070e+00 -5.701479315757751465e-01 3.000000000000000000e+00
1.807449340820312855e+01 -4.196091175079345703e+00 -3.238817453384398859e-01 9.000000000000000000e+00
3.672195816040039062e+01 -8.531955718994140625e+00 1.010170745849609020e+01 8.000000000000000000e+00
2.377926588058472124e+00 -5.551111102104187012e-01 -6.542945504188537598e-01 2.000000000000000000e+01
2.723002195358275923e+00 -6.366690993309020996e-01 -6.456094980239868164e-01 1.300000000000000000e+01
3.209605693817139116e+00 -7.510334849357604980e-01 -6.407365798950195312e-01 1.200000000000000000e+01
3.884992837905883789e+00 -9.105014801025390625e-01 -6.319952607154846191e-01 1.100000000000000000e+01
4.993747711181640625e+00 -1.172192454338073953e+00 -6.298207640647888184e-01 1.000000000000000000e+01
3.600824356079102273e+01 -8.452287673950195312e+00 5.858157634735107422e+00 1.300000000000000000e+01
6.693522930145263672e+00 -1.572416782379149947e+00 -6.015489101409912109e-01 5.000000000000000000e+00
1.060933780670166016e+01 -2.496213197708129883e+00 -5.711946487426757812e-01 3.000000000000000000e+00
3.785569763183593750e+01 -8.913833618164062500e+00 8.978696823120117188e+00 1.200000000000000000e+01
1.806437110900878906e+01 -4.256922721862792969e+00 -3.239515721797943115e-01 1.200000000000000000e+01
3.676642608642578125e+01 -8.664116859436035156e+00 1.012137794494629084e+01 8.000000000000000000e+00
2.364696025848389116e+00 -5.607338547706604004e-01 -6.511887311935424805e-01 2.100000000000000000e+01
2.732139110565185991e+00 -6.488720774650573730e-01 -6.483089327812194824e-01 1.500000000000000000e+01
3.203144550323485884e+00 -7.613245248794555664e-01 -6.399733424186706543e-01 1.200000000000000000e+01
3.885634183883666992e+00 -9.249719977378845215e-01 -6.326209902763366699e-01 1.100000000000000000e+01
4.251592636108397727e+01 -1.012872219085693004e+01 5.366394519805908203e+00 3.300000000000000000e+01
4.997349262237548828e+00 -1.191458225250243919e+00 -6.307957172393798828e-01 1.000000000000000000e+01
3.614995193481445312e+01 -8.625469207763671875e+00 5.886315822601318359e+00 1.300000000000000000e+01
6.686055183410645419e+00 -1.595309615135193093e+00 -6.013746261596679688e-01 5.000000000000000000e+00
1.065883636474609020e+01 -2.547158002853393999e+00 -5.743348002433776855e-01 3.000000000000000000e+00
3.778644943237304688e+01 -9.036855697631835938e+00 8.969697952270507812e+00 1.200000000000000000e+01
1.794632911682128906e+01 -4.295283794403076172e+00 -3.221016228199005127e-01 6.000000000000000000e+00
3.636995315551757812e+01 -8.711514472961425781e+00 1.002095603942870916e+01 8.000000000000000000e+00
2.360846042633057085e+00 -5.685324668884277344e-01 -6.506710648536682129e-01 2.000000000000000000e+01
2.729857444763184038e+00 -6.584050655364990234e-01 -6.483089327812194824e-01 1.500000000000000000e+01
3.200467586517333984e+00 -7.725009918212890625e-01 -6.399733424186706543e-01 1.200000000000000000e+01
3.876621723175048828e+00 -9.371373057365417480e-01 -6.316823959350585938e-01 1.100000000000000000e+01
3.637944793701171875e+01 -8.801114082336425781e+00 4.595693111419677734e+00 1.900000000000000000e+01
5.004735946655273438e+00 -1.211697697639465110e+00 -6.322581768035888672e-01 1.000000000000000000e+01
6.676573276519775391e+00 -1.617700219154357910e+00 -6.010259985923767090e-01 3.000000000000000000e+00
1.067317199707031072e+01 -2.590000629425048828e+00 -5.755908489227294922e-01 3.000000000000000000e+00
3.776982116699218750e+01 -9.172378540039062500e+00 8.973297119140625000e+00 2.400000000000000000e+01
1.820326423645019887e+01 -4.424016475677490234e+00 -3.269882798194885254e-01 3.000000000000000000e+00
3.704294204711914062e+01 -9.002702713012695312e+00 1.021455287933349965e+01 8.000000000000000000e+00
2.358847141265869141e+00 -5.767698884010314941e-01 -6.506710648536682129e-01 1.800000000000000000e+01
4.231104278564453125e+01 -1.035344600677490057e+01 7.603315114974975586e-01 4.400000000000000000e+01
2.729435443878173828e+00 -6.683935523033142090e-01 -6.487588286399841309e-01 1.400000000000000000e+01
3.192030906677246094e+00 -7.822660803794860840e-01 -6.388285160064697266e-01 1.100000000000000000e+01
3.863734483718872070e+00 -9.483092427253723145e-01 -6.301180124282836914e-01 1.000000000000000000e+01
3.624054718017578125e+01 -8.901532173156738281e+00 4.582043647766113281e+00 1.900000000000000000e+01
4.994692802429199219e+00 -1.227738618850708008e+00 -6.315269470214843750e-01 9.000000000000000000e+00
6.694102287292479581e+00 -1.646707057952881081e+00 -6.031177639961242676e-01 5.000000000000000000e+00
1.065630912780762074e+01 -2.625330209732056108e+00 -5.751721858978271484e-01 3.000000000000000000e+00
3.603848648071289062e+01 -8.885254859924316406e+00 8.569285392761230469e+00 1.100000000000000000e+01
2.012530136108398082e+01 -4.965600490570068359e+00 -3.618232905864716131e-01 3.000000000000000000e+00
3.915904235839843750e+01 -9.669127464294433594e+00 1.080776596069335938e+01 9.000000000000000000e+00
2.362444400787353960e+00 -5.863964557647705078e-01 -6.522240042686462402e-01 1.600000000000000000e+01
2.717629909515380859e+00 -6.755663752555847168e-01 -6.465093493461608887e-01 1.500000000000000000e+01
3.206427574157714844e+00 -7.976691722869873047e-01 -6.422630548477172852e-01 1.000000000000000000e+01
3.875735044479370117e+00 -9.656108021736145020e-01 -6.326209902763366699e-01 9.000000000000000000e+00
5.009637355804443359e+00 -1.249971508979796919e+00 -6.339643001556396484e-01 9.000000000000000000e+00
6.713442802429199219e+00 -1.676338672637939009e+00 -6.053838133811950684e-01 5.000000000000000000e+00
1.067808151245117010e+01 -2.670264244079589844e+00 -5.768468976020812988e-01 3.000000000000000000e+00
3.601481246948242188e+01 -9.012890815734863281e+00 8.571084976196289062e+00 1.100000000000000000e+01
3.919047927856445312e+01 -9.814887046813964844e+00 1.082536506652832031e+01 9.000000000000000000e+00
2.373496294021606001e+00 -5.979428887367248535e-01 -6.558474898338317871e-01 1.900000000000000000e+01
2.709586381912231001e+00 -6.836183667182922363e-01 -6.451596021652221680e-01 1.400000000000000000e+01
3.205527305603026900e+00 -8.093374371528625488e-01 -6.426447033882141113e-01 1.200000000000000000e+01
3.881916284561156782e+00 -9.815549850463867188e-01 -6.341853141784667969e-01 1.000000000000000000e+01
3.631222915649414062e+01 -9.188406944274902344e+00 4.599105358123779297e+00 1.900000000000000000e+01
4.993697166442871094e+00 -1.264527082443237083e+00 -6.325019001960754395e-01 9.000000000000000000e+00
6.709481716156005859e+00 -1.700252175331115945e+00 -6.055580973625183105e-01 5.000000000000000000e+00
1.069966983795166016e+01 -2.715382099151610884e+00 -5.785216689109802246e-01 3.000000000000000000e+00
3.573759078979492188e+01 -9.076191902160644531e+00 8.512598037719726562e+00 1.100000000000000000e+01
3.659301376342772727e+01 -9.307040214538574219e+00 1.011723613739014027e+01 8.000000000000000000e+00
2.364118814468383789e+00 -6.034852266311645508e-01 -6.537768840789794922e-01 2.000000000000000000e+01
2.724417686462401900e+00 -6.964712738990783691e-01 -6.492087244987487793e-01 1.500000000000000000e+01
3.199164867401123047e+00 -8.184307217597961426e-01 -6.418814659118652344e-01 1.100000000000000000e+01
3.707220458984375000e+01 -9.490942001342773438e+00 3.348000764846802202e+00 4.900000000000000000e+01
3.892208576202393022e+00 -9.971773028373718262e-01 -6.363754272460937500e-01 1.100000000000000000e+01
4.991622924804688388e+00 -1.280702352523803933e+00 -6.327456235885620117e-01 1.000000000000000000e+01
6.704107284545898438e+00 -1.721322178840636985e+00 -6.055580973625183105e-01 6.000000000000000000e+00
1.069108581542968928e+01 -2.748982667922974077e+00 -5.785216689109802246e-01 3.000000000000000000e+00
3.567870330810546875e+01 -9.180649757385253906e+00 8.505399703979492188e+00 1.100000000000000000e+01
3.635944747924804688e+01 -9.362581253051757812e+00 1.006029605865479049e+01 8.000000000000000000e+00
2.350776910781859907e+00 -6.088277697563171387e-01 -6.506710648536682129e-01 1.800000000000000000e+01
4.235975265502929688e+01 -1.097864341735840021e+01 7.638220191001892090e-01 4.500000000000000000e+01
2.721969842910767046e+00 -7.059770226478576660e-01 -6.492087244987487793e-01 1.500000000000000000e+01
3.190587520599364790e+00 -8.281132578849792480e-01 -6.407365798950195312e-01 1.200000000000000000e+01
3.884880304336547852e+00 -1.009763717651366965e+00 -6.357496380805969238e-01 1.100000000000000000e+01
3.593157958984375000e+01 -9.346082687377929688e+00 4.558644771575927734e+00 1.900000000000000000e+01
4.996727466583251953e+00 -1.300618767738342063e+00 -6.339643001556396484e-01 9.000000000000000000e+00
3.641196823120117188e+01 -9.484607696533203125e+00 5.959527492523193359e+00 1.300000000000000000e+01
6.709626197814941406e+00 -1.747726678848267046e+00 -6.066039800643920898e-01 5.000000000000000000e+00
1.068142509460449041e+01 -2.786284685134888139e+00 -5.785216689109802246e-01 3.000000000000000000e+00
3.566906738281250000e+01 -9.311041831970214844e+00 8.510798454284667969e+00 1.100000000000000000e+01
2.585628318786621094e+01 -6.754336357116699219e+00 -4.664679169654846191e-01 4.000000000000000000e+00
3.633983993530272727e+01 -9.499691009521484375e+00 1.006443691253661932e+01 8.000000000000000000e+00
2.356111049652100053e+00 -6.189932823181152344e-01 -6.527416110038757324e-01 2.000000000000000000e+01
2.719489097595214844e+00 -7.154741883277893066e-01 -6.492087244987487793e-01 1.500000000000000000e+01
3.202865839004517046e+00 -8.432442545890808105e-01 -6.437895298004150391e-01 1.200000000000000000e+01
3.871781349182128906e+00 -1.020800352096558061e+00 -6.341853141784667969e-01 1.100000000000000000e+01
3.597935104370117188e+01 -9.492719650268554688e+00 4.568881511688232422e+00 1.900000000000000000e+01
4.999834060668945312e+00 -1.320079684257507102e+00 -6.349392533302307129e-01 9.000000000000000000e+00
6.699632167816162109e+00 -1.770119071006774902e+00 -6.062553524971008301e-01 5.000000000000000000e+00
1.067163467407226918e+01 -2.823552846908568892e+00 -5.785216689109802246e-01 3.000000000000000000e+00
3.611392593383789062e+01 -9.568688392639160156e+00 1.001060295104979936e+01 8.000000000000000000e+00
2.357669591903686968e+00 -6.282086968421936035e-01 -6.537768840789794922e-01 1.900000000000000000e+01
4.233231353759766336e+01 -1.128749561309813920e+01 7.647295594215393066e-01 4.500000000000000000e+01
2.703794956207274947e+00 -7.214458584785461426e-01 -6.460594534873962402e-01 1.300000000000000000e+01
3.192315816879272017e+00 -8.523932695388793945e-01 -6.422630548477172852e-01 1.200000000000000000e+01
3.870102882385253906e+00 -1.034819364547729048e+00 -6.344981789588928223e-01 1.100000000000000000e+01
3.608790206909179688e+01 -9.656223297119140625e+00 4.586918354034423828e+00 1.900000000000000000e+01
4.997113227844238281e+00 -1.338037729263306108e+00 -6.351830363273620605e-01 1.000000000000000000e+01
3.576648712158203125e+01 -9.576910972595214844e+00 5.864415168762207031e+00 1.300000000000000000e+01
6.712657451629638672e+00 -1.798651099205017090e+00 -6.079984903335571289e-01 3.000000000000000000e+00
1.071958351135254084e+01 -2.876314640045166016e+00 -5.816618204116821289e-01 3.000000000000000000e+00
3.609149932861328125e+01 -9.697698593139648438e+00 1.001370906829833984e+01 8.000000000000000000e+00
2.366540431976317915e+00 -6.398711800575256348e-01 -6.568827629089355469e-01 1.900000000000000000e+01
4.224047088623046875e+01 -1.142899608612061080e+01 7.638220191001892090e-01 4.500000000000000000e+01
2.716180562973022017e+00 -7.354252934455871582e-01 -6.496586203575134277e-01 1.400000000000000000e+01
4.020907211303710938e+01 -1.089442539215088068e+01 2.183246850967406782e+00 2.700000000000000000e+01
3.192960023880004883e+00 -8.651148080825805664e-01 -6.430262923240661621e-01 1.200000000000000000e+01
3.879629373550415039e+00 -1.052617907524109109e+00 -6.366882920265197754e-01 1.200000000000000000e+01
3.653120040893554688e+01 -9.918461799621582031e+00 4.647852897644042969e+00 1.900000000000000000e+01
5.003669261932373047e+00 -1.359466910362244096e+00 -6.366454362869262695e-01 1.000000000000000000e+01
6.696406841278076172e+00 -1.820628523826598899e+00 -6.071268916130065918e-01 6.000000000000000000e+00
1.070126152038574041e+01 -2.913486003875731978e+00 -5.812431573867797852e-01 3.000000000000000000e+00
3.680870056152343750e+01 -1.003520298004150035e+01 1.022283458709716975e+01 8.000000000000000000e+00
2.349387645721435991e+00 -6.440421342849731445e-01 -6.527416110038757324e-01 1.900000000000000000e+01
2.719234704971313032e+00 -7.464495897293090820e-01 -6.510083675384521484e-01 1.500000000000000000e+01
3.191813945770264116e+00 -8.767750859260559082e-01 -6.434079408645629883e-01 1.300000000000000000e+01
3.881645202636719194e+00 -1.067725658416748047e+00 -6.376268863677978516e-01 1.100000000000000000e+01
3.645042419433593750e+01 -1.003327465057373047e+01 4.642003059387207031e+00 1.900000000000000000e+01
4.998893737792968750e+00 -1.376924753189086914e+00 -6.366454362869262695e-01 1.200000000000000000e+01
6.714980602264404297e+00 -1.850874781608581987e+00 -6.093929409980773926e-01 5.000000000000000000e+00
3.610479354858397727e+01 -9.958477973937988281e+00 7.280126571655273438e+00 6.200000000000000000e+01
1.071797943115234020e+01 -2.958261966705321822e+00 -5.827085375785827637e-01 3.000000000000000000e+00
3.566567230224608664e+01 -9.864156723022460938e+00 9.915357589721679688e+00 7.000000000000000000e+00
2.343402624130249023e+00 -6.512045860290527344e-01 -6.517063379287719727e-01 1.700000000000000000e+01
2.720367431640625000e+00 -7.569817900657653809e-01 -6.519081592559814453e-01 1.500000000000000000e+01
3.190625190734862837e+00 -8.884379267692565918e-01 -6.437895298004150391e-01 1.200000000000000000e+01
3.602287673950195312e+01 -1.003743839263916016e+01 3.271652221679687944e+00 4.700000000000000000e+01
3.877894639968872070e+00 -1.081268548965454102e+00 -6.376268863677978516e-01 1.200000000000000000e+01
5.007440567016601562e+00 -1.398102521896362083e+00 -6.383516192436218262e-01 9.000000000000000000e+00
3.786006927490233664e+01 -1.057784461975098012e+01 6.226091861724854404e+00 1.400000000000000000e+01
6.696965694427490234e+00 -1.871086478233336958e+00 -6.083470582962036133e-01 6.000000000000000000e+00
1.075374984741210938e+01 -3.008571386337279829e+00 -5.852206349372863770e-01 3.000000000000000000e+00
3.548766708374022727e+01 -9.941725730895996094e+00 9.874981880187988281e+00 7.000000000000000000e+00
2.348553180694580078e+00 -6.614755392074584961e-01 -6.537768840789794922e-01 1.900000000000000000e+01
2.721459627151488814e+00 -7.675309777259826660e-01 -6.528079509735107422e-01 1.500000000000000000e+01
3.191283464431763139e+00 -9.006363153457641602e-01 -6.445527672767639160e-01 1.200000000000000000e+01
3.874096632003784180e+00 -1.094798326492310014e+00 -6.376268863677978516e-01 1.100000000000000000e+01
3.685703659057617188e+01 -1.042254257202148082e+01 4.702938079833984375e+00 2.000000000000000000e+01
5.002529621124267578e+00 -1.415573239326477051e+00 -6.383516192436218262e-01 1.000000000000000000e+01
6.705729484558104581e+00 -1.898794412612915039e+00 -6.097415685653686523e-01 5.000000000000000000e+00
1.072781085968017933e+01 -3.041732072830200195e+00 -5.843833088874816895e-01 3.000000000000000000e+00
3.805913543701171875e+01 -1.079835319519042969e+01 9.133462905883789062e+00 1.200000000000000000e+01
2.666971969604491832e+01 -7.571913242340087891e+00 -4.839203357696533203e-01 4.000000000000000000e+00
3.858601379394531250e+01 -1.095511913299561080e+01 1.074771976470947088e+01 9.000000000000000000e+00
2.355518102645874023e+00 -6.723206043243408203e-01 -6.563650965690612793e-01 1.900000000000000000e+01
2.700026512145996094e+00 -7.716708779335021973e-01 -6.483089327812194824e-01 1.500000000000000000e+01
3.195670604705810991e+00 -9.139298200607299805e-01 -6.460792422294616699e-01 1.200000000000000000e+01
3.866453409194945845e+00 -1.107227206230164018e+00 -6.370011568069458008e-01 1.100000000000000000e+01
3.691584396362304688e+01 -1.057847595214843928e+01 4.715125083923339844e+00 2.000000000000000000e+01
5.009006977081298828e+00 -1.436309695243835005e+00 -6.398140788078308105e-01 1.000000000000000000e+01
6.691400527954101562e+00 -1.919992089271544966e+00 -6.090443134307861328e-01 3.000000000000000000e+00
1.072480583190917969e+01 -3.081366777420043945e+00 -5.848019719123840332e-01 3.000000000000000000e+00
3.753015136718750000e+01 -1.079705047607422053e+01 1.046405410766601918e+01 9.000000000000000000e+00
2.355012893676757812e+00 -6.810755133628845215e-01 -6.568827629089355469e-01 1.900000000000000000e+01
2.699188232421875000e+00 -7.816330790519714355e-01 -6.487588286399841309e-01 1.400000000000000000e+01
3.181146621704102007e+00 -9.218007326126098633e-01 -6.437895298004150391e-01 1.200000000000000000e+01
3.870153427124022993e+00 -1.122918725013732910e+00 -6.382526159286499023e-01 1.200000000000000000e+01
4.992525100708007812e+00 -1.450462698936461958e+00 -6.383516192436218262e-01 9.000000000000000000e+00
6.703789234161376953e+00 -1.948899745941162109e+00 -6.107874512672424316e-01 3.000000000000000000e+00
1.079069137573242010e+01 -3.141113281250000000e+00 -5.889888405799865723e-01 3.000000000000000000e+00
3.849179840087891336e+01 -1.122662544250487926e+01 1.074357891082764027e+01 9.000000000000000000e+00
2.348913192749022993e+00 -6.882055401802062988e-01 -6.558474898338317871e-01 2.000000000000000000e+01
2.707663059234619141e+00 -7.943416833877563477e-01 -6.514582633972167969e-01 1.400000000000000000e+01
3.177909612655640093e+00 -9.328994154930114746e-01 -6.437895298004150391e-01 1.200000000000000000e+01
3.873790979385375977e+00 -1.138649463653564009e+00 -6.395040750503540039e-01 1.100000000000000000e+01
3.626595687866210938e+01 -1.066677379608153942e+01 4.641515731811523438e+00 1.900000000000000000e+01
4.995048999786376953e+00 -1.470122933387755904e+00 -6.393265724182128906e-01 9.000000000000000000e+00
3.631403732299804688e+01 -1.069468975067139027e+01 5.995820045471191406e+00 1.300000000000000000e+01
6.702679157257080078e+00 -1.973977088928223100e+00 -6.113103628158569336e-01 3.000000000000000000e+00
1.077966117858887074e+01 -3.178760766983031782e+00 -5.889888405799865723e-01 3.000000000000000000e+00
2.706842613220214844e+01 -7.992345333099365234e+00 -4.926465153694152832e-01 4.000000000000000000e+00
3.837654113769531250e+01 -1.133123016357422053e+01 1.072183799743651988e+01 9.000000000000000000e+00
2.339088678359984907e+00 -6.942020058631896973e-01 -6.537768840789794922e-01 2.000000000000000000e+01
2.710477828979492188e+00 -8.054536581039428711e-01 -6.528079509735107422e-01 1.500000000000000000e+01
3.182161092758179155e+00 -9.462249279022216797e-01 -6.453160047531127930e-01 1.300000000000000000e+01
3.866006135940552202e+00 -1.151037216186522993e+00 -6.388783454895019531e-01 1.100000000000000000e+01
3.630459976196289062e+01 -1.081597232818604049e+01 4.651265144348145419e+00 1.900000000000000000e+01
5.003203392028808594e+00 -1.491519808769226074e+00 -6.410327553749084473e-01 1.100000000000000000e+01
3.646577835083007812e+01 -1.087785148620604936e+01 6.027107238769531250e+00 1.300000000000000000e+01
6.674746036529541016e+00 -1.991096854209899902e+00 -6.093929409980773926e-01 2.000000000000000000e+00
1.076849937438965021e+01 -3.216369390487670898e+00 -5.889888405799865723e-01 3.000000000000000000e+00
3.879946899414063211e+01 -1.160350131988525035e+01 1.085124683380126953e+01 9.000000000000000000e+00
2.342324256896973100e+00 -7.036222219467163086e-01 -6.553298234939575195e-01 2.100000000000000000e+01
2.698461294174193892e+00 -8.116310238838195801e-01 -6.505584716796875000e-01 1.400000000000000000e+01
3.190285682678223100e+00 -9.601669907569885254e-01 -6.476057171821594238e-01 1.200000000000000000e+01
3.841362953186035156e+00 -1.157581567764282005e+00 -6.354367733001708984e-01 1.000000000000000000e+01
4.992528438568115234e+00 -1.506382465362549050e+00 -6.403015255928039551e-01 1.100000000000000000e+01
6.679551124572753906e+00 -2.016675233840941939e+00 -6.104388236999511719e-01 3.000000000000000000e+00
1.080365753173827947e+01 -3.265931844711304155e+00 -5.915009975433349609e-01 3.000000000000000000e+00
3.848139190673828125e+01 -1.165486907958984020e+01 1.077360153198242010e+01 9.000000000000000000e+00
2.343550205230712891e+00 -7.129186987876892090e-01 -6.563650965690612793e-01 1.900000000000000000e+01
2.693747520446776900e+00 -8.204776644706726074e-01 -6.501085758209228516e-01 1.400000000000000000e+01
3.190670490264893022e+00 -9.724420309066772461e-01 -6.483689546585083008e-01 1.200000000000000000e+01
3.852413654327393022e+00 -1.175595760345458984e+00 -6.379397511482238770e-01 1.000000000000000000e+01
3.641999435424804688e+01 -1.112080955505370916e+01 4.675639152526854581e+00 2.000000000000000000e+01
5.010021209716796875e+00 -1.530761122703552024e+00 -6.432263851165771484e-01 9.000000000000000000e+00
6.683902740478515625e+00 -2.043474197387694868e+00 -6.114847064018249512e-01 5.000000000000000000e+00
1.081892871856688920e+01 -3.311808347702025923e+00 -5.929663777351379395e-01 3.000000000000000000e+00
3.900426864624022727e+01 -1.194713687896729049e+01 9.417800903320312500e+00 1.200000000000000000e+01
3.926051712036132812e+01 -1.204061794281006037e+01 1.100343322753906072e+01 1.000000000000000000e+01
2.339201211929320845e+00 -7.205261588096618652e-01 -6.558474898338317871e-01 1.900000000000000000e+01
2.696453571319580078e+00 -8.315985202789306641e-01 -6.514582633972167969e-01 1.500000000000000000e+01
3.177876710891724077e+00 -9.806790351867675781e-01 -6.464608907699584961e-01 1.300000000000000000e+01
3.855835914611815962e+00 -1.191368579864501953e+00 -6.391912102699279785e-01 1.000000000000000000e+01
4.987579822540283203e+00 -1.542959928512573020e+00 -6.410327553749084473e-01 1.100000000000000000e+01
3.586314392089843750e+01 -1.109463882446289062e+01 5.945761203765869141e+00 1.300000000000000000e+01
6.712891578674316406e+00 -2.077986955642700195e+00 -6.147966384887695312e-01 3.000000000000000000e+00
1.083019542694091975e+01 -3.356648445129394975e+00 -5.942224264144897461e-01 3.000000000000000000e+00
3.914813995361328125e+01 -1.215582084655762074e+01 1.098376274108887074e+01 1.000000000000000000e+01
2.331139087677001953e+00 -7.269617319107055664e-01 -6.542945504188537598e-01 1.900000000000000000e+01
4.530055999755858664e+01 -1.413557815551757990e+01 8.283261060714721680e-01 5.600000000000000000e+01
2.706555604934691939e+00 -8.450714945793151855e-01 -6.546075940132141113e-01 1.400000000000000000e+01
3.166938543319702148e+00 -9.894241094589233398e-01 -6.449344158172607422e-01 1.200000000000000000e+01
3.861080408096313032e+00 -1.207769393920897993e+00 -6.407555937767028809e-01 1.100000000000000000e+01
3.565188598632813211e+01 -1.115895748138427912e+01 4.586918354034423828e+00 1.900000000000000000e+01
4.980268955230712891e+00 -1.559767127037047896e+00 -6.407890319824218750e-01 9.000000000000000000e+00
6.677078723907470703e+00 -2.092469692230225053e+00 -6.121819615364074707e-01 3.000000000000000000e+00
1.085271358489990057e+01 -3.405195236206055132e+00 -5.961065292358398438e-01 3.000000000000000000e+00
1.361386108398438033e+01 -4.276765346527099609e+00 -2.490807473659515103e-01 2.000000000000000000e+00
3.905018234252929688e+01 -1.227501964569091975e+01 1.096823310852050959e+01 1.000000000000000000e+01
2.334114074707030806e+00 -7.368391752243041992e-01 -6.558474898338317871e-01 2.000000000000000000e+01
2.709163665771483931e+00 -8.562758564949035645e-01 -6.559572815895080566e-01 1.500000000000000000e+01
3.169081211090087891e+00 -1.002248764038085938e+00 -6.460792422294616699e-01 1.200000000000000000e+01
3.854957580566405806e+00 -1.220643401145935059e+00 -6.404427289962768555e-01 1.000000000000000000e+01
3.561271667480468750e+01 -1.128333854675292969e+01 4.586918354034423828e+00 1.900000000000000000e+01
4.986147880554199219e+00 -1.580741524696350098e+00 -6.422514319419860840e-01 9.000000000000000000e+00
6.694422721862792969e+00 -2.123595952987670898e+00 -6.144480109214782715e-01 3.000000000000000000e+00
3.474541091918945312e+01 -1.102856826782226918e+01 7.085882663726806641e+00 6.100000000000000000e+01
1.086360454559325994e+01 -3.450312376022338867e+00 -5.973625779151916504e-01 3.000000000000000000e+00
3.873587417602539062e+01 -1.231006908416748047e+01 9.383607864379882812e+00 1.200000000000000000e+01
3.989662933349608664e+01 -1.268661880493164062e+01 1.121773529052734020e+01 1.000000000000000000e+01
2.331527709960937944e+00 -7.449822425842285156e-01 -6.558474898338317871e-01 2.000000000000000000e+01
2.696877717971802202e+00 -8.627585172653198242e-01 -6.537077426910400391e-01 1.400000000000000000e+01
3.161823749542235884e+00 -1.012107729911803977e+00 -6.453160047531127930e-01 1.200000000000000000e+01
3.856316804885863814e+00 -1.235900878906250000e+00 -6.413813233375549316e-01 1.100000000000000000e+01
4.991940498352050781e+00 -1.601775765419005904e+00 -6.437138915061950684e-01 9.000000000000000000e+00
6.696454048156738281e+00 -2.149996280670166016e+00 -6.153195500373840332e-01 2.000000000000000000e+00
1.077543640136718928e+01 -3.463763713836669922e+00 -5.931757092475891113e-01 3.000000000000000000e+00
2.334559202194213867e+00 -7.544920444488525391e-01 -6.574003696441650391e-01 1.900000000000000000e+01
2.688439607620238814e+00 -8.698971271514892578e-01 -6.523580551147460938e-01 1.500000000000000000e+01
3.171524763107299805e+00 -1.026820182800292969e+00 -6.479873657226562500e-01 1.200000000000000000e+01
3.846559762954711914e+00 -1.246854782104491965e+00 -6.404427289962768555e-01 1.100000000000000000e+01
4.975272655487061435e+00 -1.614644169807434082e+00 -6.422514319419860840e-01 9.000000000000000000e+00
6.681707859039306641e+00 -2.169729232788085938e+00 -6.146222949028015137e-01 2.000000000000000000e+00
1.079808044433593928e+01 -3.510592699050902876e+00 -5.950598120689392090e-01 3.000000000000000000e+00
4.071315002441406250e+01 -1.325207614898681996e+01 1.147241306304931996e+01 1.100000000000000000e+01
2.333747386932373047e+00 -7.632371187210083008e-01 -6.579180359840393066e-01 1.900000000000000000e+01
2.685386896133422852e+00 -8.792762160301208496e-01 -6.523580551147460938e-01 1.500000000000000000e+01
3.166055440902709961e+00 -1.037273406982422097e+00 -6.476057171821594238e-01 1.200000000000000000e+01
3.847815036773682085e+00 -1.262121200561522993e+00 -6.413813233375549316e-01 1.100000000000000000e+01
4.965834140777587891e+00 -1.630762577056884988e+00 -6.417639851570129395e-01 9.000000000000000000e+00
3.615198516845703125e+01 -1.187917613983153942e+01 6.027107238769531250e+00 1.300000000000000000e+01
6.711949825286865234e+00 -2.205478668212891069e+00 -6.181085109710693359e-01 2.000000000000000000e+00
1.081611633300781072e+01 -3.558249950408935991e+00 -5.967345833778381348e-01 3.000000000000000000e+00
2.329235076904296875e+00 -7.707718610763549805e-01 -6.574003696441650391e-01 1.900000000000000000e+01
2.693400382995605025e+00 -8.923217654228210449e-01 -6.550574898719787598e-01 1.500000000000000000e+01
3.164278745651245117e+00 -1.048936486244202104e+00 -6.479873657226562500e-01 1.200000000000000000e+01
3.847135543823242188e+00 -1.276789307594299094e+00 -6.420070528984069824e-01 1.000000000000000000e+01
3.874687576293945312e+01 -1.286684131622313920e+01 5.012973785400390625e+00 2.400000000000000000e+01
4.967646598815917969e+00 -1.650590419769287109e+00 -6.427389383316040039e-01 9.000000000000000000e+00
6.715554237365722656e+00 -2.232665777206420898e+00 -6.191543936729431152e-01 3.000000000000000000e+00
1.075814819335938033e+01 -3.580845355987548828e+00 -5.942224264144897461e-01 3.000000000000000000e+00
4.045469284057617188e+01 -1.348101520538330078e+01 1.142582511901854936e+01 1.100000000000000000e+01
2.317370653152465820e+00 -7.758311629295349121e-01 -6.548121571540832520e-01 2.000000000000000000e+01
2.692116975784302202e+00 -9.023373723030090332e-01 -6.555073857307434082e-01 1.400000000000000000e+01
3.164320945739746094e+00 -1.061223983764647993e+00 -6.487506031990051270e-01 1.400000000000000000e+01
3.842655181884766069e+00 -1.290210604667664018e+00 -6.420070528984069824e-01 1.100000000000000000e+01
4.973144531250000000e+00 -1.671715736389159934e+00 -6.442013382911682129e-01 1.100000000000000000e+01
6.671839714050292969e+00 -2.244025707244873047e+00 -6.158424615859985352e-01 5.000000000000000000e+00
1.084022521972656072e+01 -3.650245189666748047e+00 -5.994560718536376953e-01 3.000000000000000000e+00
4.016704177856445312e+01 -1.354892826080322088e+01 1.135853290557860973e+01 1.100000000000000000e+01
2.321967601776123047e+00 -7.863943576812744141e-01 -6.568827629089355469e-01 1.900000000000000000e+01
2.681568622589110884e+00 -9.092261195182800293e-01 -6.537077426910400391e-01 1.400000000000000000e+01
3.164315462112427202e+00 -1.073524475097656028e+00 -6.495138406753540039e-01 1.200000000000000000e+01
3.830646514892578125e+00 -1.301074862480164018e+00 -6.407555937767028809e-01 1.100000000000000000e+01
4.984193801879882812e+00 -1.694816708564758079e+00 -6.463949680328369141e-01 1.100000000000000000e+01
6.673396587371826172e+00 -2.270509958267211914e+00 -6.167140603065490723e-01 5.000000000000000000e+00
1.082741737365723012e+01 -3.688062429428101030e+00 -5.994560718536376953e-01 3.000000000000000000e+00
4.008897781372070312e+01 -1.367082881927490057e+01 1.134921550750732067e+01 1.100000000000000000e+01
2.322863578796387163e+00 -7.957469224929809570e-01 -6.579180359840393066e-01 2.000000000000000000e+01
2.678378343582152876e+00 -9.185809493064880371e-01 -6.537077426910400391e-01 1.100000000000000000e+01
4.034983062744141336e+01 -1.384631347656250000e+01 2.235687494277954102e+00 2.900000000000000000e+01
3.164263010025023970e+00 -1.085837960243225098e+00 -6.502770781517028809e-01 1.300000000000000000e+01
3.831686258316040039e+00 -1.316363930702209029e+00 -6.416941881179809570e-01 1.100000000000000000e+01
4.972615718841552734e+00 -1.710267543792725053e+00 -6.456637978553771973e-01 9.000000000000000000e+00
6.693689823150634766e+00 -2.303515672683715820e+00 -6.193287372589111328e-01 5.000000000000000000e+00
1.050101470947265980e+01 -3.617839336395264116e+00 -5.820804834365844727e-01 6.000000000000000000e+00
4.031610870361328125e+01 -1.389769363403319957e+01 9.845208168029785156e+00 1.300000000000000000e+01
4.010799789428710938e+01 -1.384161949157715021e+01 1.136888504028319957e+01 1.100000000000000000e+01
2.323863029479980025e+00 -8.047096729278564453e-01 -6.589533090591430664e-01 1.900000000000000000e+01
2.682682514190673828e+00 -9.300109744071960449e-01 -6.555073857307434082e-01 1.400000000000000000e+01
4.020934295654296875e+01 -1.394731616973876953e+01 2.230453729629517046e+00 2.900000000000000000e+01
3.156934976577758789e+00 -1.095038294792175071e+00 -6.495138406753540039e-01 1.200000000000000000e+01
3.834764003753662109e+00 -1.331655025482177956e+00 -6.429456472396850586e-01 1.100000000000000000e+01
4.955667018890380859e+00 -1.722836852073668990e+00 -6.442013382911682129e-01 9.000000000000000000e+00
6.699186801910400391e+00 -2.330281972885131836e+00 -6.205489039421081543e-01 5.000000000000000000e+00
1.047387027740479049e+01 -3.647387504577637163e+00 -5.812431573867797852e-01 6.000000000000000000e+00
4.038172149658203125e+01 -1.407821083068848012e+01 1.145895481109618963e+01 1.100000000000000000e+01
2.321039915084838867e+00 -8.128165602684020996e-01 -6.589533090591430664e-01 1.900000000000000000e+01
2.679419755935668945e+00 -9.393696188926696777e-01 -6.555073857307434082e-01 1.400000000000000000e+01
3.145683050155640093e+00 -1.103451967239380105e+00 -6.479873657226562500e-01 1.300000000000000000e+01
3.837547540664672852e+00 -1.347650766372681108e+00 -6.441971063613891602e-01 1.000000000000000000e+01
4.968349933624267578e+00 -1.746708750724792036e+00 -6.466387510299682617e-01 9.000000000000000000e+00
6.677855491638183594e+00 -2.349024295806885210e+00 -6.193287372589111328e-01 5.000000000000000000e+00
1.082654380798340021e+01 -3.812627792358397993e+00 -6.015495061874389648e-01 3.000000000000000000e+00
4.007353973388671875e+01 -1.411998271942139027e+01 9.809215545654296875e+00 1.300000000000000000e+01
4.010394287109375000e+01 -1.414643478393555043e+01 1.139476680755615057e+01 1.100000000000000000e+01
2.314403295516968218e+00 -8.200277686119079590e-01 -6.579180359840393066e-01 1.900000000000000000e+01
2.681468725204468218e+00 -9.511382579803466797e-01 -6.568570733070373535e-01 1.500000000000000000e+01
4.020262145996093750e+01 -1.426808929443359020e+01 2.235687494277954102e+00 2.900000000000000000e+01
3.147168159484862837e+00 -1.116943955421447976e+00 -6.491321921348571777e-01 1.200000000000000000e+01
3.838166475296020952e+00 -1.363691091537476030e+00 -6.451357603073120117e-01 1.000000000000000000e+01
4.984358310699462891e+00 -1.772889971733093040e+00 -6.495636105537414551e-01 9.000000000000000000e+00
6.680463314056395596e+00 -2.377492189407349077e+00 -6.203745603561401367e-01 5.000000000000000000e+00
1.086893939971924006e+01 -3.872392892837523970e+00 -6.046896576881408691e-01 3.000000000000000000e+00
4.052740859985352273e+01 -1.445507621765137074e+01 1.152935314178466975e+01 1.100000000000000000e+01
2.309708118438721147e+00 -8.274500370025634766e-01 -6.574003696441650391e-01 1.900000000000000000e+01
2.679966688156127930e+00 -9.611504077911376953e-01 -6.573069691658020020e-01 1.400000000000000000e+01
3.161729097366333008e+00 -1.134553790092468040e+00 -6.529483795166015625e-01 1.300000000000000000e+01
3.818510532379149947e+00 -1.371737718582153098e+00 -6.426327824592590332e-01 1.000000000000000000e+01
4.985611438751220703e+00 -1.792964935302733931e+00 -6.505385637283325195e-01 9.000000000000000000e+00
6.681497097015380859e+00 -2.404169797897338867e+00 -6.212461590766906738e-01 3.000000000000000000e+00
1.082904911041259943e+01 -3.900832653045653853e+00 -6.032242178916931152e-01 3.000000000000000000e+00
2.308621883392333984e+00 -8.361652493476867676e-01 -6.579180359840393066e-01 1.900000000000000000e+01
2.661939144134521040e+00 -9.651852250099182129e-01 -6.537077426910400391e-01 1.300000000000000000e+01
3.152212619781494141e+00 -1.143574714660644975e+00 -6.518035531044006348e-01 1.300000000000000000e+01
3.811842203140258789e+00 -1.384384155273437944e+00 -6.423199176788330078e-01 1.000000000000000000e+01
4.981187820434570312e+00 -1.811035275459289995e+00 -6.507822871208190918e-01 1.100000000000000000e+01
6.719872951507568359e+00 -2.444505691528319868e+00 -6.256039142608642578e-01 3.000000000000000000e+00
1.081911945343017933e+01 -3.939976215362548828e+00 -6.034335494041442871e-01 3.000000000000000000e+00
4.055812454223632812e+01 -1.477798557281493963e+01 9.965781211853027344e+00 1.300000000000000000e+01
4.086836624145507812e+01 -1.489910697937012074e+01 1.165565681457520064e+01 1.100000000000000000e+01
2.320201873779296875e+00 -8.495324850082397461e-01 -6.620591282844543457e-01 2.000000000000000000e+01
2.665872573852539062e+00 -9.771538972854614258e-01 -6.555073857307434082e-01 1.400000000000000000e+01
3.150044918060303178e+00 -1.155246973037719949e+00 -6.521851420402526855e-01 1.300000000000000000e+01
3.821821451187133789e+00 -1.403127908706665039e+00 -6.448228359222412109e-01 1.000000000000000000e+01
4.961793422698974609e+00 -1.823618292808532937e+00 -6.490761041641235352e-01 1.100000000000000000e+01
6.718779087066650391e+00 -2.470698118209838867e+00 -6.263011693954467773e-01 3.000000000000000000e+00
1.079030609130859020e+01 -3.972198247909545898e+00 -6.025962233543395996e-01 3.000000000000000000e+00
3.965048980712891336e+01 -1.460425567626952947e+01 9.755227088928222656e+00 1.300000000000000000e+01
4.089323806762695312e+01 -1.507820320129395064e+01 1.167843341827392933e+01 1.100000000000000000e+01
2.313748121261597124e+00 -8.558814525604248047e-01 -6.610238552093505859e-01 1.900000000000000000e+01
2.671754837036132812e+00 -9.893724918365478516e-01 -6.577568650245666504e-01 1.500000000000000000e+01
3.138832807540893999e+00 -1.162958264350890891e+00 -6.506586670875549316e-01 1.300000000000000000e+01
3.826407909393310991e+00 -1.419228553771973100e+00 -6.463872194290161133e-01 9.000000000000000000e+00
4.959440708160400391e+00 -1.841444134712219016e+00 -6.495636105537414551e-01 9.000000000000000000e+00
6.714284420013427734e+00 -2.494352579116820845e+00 -6.266497969627380371e-01 3.000000000000000000e+00
1.075273895263672053e+01 -3.998907804489136186e+00 -6.012354493141174316e-01 1.000000000000000000e+01
4.383291625976563211e+01 -1.631873512268066051e+01 1.253253555297851918e+01 1.300000000000000000e+01
2.303508520126343218e+00 -8.612465262413024902e-01 -6.589533090591430664e-01 1.900000000000000000e+01
2.675585269927978960e+00 -1.001425027847290039e+00 -6.595565080642700195e-01 1.500000000000000000e+01
3.134754180908203125e+00 -1.173907756805419922e+00 -6.506586670875549316e-01 1.200000000000000000e+01
3.825129985809326172e+00 -1.433963418006896973e+00 -6.470129489898681641e-01 9.000000000000000000e+00
4.971567630767822266e+00 -1.865719199180603027e+00 -6.520009636878967285e-01 9.000000000000000000e+00
6.696210384368895596e+00 -2.514272689819335938e+00 -6.257782578468322754e-01 3.000000000000000000e+00
1.070693206787109020e+01 -4.024471282958984375e+00 -5.994560718536376953e-01 1.000000000000000000e+01
4.287163925170897727e+01 -1.613147163391112926e+01 1.227371692657471058e+01 1.300000000000000000e+01
2.293108224868773970e+00 -8.669508099555969238e-01 -6.568827629089355469e-01 1.900000000000000000e+01
2.666429281234741211e+00 -1.009155511856079102e+00 -6.582067608833312988e-01 1.400000000000000000e+01
3.148790836334228960e+00 -1.192341685295104980e+00 -6.544748544692993164e-01 1.300000000000000000e+01
3.814307212829589844e+00 -1.445873022079467995e+00 -6.460743546485900879e-01 1.100000000000000000e+01
4.972120285034179688e+00 -1.886745452880858931e+00 -6.529759168624877930e-01 9.000000000000000000e+00
6.716752529144287109e+00 -2.550113677978516069e+00 -6.285672187805175781e-01 4.000000000000000000e+00
1.064543628692626953e+01 -4.045948028564453125e+00 -5.968392491340637207e-01 9.000000000000000000e+00
3.940430831909179688e+01 -1.498403358459473012e+01 9.732732772827148438e+00 1.300000000000000000e+01
2.304505109786986861e+00 -8.804658055305480957e-01 -6.610238552093505859e-01 2.000000000000000000e+01
2.655609846115111861e+00 -1.015672326087952104e+00 -6.564071774482727051e-01 1.400000000000000000e+01
3.142776012420653853e+00 -1.202624201774596946e+00 -6.540932655334472656e-01 1.300000000000000000e+01
3.805547475814818892e+00 -1.457765340805053933e+00 -6.454486250877380371e-01 1.000000000000000000e+01
4.954382896423339844e+00 -1.899825453758239968e+00 -6.515135169029235840e-01 9.000000000000000000e+00
6.704090118408203125e+00 -2.572116613388061968e+00 -6.282185912132263184e-01 3.000000000000000000e+00
1.037208557128906072e+01 -3.983547925949097124e+00 -5.822898745536804199e-01 3.000000000000000000e+00
4.382325363159179688e+01 -1.685728263854980113e+01 1.258119392395020064e+01 1.400000000000000000e+01
2.312386512756348100e+00 -8.922757506370544434e-01 -6.641296744346618652e-01 1.900000000000000000e+01
2.661316394805908203e+00 -1.027983903884887917e+00 -6.586567163467407227e-01 1.500000000000000000e+01
3.135108232498168945e+00 -1.211623907089232954e+00 -6.533300280570983887e-01 1.400000000000000000e+01
3.813588619232178178e+00 -1.475366234779357910e+00 -6.476386785507202148e-01 9.000000000000000000e+00
4.075896072387695312e+01 -1.577663135528563920e+01 5.366394519805908203e+00 3.300000000000000000e+01
4.948055744171142578e+00 -1.916244268417357954e+00 -6.515135169029235840e-01 9.000000000000000000e+00
6.706670284271240234e+00 -2.598653078079224077e+00 -6.292644739151000977e-01 4.000000000000000000e+00
1.019309234619140980e+01 -3.953639984130858931e+00 -5.729740262031555176e-01 9.000000000000000000e+00
4.030060577392578125e+01 -1.563966751098632990e+01 9.980178833007812500e+00 1.300000000000000000e+01
2.294858694076538086e+00 -8.947280645370483398e-01 -6.599885821342468262e-01 1.900000000000000000e+01
2.655896425247191939e+00 -1.036558866500854048e+00 -6.582067608833312988e-01 1.400000000000000000e+01
3.118058443069458008e+00 -1.217561364173888938e+00 -6.506586670875549316e-01 1.300000000000000000e+01
3.812095165252685991e+00 -1.490107417106627974e+00 -6.482644081115722656e-01 9.000000000000000000e+00
4.948730945587158203e+00 -1.936397910118103027e+00 -6.524884700775146484e-01 9.000000000000000000e+00
6.704979896545410156e+00 -2.624953269958496094e+00 -6.299617290496826172e-01 2.000000000000000000e+00
1.017922973632813033e+01 -3.989196538925170898e+00 -5.729740262031555176e-01 1.800000000000000000e+01
3.362001419067382812e+01 -1.318907833099365057e+01 -6.303809285163879395e-01 7.000000000000000000e+00
2.288126707077025923e+00 -9.013171195983886719e-01 -6.589533090591430664e-01 1.800000000000000000e+01
2.664952278137207031e+00 -1.050827264785767046e+00 -6.613560914993286133e-01 1.300000000000000000e+01
3.121094226837158203e+00 -1.231319904327393022e+00 -6.521851420402526855e-01 1.200000000000000000e+01
3.803195953369141069e+00 -1.501953840255737083e+00 -6.476386785507202148e-01 9.000000000000000000e+00
4.960402011871337891e+00 -1.960958361625670943e+00 -6.549258232116699219e-01 9.000000000000000000e+00
6.690217971801757812e+00 -2.646143674850463867e+00 -6.294387578964233398e-01 3.000000000000000000e+00
1.016895675659180043e+01 -4.026175022125244141e+00 -5.731834173202514648e-01 2.100000000000000000e+01
4.394079589843750000e+01 -1.740626525878905895e+01 1.091147613525390980e+01 1.300000000000000000e+01
3.360351181030272727e+01 -1.331814289093017933e+01 -6.309394240379333496e-01 7.000000000000000000e+00
2.292146444320679155e+00 -9.121558666229248047e-01 -6.610238552093505859e-01 1.800000000000000000e+01
2.648595094680786133e+00 -1.055075168609618919e+00 -6.582067608833312988e-01 1.400000000000000000e+01
3.124072074890137163e+00 -1.245114564895630105e+00 -6.537116169929504395e-01 1.200000000000000000e+01
3.794260263442993164e+00 -1.513756394386291948e+00 -6.470129489898681641e-01 9.000000000000000000e+00
4.022278594970703125e+01 -1.605540275573730113e+01 5.317646980285645419e+00 3.200000000000000000e+01
4.960901260375976562e+00 -1.981206417083740012e+00 -6.559008359909057617e-01 9.000000000000000000e+00
6.708692550659179688e+00 -2.680569648742675781e+00 -6.320534348487854004e-01 3.000000000000000000e+00
1.016782188415526988e+01 -4.066838741302490234e+00 -5.739160776138305664e-01 1.500000000000000000e+01
3.364963912963867188e+01 -1.347252273559569957e+01 -6.326846480369567871e-01 7.000000000000000000e+00
2.287156105041503906e+00 -9.194307923316955566e-01 -6.605061888694763184e-01 1.900000000000000000e+01
2.637664794921875000e+00 -1.061404109001159890e+00 -6.564071774482727051e-01 1.400000000000000000e+01
3.114243268966674805e+00 -1.253812313079833984e+00 -6.525667905807495117e-01 1.200000000000000000e+01
3.785288810729980025e+00 -1.525514841079711914e+00 -6.463872194290161133e-01 9.000000000000000000e+00
4.016650009155272727e+01 -1.619570922851562855e+01 5.317646980285645419e+00 3.200000000000000000e+01
4.931863784790039062e+00 -1.989599108695984109e+00 -6.529759168624877930e-01 9.000000000000000000e+00
4.059911346435546875e+01 -1.637838363647460938e+01 6.933801174163818359e+00 1.500000000000000000e+01
6.691904544830322266e+00 -2.700988054275513139e+00 -6.313561797142028809e-01 2.000000000000000000e+00
4.229941940307617188e+01 -1.708148765563964844e+01 8.867275238037109375e+00 6.300000000000000000e+01
1.027208042144775035e+01 -4.150189876556395596e+00 -5.806151032447814941e-01 6.000000000000000000e+00
4.411089706420897727e+01 -1.783091545104980113e+01 1.098435974121093928e+01 1.400000000000000000e+01
3.368397521972656250e+01 -1.362288856506348012e+01 -6.342204213142395020e-01 1.500000000000000000e+01
2.296462059020996094e+00 -9.324965476989746094e-01 -6.641296744346618652e-01 1.700000000000000000e+01
2.641164779663085938e+00 -1.073539972305298074e+00 -6.582067608833312988e-01 1.400000000000000000e+01
3.109847784042357954e+00 -1.264675378799438032e+00 -6.525667905807495117e-01 1.200000000000000000e+01
3.794577598571776900e+00 -1.544676899909972922e+00 -6.488901376724243164e-01 9.000000000000000000e+00
4.935918807983398438e+00 -2.011296987533568892e+00 -6.544383764266967773e-01 9.000000000000000000e+00
6.697195529937744141e+00 -2.730348110198975053e+00 -6.327506899833679199e-01 3.000000000000000000e+00
1.038882446289063033e+01 -4.239600658416748047e+00 -5.880467891693115234e-01 9.000000000000000000e+00
3.368064880371093750e+01 -1.375853443145751953e+01 -6.350581645965576172e-01 1.500000000000000000e+01
2.287830829620360884e+00 -9.383078217506408691e-01 -6.625767350196838379e-01 1.600000000000000000e+01
2.639204263687133789e+00 -1.083492875099181907e+00 -6.586567163467407227e-01 1.300000000000000000e+01
3.101782083511352983e+00 -1.274031281471251997e+00 -6.518035531044006348e-01 1.100000000000000000e+01
3.796470403671265093e+00 -1.560917735099792036e+00 -6.501416563987731934e-01 9.000000000000000000e+00
4.936210632324218750e+00 -2.031536340713500977e+00 -6.554133296012878418e-01 9.000000000000000000e+00
6.676569938659667969e+00 -2.749157428741455078e+00 -6.317048072814941406e-01 3.000000000000000000e+00
1.032410526275634943e+01 -4.255289077758789062e+00 -5.852206349372863770e-01 9.000000000000000000e+00
