-3.212738752365111861e+00 8.156012535095214844e+00 -4.594050347805023193e-01 1.000000000000000000e+00
-6.054171085357666016e+00 1.538515567779541016e+01 -2.885929942131041925e-01 2.000000000000000000e+00
-8.324725031852722168e-01 2.124219417572021040e+00 -6.113305687904357910e-01 2.000000000000000000e+01
-9.491166472434997559e-01 2.424350976943970171e+00 -6.010692119598388672e-01 1.000000000000000000e+01
-1.107421755790710005e+00 2.830168485641479048e+00 -5.907446742057800293e-01 9.000000000000000000e+00
-1.330453038215636985e+00 3.403656244277954102e+00 -5.788075327873229980e-01 9.000000000000000000e+00
-1.657117366790771040e+00 4.243719577789306641e+00 -5.593802928924560547e-01 1.000000000000000000e+01
-2.170984268188477007e+00 5.562548637390136719e+00 -5.224115252494812012e-01 1.300000000000000000e+01
-3.179896354675292969e+00 8.156012535095214844e+00 -4.587769806385039728e-01 3.000000000000000000e+00
-6.000430107116699219e+00 1.540619468688965021e+01 -2.885929942131041925e-01 2.000000000000000000e+00
-8.243539333343505859e-01 2.125311374664307085e+00 -6.108129620552062988e-01 1.900000000000000000e+01
-9.420564770698547363e-01 2.431283473968505859e+00 -6.019690036773681641e-01 1.100000000000000000e+01
-1.098953962326050027e+00 2.837678432464600053e+00 -5.915079116821289062e-01 1.100000000000000000e+01
-1.324265837669373003e+00 3.423018217086791992e+00 -5.813104510307312012e-01 9.000000000000000000e+00
-1.646587491035460982e+00 4.260587692260742188e+00 -5.608426928520202637e-01 1.000000000000000000e+01
-2.148682594299315962e+00 5.562658786773681641e+00 -5.217142701148986816e-01 1.100000000000000000e+01
-3.152845144271851030e+00 8.170789718627929688e+00 -4.589863419532775879e-01 1.000000000000000000e+00
-5.927916049957275391e+00 1.537853431701659979e+01 -2.876854538917542059e-01 2.000000000000000000e+00
-8.141609430313110352e-01 2.120961666107178178e+00 -6.087424159049987793e-01 1.900000000000000000e+01
-9.363548755645751953e-01 2.441835165023804155e+00 -6.037686467170715332e-01 1.300000000000000000e+01
-1.089041829109191895e+00 2.841497182846068892e+00 -5.915079116821289062e-01 1.200000000000000000e+01
-1.308071494102478027e+00 3.416551113128662109e+00 -5.794332623481750488e-01 9.000000000000000000e+00
-1.633123517036437988e+00 4.270017623901367188e+00 -5.613301992416381836e-01 1.000000000000000000e+01
-2.122138023376464844e+00 5.551514625549316406e+00 -5.199711322784423828e-01 1.100000000000000000e+01
-3.131429672241210938e+00 8.200403213500976562e+00 -4.600330591201782227e-01 1.000000000000000000e+00
-5.844264507293701172e+00 1.532066059112549006e+01 -2.862194776535034180e-01 2.000000000000000000e+00
-8.081244826316833496e-01 2.127402544021606001e+00 -6.097776889801025391e-01 1.900000000000000000e+01
-9.271342158317565918e-01 2.443266868591309038e+00 -6.033187508583068848e-01 1.300000000000000000e+01
-1.081901431083678977e+00 2.852623939514160156e+00 -5.930343866348266602e-01 1.100000000000000000e+01
-1.291938304901123047e+00 3.410012960433959961e+00 -5.775560736656188965e-01 9.000000000000000000e+00
-1.618208408355712891e+00 4.275692462921142578e+00 -5.613301992416381836e-01 1.000000000000000000e+01
-2.106976270675659180e+00 5.570069789886474609e+00 -5.210170149803161621e-01 1.100000000000000000e+01
-3.090078115463256836e+00 8.177654266357421875e+00 -4.581489562988281250e-01 1.000000000000000000e+00
-5.793574810028076172e+00 1.534845161437987926e+01 -2.863590717315673828e-01 2.000000000000000000e+00
-8.040920495986938477e-01 2.139252185821533203e+00 -6.123658418655395508e-01 2.000000000000000000e+01
-9.131198525428771973e-01 2.431893110275268999e+00 -5.997195243835449219e-01 1.300000000000000000e+01
-1.066418886184691939e+00 2.841678380966186968e+00 -5.899814367294311523e-01 1.000000000000000000e+01
-1.282800912857056108e+00 3.421900510787963867e+00 -5.788075327873229980e-01 9.000000000000000000e+00
-1.599096655845642090e+00 4.270160675048828125e+00 -5.598677396774291992e-01 1.000000000000000000e+01
-2.086123466491699219e+00 5.573658466339111328e+00 -5.206683874130249023e-01 1.100000000000000000e+01
-3.069907426834106001e+00 8.210840225219726562e+00 -4.594050347805023193e-01 1.000000000000000000e+00
-5.734365940093994141e+00 1.535359477996825994e+01 -2.860798537731171209e-01 2.000000000000000000e+00
-7.959463596343994141e-01 2.140235185623168945e+00 -6.118482351303100586e-01 2.100000000000000000e+01
-9.066613316535949707e-01 2.440546035766602007e+00 -6.010692119598388672e-01 1.300000000000000000e+01
-1.059226632118225098e+00 2.852745532989501953e+00 -5.915079116821289062e-01 1.100000000000000000e+01
-1.271535396575927956e+00 3.428209543228148970e+00 -5.791203975677490234e-01 1.000000000000000000e+01
-1.582801938056946023e+00 4.271994113922119141e+00 -5.593802928924560547e-01 1.000000000000000000e+01
-2.068730592727661133e+00 5.586511611938476562e+00 -5.211913585662841797e-01 9.000000000000000000e+00
-3.032912492752075195e+00 8.199028015136718750e+00 -4.581489562988281250e-01 1.000000000000000000e+00
-5.661329746246337891e+00 1.532099723815917969e+01 -2.851025164127349854e-01 2.000000000000000000e+00
-7.885510325431823730e-01 2.140912532806396040e+00 -6.113305687904357910e-01 2.000000000000000000e+01
-9.003354310989379883e-01 2.447040081024169922e+00 -6.019690036773681641e-01 1.100000000000000000e+01
-1.046871304512023926e+00 2.846846103668212891e+00 -5.895997881889343262e-01 1.000000000000000000e+01
-1.262802481651305930e+00 3.437750101089477983e+00 -5.800589919090270996e-01 9.000000000000000000e+00
-1.570740938186645952e+00 4.280672550201416016e+00 -5.598677396774291992e-01 1.000000000000000000e+01
-2.045681715011597124e+00 5.578018665313720703e+00 -5.197968482971191406e-01 9.000000000000000000e+00
-3.004391431808472124e+00 8.201013565063476562e+00 -4.577302634716033936e-01 1.000000000000000000e+00
-5.613169670104979581e+00 1.533870697021484020e+01 -2.851025164127349854e-01 2.000000000000000000e+00
-7.757821083068847656e-01 2.129131078720093218e+00 -6.071894764900207520e-01 1.900000000000000000e+01
-8.911216855049133301e-01 2.448336839675902876e+00 -6.015191078186035156e-01 1.300000000000000000e+01
-1.036256432533263938e+00 2.848638057708739790e+00 -5.892181992530822754e-01 1.100000000000000000e+01
-1.248096227645874023e+00 3.434710741043090820e+00 -5.788075327873229980e-01 1.000000000000000000e+01
-1.553757071495055930e+00 4.280531406402587891e+00 -5.591365694999694824e-01 1.000000000000000000e+01
-2.023480415344237837e+00 5.577633857727050781e+00 -5.190995931625366211e-01 9.000000000000000000e+00
-2.978468179702758789e+00 8.218962669372558594e+00 -4.581489562988281250e-01 1.000000000000000000e+00
-5.559593677520751953e+00 1.535820770263672053e+01 -2.851025164127349854e-01 2.000000000000000000e+00
-7.716204524040222168e-01 2.140913248062133789e+00 -6.097776889801025391e-01 2.100000000000000000e+01
-8.832300901412963867e-01 2.453265905380249023e+00 -6.019690036773681641e-01 1.400000000000000000e+01
-1.028965353965759055e+00 2.859627008438109907e+00 -5.907446742057800293e-01 1.100000000000000000e+01
-1.233426570892333984e+00 3.431610584259033203e+00 -5.775560736656188965e-01 1.100000000000000000e+01
-1.545513749122620073e+00 4.304612159729003906e+00 -5.615739226341247559e-01 8.000000000000000000e+00
-1.999288082122802956e+00 5.571536064147949219e+00 -5.178794264793395996e-01 9.000000000000000000e+00
-2.940325498580933061e+00 8.202987670898437500e+00 -4.566835463047028143e-01 1.000000000000000000e+00
-5.505949497222900391e+00 1.537752056121825994e+01 -2.851025164127349854e-01 2.000000000000000000e+00
-7.647912502288818359e-01 2.145413160324097124e+00 -6.102952957153320312e-01 1.900000000000000000e+01
-8.727000951766967773e-01 2.450826644897460938e+00 -6.006193161010742188e-01 1.200000000000000000e+01
-1.022926688194274902e+00 2.874299049377440962e+00 -5.930343866348266602e-01 1.100000000000000000e+01
-1.222763895988463911e+00 3.439617872238159180e+00 -5.781818032264709473e-01 1.100000000000000000e+01
-1.528485536575316939e+00 4.304368972778320312e+00 -5.608426928520202637e-01 1.000000000000000000e+01
-1.987824201583862083e+00 5.601012706756591797e+00 -5.199711322784423828e-01 9.000000000000000000e+00
-2.913008689880371094e+00 8.216965675354003906e+00 -4.568929076194763184e-01 1.000000000000000000e+00
-5.434883117675781250e+00 1.534763622283936080e+01 -2.841949760913848877e-01 2.000000000000000000e+00
-7.582067847251892090e-01 2.151845932006835938e+00 -6.113305687904357910e-01 2.000000000000000000e+01
-8.630645275115966797e-01 2.452170610427856001e+00 -6.001694202423095703e-01 1.300000000000000000e+01
-1.012384891510009988e+00 2.878029108047484907e+00 -5.930343866348266602e-01 1.100000000000000000e+01
-1.211458444595336914e+00 3.447803735733031782e+00 -5.788075327873229980e-01 9.000000000000000000e+00
-1.506782293319701926e+00 4.293084621429443359e+00 -5.586490631103515625e-01 8.000000000000000000e+00
-1.966622591018676980e+00 5.606380462646484375e+00 -5.197968482971191406e-01 9.000000000000000000e+00
-2.882872343063354048e+00 8.227587699890136719e+00 -4.568929076194763184e-01 1.000000000000000000e+00
-5.362740039825438565e+00 1.532215499877930043e+01 -2.833572626113892157e-01 2.000000000000000000e+00
-7.481482625007629395e-01 2.147182464599608931e+00 -6.092600226402282715e-01 2.000000000000000000e+01
-8.544995784759521484e-01 2.455168247222899947e+00 -6.001694202423095703e-01 1.200000000000000000e+01
-9.965275526046752930e-01 2.864856958389281782e+00 -5.895997881889343262e-01 1.000000000000000000e+01
-1.202009320259094016e+00 3.459475278854370117e+00 -5.800589919090270996e-01 9.000000000000000000e+00
-1.491787433624268022e+00 4.298317909240722656e+00 -5.586490631103515625e-01 1.000000000000000000e+01
-1.947040677070617898e+00 5.613211154937744141e+00 -5.197968482971191406e-01 9.000000000000000000e+00
-2.850211858749390093e+00 8.226277351379394531e+00 -4.562648534774780273e-01 1.000000000000000000e+00
-5.317071437835693359e+00 1.536345767974854049e+01 -2.837761342525482178e-01 2.000000000000000000e+00
-7.403942346572875977e-01 2.147825241088867188e+00 -6.087424159049987793e-01 2.100000000000000000e+01
-8.488910794258117676e-01 2.465358734130858931e+00 -6.019690036773681641e-01 1.400000000000000000e+01
-9.876607060432434082e-01 2.870002031326293945e+00 -5.899814367294311523e-01 1.100000000000000000e+01
-1.189246416091918945e+00 3.459706068038939986e+00 -5.794332623481750488e-01 9.000000000000000000e+00
-1.478170156478882058e+00 4.305118560791015625e+00 -5.588927865028381348e-01 1.000000000000000000e+01
-1.922595739364624023e+00 5.602676391601563388e+00 -5.182280540466308594e-01 9.000000000000000000e+00
-2.825507402420043945e+00 8.243241310119628906e+00 -4.566835463047028143e-01 1.000000000000000000e+00
-5.242776393890380859e+00 1.531289672851563033e+01 -2.825195491313933771e-01 2.000000000000000000e+00
-7.322692275047302246e-01 2.148567914962768999e+00 -6.082247495651245117e-01 1.900000000000000000e+01
-8.396521806716918945e-01 2.466462135314940962e+00 -6.015191078186035156e-01 1.500000000000000000e+01
-9.820630550384521484e-01 2.886442661285399947e+00 -5.926527380943298340e-01 1.100000000000000000e+01
-1.173348903656006081e+00 3.452614307403564009e+00 -5.775560736656188965e-01 9.000000000000000000e+00
-1.465685844421386941e+00 4.317771434783936435e+00 -5.598677396774291992e-01 1.000000000000000000e+01
-1.901746869087219016e+00 5.605579853057861328e+00 -5.178794264793395996e-01 8.000000000000000000e+00
-2.796715974807738814e+00 8.253053665161132812e+00 -4.566835463047028143e-01 1.000000000000000000e+00
-5.193139553070068359e+00 1.534246921539306996e+01 -2.827289700508118231e-01 2.000000000000000000e+00
-7.272321581840515137e-01 2.158433914184569868e+00 -6.102952957153320312e-01 1.900000000000000000e+01
-8.260649442672729492e-01 2.454602241516112837e+00 -5.979198813438415527e-01 1.500000000000000000e+01
-9.688521623611450195e-01 2.880548954010010210e+00 -5.907446742057800293e-01 1.100000000000000000e+01
-1.161289811134337935e+00 3.456689119338988814e+00 -5.775560736656188965e-01 9.000000000000000000e+00
-1.446184396743773970e+00 4.309687614440917969e+00 -5.581616163253784180e-01 8.000000000000000000e+00
-1.892304420471190962e+00 5.642407894134520596e+00 -5.206683874130249023e-01 9.000000000000000000e+00
-2.760277509689331055e+00 8.240039825439453125e+00 -4.554274976253510077e-01 1.000000000000000000e+00
-5.131938457489013672e+00 1.533774662017822088e+01 -2.823101282119750977e-01 2.000000000000000000e+00
-7.196933627128601074e-01 2.160959243774414062e+00 -6.102952957153320312e-01 1.800000000000000000e+01
-8.181068897247314453e-01 2.459320068359375000e+00 -5.983697772026062012e-01 1.500000000000000000e+01
-9.587912559509277344e-01 2.883913278579711914e+00 -5.907446742057800293e-01 1.100000000000000000e+01
-1.149216651916503906e+00 3.460721731185913086e+00 -5.775560736656188965e-01 9.000000000000000000e+00
-1.431131958961487038e+00 4.314709186553955078e+00 -5.581616163253784180e-01 1.000000000000000000e+01
-1.871343374252318892e+00 5.645196437835693359e+00 -5.203197598457336426e-01 9.000000000000000000e+00
-2.728986501693726030e+00 8.242040634155273438e+00 -4.550088047981262207e-01 1.000000000000000000e+00
-5.082135677337645596e+00 1.536695861816406072e+01 -2.825195491313933771e-01 2.000000000000000000e+00
-7.097297310829162598e-01 2.156118392944335938e+00 -6.082247495651245117e-01 1.800000000000000000e+01
-8.101258873939514160e-01 2.464011907577515093e+00 -5.988197326660156250e-01 1.400000000000000000e+01
-9.450414776802062988e-01 2.876051664352416992e+00 -5.884549617767333984e-01 1.100000000000000000e+01
-1.138361454010009988e+00 3.468465805053710938e+00 -5.781818032264709473e-01 9.000000000000000000e+00
-1.414207100868225098e+00 4.314019680023193359e+00 -5.574303865432739258e-01 1.000000000000000000e+01
-1.849145293235779031e+00 5.644120693206787109e+00 -5.196225643157958984e-01 9.000000000000000000e+00
-2.692745685577393022e+00 8.228737831115722656e+00 -4.537527263164520264e-01 1.000000000000000000e+00
-5.012311458587645596e+00 1.533518600463867010e+01 -2.816120386123657227e-01 2.000000000000000000e+00
-6.992110610008239746e-01 2.149397134780883789e+00 -6.056365370750427246e-01 1.600000000000000000e+01
-8.039287328720092773e-01 2.474238157272338867e+00 -6.006193161010742188e-01 1.200000000000000000e+01
-9.349964261054992676e-01 2.879333019256591797e+00 -5.884549617767333984e-01 1.200000000000000000e+01
-1.127466201782227007e+00 3.476176261901855025e+00 -5.788075327873229980e-01 9.000000000000000000e+00
-1.400363206863403098e+00 4.322706699371337891e+00 -5.579178333282470703e-01 1.000000000000000000e+01
-1.822681665420532005e+00 5.629690170288085938e+00 -5.177050828933715820e-01 8.000000000000000000e+00
-2.678754568099976030e+00 8.283696174621582031e+00 -4.562648534774780273e-01 1.000000000000000000e+00
-4.946458816528320312e+00 1.531453037261963068e+01 -2.809139192104340155e-01 2.000000000000000000e+00
-6.936919689178466797e-01 2.159302473068236861e+00 -6.077071428298950195e-01 1.900000000000000000e+01
-7.948548197746276855e-01 2.477168083190917969e+00 -6.006193161010742188e-01 1.100000000000000000e+01
-9.262353777885437012e-01 2.888349056243896040e+00 -5.895997881889343262e-01 1.200000000000000000e+01
-1.108692288398742898e+00 3.461472988128662109e+00 -5.756788253784179688e-01 9.000000000000000000e+00
-1.389349222183227983e+00 4.342936038970947266e+00 -5.598677396774291992e-01 1.000000000000000000e+01
-1.798395156860352007e+00 5.624946594238281250e+00 -5.166592597961425781e-01 8.000000000000000000e+00
-2.633793592453002930e+00 8.247796058654785156e+00 -4.537527263164520264e-01 1.000000000000000000e+00
-4.887864112854003906e+00 1.532493686676025035e+01 -2.807743251323699951e-01 2.000000000000000000e+00
-6.873192787170410156e-01 2.165393590927124023e+00 -6.087424159049987793e-01 1.600000000000000000e+01
-7.832584381103515625e-01 2.470639467239379883e+00 -5.983697772026062012e-01 1.300000000000000000e+01
-9.173334836959838867e-01 2.895307779312133789e+00 -5.903630256652832031e-01 1.100000000000000000e+01
-1.096602797508239968e+00 3.465322017669678178e+00 -5.756788253784179688e-01 9.000000000000000000e+00
-1.371788024902343972e+00 4.340188026428222656e+00 -5.588927865028381348e-01 1.000000000000000000e+01
-1.782350182533263938e+00 5.642589092254638672e+00 -5.177050828933715820e-01 9.000000000000000000e+00
-2.600180149078369141e+00 8.241702079772949219e+00 -4.529153704643250067e-01 1.000000000000000000e+00
-4.848764419555664062e+00 1.538767910003661932e+01 -2.816120386123657227e-01 2.000000000000000000e+00
-6.809124946594238281e-01 2.171466112136840820e+00 -6.097776889801025391e-01 1.900000000000000000e+01
-7.763768434524536133e-01 2.478937625885010210e+00 -5.997195243835449219e-01 1.000000000000000000e+01
-9.048756361007690430e-01 2.890997648239136186e+00 -5.888365507125854492e-01 1.100000000000000000e+01
-1.085678696632385032e+00 3.472899436950684038e+00 -5.763045549392700195e-01 9.000000000000000000e+00
-1.354263067245482954e+00 4.337370395660400391e+00 -5.579178333282470703e-01 1.000000000000000000e+01
-1.767390847206115945e+00 5.663991451263427734e+00 -5.190995931625366211e-01 8.000000000000000000e+00
-2.576149463653564009e+00 8.265982627868652344e+00 -4.537527263164520264e-01 1.000000000000000000e+00
-4.779569149017333984e+00 1.535486793518066051e+01 -2.807044982910156250e-01 2.000000000000000000e+00
-6.710421442985534668e-01 2.166448354721068892e+00 -6.077071428298950195e-01 1.900000000000000000e+01
-7.682949304580688477e-01 2.483494281768798828e+00 -6.001694202423095703e-01 1.200000000000000000e+01
-8.924590349197387695e-01 2.886636018753052202e+00 -5.873100757598876953e-01 1.100000000000000000e+01
-1.078211903572082964e+00 3.491767644882202148e+00 -5.788075327873229980e-01 1.000000000000000000e+01
-1.335604429244994895e+00 4.330689907073974609e+00 -5.564554333686828613e-01 1.000000000000000000e+01
-1.748782753944396973e+00 5.673934459686279297e+00 -5.194482207298278809e-01 9.000000000000000000e+00
-2.546104907989501953e+00 8.271106719970703125e+00 -4.535433948040009100e-01 1.000000000000000000e+00
-4.711837768554688388e+00 1.532558536529541016e+01 -2.798667848110198975e-01 2.000000000000000000e+00
-6.636669635772705078e-01 2.166698694229125977e+00 -6.071894764900207520e-01 1.800000000000000000e+01
-7.610591053962707520e-01 2.487759113311768022e+00 -6.006193161010742188e-01 1.200000000000000000e+01
-8.833860158920288086e-01 2.889425516128540039e+00 -5.873100757598876953e-01 1.100000000000000000e+01
-1.062621831893920898e+00 3.480023622512816939e+00 -5.763045549392700195e-01 9.000000000000000000e+00
-1.325466871261596902e+00 4.346256732940673828e+00 -5.579178333282470703e-01 1.000000000000000000e+01
-1.721074342727660911e+00 5.647001266479492188e+00 -5.164849162101745605e-01 8.000000000000000000e+00
-2.516618251800537109e+00 8.267600059509277344e+00 -4.529153704643250067e-01 1.000000000000000000e+00
-4.657851219177246094e+00 1.532117938995360973e+01 -2.795177400112152100e-01 2.000000000000000000e+00
-6.583370566368103027e-01 2.176398515701293945e+00 -6.092600226402282715e-01 1.900000000000000000e+01
-7.523705363273620605e-01 2.490400552749633789e+00 -6.006193161010742188e-01 1.000000000000000000e+01
-8.727272152900695801e-01 2.890612125396728960e+00 -5.869284868240356445e-01 1.100000000000000000e+01
-1.049327254295348899e+00 3.479928970336914062e+00 -5.756788253784179688e-01 9.000000000000000000e+00
-1.310287594795227051e+00 4.350857257843017578e+00 -5.579178333282470703e-01 1.000000000000000000e+01
-1.706519961357116921e+00 5.670145034790039062e+00 -5.180537104606628418e-01 8.000000000000000000e+00
-2.484293937683105025e+00 8.264858245849609375e+00 -4.522873461246489923e-01 1.000000000000000000e+00
-4.593992710113525391e+00 1.530287075042724965e+01 -2.788894474506378174e-01 2.000000000000000000e+00
-6.503557562828063965e-01 2.178796768188477007e+00 -6.092600226402282715e-01 1.800000000000000000e+01
-7.398973703384399414e-01 2.481936216354370117e+00 -5.979198813438415527e-01 1.200000000000000000e+01
-8.671717047691345215e-01 2.910725116729735884e+00 -5.903630256652832031e-01 1.100000000000000000e+01
-1.034312129020690918e+00 3.476178407669066939e+00 -5.744273662567138672e-01 9.000000000000000000e+00
-1.289808392524719016e+00 4.340407371520996094e+00 -5.559679269790649414e-01 1.000000000000000000e+01
-1.689129590988158958e+00 5.687821388244628906e+00 -5.190995931625366211e-01 8.000000000000000000e+00
-2.452849388122559038e+00 8.270078659057617188e+00 -4.520779848098754883e-01 1.000000000000000000e+00
-4.540145874023438388e+00 1.532727527618408025e+01 -2.790290713310242254e-01 2.000000000000000000e+00
-6.427463889122009277e-01 2.181053638458251953e+00 -6.092600226402282715e-01 1.800000000000000000e+01
-7.312292456626892090e-01 2.484503984451293945e+00 -5.979198813438415527e-01 1.300000000000000000e+01
-8.547901511192321777e-01 2.906200408935546875e+00 -5.888365507125854492e-01 1.100000000000000000e+01
-1.023285269737244096e+00 3.483558177947998047e+00 -5.750530958175659180e-01 9.000000000000000000e+00
-1.271296858787537065e+00 4.333454608917236328e+00 -5.545055270195007324e-01 1.000000000000000000e+01
-1.667022943496704102e+00 5.686035156250000000e+00 -5.184023380279541016e-01 6.000000000000000000e+00
-2.422843933105469194e+00 8.274756431579589844e+00 -4.518686532974243164e-01 1.000000000000000000e+00
-4.473145961761474609e+00 1.529696655273438033e+01 -2.781913578510283869e-01 2.000000000000000000e+00
-6.356687545776367188e-01 2.185138940811156782e+00 -6.097776889801025391e-01 1.600000000000000000e+01
-7.269017100334167480e-01 2.502012014389038086e+00 -6.015191078186035156e-01 1.100000000000000000e+01
-8.402612209320068359e-01 2.894083499908446822e+00 -5.857836008071899414e-01 1.100000000000000000e+01
-1.013319611549376997e+00 3.494697809219359907e+00 -5.763045549392700195e-01 9.000000000000000000e+00
-1.254505991935729980e+00 4.332145690917968750e+00 -5.537742972373962402e-01 1.100000000000000000e+01
-1.644395589828490989e+00 5.682250499725341797e+00 -5.175307989120483398e-01 9.000000000000000000e+00
-2.391726732254027876e+00 8.275488853454589844e+00 -4.514499604701995850e-01 1.000000000000000000e+00
-4.419722557067871094e+00 1.531248760223389027e+01 -2.781913578510283869e-01 2.000000000000000000e+00
-6.253716349601745605e-01 2.178060531616210938e+00 -6.071894764900207520e-01 1.700000000000000000e+01
-7.138664722442626953e-01 2.489548206329346147e+00 -5.979198813438415527e-01 1.100000000000000000e+01
-8.290722370147705078e-01 2.893224239349364790e+00 -5.850203633308410645e-01 1.200000000000000000e+01
-9.989406466484069824e-01 3.490617036819458008e+00 -5.750530958175659180e-01 9.000000000000000000e+00
-1.244285941123961958e+00 4.353676319122313565e+00 -5.559679269790649414e-01 1.100000000000000000e+01
-1.619626283645630105e+00 5.670713901519775391e+00 -5.159620046615600586e-01 8.000000000000000000e+00
-2.357347011566162109e+00 8.264580726623535156e+00 -4.504032433032990057e-01 1.000000000000000000e+00
-4.355288028717041016e+00 1.528935813903808949e+01 -2.774932682514191229e-01 2.000000000000000000e+00
-6.164168119430541992e-01 2.172580242156981978e+00 -6.051189303398132324e-01 1.700000000000000000e+01
-7.092293500900268555e-01 2.503028154373168945e+00 -6.006193161010742188e-01 1.000000000000000000e+01
-8.231881260871887207e-01 2.907148361206055132e+00 -5.873100757598876953e-01 1.100000000000000000e+01
-9.858195781707763672e-01 3.486134767532349077e+00 -5.738016366958618164e-01 9.000000000000000000e+00
-1.229523301124572976e+00 4.353743076324462891e+00 -5.554804801940917969e-01 1.000000000000000000e+01
-1.606132507324218972e+00 5.691113948822020596e+00 -5.173565149307250977e-01 6.000000000000000000e+00
-2.329204082489014116e+00 8.264255523681640625e+00 -4.499845504760742188e-01 1.000000000000000000e+00
-4.307233810424804688e+00 1.530296516418457031e+01 -2.774932682514191229e-01 2.000000000000000000e+00
-6.119542121887207031e-01 2.185880661010742188e+00 -6.082247495651245117e-01 1.700000000000000000e+01
-6.962901353836059570e-01 2.490474462509154829e+00 -5.970200896263122559e-01 1.300000000000000000e+01
-8.167333006858825684e-01 2.923240184783935991e+00 -5.899814367294311523e-01 1.200000000000000000e+01
-9.704593420028686523e-01 3.478138446807860884e+00 -5.719243884086608887e-01 9.000000000000000000e+00
-1.210588574409485085e+00 4.344622611999511719e+00 -5.537742972373962402e-01 1.100000000000000000e+01
-1.583050251007080078e+00 5.685169219970703125e+00 -5.163106322288513184e-01 8.000000000000000000e+00
-2.294991493225098100e+00 8.253093719482421875e+00 -4.489378333091735840e-01 1.000000000000000000e+00
-4.249509811401367188e+00 1.530249214172362926e+01 -2.772140204906464178e-01 2.000000000000000000e+00
-6.070223450660705566e-01 2.199282407760620117e+00 -6.113305687904357910e-01 1.600000000000000000e+01
-6.881930828094482422e-01 2.496767044067382812e+00 -5.979198813438415527e-01 1.100000000000000000e+01
-8.018427491188049316e-01 2.911071777343750000e+00 -5.869284868240356445e-01 1.100000000000000000e+01
-9.603243470191955566e-01 3.491195201873778853e+00 -5.734887719154357910e-01 1.000000000000000000e+01
-1.198337316513061968e+00 4.362429618835449219e+00 -5.554804801940917969e-01 1.000000000000000000e+01
-1.564312100410460982e+00 5.698618888854979581e+00 -5.170078873634338379e-01 8.000000000000000000e+00
-2.270007371902465820e+00 8.280711174011230469e+00 -4.499845504760742188e-01 1.000000000000000000e+00
-4.189170837402343750e+00 1.530253505706786932e+01 -2.769347727298737127e-01 2.000000000000000000e+00
-5.968043208122253418e-01 2.192067861557006836e+00 -6.087424159049987793e-01 1.600000000000000000e+01
-6.820299029350280762e-01 2.508556604385375977e+00 -6.001694202423095703e-01 1.200000000000000000e+01
-7.885878682136535645e-01 2.902485609054564986e+00 -5.846387743949890137e-01 1.100000000000000000e+01
-9.517527818679809570e-01 3.507871150970458984e+00 -5.756788253784179688e-01 1.000000000000000000e+01
-1.183102369308471902e+00 4.366586208343505859e+00 -5.554804801940917969e-01 1.000000000000000000e+01
-1.540765762329102007e+00 5.690582275390625000e+00 -5.157876610755920410e-01 6.000000000000000000e+00
-2.235875368118286133e+00 8.269304275512695312e+00 -4.489378333091735840e-01 1.000000000000000000e+00
-4.115921020507813388e+00 1.524370384216308949e+01 -2.756083905696868896e-01 2.000000000000000000e+00
-5.875266790390014648e-01 2.186572074890137163e+00 -6.066718697547912598e-01 1.600000000000000000e+01
-6.721923947334289551e-01 2.505157947540283203e+00 -5.988197326660156250e-01 1.200000000000000000e+01
-7.825177907943725586e-01 2.918358564376831055e+00 -5.873100757598876953e-01 1.200000000000000000e+01
-9.355166554450988770e-01 3.493834733963013139e+00 -5.728629827499389648e-01 1.000000000000000000e+01
-1.166564583778380904e+00 4.362814426422119141e+00 -5.545055270195007324e-01 1.000000000000000000e+01
-1.517257690429687944e+00 5.678336620330811435e+00 -5.142188668251037598e-01 8.000000000000000000e+00
-2.204321861267089844e+00 8.261236190795898438e+00 -4.481004476547241211e-01 2.000000000000000000e+00
-4.065348625183104581e+00 1.525726890563965021e+01 -2.756083905696868896e-01 2.000000000000000000e+00
-5.789009332656860352e-01 2.184874773025513139e+00 -6.056365370750427246e-01 1.600000000000000000e+01
-6.629452109336853027e-01 2.505605220794678178e+00 -5.983697772026062012e-01 1.200000000000000000e+01
-7.733296751976013184e-01 2.924868345260620117e+00 -5.880733132362365723e-01 1.100000000000000000e+01
-9.182724952697753906e-01 3.477979660034180132e+00 -5.697343349456787109e-01 1.000000000000000000e+01
-1.151834487915039062e+00 4.368779659271240234e+00 -5.547492504119873047e-01 1.100000000000000000e+01
-1.502503395080565962e+00 5.702864646911621094e+00 -5.159620046615600586e-01 6.000000000000000000e+00
-2.177503824234008789e+00 8.276605606079101562e+00 -4.485191404819489081e-01 2.000000000000000000e+00
-3.998855113983153853e+00 1.522108078002930043e+01 -2.747008800506591797e-01 2.000000000000000000e+00
-5.745840072631835938e-01 2.197996854782104048e+00 -6.087424159049987793e-01 1.900000000000000000e+01
-6.516794562339782715e-01 2.496476411819458008e+00 -5.956704020500183105e-01 1.100000000000000000e+01
-7.641217708587646484e-01 2.929316520690917969e+00 -5.884549617767333984e-01 1.000000000000000000e+01
-9.107174873352050781e-01 3.496298313140869141e+00 -5.722372531890869141e-01 1.000000000000000000e+01
-1.134842276573180930e+00 4.362969398498535156e+00 -5.535305738449096680e-01 1.000000000000000000e+01
-1.483583688735961914e+00 5.707816123962402344e+00 -5.159620046615600586e-01 8.000000000000000000e+00
-2.138003349304199219e+00 8.237384796142578125e+00 -4.460070133209229071e-01 2.000000000000000000e+00
-3.948358297348022017e+00 1.523425769805908025e+01 -2.747008800506591797e-01 2.000000000000000000e+00
-5.669080615043640137e-01 2.199989080429077148e+00 -6.087424159049987793e-01 1.600000000000000000e+01
-6.449036002159118652e-01 2.506285190582274947e+00 -5.974699854850769043e-01 1.100000000000000000e+01
-7.519362568855285645e-01 2.924360275268555132e+00 -5.869284868240356445e-01 1.000000000000000000e+01
-8.980163335800170898e-01 3.497542619705200195e+00 -5.719243884086608887e-01 1.000000000000000000e+01
-1.120591759681702104e+00 4.370749950408936435e+00 -5.540180206298828125e-01 1.000000000000000000e+01
-1.466617584228516069e+00 5.724540233612061435e+00 -5.170078873634338379e-01 6.000000000000000000e+00
-2.110226631164550781e+00 8.248666763305664062e+00 -4.462163746356964111e-01 2.000000000000000000e+00
-3.895156621932982954e+00 1.524794673919677912e+01 -2.747008800506591797e-01 2.000000000000000000e+00
-5.587496757507324219e-01 2.200082063674927202e+00 -6.082247495651245117e-01 1.600000000000000000e+01
-6.361511349678039551e-01 2.508520841598511186e+00 -5.974699854850769043e-01 1.100000000000000000e+01
-7.407592535018920898e-01 2.923161029815673828e+00 -5.861652493476867676e-01 1.000000000000000000e+01
-8.891941905021667480e-01 3.514061212539672852e+00 -5.741145014762878418e-01 1.000000000000000000e+01
-1.104355573654175027e+00 4.370785713195800781e+00 -5.535305738449096680e-01 1.000000000000000000e+01
-1.439310193061829057e+00 5.700648307800292969e+00 -5.143932104110717773e-01 8.000000000000000000e+00
-2.086302995681763139e+00 8.275349617004394531e+00 -4.472630918025969904e-01 2.000000000000000000e+00
-3.817499160766602007e+00 1.516449165344237926e+01 -2.729556262493134100e-01 2.000000000000000000e+00
-5.487216114997863770e-01 2.192648887634276900e+00 -6.056365370750427246e-01 1.600000000000000000e+01
-6.259735822677612305e-01 2.505054473876953125e+00 -5.961202979087829590e-01 1.200000000000000000e+01
-7.267460227012634277e-01 2.910490751266479048e+00 -5.831122994422912598e-01 1.100000000000000000e+01
-8.759666085243225098e-01 3.513310194015502930e+00 -5.734887719154357910e-01 1.000000000000000000e+01
-1.089091897010803001e+00 4.374613761901854581e+00 -5.535305738449096680e-01 1.000000000000000000e+01
-1.415073513984679954e+00 5.688236236572265625e+00 -5.128244161605834961e-01 8.000000000000000000e+00
-2.062218904495238814e+00 8.301965713500976562e+00 -4.483098089694976807e-01 1.000000000000000000e+00
-3.752025604248046875e+00 1.512726116180419922e+01 -2.720481157302855890e-01 2.000000000000000000e+00
-5.415269136428833008e-01 2.196426630020142046e+00 -6.061542034149169922e-01 1.600000000000000000e+01
-6.167596578598022461e-01 2.505331993103026900e+00 -5.956704020500183105e-01 1.100000000000000000e+01
-7.217407226562500000e-01 2.933980464935303178e+00 -5.873100757598876953e-01 1.100000000000000000e+01
-8.580432534217834473e-01 3.493326187133789062e+00 -5.697343349456787109e-01 1.000000000000000000e+01
-1.072396516799926980e+00 4.372604846954345703e+00 -5.527993440628051758e-01 1.100000000000000000e+01
-1.399477362632751021e+00 5.710557460784912109e+00 -5.143932104110717773e-01 6.000000000000000000e+00
-2.025631427764893022e+00 8.278073310852050781e+00 -4.466350376605988104e-01 1.000000000000000000e+00
-3.694452524185181108e+00 1.512084102630615057e+01 -2.716990709304810125e-01 2.000000000000000000e+00
-5.361361503601074219e-01 2.207690000534058061e+00 -6.087424159049987793e-01 1.600000000000000000e+01
-6.075514554977416992e-01 2.505575656890869141e+00 -5.952205061912536621e-01 1.300000000000000000e+01
-7.133440971374511719e-01 2.944113969802856001e+00 -5.888365507125854492e-01 1.100000000000000000e+01
-8.453795313835144043e-01 3.494380235671997070e+00 -5.694214701652526855e-01 9.000000000000000000e+00
-1.054330110549926980e+00 4.364744186401367188e+00 -5.513368844985961914e-01 1.100000000000000000e+01
-1.379067897796631081e+00 5.713470935821533203e+00 -5.142188668251037598e-01 8.000000000000000000e+00
-1.999531030654907005e+00 8.296743392944335938e+00 -4.472630918025969904e-01 1.000000000000000000e+00
-3.650069475173950195e+00 1.516864013671875000e+01 -2.723273634910582941e-01 2.000000000000000000e+00
-5.288759469985961914e-01 2.211426734924315962e+00 -6.092600226402282715e-01 1.700000000000000000e+01
-5.983490347862243652e-01 2.505785703659058061e+00 -5.947706103324890137e-01 1.100000000000000000e+01
-6.994177103042602539e-01 2.931308984756470171e+00 -5.857836008071899414e-01 1.100000000000000000e+01
-8.350078463554382324e-01 3.504996299743651900e+00 -5.706729292869567871e-01 9.000000000000000000e+00
-1.036791086196898970e+00 4.358741760253906250e+00 -5.501182079315185547e-01 1.100000000000000000e+01
-1.362340688705443892e+00 5.731818675994873047e+00 -5.154390335083007812e-01 8.000000000000000000e+00
-1.965946078300476074e+00 8.284239768981933594e+00 -4.462163746356964111e-01 2.000000000000000000e+00
-3.588799953460692915e+00 1.514626407623291016e+01 -2.716990709304810125e-01 2.000000000000000000e+00
-5.184967517852783203e-01 2.201976776123046875e+00 -6.061542034149169922e-01 1.800000000000000000e+01
-5.913825035095214844e-01 2.515447139739989790e+00 -5.965701937675476074e-01 1.100000000000000000e+01
-6.869363784790039062e-01 2.924176454544066939e+00 -5.838755369186401367e-01 1.000000000000000000e+01
-8.259256482124328613e-01 3.521351814270019975e+00 -5.728629827499389648e-01 1.000000000000000000e+01
-1.021117329597472922e+00 4.360401630401611328e+00 -5.498744845390319824e-01 1.100000000000000000e+01
-1.338693022727966087e+00 5.721019268035888672e+00 -5.140445828437805176e-01 9.000000000000000000e+00
-1.938834309577941895e+00 8.298830986022949219e+00 -4.466350376605988104e-01 2.000000000000000000e+00
-3.535907745361328125e+00 1.515869903564452947e+01 -2.716990709304810125e-01 2.000000000000000000e+00
-5.112434625625610352e-01 2.205655336380004883e+00 -6.066718697547912598e-01 1.900000000000000000e+01
-5.825983881950378418e-01 2.517496109008789062e+00 -5.965701937675476074e-01 1.100000000000000000e+01
-6.789364218711853027e-01 2.936120271682738814e+00 -5.857836008071899414e-01 1.100000000000000000e+01
-8.122956752777099609e-01 3.518439054489136186e+00 -5.719243884086608887e-01 1.000000000000000000e+01
-1.006782174110413042e+00 4.367807865142822266e+00 -5.503619313240051270e-01 1.100000000000000000e+01
-1.317373275756835938e+00 5.719832897186279297e+00 -5.135216116905212402e-01 6.000000000000000000e+00
-1.908958911895751953e+00 8.301654815673828125e+00 -4.464257061481475830e-01 1.000000000000000000e+00
-3.476708173751831055e+00 1.514366340637207031e+01 -2.712104022502899170e-01 2.000000000000000000e+00
-5.022522211074829102e-01 2.201776027679442915e+00 -6.051189303398132324e-01 1.800000000000000000e+01
-5.738071203231811523e-01 2.519514560699462891e+00 -5.965701937675476074e-01 1.200000000000000000e+01
-6.686832904815673828e-01 2.938472509384154829e+00 -5.857836008071899414e-01 1.100000000000000000e+01
-7.960703372955322266e-01 3.503916501998900923e+00 -5.691086053848266602e-01 1.000000000000000000e+01
-9.915295243263244629e-01 4.371295928955078125e+00 -5.503619313240051270e-01 1.100000000000000000e+01
-1.295197367668152078e+00 5.714680671691895419e+00 -5.126500725746154785e-01 8.000000000000000000e+00
-1.877324461936950906e+00 8.296580314636230469e+00 -4.457976818084716797e-01 1.000000000000000000e+00
-3.423825740814208984e+00 1.515570735931395951e+01 -2.712104022502899170e-01 2.000000000000000000e+00
-4.974884986877440851e-01 2.214738845825194868e+00 -6.082247495651245117e-01 1.800000000000000000e+01
-5.645961165428161621e-01 2.517600536346435991e+00 -5.956704020500183105e-01 1.100000000000000000e+01
-6.589353084564208984e-01 2.940673589706420898e+00 -5.857836008071899414e-01 1.100000000000000000e+01
-7.822902798652648926e-01 3.496898651123046875e+00 -5.675442218780517578e-01 9.000000000000000000e+00
-9.718359708786010742e-01 4.351311683654785156e+00 -5.474370718002319336e-01 1.000000000000000000e+01
-1.276239633560181108e+00 5.718944549560546875e+00 -5.126500725746154785e-01 9.000000000000000000e+00
-1.851538896560668945e+00 8.310557365417480469e+00 -4.462163746356964111e-01 1.000000000000000000e+00
-3.373548746109008789e+00 1.516697788238525035e+01 -2.712104022502899170e-01 2.000000000000000000e+00
-4.914218187332152765e-01 2.224007129669189009e+00 -6.102952957153320312e-01 1.600000000000000000e+01
-5.541254281997680664e-01 2.511944055557250977e+00 -5.938707590103149414e-01 1.100000000000000000e+01
-6.469761133193969727e-01 2.935286998748778853e+00 -5.842571258544921875e-01 1.100000000000000000e+01
-7.747488021850585938e-01 3.520829439163208008e+00 -5.709857940673828125e-01 1.000000000000000000e+01
-9.591967463493347168e-01 4.366310596466063565e+00 -5.488995313644409180e-01 1.100000000000000000e+01
-1.262676477432250977e+00 5.752555370330811435e+00 -5.152647495269775391e-01 9.000000000000000000e+00
-1.825083494186400923e+00 8.328676223754882812e+00 -4.468443989753723145e-01 2.000000000000000000e+00
-3.299217462539672852e+00 1.508098602294922053e+01 -2.694651484489440918e-01 2.000000000000000000e+00
-4.807840287685393732e-01 2.212494611740111861e+00 -6.066718697547912598e-01 1.800000000000000000e+01
-5.478326082229614258e-01 2.525289535522460938e+00 -5.965701937675476074e-01 1.100000000000000000e+01
-6.367260813713073730e-01 2.937527418136597124e+00 -5.842571258544921875e-01 1.100000000000000000e+01
-7.628718614578247070e-01 3.525443077087401900e+00 -5.712986588478088379e-01 1.000000000000000000e+01
-9.426921606063842773e-01 4.363811016082763672e+00 -5.481683015823364258e-01 9.000000000000000000e+00
-1.238805294036865012e+00 5.739399909973145419e+00 -5.136959552764892578e-01 8.000000000000000000e+00
-1.793475627899169922e+00 8.323281288146972656e+00 -4.462163746356964111e-01 1.000000000000000000e+00
-1.139286899566650035e+01 5.291763687133789062e+01 1.249693107604979936e+01 1.700000000000000000e+01
-3.246554851531981978e+00 1.509241104125976918e+01 -2.694651484489440918e-01 2.000000000000000000e+00
-4.714435040950775146e-01 2.206602334976195845e+00 -6.046012639999389648e-01 1.800000000000000000e+01
-5.398273468017578125e-01 2.530998229980469194e+00 -5.974699854850769043e-01 1.100000000000000000e+01
-6.272866725921630859e-01 2.943572521209716797e+00 -5.850203633308410645e-01 1.100000000000000000e+01
-7.493279576301574707e-01 3.522288084030150923e+00 -5.703600645065307617e-01 1.000000000000000000e+01
-9.278662204742431641e-01 4.369016647338867188e+00 -5.484120249748229980e-01 1.000000000000000000e+01
-1.215041518211364968e+00 5.726148605346679688e+00 -5.121271610260009766e-01 8.000000000000000000e+00
-1.767722129821776900e+00 8.345122337341308594e+00 -4.470537304878234863e-01 1.000000000000000000e+00
-3.197162628173828125e+00 1.511930274963379084e+01 -2.697443962097167969e-01 2.000000000000000000e+00
-1.162295436859131037e+01 5.501210021972656250e+01 1.506585693359375000e+01 1.900000000000000000e+01
-4.657130241394042969e-01 2.215715885162353960e+00 -6.066718697547912598e-01 1.800000000000000000e+01
-5.306309461593627930e-01 2.528959989547729048e+00 -5.965701937675476074e-01 1.100000000000000000e+01
-6.167163848876953125e-01 2.941793441772460938e+00 -5.842571258544921875e-01 1.100000000000000000e+01
-7.340018749237060547e-01 3.507352113723754883e+00 -5.675442218780517578e-01 9.000000000000000000e+00
-9.133729338645935059e-01 4.372069835662841797e+00 -5.484120249748229980e-01 1.000000000000000000e+01
-1.199710011482238992e+00 5.747699260711669922e+00 -5.136959552764892578e-01 8.000000000000000000e+00
-1.738409399986267090e+00 8.343117713928222656e+00 -4.466350376605988104e-01 2.000000000000000000e+00
-3.143749713897705078e+00 1.511415958404541016e+01 -2.694651484489440918e-01 2.000000000000000000e+00
-1.137757110595702947e+01 5.474770736694335938e+01 1.498303413391112926e+01 1.900000000000000000e+01
-4.591481983661652166e-01 2.223003625869750977e+00 -6.082247495651245117e-01 1.900000000000000000e+01
-5.194389224052429199e-01 2.519345283508300781e+00 -5.938707590103149414e-01 1.100000000000000000e+01
-6.076321601867675781e-01 2.949696779251099077e+00 -5.854020118713378906e-01 1.100000000000000000e+01
-7.253353595733642578e-01 3.527306795120238814e+00 -5.703600645065307617e-01 1.000000000000000000e+01
-8.981060385704040527e-01 4.375231266021729404e+00 -5.484120249748229980e-01 1.000000000000000000e+01
-1.178438663482666016e+00 5.745996952056884766e+00 -5.131729841232299805e-01 9.000000000000000000e+00
-1.706872463226317915e+00 8.337394714355468750e+00 -4.460070133209229071e-01 1.000000000000000000e+00
-3.094175338745117188e+00 1.514071464538574041e+01 -2.697443962097167969e-01 2.000000000000000000e+00
-1.148011493682860973e+01 5.622562026977539062e+01 1.537643909454346058e+01 2.000000000000000000e+01
-4.517650604248046875e-01 2.228458404541016069e+00 -6.092600226402282715e-01 1.900000000000000000e+01
-5.109745860099792480e-01 2.525052309036254883e+00 -5.947706103324890137e-01 1.100000000000000000e+01
-5.956497192382812500e-01 2.946131229400635210e+00 -5.842571258544921875e-01 1.100000000000000000e+01
-7.120114564895629883e-01 3.528005361557006836e+00 -5.700471997261047363e-01 9.000000000000000000e+00
-8.804958462715148926e-01 4.370709896087645596e+00 -5.474370718002319336e-01 1.000000000000000000e+01
-1.152653098106384055e+00 5.726838588714599609e+00 -5.110812783241271973e-01 6.000000000000000000e+00
-1.673155665397644043e+00 8.327929496765136719e+00 -4.451696574687957764e-01 1.000000000000000000e+00
-3.035515546798706055e+00 1.513626861572265980e+01 -2.694651484489440918e-01 2.000000000000000000e+00
-4.428518712520598810e-01 2.224337816238402876e+00 -6.077071428298950195e-01 1.800000000000000000e+01
-5.029171109199523926e-01 2.530643224716186968e+00 -5.956704020500183105e-01 1.100000000000000000e+01
-5.842151641845703125e-01 2.942415475845336914e+00 -5.831122994422912598e-01 1.100000000000000000e+01
-7.004601359367370605e-01 3.534344673156737837e+00 -5.706729292869567871e-01 9.000000000000000000e+00
-8.629224896430969238e-01 4.362072467803955078e+00 -5.459746718406677246e-01 1.000000000000000000e+01
-1.134587168693542036e+00 5.740600109100341797e+00 -5.119528174400329590e-01 8.000000000000000000e+00
-1.645621776580810991e+00 8.341557502746582031e+00 -4.455883204936981201e-01 1.000000000000000000e+00
-2.982661485671997070e+00 1.514677238464354936e+01 -2.694651484489440918e-01 2.000000000000000000e+00
-4.328611791133881170e-01 2.214494228363037109e+00 -6.046012639999389648e-01 1.700000000000000000e+01
-4.940804243087769110e-01 2.532383441925048828e+00 -5.956704020500183105e-01 1.100000000000000000e+01
-5.724381804466247559e-01 2.936728954315185991e+00 -5.815858244895935059e-01 1.100000000000000000e+01
-6.881186962127685547e-01 3.536768198013306108e+00 -5.706729292869567871e-01 9.000000000000000000e+00
-8.488260507583618164e-01 4.370903968811035156e+00 -5.467059016227722168e-01 1.200000000000000000e+01
-1.111505985260009988e+00 5.728878498077392578e+00 -5.105583667755126953e-01 9.000000000000000000e+00
-1.615734815597533958e+00 8.343329429626464844e+00 -4.453789889812468927e-01 1.000000000000000000e+00
-2.929771423339844194e+00 1.515709209442139027e+01 -2.694651484489440918e-01 2.000000000000000000e+00
-4.265844523906707764e-01 2.223580598831177202e+00 -6.066718697547912598e-01 1.700000000000000000e+01
-4.845047593116760254e-01 2.530264616012572798e+00 -5.947706103324890137e-01 1.100000000000000000e+01
-5.643969178199768066e-01 2.950278997421265093e+00 -5.838755369186401367e-01 1.100000000000000000e+01
-6.735459566116333008e-01 3.527506589889525923e+00 -5.687957406044006348e-01 9.000000000000000000e+00
-8.335635662078857422e-01 4.373840332031250000e+00 -5.467059016227722168e-01 9.000000000000000000e+00
-1.093364953994750977e+00 5.742509365081787109e+00 -5.114299058914184570e-01 8.000000000000000000e+00
-1.588838696479796919e+00 8.360691070556640625e+00 -4.460070133209229071e-01 1.000000000000000000e+00
-2.869392395019530806e+00 1.512793254852294922e+01 -2.687670588493347168e-01 2.000000000000000000e+00
-4.199238121509552002e-01 2.228780031204224077e+00 -6.077071428298950195e-01 1.800000000000000000e+01
-4.739505946636199951e-01 2.520366430282593218e+00 -5.920711755752563477e-01 1.100000000000000000e+01
-5.567852854728698730e-01 2.963711261749268022e+00 -5.861652493476867676e-01 1.100000000000000000e+01
-6.596603393554687500e-01 3.518071651458739790e+00 -5.669184923171997070e-01 9.000000000000000000e+00
-8.179593086242675781e-01 4.370727062225341797e+00 -5.459746718406677246e-01 1.000000000000000000e+01
-1.071020722389220969e+00 5.728477478027343750e+00 -5.098611116409301758e-01 9.000000000000000000e+00
-1.558173894882201926e+00 8.350206375122070312e+00 -4.451696574687957764e-01 2.000000000000000000e+00
-2.817013740539550781e+00 1.512556934356688920e+01 -2.685576379299163818e-01 2.000000000000000000e+00
-4.128434658050537109e-01 2.234031438827515093e+00 -6.087424159049987793e-01 1.600000000000000000e+01
-4.658568799495697021e-01 2.525838136672974077e+00 -5.929709672927856445e-01 1.200000000000000000e+01
-5.460808873176574707e-01 2.963706016540526900e+00 -5.857836008071899414e-01 1.000000000000000000e+01
-6.484477519989013672e-01 3.526181221008300781e+00 -5.678570866584777832e-01 8.000000000000000000e+00
-8.034143447875976562e-01 4.377460479736328125e+00 -5.464621186256408691e-01 1.000000000000000000e+01
-1.054251909255981001e+00 5.749818801879882812e+00 -5.114299058914184570e-01 9.000000000000000000e+00
-1.528297662734984907e+00 8.351665496826171875e+00 -4.449602961540222168e-01 1.000000000000000000e+00
-2.765635490417480025e+00 1.514317893981933949e+01 -2.686972618103026789e-01 2.000000000000000000e+00
-4.040975868701934814e-01 2.225813627243041992e+00 -6.061542034149169922e-01 1.600000000000000000e+01
-4.586143195629119873e-01 2.531124353408813032e+00 -5.938707590103149414e-01 1.300000000000000000e+01
-5.343196392059326172e-01 2.951883792877196822e+00 -5.831122994422912598e-01 1.100000000000000000e+01
-6.380690932273864746e-01 3.532088756561278853e+00 -5.684828162193298340e-01 8.000000000000000000e+00
-7.868404984474182129e-01 4.364334106445313388e+00 -5.445122122764587402e-01 1.000000000000000000e+01
-1.030885696411133035e+00 5.723690032958984375e+00 -5.088152289390563965e-01 8.000000000000000000e+00
-1.499932646751404031e+00 8.344631195068359375e+00 -4.443322718143463135e-01 1.000000000000000000e+00
-2.716635942459106001e+00 1.514391994476318004e+01 -2.685576379299163818e-01 2.000000000000000000e+00
-3.946333527565001886e-01 2.217700719833374023e+00 -6.035659909248352051e-01 1.700000000000000000e+01
-4.511392116546630859e-01 2.540384769439696822e+00 -5.956704020500183105e-01 1.000000000000000000e+01
-5.222976803779602051e-01 2.944065809249877930e+00 -5.812041759490966797e-01 1.000000000000000000e+01
-6.257359385490417480e-01 3.534294605255126953e+00 -5.684828162193298340e-01 9.000000000000000000e+00
-7.729828953742980957e-01 4.374873161315917969e+00 -5.454871654510498047e-01 1.000000000000000000e+01
-1.011592626571655051e+00 5.731177806854248047e+00 -5.091638565063476562e-01 9.000000000000000000e+00
-1.477031826972960982e+00 8.385221481323242188e+00 -4.462163746356964111e-01 1.000000000000000000e+00
-2.663757324218750000e+00 1.515331077575683949e+01 -2.685576379299163818e-01 2.000000000000000000e+00
