1.531772494316101074e+00 1.627752780914307085e+00 -5.989072918891906738e-01 2.000000000000000000e+01
1.759494304656981978e+00 1.868436336517333984e+00 -5.925210714340209961e-01 1.800000000000000000e+01
2.026010751724243164e+00 2.150702238082886186e+00 -5.743350982666015625e-01 1.200000000000000000e+01
2.409190893173218218e+00 2.555677413940430132e+00 -5.562809705734252930e-01 9.000000000000000000e+00
2.984512329101562944e+00 3.163766860961914062e+00 -5.340314507484436035e-01 9.000000000000000000e+00
3.871191978454589844e+00 4.102267265319824219e+00 -4.934758245944976807e-01 6.000000000000000000e+00
5.566018581390380859e+00 5.894136905670166016e+00 -4.248632788658142090e-01 2.000000000000000000e+00
9.215906143188476562e+00 9.752364158630371094e+00 -2.342112958431243896e-01 2.000000000000000000e+00
1.539057254791259988e+00 1.623529672622681108e+00 -5.994248986244201660e-01 1.600000000000000000e+01
1.754260063171386941e+00 1.849250674247741921e+00 -5.884719491004943848e-01 1.600000000000000000e+01
2.039285421371459961e+00 2.148958444595336914e+00 -5.758615732192993164e-01 1.300000000000000000e+01
2.415821075439453125e+00 2.543965339660644975e+00 -5.556552410125732422e-01 1.000000000000000000e+01
2.998822927474976030e+00 3.155684709548950195e+00 -5.345189571380615234e-01 9.000000000000000000e+00
3.891692399978638139e+00 4.093827247619628906e+00 -4.941730499267578125e-01 8.000000000000000000e+00
5.620622634887695312e+00 5.908426761627197266e+00 -4.273754060268402100e-01 2.000000000000000000e+00
9.265376091003417969e+00 9.733004570007324219e+00 -2.345603406429291049e-01 2.000000000000000000e+00
1.550050854682921919e+00 1.623736858367919922e+00 -6.014954447746276855e-01 1.600000000000000000e+01
1.766088962554932085e+00 1.848752379417418990e+00 -5.902715921401977539e-01 1.700000000000000000e+01
2.048130750656127930e+00 2.143246412277222124e+00 -5.762431621551513672e-01 1.200000000000000000e+01
2.427417039871215820e+00 2.538372278213500977e+00 -5.562809705734252930e-01 9.000000000000000000e+00
3.008447647094727007e+00 3.143763542175292969e+00 -5.342751741409301758e-01 1.000000000000000000e+01
3.910092115402222124e+00 4.084535598754882812e+00 -4.946959912776947021e-01 8.000000000000000000e+00
5.619106292724609375e+00 5.865694999694824219e+00 -4.257006645202637274e-01 1.000000000000000000e+00
9.246708869934082031e+00 9.645749092102050781e+00 -2.332339584827423096e-01 2.000000000000000000e+00
1.555426836013793945e+00 1.618587851524353027e+00 -6.014954447746276855e-01 1.900000000000000000e+01
1.778963804244994895e+00 1.849908828735352007e+00 -5.925210714340209961e-01 1.600000000000000000e+01
2.044337987899779829e+00 2.125123739242554155e+00 -5.731902122497558594e-01 1.200000000000000000e+01
2.445411205291748047e+00 2.540270566940308061e+00 -5.584710240364074707e-01 1.000000000000000000e+01
3.017478942871094194e+00 3.132340192794799805e+00 -5.340314507484436035e-01 1.000000000000000000e+01
3.923615455627440962e+00 4.071547031402587891e+00 -4.946959912776947021e-01 9.000000000000000000e+00
5.646845340728759766e+00 5.855655193328857422e+00 -4.263286888599395752e-01 1.000000000000000000e+00
9.320302963256835938e+00 9.658201217651367188e+00 -2.342811077833175937e-01 2.000000000000000000e+00
1.550319910049438032e+00 1.602042436599731001e+00 -5.973543524742126465e-01 1.600000000000000000e+01
1.781343340873718040e+00 1.839488148689270020e+00 -5.911713838577270508e-01 1.400000000000000000e+01
2.051743745803833008e+00 2.117974758148192915e+00 -5.731902122497558594e-01 1.200000000000000000e+01
2.447388648986815962e+00 2.524627447128295898e+00 -5.569067001342773438e-01 9.000000000000000000e+00
3.029776573181151900e+00 3.123213052749633789e+00 -5.342751741409301758e-01 1.000000000000000000e+01
3.928091287612915039e+00 4.047817230224609375e+00 -4.934758245944976807e-01 8.000000000000000000e+00
5.672816753387451172e+00 5.841639518737792969e+00 -4.267473816871643066e-01 2.000000000000000000e+00
9.342810630798339844e+00 9.614134788513183594e+00 -2.340018600225448886e-01 2.000000000000000000e+00
3.946146392822266336e+01 4.059328460693358664e+01 1.516938400268555043e+01 2.000000000000000000e+01
1.559947371482848899e+00 1.600771784782409890e+00 -5.989072918891906738e-01 1.800000000000000000e+01
1.793195605278014915e+00 1.838839530944823997e+00 -5.929709672927856445e-01 1.400000000000000000e+01
2.067349672317504883e+00 2.119231939315795898e+00 -5.754799246788024902e-01 1.200000000000000000e+01
2.447907209396361861e+00 2.507587909698485884e+00 -5.550295114517211914e-01 9.000000000000000000e+00
3.048983097076416016e+00 3.121138095855712891e+00 -5.357376337051391602e-01 1.000000000000000000e+01
3.947766780853271040e+00 4.039781093597412109e+00 -4.941730499267578125e-01 9.000000000000000000e+00
5.679209232330322266e+00 5.807522773742675781e+00 -4.257006645202637274e-01 1.000000000000000000e+00
9.376313209533691406e+00 9.581463813781738281e+00 -2.340018600225448886e-01 2.000000000000000000e+00
1.570937991142272949e+00 1.600832104682921919e+00 -6.009778380393981934e-01 1.500000000000000000e+01
1.787314772605895996e+00 1.820055127143860085e+00 -5.889218449592590332e-01 1.300000000000000000e+01
2.074734687805175781e+00 2.112002611160277876e+00 -5.754799246788024902e-01 1.100000000000000000e+01
2.462184429168701172e+00 2.504662513732910156e+00 -5.562809705734252930e-01 9.000000000000000000e+00
3.055683135986328125e+00 3.106230735778809038e+00 -5.350064039230346680e-01 9.000000000000000000e+00
3.974421501159667969e+00 4.038756847381591797e+00 -4.957418739795684814e-01 8.000000000000000000e+00
5.702249526977539062e+00 5.790509223937988281e+00 -4.259100258350371759e-01 2.000000000000000000e+00
9.412508964538574219e+00 9.551525115966796875e+00 -2.340716719627380094e-01 2.000000000000000000e+00
1.576237916946410911e+00 1.595613837242126021e+00 -6.009778380393981934e-01 1.600000000000000000e+01
1.797450542449950950e+00 1.818275809288024902e+00 -5.902715921401977539e-01 1.200000000000000000e+01
2.081727027893065962e+00 2.105110883712768999e+00 -5.754799246788024902e-01 1.200000000000000000e+01
2.473255634307860884e+00 2.499292135238647017e+00 -5.569067001342773438e-01 9.000000000000000000e+00
3.061776638031005859e+00 3.091849088668822798e+00 -5.342751741409301758e-01 1.000000000000000000e+01
3.984988451004027876e+00 4.022724151611328125e+00 -4.953932464122772217e-01 9.000000000000000000e+00
5.715795516967773438e+00 5.765894412994384766e+00 -4.254913330078125000e-01 2.000000000000000000e+00
9.452581405639648438e+00 9.528777122497558594e+00 -2.342811077833175937e-01 2.000000000000000000e+00
1.581798076629638894e+00 1.590102076530456987e+00 -6.009778380393981934e-01 1.700000000000000000e+01
1.806536197662353960e+00 1.814752697944640891e+00 -5.911713838577270508e-01 1.200000000000000000e+01
2.086291790008544922e+00 2.095049142837523970e+00 -5.747166872024536133e-01 1.200000000000000000e+01
2.487542152404785156e+00 2.496240615844727007e+00 -5.581581592559814453e-01 9.000000000000000000e+00
3.075353860855102983e+00 3.083953857421875000e+00 -5.347626805305480957e-01 1.000000000000000000e+01
3.987749099731444868e+00 3.997504949569702148e+00 -4.939987361431121826e-01 8.000000000000000000e+00
5.747175693511962891e+00 5.757215499877929688e+00 -4.263286888599395752e-01 1.000000000000000000e+00
9.471652030944824219e+00 9.481575965881347656e+00 -2.339320629835129062e-01 2.000000000000000000e+00
1.581870079040526900e+00 1.579111576080322044e+00 -5.989072918891906738e-01 1.700000000000000000e+01
1.816998839378356934e+00 1.812564492225646973e+00 -5.925210714340209961e-01 1.300000000000000000e+01
2.093592166900635210e+00 2.087754011154174805e+00 -5.747166872024536133e-01 1.200000000000000000e+01
2.492042779922484907e+00 2.483359098434447798e+00 -5.572195649147033691e-01 1.000000000000000000e+01
3.086100101470946822e+00 3.073199987411499023e+00 -5.347626805305480957e-01 1.000000000000000000e+01
4.001678943634033203e+00 3.983560800552368164e+00 -4.939987361431121826e-01 6.000000000000000000e+00
5.792724609375000000e+00 5.762473106384277344e+00 -4.282127916812896729e-01 1.000000000000000000e+00
9.518873214721679688e+00 9.462553977966308594e+00 -2.342811077833175937e-01 2.000000000000000000e+00
1.587372541427612083e+00 1.573580145835876021e+00 -5.989072918891906738e-01 1.700000000000000000e+01
1.819161415100098100e+00 1.802096605300903098e+00 -5.911713838577270508e-01 1.100000000000000000e+01
2.103657007217406782e+00 2.083196163177489790e+00 -5.754799246788024902e-01 1.300000000000000000e+01
2.496484041213988814e+00 2.470476865768433061e+00 -5.562809705734252930e-01 9.000000000000000000e+00
3.113746643066405806e+00 3.079158544540404829e+00 -5.376875400543212891e-01 1.000000000000000000e+01
4.036813259124755859e+00 3.990578413009643999e+00 -4.966134130954741877e-01 8.000000000000000000e+00
5.815646171569824219e+00 5.745025157928466797e+00 -4.284221231937407892e-01 1.000000000000000000e+00
9.577462196350097656e+00 9.454556465148925781e+00 -2.349093854427337924e-01 2.000000000000000000e+00
1.595609068870543990e+00 1.570740103721619096e+00 -5.999425649642944336e-01 1.500000000000000000e+01
1.819883942604064941e+00 1.790269017219543013e+00 -5.893717408180236816e-01 1.200000000000000000e+01
2.122114419937133789e+00 2.086852550506591797e+00 -5.785328745841979980e-01 1.200000000000000000e+01
2.502274513244628906e+00 2.458978176116942915e+00 -5.556552410125732422e-01 9.000000000000000000e+00
3.113145112991333008e+00 3.057143926620482954e+00 -5.357376337051391602e-01 1.000000000000000000e+01
4.032235145568847656e+00 3.958318471908568892e+00 -4.943473637104033869e-01 6.000000000000000000e+00
5.824258327484130859e+00 5.713500499725341797e+00 -4.275847673416138250e-01 1.000000000000000000e+00
9.618973731994628906e+00 9.429466247558593750e+00 -2.351188212633132935e-01 2.000000000000000000e+00
1.603845119476317915e+00 1.567861676216125044e+00 -6.009778380393981934e-01 1.700000000000000000e+01
1.828910112380981001e+00 1.786629080772399902e+00 -5.902715921401977539e-01 1.100000000000000000e+01
2.120958328247069868e+00 2.071202516555786133e+00 -5.762431621551513672e-01 1.200000000000000000e+01
2.512256383895874023e+00 2.451608419418334961e+00 -5.559681057929992676e-01 1.000000000000000000e+01
3.115270376205443892e+00 3.037942886352539062e+00 -5.342751741409301758e-01 1.000000000000000000e+01
4.050307750701904297e+00 3.948391437530518022e+00 -4.948703050613402765e-01 9.000000000000000000e+00
5.832721710205078125e+00 5.681985855102539062e+00 -4.267473816871643066e-01 1.000000000000000000e+00
9.603113174438476562e+00 9.348406791687011719e+00 -2.339320629835129062e-01 2.000000000000000000e+00
1.603220105171204057e+00 1.557430982589721902e+00 -5.989072918891906738e-01 1.500000000000000000e+01
1.837310433387755904e+00 1.783589363098144975e+00 -5.911713838577270508e-01 1.100000000000000000e+01
2.116183519363402876e+00 2.053591251373291016e+00 -5.731902122497558594e-01 1.300000000000000000e+01
2.529872655868529829e+00 2.453330039978026900e+00 -5.581581592559814453e-01 9.000000000000000000e+00
3.134777784347534180e+00 3.037811040878295898e+00 -5.359813570976257324e-01 9.000000000000000000e+00
4.064122676849365234e+00 3.937033891677856001e+00 -4.950446188449860174e-01 9.000000000000000000e+00
5.844803333282470703e+00 5.658077239990234375e+00 -4.263286888599395752e-01 1.000000000000000000e+00
9.620936393737792969e+00 9.307068824768066406e+00 -2.336528152227402011e-01 2.000000000000000000e+00
1.611427545547484907e+00 1.554507732391356978e+00 -5.999425649642944336e-01 1.700000000000000000e+01
1.844928026199341042e+00 1.778517484664916992e+00 -5.916212797164916992e-01 1.200000000000000000e+01
2.131820917129517046e+00 2.054365634918212891e+00 -5.754799246788024902e-01 1.300000000000000000e+01
2.544112443923950195e+00 2.449965000152587891e+00 -5.594096183776855469e-01 9.000000000000000000e+00
3.143932342529296875e+00 3.025473594665526900e+00 -5.357376337051391602e-01 1.000000000000000000e+01
4.072097301483154297e+00 3.917298316955565962e+00 -4.943473637104033869e-01 8.000000000000000000e+00
5.899074554443359375e+00 5.670859813690186435e+00 -4.288408160209655762e-01 2.000000000000000000e+00
9.705280303955078125e+00 9.323301315307617188e+00 -2.349093854427337924e-01 2.000000000000000000e+00
1.616843938827515093e+00 1.548873305320739968e+00 -5.999425649642944336e-01 1.700000000000000000e+01
1.851125001907349077e+00 1.772066712379456010e+00 -5.916212797164916992e-01 1.300000000000000000e+01
2.138978958129882812e+00 2.046911716461182085e+00 -5.754799246788024902e-01 1.400000000000000000e+01
2.541227579116820845e+00 2.430147647857666016e+00 -5.569067001342773438e-01 9.000000000000000000e+00
3.160214662551879883e+00 3.019966602325439009e+00 -5.367125868797302246e-01 1.000000000000000000e+01
4.091509342193604404e+00 3.908565282821654829e+00 -4.950446188449860174e-01 8.000000000000000000e+00
5.904386520385742188e+00 5.636442661285400391e+00 -4.277940988540648859e-01 2.000000000000000000e+00
9.752235412597656250e+00 9.303169250488281250e+00 -2.352584451436995905e-01 2.000000000000000000e+00
1.623640418052672896e+00 1.544551610946655051e+00 -6.004601716995239258e-01 1.500000000000000000e+01
1.850237488746643066e+00 1.758880972862244096e+00 -5.893717408180236816e-01 1.200000000000000000e+01
2.156073093414307085e+00 2.048899650573730025e+00 -5.781512856483459473e-01 1.300000000000000000e+01
2.556857109069824219e+00 2.428063392639160156e+00 -5.584710240364074707e-01 1.000000000000000000e+01
3.169297218322753906e+00 3.007550716400146040e+00 -5.364688634872436523e-01 1.000000000000000000e+01
4.108018875122070312e+00 3.897001743316649947e+00 -4.953932464122772217e-01 9.000000000000000000e+00
5.918227672576904297e+00 5.610301971435546875e+00 -4.273754060268402100e-01 1.000000000000000000e+00
9.773036003112792969e+00 9.258069038391113281e+00 -2.349791973829269132e-01 2.000000000000000000e+00
1.632965683937072976e+00 1.543139457702636941e+00 -6.020131111145019531e-01 1.600000000000000000e+01
1.867394685745239036e+00 1.763439416885375977e+00 -5.929709672927856445e-01 1.100000000000000000e+01
2.154289960861206055e+00 2.033652544021606001e+00 -5.758615732192993164e-01 1.300000000000000000e+01
2.563457727432250977e+00 2.418215751647949219e+00 -5.581581592559814453e-01 9.000000000000000000e+00
3.173475265502930132e+00 2.991577625274658203e+00 -5.354939103126525879e-01 1.000000000000000000e+01
4.132519245147705078e+00 3.894289016723632812e+00 -4.967877268791198730e-01 9.000000000000000000e+00
5.954247951507568359e+00 5.607076644897460938e+00 -4.286314845085144043e-01 2.000000000000000000e+00
9.786208152770996094e+00 9.209164619445800781e+00 -2.345603406429291049e-01 2.000000000000000000e+00
1.635524868965148926e+00 1.534785985946655051e+00 -6.009778380393981934e-01 1.800000000000000000e+01
1.862166762351989968e+00 1.746246218681335005e+00 -5.893717408180236816e-01 1.100000000000000000e+01
2.158510923385620117e+00 2.023434877395629883e+00 -5.750983357429504395e-01 1.200000000000000000e+01
2.581974744796752930e+00 2.418706178665161133e+00 -5.603482723236083984e-01 1.000000000000000000e+01
3.191144466400146040e+00 2.987265110015869141e+00 -5.367125868797302246e-01 1.000000000000000000e+01
4.137359142303466797e+00 3.871672153472899947e+00 -4.957418739795684814e-01 9.000000000000000000e+00
5.956278324127197266e+00 5.569888114929199219e+00 -4.273754060268402100e-01 2.000000000000000000e+00
9.829982757568359375e+00 9.185871124267578125e+00 -2.348395884037018100e-01 2.000000000000000000e+00
1.631244182586669922e+00 1.519563794136046919e+00 -5.973543524742126465e-01 1.600000000000000000e+01
1.875686526298522949e+00 1.746048212051392046e+00 -5.916212797164916992e-01 1.200000000000000000e+01
2.170224428176879883e+00 2.019522190093994141e+00 -5.762431621551513672e-01 1.200000000000000000e+01
2.577803134918212891e+00 2.397119998931885210e+00 -5.575324296951293945e-01 9.000000000000000000e+00
3.197709321975708008e+00 2.971494913101195845e+00 -5.359813570976257324e-01 1.000000000000000000e+01
4.141303539276123047e+00 3.846989870071411133e+00 -4.945216774940490723e-01 8.000000000000000000e+00
6.005928993225097656e+00 5.575196266174316406e+00 -4.294688701629639227e-01 2.000000000000000000e+00
9.851856231689453125e+00 9.138900756835937500e+00 -2.345603406429291049e-01 2.000000000000000000e+00
1.640792965888977051e+00 1.517795920372009055e+00 -5.989072918891906738e-01 1.800000000000000000e+01
1.880338907241821067e+00 1.738167405128479004e+00 -5.911713838577270508e-01 1.400000000000000000e+01
2.177260637283325195e+00 2.011934518814086914e+00 -5.762431621551513672e-01 1.400000000000000000e+01
2.586154937744141069e+00 2.388107061386107954e+00 -5.575324296951293945e-01 9.000000000000000000e+00
3.221192359924315962e+00 2.972430706024169922e+00 -5.381750464439392090e-01 1.000000000000000000e+01
4.159100055694580078e+00 3.836563348770142046e+00 -4.950446188449860174e-01 9.000000000000000000e+00
6.007730960845947266e+00 5.537953376770020419e+00 -4.282127916812896729e-01 2.000000000000000000e+00
9.866046905517578125e+00 9.088197708129882812e+00 -2.341414839029312134e-01 2.000000000000000000e+00
1.648662090301513894e+00 1.514960765838623047e+00 -5.999425649642944336e-01 1.900000000000000000e+01
1.883221745491028054e+00 1.729286313056946023e+00 -5.902715921401977539e-01 1.100000000000000000e+01
2.188259363174438032e+00 2.008686065673828125e+00 -5.773880481719970703e-01 1.300000000000000000e+01
2.591148614883422852e+00 2.376847505569458008e+00 -5.569067001342773438e-01 9.000000000000000000e+00
3.216398239135742188e+00 2.948318719863892046e+00 -5.357376337051391602e-01 1.000000000000000000e+01
4.173268795013427734e+00 3.824096202850341797e+00 -4.952189326286315918e-01 9.000000000000000000e+00
6.031954288482666016e+00 5.523395538330078125e+00 -4.286314845085144043e-01 2.000000000000000000e+00
9.902031898498535156e+00 9.060831069946289062e+00 -2.342811077833175937e-01 2.000000000000000000e+00
1.656794309616089089e+00 1.511801004409790039e+00 -6.009778380393981934e-01 1.900000000000000000e+01
1.887806653976439986e+00 1.721389055252074973e+00 -5.898216366767883301e-01 1.300000000000000000e+01
2.183650255203247070e+00 1.990454912185668945e+00 -5.743350982666015625e-01 1.300000000000000000e+01
2.605271100997924805e+00 2.373109102249145952e+00 -5.581581592559814453e-01 9.000000000000000000e+00
3.219330072402954102e+00 2.930392265319824219e+00 -5.345189571380615234e-01 1.000000000000000000e+01
4.183644294738770419e+00 3.806823492050170898e+00 -4.948703050613402765e-01 8.000000000000000000e+00
6.033465385437011719e+00 5.486182689666748047e+00 -4.273754060268402100e-01 2.000000000000000000e+00
9.945439338684082031e+00 9.036969184875488281e+00 -2.345603406429291049e-01 2.000000000000000000e+00
1.659198284149169922e+00 1.503414154052733931e+00 -5.999425649642944336e-01 2.000000000000000000e+01
1.902471184730530007e+00 1.722636938095092995e+00 -5.925210714340209961e-01 1.300000000000000000e+01
2.186218261718750000e+00 1.978868007659912109e+00 -5.731902122497558594e-01 1.200000000000000000e+01
2.619398832321166992e+00 2.369300842285155806e+00 -5.594096183776855469e-01 1.000000000000000000e+01
3.242793321609497070e+00 2.931116819381713867e+00 -5.367125868797302246e-01 1.000000000000000000e+01
4.207255363464354581e+00 3.801547050476074219e+00 -4.960905015468596857e-01 9.000000000000000000e+00
6.085191726684570312e+00 5.494535446166992188e+00 -4.296782016754149836e-01 2.000000000000000000e+00
9.944261550903320312e+00 8.972726821899414062e+00 -2.337924391031264981e-01 2.000000000000000000e+00
1.658691644668579102e+00 1.492444634437561035e+00 -5.978720188140869141e-01 2.000000000000000000e+01
1.909921884536742942e+00 1.717288494110106978e+00 -5.929709672927856445e-01 1.300000000000000000e+01
2.204793453216553178e+00 1.981723785400391069e+00 -5.762431621551513672e-01 1.300000000000000000e+01
2.621774911880493164e+00 2.354863166809082031e+00 -5.581581592559814453e-01 9.000000000000000000e+00
3.255959749221802202e+00 2.922431468963623047e+00 -5.372000932693481445e-01 1.000000000000000000e+01
4.217533588409423828e+00 3.784176588058472124e+00 -4.957418739795684814e-01 9.000000000000000000e+00
6.125152587890625000e+00 5.491927146911621094e+00 -4.311436116695404053e-01 2.000000000000000000e+00
9.996372222900390625e+00 8.956642150878906250e+00 -2.342811077833175937e-01 2.000000000000000000e+00
1.672534823417664018e+00 1.494368433952331987e+00 -6.009778380393981934e-01 2.000000000000000000e+01
1.910090088844299094e+00 1.705419659614562988e+00 -5.911713838577270508e-01 1.300000000000000000e+01
2.213162422180175781e+00 1.975322842597960982e+00 -5.766248106956481934e-01 1.400000000000000000e+01
2.627030372619628906e+00 2.343067407608031782e+00 -5.575324296951293945e-01 9.000000000000000000e+00
3.272068738937377930e+00 2.916331529617310014e+00 -5.381750464439392090e-01 1.000000000000000000e+01
4.230717182159423828e+00 3.769431591033935991e+00 -4.957418739795684814e-01 9.000000000000000000e+00
6.120418548583984375e+00 5.449263095855712891e+00 -4.294688701629639227e-01 2.000000000000000000e+00
1.008434677124023082e+01 8.972204208374023438e+00 -2.356074899435043057e-01 2.000000000000000000e+00
1.684966325759887917e+00 1.494931578636168990e+00 -6.035659909248352051e-01 2.000000000000000000e+01
1.910198807716370073e+00 1.693570613861083984e+00 -5.893717408180236816e-01 1.200000000000000000e+01
2.227390289306641069e+00 1.974096298217772993e+00 -5.785328745841979980e-01 1.600000000000000000e+01
2.641108512878417969e+00 2.339121818542480025e+00 -5.587838888168334961e-01 1.000000000000000000e+01
3.273309707641602007e+00 2.896998405456542969e+00 -5.367125868797302246e-01 1.000000000000000000e+01
4.255786895751953125e+00 3.765202283859252930e+00 -4.971363544464110773e-01 9.000000000000000000e+00
6.130424976348876953e+00 5.419928073883056641e+00 -4.288408160209655762e-01 2.000000000000000000e+00
1.008862876892090021e+01 8.913116455078125000e+00 -2.349791973829269132e-01 2.000000000000000000e+00
3.610557937622070312e+01 3.188739013671875000e+01 1.290730571746825994e+01 1.400000000000000000e+01
1.688465118408202903e+00 1.488058567047118919e+00 -6.030483841896057129e-01 1.900000000000000000e+01
1.920191764831542969e+00 1.691090703010559082e+00 -5.907214879989624023e-01 1.300000000000000000e+01
2.223609447479248047e+00 1.957618117332458052e+00 -5.758615732192993164e-01 1.300000000000000000e+01
2.642918348312377930e+00 2.325131654739379883e+00 -5.575324296951293945e-01 9.000000000000000000e+00
3.276934862136840820e+00 2.880885124206542969e+00 -5.357376337051391602e-01 1.000000000000000000e+01
4.265256404876708984e+00 3.748438358306885210e+00 -4.967877268791198730e-01 9.000000000000000000e+00
6.160369873046875000e+00 5.410112380981445312e+00 -4.296782016754149836e-01 1.000000000000000000e+00
1.010009479522705078e+01 8.863783836364746094e+00 -2.345603406429291049e-01 2.000000000000000000e+00
3.602262496948242188e+01 3.161324501037598012e+01 1.284208297729492010e+01 1.400000000000000000e+01
1.689287781715393066e+00 1.478338956832885964e+00 -6.014954447746276855e-01 1.800000000000000000e+01
1.930483818054198997e+00 1.688226222991942915e+00 -5.920711755752563477e-01 1.200000000000000000e+01
2.225995063781737837e+00 1.945967912673949973e+00 -5.747166872024536133e-01 1.300000000000000000e+01
2.656969070434569868e+00 2.321090221405028853e+00 -5.587838888168334961e-01 9.000000000000000000e+00
3.291457414627075195e+00 2.873345136642456055e+00 -5.364688634872436523e-01 9.000000000000000000e+00
4.270809173583984375e+00 3.726977109909058061e+00 -4.959161877632141113e-01 9.000000000000000000e+00
6.188249111175537109e+00 5.396451950073242188e+00 -4.303062260150908869e-01 2.000000000000000000e+00
3.625212478637695312e+01 3.160246658325194957e+01 1.110313415527343928e+01 1.400000000000000000e+01
1.020635223388672053e+01 8.894162178039550781e+00 -2.363055795431137085e-01 2.000000000000000000e+00
1.685688614845276101e+00 1.464830279350280984e+00 -5.983896255493164062e-01 1.800000000000000000e+01
1.936365127563477007e+00 1.681477308273314986e+00 -5.920711755752563477e-01 1.200000000000000000e+01
2.235739231109619141e+00 1.940759897232056108e+00 -5.754799246788024902e-01 1.300000000000000000e+01
2.665055036544799805e+00 2.311801671981811968e+00 -5.587838888168334961e-01 9.000000000000000000e+00
3.301467180252075195e+00 2.861838340759276900e+00 -5.364688634872436523e-01 1.000000000000000000e+01
4.285298347473145419e+00 3.713351249694824219e+00 -4.960905015468596857e-01 9.000000000000000000e+00
6.197989463806152344e+00 5.366973400115966797e+00 -4.296782016754149836e-01 2.000000000000000000e+00
1.018289947509765980e+01 8.811375617980957031e+00 -2.350490093231200894e-01 2.000000000000000000e+00
3.580418777465820312e+01 3.098176383972167969e+01 1.268679237365723012e+01 1.400000000000000000e+01
1.696642041206360085e+00 1.463985443115233931e+00 -6.004601716995239258e-01 1.700000000000000000e+01
1.939271092414855957e+00 1.672162771224976030e+00 -5.911713838577270508e-01 1.100000000000000000e+01
2.249935388565063032e+00 1.939352750778198020e+00 -5.773880481719970703e-01 1.300000000000000000e+01
2.673108339309691939e+00 2.302484750747681108e+00 -5.587838888168334961e-01 1.000000000000000000e+01
3.332499980926514116e+00 2.868426799774169922e+00 -5.398811697959899902e-01 9.000000000000000000e+00
4.301254749298095703e+00 3.700968980789185014e+00 -4.964390993118286133e-01 9.000000000000000000e+00
6.231830120086669922e+00 5.358327388763427734e+00 -4.307249188423156738e-01 2.000000000000000000e+00
1.018325996398925959e+01 8.749712944030761719e+00 -2.343509197235106867e-01 2.000000000000000000e+00
1.704676032066344993e+00 1.460568070411681907e+00 -6.014954447746276855e-01 1.700000000000000000e+01
1.939175009727478027e+00 1.660313606262207031e+00 -5.893717408180236816e-01 1.100000000000000000e+01
2.253708362579346147e+00 1.928934097290039062e+00 -5.766248106956481934e-01 1.100000000000000000e+01
2.676625728607178178e+00 2.289288043975830078e+00 -5.578452944755554199e-01 1.000000000000000000e+01
3.324384212493896040e+00 2.841299772262572798e+00 -5.369563102722167969e-01 9.000000000000000000e+00
4.326265811920166016e+00 3.696285963058472124e+00 -4.978336095809937079e-01 9.000000000000000000e+00
6.235306262969970703e+00 5.323573112487792969e+00 -4.296782016754149836e-01 2.000000000000000000e+00
1.022286796569824041e+01 8.721900939941406250e+00 -2.345603406429291049e-01 2.000000000000000000e+00
3.599609375000000000e+01 3.071098709106444957e+01 1.267850971221924006e+01 1.400000000000000000e+01
1.712706685066222922e+00 1.457112312316894975e+00 -6.025307178497314453e-01 1.800000000000000000e+01
1.950897574424744096e+00 1.658583402633666992e+00 -5.911713838577270508e-01 1.200000000000000000e+01
2.254443883895874023e+00 1.915969848632812944e+00 -5.750983357429504395e-01 9.000000000000000000e+00
2.690623283386230025e+00 2.285045623779296875e+00 -5.590967535972595215e-01 1.000000000000000000e+01
3.334281921386719194e+00 2.829678058624268022e+00 -5.369563102722167969e-01 9.000000000000000000e+00
4.328506469726563388e+00 3.672139644622803178e+00 -4.966134130954741877e-01 8.000000000000000000e+00
6.296508312225341797e+00 5.337938308715820312e+00 -4.326090216636658270e-01 2.000000000000000000e+00
1.021663188934325994e+01 8.655140876770019531e+00 -2.337226271629332941e-01 2.000000000000000000e+00
3.646812820434570312e+01 3.088347625732421875e+01 1.280481338500976918e+01 1.400000000000000000e+01
1.716306805610656960e+00 1.449878334999084029e+00 -6.020131111145019531e-01 1.900000000000000000e+01
1.956675291061400923e+00 1.651763439178467019e+00 -5.911713838577270508e-01 1.200000000000000000e+01
2.255116462707519975e+00 1.903024077415466087e+00 -5.735718607902526855e-01 7.000000000000000000e+00
2.709153890609741211e+00 2.284553766250609907e+00 -5.612868666648864746e-01 1.100000000000000000e+01
3.344138860702515093e+00 2.818022012710570845e+00 -5.369563102722167969e-01 1.000000000000000000e+01
4.342822074890136719e+00 3.658291578292847124e+00 -4.967877268791198730e-01 9.000000000000000000e+00
6.302879333496093750e+00 5.305637359619140625e+00 -4.317716360092163086e-01 2.000000000000000000e+00
1.025902366638183949e+01 8.629723548889160156e+00 -2.340018600225448886e-01 2.000000000000000000e+00
1.716917037963866965e+00 1.440153956413269043e+00 -6.004601716995239258e-01 1.900000000000000000e+01
1.969896435737610085e+00 1.651182532310486062e+00 -5.934208631515502930e-01 1.200000000000000000e+01
2.266260147094727007e+00 1.898923397064208984e+00 -5.747166872024536133e-01 7.000000000000000000e+00
2.711053848266602007e+00 2.270010471343994141e+00 -5.600354075431823730e-01 1.100000000000000000e+01
3.358522653579711914e+00 2.810153245925902876e+00 -5.376875400543212891e-01 1.000000000000000000e+01
4.364735126495361328e+00 3.650779724121094194e+00 -4.978336095809937079e-01 9.000000000000000000e+00
6.312166213989257812e+00 5.275918483734130859e+00 -4.311436116695404053e-01 2.000000000000000000e+00
3.645737457275391336e+01 3.046148109436035156e+01 1.096816349029541016e+01 1.400000000000000000e+01
1.026759815216063920e+01 8.575914382934570312e+00 -2.335131913423537930e-01 2.000000000000000000e+00
3.604586791992188211e+01 3.010696983337401988e+01 1.258430004119873047e+01 1.400000000000000000e+01
1.721683382987976074e+00 1.434452533721924050e+00 -6.004601716995239258e-01 2.000000000000000000e+01
1.967872977256774902e+00 1.638406634330749956e+00 -5.911713838577270508e-01 1.100000000000000000e+01
2.266508579254149947e+00 1.886374115943908913e+00 -5.731902122497558594e-01 8.000000000000000000e+00
2.712491512298583984e+00 2.255955457687377930e+00 -5.587838888168334961e-01 1.000000000000000000e+01
3.372402906417847124e+00 2.802807092666625977e+00 -5.384187698364257812e-01 1.000000000000000000e+01
4.370687484741210938e+00 3.631192684173583984e+00 -4.971363544464110773e-01 9.000000000000000000e+00
6.320406913757324219e+00 5.247303009033203125e+00 -4.305155873298645020e-01 2.000000000000000000e+00
1.034215068817139027e+01 8.580121994018554688e+00 -2.345603406429291049e-01 2.000000000000000000e+00
1.729657053947448953e+00 1.430896759033202903e+00 -6.014954447746276855e-01 1.700000000000000000e+01
1.970576167106627974e+00 1.629044175148010032e+00 -5.902715921401977539e-01 1.100000000000000000e+01
2.283673048019409180e+00 1.887205481529236062e+00 -5.758615732192993164e-01 1.200000000000000000e+01
2.727965354919434038e+00 2.252762317657471147e+00 -5.603482723236083984e-01 1.100000000000000000e+01
3.376041650772095171e+00 2.785964250564575195e+00 -5.374438166618347168e-01 9.000000000000000000e+00
4.383336067199707031e+00 3.615914106369018999e+00 -4.971363544464110773e-01 9.000000000000000000e+00
6.351014137268066406e+00 5.235372066497802734e+00 -4.313529431819915771e-01 1.000000000000000000e+00
1.038438606262207031e+01 8.554141044616699219e+00 -2.348395884037018100e-01 2.000000000000000000e+00
3.634465408325195312e+01 2.992827224731444957e+01 1.261535835266112926e+01 1.400000000000000000e+01
1.743598103523253950e+00 1.432207703590393066e+00 -6.046012639999389648e-01 1.700000000000000000e+01
1.979263186454772949e+00 1.624628424644469993e+00 -5.911713838577270508e-01 1.300000000000000000e+01
2.296317577362060991e+00 1.884203910827636941e+00 -5.773880481719970703e-01 1.300000000000000000e+01
2.734284877777100053e+00 2.241973876953125000e+00 -5.600354075431823730e-01 1.100000000000000000e+01
3.385746002197266069e+00 2.774162530899047852e+00 -5.374438166618347168e-01 9.000000000000000000e+00
4.409803390502929688e+00 3.611953735351562944e+00 -4.987051486968994141e-01 9.000000000000000000e+00
6.347612380981445312e+00 5.195460319519042969e+00 -4.298875331878662109e-01 2.000000000000000000e+00
1.041418170928955078e+01 8.517840385437011719e+00 -2.348395884037018100e-01 2.000000000000000000e+00
3.624332046508789062e+01 2.964369201660155895e+01 1.254599475860596058e+01 1.400000000000000000e+01
1.748586893081665039e+00 1.426112651824950950e+00 -6.046012639999389648e-01 1.700000000000000000e+01
1.984922170639038086e+00 1.617709636688231978e+00 -5.911713838577270508e-01 1.200000000000000000e+01
2.299836635589600053e+00 1.873696684837341087e+00 -5.766248106956481934e-01 1.400000000000000000e+01
2.755881309509276900e+00 2.243640184402465820e+00 -5.628511905670166016e-01 1.000000000000000000e+01
3.392329216003417969e+00 2.759821653366088867e+00 -5.369563102722167969e-01 9.000000000000000000e+00
4.422384738922119141e+00 3.596538543701171875e+00 -4.987051486968994141e-01 1.100000000000000000e+01
6.381208896636962891e+00 5.185867786407470703e+00 -4.309342503547667902e-01 2.000000000000000000e+00
1.043143272399901988e+01 8.471350669860839844e+00 -2.345603406429291049e-01 2.000000000000000000e+00
3.640955734252929688e+01 2.956814956665039062e+01 1.256773471832275035e+01 1.400000000000000000e+01
1.738541007041930930e+00 1.407842755317687988e+00 -5.994248986244201660e-01 2.000000000000000000e+01
1.996616482734679954e+00 1.615674495697021040e+00 -5.929709672927856445e-01 1.100000000000000000e+01
2.307889461517333984e+00 1.866892099380492942e+00 -5.770063996315002441e-01 1.400000000000000000e+01
2.756015062332152876e+00 2.227797508239746094e+00 -5.612868666648864746e-01 9.000000000000000000e+00
3.408118963241577148e+00 2.752953052520751953e+00 -5.379312634468078613e-01 9.000000000000000000e+00
4.425611495971679688e+00 3.573569536209106001e+00 -4.976592957973480225e-01 1.100000000000000000e+01
6.408598423004150391e+00 5.171086788177490234e+00 -4.315623044967650812e-01 2.000000000000000000e+00
3.682959747314453125e+01 2.970712661743164062e+01 1.092407321929931996e+01 1.300000000000000000e+01
1.048273372650145951e+01 8.452459335327148438e+00 -2.350490093231200894e-01 2.000000000000000000e+00
1.746455788612365945e+00 1.404186487197875977e+00 -6.004601716995239258e-01 2.000000000000000000e+01
1.997686624526977983e+00 1.605033516883850098e+00 -5.916212797164916992e-01 1.300000000000000000e+01
2.318984031677246094e+00 1.862512826919556108e+00 -5.781512856483459473e-01 1.500000000000000000e+01
2.752990722656250000e+00 2.209508657455443892e+00 -5.590967535972595215e-01 1.000000000000000000e+01
3.422353744506835938e+00 2.744765520095825195e+00 -5.386624932289123535e-01 1.000000000000000000e+01
4.439612865447998047e+00 3.559345722198485884e+00 -4.978336095809937079e-01 9.000000000000000000e+00
6.439079284667968750e+00 5.158675193786621094e+00 -4.323996603488922119e-01 2.000000000000000000e+00
1.053090667724609020e+01 8.430813789367675781e+00 -2.354678660631180087e-01 2.000000000000000000e+00
1.754366278648376021e+00 1.400492191314697044e+00 -6.014954447746276855e-01 2.000000000000000000e+01
1.997183442115783913e+00 1.593189477920532005e+00 -5.898216366767883301e-01 1.200000000000000000e+01
2.328541278839110884e+00 1.856854677200316939e+00 -5.789144635200500488e-01 1.400000000000000000e+01
2.773045539855957031e+00 2.209733963012694868e+00 -5.615997314453125000e-01 1.000000000000000000e+01
3.697722625732421875e+01 2.945518493652344105e+01 5.804636955261229581e+00 4.500000000000000000e+01
3.428807973861693892e+00 2.730329513549805132e+00 -5.381750464439392090e-01 1.000000000000000000e+01
4.462922096252441406e+00 3.552512884140015093e+00 -4.990537762641906738e-01 9.000000000000000000e+00
6.444542884826660156e+00 5.126220703125000000e+00 -4.315623044967650812e-01 2.000000000000000000e+00
1.057905673980713068e+01 8.408933639526367188e+00 -2.358867228031157892e-01 2.000000000000000000e+00
3.760945129394531250e+01 2.989447975158691051e+01 1.287314128875732067e+01 1.400000000000000000e+01
1.771355986595154031e+00 1.403959512710571067e+00 -6.056365370750427246e-01 1.900000000000000000e+01
2.004260063171387163e+00 1.587418198585510032e+00 -5.902715921401977539e-01 1.100000000000000000e+01
2.328851938247681108e+00 1.843840599060059038e+00 -5.773880481719970703e-01 1.400000000000000000e+01
2.774545431137084961e+00 2.195137977600098100e+00 -5.603482723236083984e-01 1.000000000000000000e+01
3.428974390029906782e+00 2.710957288742064986e+00 -5.367125868797302246e-01 1.000000000000000000e+01
4.458100795745849609e+00 3.523323297500609907e+00 -4.971363544464110773e-01 1.300000000000000000e+01
6.462397098541259766e+00 5.103693962097167969e+00 -4.315623044967650812e-01 2.000000000000000000e+00
1.054869461059569957e+01 8.324879646301269531e+00 -2.345603406429291049e-01 2.000000000000000000e+00
3.762258529663085938e+01 2.969120979309082031e+01 1.284208297729492010e+01 1.400000000000000000e+01
1.761064410209655984e+00 1.385820984840393066e+00 -6.004601716995239258e-01 1.900000000000000000e+01
2.011320829391479048e+00 1.581616997718811035e+00 -5.907214879989624023e-01 1.200000000000000000e+01
2.332186937332152876e+00 1.833273649215698020e+00 -5.766248106956481934e-01 1.400000000000000000e+01
2.786851406097412109e+00 2.189100503921508789e+00 -5.612868666648864746e-01 9.000000000000000000e+00
3.441539525985718218e+00 2.701422929763793945e+00 -5.372000932693481445e-01 1.000000000000000000e+01
4.465670108795166016e+00 3.504050493240356001e+00 -4.966134130954741877e-01 1.100000000000000000e+01
6.502177238464354581e+00 5.098358154296875000e+00 -4.330277144908905029e-01 2.000000000000000000e+00
1.062491130828857067e+01 8.325007438659667969e+00 -2.356074899435043057e-01 2.000000000000000000e+00
1.758279442787169966e+00 1.373718500137329102e+00 -5.978720188140869141e-01 1.900000000000000000e+01
2.026045799255371094e+00 1.581781864166259988e+00 -5.934208631515502930e-01 1.200000000000000000e+01
2.343214988708496094e+00 1.828745245933532937e+00 -5.777696371078491211e-01 1.300000000000000000e+01
2.803821802139281782e+00 2.186648130416870117e+00 -5.631640553474426270e-01 1.000000000000000000e+01
3.455645561218262163e+00 2.693053722381591797e+00 -5.379312634468078613e-01 1.000000000000000000e+01
4.466872215270996094e+00 3.479869842529296875e+00 -4.953932464122772217e-01 1.300000000000000000e+01
6.523086071014404297e+00 5.078083992004395419e+00 -4.332370460033416748e-01 2.000000000000000000e+00
1.063180923461914062e+01 8.270679473876953125e+00 -2.351188212633132935e-01 2.000000000000000000e+00
1.776320934295654075e+00 1.378849148750304954e+00 -6.025307178497314453e-01 1.700000000000000000e+01
2.029465436935424805e+00 1.574214696884155051e+00 -5.929709672927856445e-01 1.100000000000000000e+01
2.356706142425537109e+00 1.827389955520630105e+00 -5.796777009963989258e-01 1.400000000000000000e+01
2.791939735412598100e+00 2.163309812545775923e+00 -5.594096183776855469e-01 9.000000000000000000e+00
3.467228174209595171e+00 2.684614896774291992e+00 -5.384187698364257812e-01 9.000000000000000000e+00
4.485660076141357422e+00 3.471917152404785156e+00 -4.962647855281829834e-01 1.100000000000000000e+01
6.539007186889648438e+00 5.057566165924072266e+00 -4.332370460033416748e-01 1.000000000000000000e+00
3.904924011230468750e+01 3.019157028198241832e+01 1.139557075500487926e+01 1.400000000000000000e+01
1.067989063262938920e+01 8.254357337951660156e+00 -2.356074899435043057e-01 2.000000000000000000e+00
1.784183502197266069e+00 1.374998688697814941e+00 -6.035659909248352051e-01 1.900000000000000000e+01
2.025684118270874023e+00 1.559986829757689986e+00 -5.902715921401977539e-01 1.100000000000000000e+01
2.369293212890625000e+00 1.823942780494689941e+00 -5.812041759490966797e-01 1.300000000000000000e+01
2.805736780166625977e+00 2.158368825912476030e+00 -5.606611371040344238e-01 9.000000000000000000e+00
3.473430633544921875e+00 2.670076131820679155e+00 -5.379312634468078613e-01 9.000000000000000000e+00
4.518290042877197266e+00 3.472020149230957031e+00 -4.985308349132537842e-01 9.000000000000000000e+00
6.543948650360107422e+00 5.024978637695313388e+00 -4.323996603488922119e-01 1.000000000000000000e+00
1.072133064270020064e+01 8.226766586303710938e+00 -2.358867228031157892e-01 2.000000000000000000e+00
1.792040824890136941e+00 1.371110081672668013e+00 -6.046012639999389648e-01 1.800000000000000000e+01
2.037309646606444868e+00 1.557640910148621050e+00 -5.920711755752563477e-01 1.100000000000000000e+01
2.358487367630004883e+00 1.802547454833983931e+00 -5.770063996315002441e-01 1.300000000000000000e+01
2.821103334426879883e+00 2.154556751251221147e+00 -5.622254610061645508e-01 1.000000000000000000e+01
3.474839448928833008e+00 2.651913642883300781e+00 -5.367125868797302246e-01 9.000000000000000000e+00
4.565230846405029297e+00 3.482813596725463867e+00 -5.023657083511352539e-01 9.000000000000000000e+00
6.583685874938964844e+00 5.019057750701904297e+00 -4.338650703430175781e-01 2.000000000000000000e+00
1.073089313507080078e+01 8.174750328063964844e+00 -2.354678660631180087e-01 2.000000000000000000e+00
3.597654342651367188e+01 2.740678215026855113e+01 1.211842536926270064e+01 1.200000000000000000e+01
1.790662527084351030e+00 1.360172271728516069e+00 -6.025307178497314453e-01 2.000000000000000000e+01
2.041182279586791992e+00 1.549341678619384988e+00 -5.916212797164916992e-01 1.200000000000000000e+01
2.366328954696654829e+00 1.795490622520446999e+00 -5.773880481719970703e-01 1.200000000000000000e+01
2.833329200744628906e+00 2.148276567459106001e+00 -5.631640553474426270e-01 1.000000000000000000e+01
3.493568658828734907e+00 2.646960973739624023e+00 -5.381750464439392090e-01 7.000000000000000000e+00
4.526536464691162109e+00 3.428362846374512163e+00 -4.967877268791198730e-01 9.000000000000000000e+00
6.588425159454345703e+00 4.986402988433837891e+00 -4.330277144908905029e-01 2.000000000000000000e+00
1.073065471649169922e+01 8.115530014038085938e+00 -2.348395884037018100e-01 2.000000000000000000e+00
3.792289352416992188e+01 2.867045402526855113e+01 1.273855590820313033e+01 1.400000000000000000e+01
1.788994193077086958e+00 1.349573016166687012e+00 -6.004601716995239258e-01 1.800000000000000000e+01
2.060313940048218218e+00 1.553121805191040039e+00 -5.956704020500183105e-01 1.200000000000000000e+01
2.369134187698363814e+00 1.785270690917968972e+00 -5.766248106956481934e-01 1.000000000000000000e+01
2.837281465530395952e+00 2.136492490768433061e+00 -5.625383257865905762e-01 1.000000000000000000e+01
3.507085561752318892e+00 2.638942003250122070e+00 -5.389062166213989258e-01 9.000000000000000000e+00
4.588831901550292969e+00 3.451658487319945845e+00 -5.023657083511352539e-01 9.000000000000000000e+00
6.601731300354003906e+00 4.962127685546875000e+00 -4.328183531761168878e-01 2.000000000000000000e+00
1.077029895782471058e+01 8.089509010314941406e+00 -2.351188212633132935e-01 2.000000000000000000e+00
1.796786785125731978e+00 1.345636129379272017e+00 -6.014954447746276855e-01 1.700000000000000000e+01
2.065722703933715820e+00 1.545920491218566895e+00 -5.956704020500183105e-01 1.400000000000000000e+01
2.387927770614624023e+00 1.786398172378540039e+00 -5.796777009963989258e-01 1.100000000000000000e+01
2.841557502746582031e+00 2.124210119247436968e+00 -5.619125962257385254e-01 9.000000000000000000e+00
3.511504888534545898e+00 2.623119831085205078e+00 -5.381750464439392090e-01 9.000000000000000000e+00
4.592870235443115234e+00 3.429659128189086914e+00 -5.014941692352294922e-01 9.000000000000000000e+00
6.628616809844970703e+00 4.946219921112061435e+00 -4.334463775157927912e-01 1.000000000000000000e+00
1.083373928070068004e+01 8.078162193298339844e+00 -2.358867228031157892e-01 2.000000000000000000e+00
3.216005325317382812e+01 2.397136306762694957e+01 1.074771976470947088e+01 9.000000000000000000e+00
1.803023338317871094e+00 1.340508580207824929e+00 -6.020131111145019531e-01 1.900000000000000000e+01
2.052335023880004883e+00 1.524754405021667036e+00 -5.902715921401977539e-01 1.100000000000000000e+01
2.387844324111938032e+00 1.773369789123534934e+00 -5.781512856483459473e-01 1.100000000000000000e+01
2.844196319580078125e+00 2.110746622085570845e+00 -5.609740018844604492e-01 1.000000000000000000e+01
3.533395767211914062e+00 2.620306015014647993e+00 -5.401249527931213379e-01 7.000000000000000000e+00
3.500552749633789062e+01 2.595950126647948863e+01 6.902514457702636719e+00 1.500000000000000000e+01
4.593610286712645596e+00 3.405300378799438032e+00 -5.002739429473876953e-01 9.000000000000000000e+00
6.629792690277099609e+00 4.911162853240966797e+00 -4.323996603488922119e-01 1.000000000000000000e+00
3.150217056274414062e+01 2.332740211486816051e+01 9.049780845642089844e+00 1.200000000000000000e+01
1.090687465667724965e+01 8.073609352111816406e+00 -2.368640601634978970e-01 2.000000000000000000e+00
3.221918106079102273e+01 2.384964370727539062e+01 1.074099063873291016e+01 1.900000000000000000e+01
1.812354564666748047e+00 1.337648272514343040e+00 -6.035659909248352051e-01 1.800000000000000000e+01
2.060781717300415039e+00 1.519894480705261008e+00 -5.911713838577270508e-01 1.200000000000000000e+01
2.397180557250977007e+00 1.767353892326354980e+00 -5.789144635200500488e-01 1.200000000000000000e+01
2.857908487319945845e+00 2.105492353439331055e+00 -5.622254610061645508e-01 1.000000000000000000e+01
3.532929182052611861e+00 2.600894927978516069e+00 -5.386624932289123535e-01 7.000000000000000000e+00
4.645586490631104404e+00 3.418767929077147993e+00 -5.046317577362060547e-01 8.000000000000000000e+00
6.640459537506104404e+00 4.883257865905761719e+00 -4.319809973239899237e-01 2.000000000000000000e+00
3.155828285217285156e+01 2.319882774353026988e+01 9.042582511901855469e+00 1.200000000000000000e+01
1.085442066192626953e+01 7.976281166076660156e+00 -2.351188212633132935e-01 2.000000000000000000e+00
3.230015182495117188e+01 2.372681999206542969e+01 1.073892021179199041e+01 1.900000000000000000e+01
1.811010956764220969e+00 1.326430678367614968e+00 -6.014954447746276855e-01 1.800000000000000000e+01
2.072628736495972124e+00 1.516934871673583984e+00 -5.929709672927856445e-01 1.100000000000000000e+01
2.398888587951660156e+00 1.755078196525573953e+00 -5.777696371078491211e-01 1.200000000000000000e+01
2.870390176773070845e+00 2.098500967025756836e+00 -5.631640553474426270e-01 1.200000000000000000e+01
3.547246932983397993e+00 2.591441631317139116e+00 -5.393937230110168457e-01 9.000000000000000000e+00
4.595334053039550781e+00 3.355891942977904829e+00 -4.978336095809937079e-01 9.000000000000000000e+00
6.671219825744628906e+00 4.868305206298828125e+00 -4.328183531761168878e-01 2.000000000000000000e+00
3.163995170593262074e+01 2.308070945739746094e+01 9.041682243347167969e+00 1.200000000000000000e+01
1.095144271850585938e+01 7.985929489135742188e+00 -2.365848273038864136e-01 2.000000000000000000e+00
3.230941390991210938e+01 2.356042861938476918e+01 1.071459102630615057e+01 9.000000000000000000e+00
1.815630078315735085e+00 1.320101022720336914e+00 -6.014954447746276855e-01 1.900000000000000000e+01
2.081064224243164062e+00 1.511981725692749023e+00 -5.938707590103149414e-01 1.100000000000000000e+01
2.405000448226929155e+00 1.746693849563599077e+00 -5.777696371078491211e-01 1.100000000000000000e+01
2.866506814956665039e+00 2.080346822738647017e+00 -5.609740018844604492e-01 1.300000000000000000e+01
3.548236131668090820e+00 2.573216676712036133e+00 -5.381750464439392090e-01 1.000000000000000000e+01
4.650574207305908203e+00 3.371404647827147993e+00 -5.025399923324584961e-01 9.000000000000000000e+00
6.697877407073974609e+00 4.852018833160400391e+00 -4.334463775157927912e-01 2.000000000000000000e+00
3.173926544189453125e+01 2.298383903503417969e+01 9.047081947326660156e+00 1.200000000000000000e+01
1.093389701843262074e+01 7.914821147918701172e+00 -2.356074899435043057e-01 2.000000000000000000e+00
3.183525085449219105e+01 2.303641128540039062e+01 1.052927684783936080e+01 9.000000000000000000e+00
1.816865205764770952e+00 1.311811208724976030e+00 -6.004601716995239258e-01 1.700000000000000000e+01
2.082906007766724077e+00 1.502792000770569070e+00 -5.929709672927856445e-01 1.100000000000000000e+01
2.418740987777709961e+00 1.744451045989990012e+00 -5.796777009963989258e-01 1.200000000000000000e+01
2.879800081253052202e+00 2.075449466705321822e+00 -5.622254610061645508e-01 1.400000000000000000e+01
3.564804077148437944e+00 2.567236423492432085e+00 -5.393937230110168457e-01 1.000000000000000000e+01
4.700535774230957031e+00 3.383901596069335938e+00 -5.067234635353088379e-01 9.000000000000000000e+00
