-1.291695982217788974e-01 -1.648612499237060991e+00 4.430982172489166260e-01 7.000000000000000000e+01
-2.581146061420441229e-01 -3.236324310302733931e+00 -7.495369315147399902e-01 2.000000000000000000e+00
-3.090982139110565186e-01 -3.867057085037231001e+00 -7.540771365165710449e-01 8.000000000000000000e+00
-3.959889709949492853e-01 -4.932448863983154297e+00 -7.837366461753845215e-01 9.000000000000000000e+00
-3.415366172790526900e+00 -4.244900894165039062e+01 5.228926181793212891e+00 3.000000000000000000e+01
-5.726163983345031738e-01 -7.101447582244873047e+00 -8.747781515121459961e-01 1.000000000000000000e+00
-1.432075947523117065e-01 -1.776025414466857910e+00 2.822077870368958075e-01 2.000000000000000000e+00
-2.036562681198120117e+00 -2.509294128417969105e+01 -1.319389462471008079e+00 1.100000000000000000e+01
-1.357064694166182917e-01 -1.668457984924315962e+00 3.864659070968627930e-01 5.900000000000000000e+01
-1.329356729984282892e-01 -1.630869388580322044e+00 4.384394586086273193e-01 7.500000000000000000e+01
-2.694098949432373047e-01 -3.235403537750244141e+00 -7.495369315147399902e-01 4.000000000000000000e+00
-3.221051096916198730e-01 -3.860085248947143999e+00 -7.529323101043701172e-01 9.000000000000000000e+00
-4.123792350292205811e-01 -4.921194076538085938e+00 -7.821723222732543945e-01 7.000000000000000000e+00
-5.980674028396606445e-01 -7.107317924499511719e+00 -8.757531046867370605e-01 1.000000000000000000e+00
-2.115378141403197798e+00 -2.498219299316405895e+01 -1.313946485519408958e+00 1.100000000000000000e+01
-1.431772559881210050e-01 -1.687391638755797896e+00 3.909649252891541082e-01 5.900000000000000000e+01
-1.410442888736725131e-01 -1.655394554138184038e+00 4.451687633991240900e-01 6.900000000000000000e+01
-2.797469794750214178e-01 -3.216921806335449219e+00 -7.454878091812133789e-01 7.000000000000000000e+00
-3.384664058685302734e-01 -3.884304523468018022e+00 -7.578933238983154297e-01 9.000000000000000000e+00
-4.305857121944426935e-01 -4.921617507934570312e+00 -7.824851870536804199e-01 9.000000000000000000e+00
-6.241129636764526367e-01 -7.105078220367431641e+00 -8.757531046867370605e-01 1.000000000000000000e+00
-2.210796117782593218e+00 -2.501804161071776988e+01 -1.316249251365662065e+00 2.300000000000000000e+01
-1.498765200376510898e-01 -1.692679047584533913e+00 3.923146426677703857e-01 7.200000000000000000e+01
-1.478461772203444879e-01 -1.666437983512877974e+00 4.482745826244354248e-01 8.500000000000000000e+01
-2.900964319705963135e-01 -3.206221580505371094e+00 -7.432382702827453613e-01 8.000000000000000000e+00
-3.504278361797332764e-01 -3.865502357482910156e+00 -7.544587850570678711e-01 9.000000000000000000e+00
-4.486579000949860174e-01 -4.929920673370361328e+00 -7.840495109558105469e-01 7.000000000000000000e+00
-6.489105224609375000e-01 -7.102856159210205078e+00 -8.757531046867370605e-01 1.000000000000000000e+00
-3.882529497146606001e+00 -4.241574859619141336e+01 6.746079921722412109e+00 1.400000000000000000e+01
-2.303228855133057085e+00 -2.506586074829101918e+01 -1.319180130958556907e+00 1.100000000000000000e+01
-1.552482098340987882e-01 -1.686323881149291992e+00 3.909649252891541082e-01 8.000000000000000000e+01
-4.000709533691406250e+00 -4.337324523925781250e+01 -7.602966427803039551e-01 1.100000000000000000e+01
-1.544862985610961914e-01 -1.671655774116515891e+00 4.498274922370911200e-01 9.200000000000000000e+01
-3.009090721607208252e-01 -3.207182168960570845e+00 -7.436881661415100098e-01 9.000000000000000000e+00
-3.628768920898438055e-01 -3.860409736633300781e+00 -7.536955475807189941e-01 9.000000000000000000e+00
-4.642614424228668213e-01 -4.920538902282714844e+00 -7.827980518341064453e-01 9.000000000000000000e+00
-6.705893278121948242e-01 -7.080903053283691406e+00 -8.733156919479370117e-01 1.000000000000000000e+00
-2.386716365814208984e+00 -2.506206130981444957e+01 -1.319389462471008079e+00 1.100000000000000000e+01
-1.612095832824707031e-01 -1.689679741859436035e+00 3.918647468090056818e-01 8.000000000000000000e+01
-1.602886468172073087e-01 -1.676931500434875044e+00 4.513804018497467041e-01 8.200000000000000000e+01
-8.094196021556854248e-02 -8.345074057579040527e-01 -2.246549278497695923e-01 4.000000000000000000e+00
-3.134240806102753241e-01 -3.219689369201660156e+00 -7.468374967575073242e-01 9.000000000000000000e+00
-3.765405714511870783e-01 -3.861073493957519975e+00 -7.540771365165710449e-01 8.000000000000000000e+00
-4.820117354393004816e-01 -4.924786567687988281e+00 -7.837366461753845215e-01 9.000000000000000000e+00
-6.991832852363586426e-01 -7.118030548095703125e+00 -8.781905174255371094e-01 1.000000000000000000e+00
-2.473792314529418945e+00 -2.504960250854491832e+01 -1.319180130958556907e+00 2.300000000000000000e+01
-1.674903929233551025e-01 -1.692985177040100098e+00 3.927645385265349787e-01 7.600000000000000000e+01
-1.660521030426025113e-01 -1.672487974166869895e+00 4.503451287746428888e-01 8.200000000000000000e+01
-8.385443687438964844e-02 -8.342197537422180176e-01 -2.246549278497695923e-01 4.000000000000000000e+00
-3.236830830574036200e-01 -3.208881139755249023e+00 -7.445880174636840820e-01 9.000000000000000000e+00
-3.900159597396851141e-01 -3.859735727310181108e+00 -7.540771365165710449e-01 9.000000000000000000e+00
-4.974060058593750000e-01 -4.905386447906494141e+00 -7.809208631515502930e-01 9.000000000000000000e+00
-7.240256071090698242e-01 -7.115546703338623047e+00 -8.781905174255371094e-01 1.000000000000000000e+00
-2.562435865402222124e+00 -2.505273628234862926e+01 -1.319808125495911089e+00 1.100000000000000000e+01
-1.737962365150451938e-01 -1.696267485618591087e+00 3.936643302440642755e-01 6.900000000000000000e+01
-1.725835502147675116e-01 -1.681536912918091042e+00 4.529333412647246759e-01 5.900000000000000000e+01
-8.396700024604797363e-02 -8.070212602615356445e-01 -2.174080014228821078e-01 5.000000000000000000e+00
-3.342751562595366877e-01 -3.201917171478271040e+00 -7.432382702827453613e-01 8.000000000000000000e+00
-4.059368968009948730e-01 -3.881782054901123047e+00 -7.586565613746643066e-01 8.000000000000000000e+00
-5.153505206108093262e-01 -4.911478519439697266e+00 -7.821723222732543945e-01 7.000000000000000000e+00
-7.496904730796813965e-01 -7.120872497558593750e+00 -8.791654706001281738e-01 1.000000000000000000e+00
-4.480264186859130859e+00 -4.255541610717772727e+01 6.777366638183593750e+00 1.500000000000000000e+01
-2.648609638214110884e+00 -2.503172111511230113e+01 -1.319180130958556907e+00 2.300000000000000000e+01
-1.795108765363692960e-01 -1.693712592124938965e+00 3.932144343852996826e-01 3.800000000000000000e+01
-1.788600534200668057e-01 -1.684766292572021040e+00 4.539686143398284912e-01 6.000000000000000000e+01
-3.460772335529326837e-01 -3.206543207168579102e+00 -7.445880174636840820e-01 9.000000000000000000e+00
-4.173742830753325861e-01 -3.860822439193726030e+00 -7.548403739929199219e-01 8.000000000000000000e+00
-5.327046513557434082e-01 -4.911613464355468750e+00 -7.824851870536804199e-01 9.000000000000000000e+00
-4.634440422058104581e+00 -4.266074752807617188e+01 5.268898963928222656e+00 3.100000000000000000e+01
-7.698182463645935059e-01 -7.074796676635742188e+00 -8.738031983375549316e-01 1.000000000000000000e+00
-2.740746498107910156e+00 -2.506600189208984020e+01 -1.321482896804810014e+00 2.300000000000000000e+01
-1.864826977252959928e-01 -1.702761411666869895e+00 3.954639434814453125e-01 2.600000000000000000e+01
-1.866357326507568082e-01 -1.701414704322814941e+00 4.586273431777954102e-01 5.500000000000000000e+01
-3.576997816562653143e-01 -3.209189176559447798e+00 -7.454878091812133789e-01 9.000000000000000000e+00
-4.304128885269165039e-01 -3.855439901351929155e+00 -7.540771365165710449e-01 9.000000000000000000e+00
-5.500659942626953125e-01 -4.911687374114990234e+00 -7.827980518341064453e-01 7.000000000000000000e+00
-7.967253923416137695e-01 -7.091793060302734375e+00 -8.762405514717102051e-01 1.000000000000000000e+00
-2.832706928253173828e+00 -2.509597587585448863e+01 -1.323576331138611062e+00 1.100000000000000000e+01
-1.939577162265777865e-01 -1.715654969215393066e+00 3.986132740974426270e-01 2.000000000000000000e+01
-1.924351006746292114e-01 -1.696880102157592995e+00 4.575920701026917059e-01 5.800000000000000000e+01
-3.703515231609343927e-01 -3.215600252151488814e+00 -7.472873926162719727e-01 9.000000000000000000e+00
-4.456657469272614081e-01 -3.863588094711304155e+00 -7.559852600097656250e-01 9.000000000000000000e+00
-5.676104426383972168e-01 -4.905713558197020596e+00 -7.821723222732543945e-01 6.000000000000000000e+00
-8.236281871795654297e-01 -7.096713066101074219e+00 -8.772155046463012695e-01 1.000000000000000000e+00
-2.931607961654663086e+00 -2.514493942260741832e+01 -1.326716542243957964e+00 2.300000000000000000e+01
-2.025046944618225098e-01 -1.734288454055785911e+00 4.031122922897338867e-01 1.100000000000000000e+01
-1.976839900016784946e-01 -1.690441727638245073e+00 4.560391604900360107e-01 5.700000000000000000e+01
-3.815737962722777765e-01 -3.214287996292113814e+00 -7.472873926162719727e-01 9.000000000000000000e+00
-4.586859047412871759e-01 -3.858109712600708008e+00 -7.552220225334167480e-01 9.000000000000000000e+00
-5.833277106285095215e-01 -4.891933441162109375e+00 -7.802951335906982422e-01 7.000000000000000000e+00
-8.479238748550415039e-01 -7.089852333068847656e+00 -8.767280578613281250e-01 1.000000000000000000e+00
-5.135808467864990234e+00 -4.287921142578125000e+01 6.839940547943115234e+00 1.500000000000000000e+01
-3.015550851821898970e+00 -2.510282516479491832e+01 -1.325041770935059038e+00 2.300000000000000000e+01
-2.125142663717269897e-01 -1.766462445259094016e+00 4.107606112957000732e-01 2.000000000000000000e+00
-2.045078575611115057e-01 -1.697413325309752974e+00 4.581097066402434748e-01 5.900000000000000000e+01
-3.908138275146483820e-01 -3.201398611068726030e+00 -7.445880174636840820e-01 9.000000000000000000e+00
-4.729067683219910223e-01 -3.868259906768798828e+00 -7.575117349624633789e-01 9.000000000000000000e+00
-5.981044173240661621e-01 -4.878208160400390625e+00 -7.784178853034973145e-01 7.000000000000000000e+00
-5.592024803161621094e+00 -4.554338455200195312e+01 5.634019851684570312e+00 4.000000000000000000e+01
-8.709454536437988281e-01 -7.083061218261718750e+00 -8.762405514717102051e-01 1.000000000000000000e+00
-3.099757432937622070e+00 -2.510061645507812855e+01 -1.325460433959960938e+00 1.100000000000000000e+01
-2.110853344202041904e-01 -1.704394698143004927e+00 4.601802527904509943e-01 5.900000000000000000e+01
-4.005290567874907892e-01 -3.188413619995117188e+00 -7.418885827064514160e-01 9.000000000000000000e+00
-4.846913516521453857e-01 -3.852950334548950195e+00 -7.548403739929199219e-01 8.000000000000000000e+00
-6.161178350448608398e-01 -4.883929729461669922e+00 -7.796693444252014160e-01 6.000000000000000000e+00
-8.961629271507263184e-01 -7.083916664123535156e+00 -8.767280578613281250e-01 1.000000000000000000e+00
-3.185342311859130859e+00 -2.507379150390625000e+01 -1.324623107910156028e+00 1.100000000000000000e+01
-2.195310294628143033e-01 -1.720856428146362083e+00 4.648390114307404120e-01 6.100000000000000000e+01
-4.137123525142670233e-01 -3.198520183563231978e+00 -7.445880174636840820e-01 9.000000000000000000e+00
-4.978011548519135077e-01 -3.843359947204589844e+00 -7.533138990402221680e-01 8.000000000000000000e+00
-6.340141892433166504e-01 -4.881639003753662109e+00 -7.796693444252014160e-01 7.000000000000000000e+00
-9.236589074134826660e-01 -7.092395305633544922e+00 -8.781905174255371094e-01 1.000000000000000000e+00
-5.610093593597412109e+00 -4.301895904541016336e+01 6.871227264404296875e+00 1.500000000000000000e+01
-1.643778085708617942e+00 -1.260471343994140980e+01 -1.112107276916503906e+00 3.000000000000000000e+00
-3.282400369644165039e+00 -2.510155677795410156e+01 -1.326716542243957964e+00 1.100000000000000000e+01
-5.697601318359375000e+00 -4.345338058471679688e+01 -7.649738788604736328e-01 1.100000000000000000e+01
-2.262900620698929111e-01 -1.725826025009155051e+00 4.663919210433959961e-01 6.600000000000000000e+01
-4.274419844150543213e-01 -3.216374158859252930e+00 -7.490870356559753418e-01 9.000000000000000000e+00
-5.125088095664978027e-01 -3.851329326629639116e+00 -7.552220225334167480e-01 9.000000000000000000e+00
-6.518341898918151855e-01 -4.885270118713378906e+00 -7.806079983711242676e-01 9.000000000000000000e+00
-9.484103918075561523e-01 -7.089128017425537109e+00 -8.781905174255371094e-01 1.000000000000000000e+00
-3.373723506927489790e+00 -2.511765861511230113e+01 -1.328181862831115945e+00 1.100000000000000000e+01
-2.317972630262374878e-01 -1.721196413040160911e+00 4.653566479682921808e-01 5.200000000000000000e+01
-4.370529949665070135e-01 -3.207215309143065962e+00 -7.472873926162719727e-01 9.000000000000000000e+00
-5.250120759010314941e-01 -3.847663402557373047e+00 -7.548403739929199219e-01 8.000000000000000000e+00
-6.666920185089111328e-01 -4.873295783996582031e+00 -7.790436148643493652e-01 7.000000000000000000e+00
-9.756900668144226074e-01 -7.113477230072020596e+00 -8.816028237342834473e-01 1.000000000000000000e+00
-3.456998109817504883e+00 -2.510633277893066051e+01 -1.328181862831115945e+00 1.100000000000000000e+01
-2.391265481710433960e-01 -1.729945063591002974e+00 4.679448306560515802e-01 3.800000000000000000e+01
-4.455469548702239990e-01 -3.186370611190795898e+00 -7.427883744239807129e-01 9.000000000000000000e+00
-5.389841198921203613e-01 -3.849695920944213867e+00 -7.556036114692687988e-01 9.000000000000000000e+00
-6.836989521980285645e-01 -4.870938777923583984e+00 -7.790436148643493652e-01 9.000000000000000000e+00
-9.949824810028076172e-01 -7.070713996887207031e+00 -8.767280578613281250e-01 1.000000000000000000e+00
-3.541262388229370117e+00 -2.507038116455078125e+01 -1.326925873756408913e+00 1.100000000000000000e+01
-2.500452995300292969e-01 -1.763528823852539062e+00 4.772623181343079168e-01 3.000000000000000000e+01
-4.566634297370911200e-01 -3.188733577728271040e+00 -7.436881661415100098e-01 9.000000000000000000e+00
-5.500752329826354980e-01 -3.836227178573607954e+00 -7.533138990402221680e-01 8.000000000000000000e+00
-7.009720206260681152e-01 -4.876466274261474609e+00 -7.802951335906982422e-01 7.000000000000000000e+00
-1.016159296035767046e+00 -7.051657199859619141e+00 -8.747781515121459961e-01 1.000000000000000000e+00
-3.627238273620605025e+00 -2.507826805114746094e+01 -1.327972531318664995e+00 1.100000000000000000e+01
-2.619978785514832098e-01 -1.804749846458435059e+00 4.886503517627716064e-01 2.900000000000000000e+01
-4.683573842048645020e-01 -3.190976381301879883e+00 -7.445880174636840820e-01 9.000000000000000000e+00
-5.651754736900329590e-01 -3.845938205718994141e+00 -7.556036114692687988e-01 9.000000000000000000e+00
-7.202929258346557617e-01 -4.889623641967773438e+00 -7.827980518341064453e-01 7.000000000000000000e+00
-1.041347980499268022e+00 -7.051994800567626953e+00 -8.752655982971191406e-01 1.000000000000000000e+00
-3.716512441635131836e+00 -2.507730674743651988e+01 -1.328600525856018066e+00 1.100000000000000000e+01
-2.711381614208220880e-01 -1.822932600975037065e+00 4.938267469406127930e-01 4.300000000000000000e+01
-4.823702275753021240e-01 -3.204654455184936968e+00 -7.481871843338012695e-01 9.000000000000000000e+00
-5.786826610565185547e-01 -3.839958190917969194e+00 -7.548403739929199219e-01 8.000000000000000000e+00
-7.352589368820190430e-01 -4.867418766021729404e+00 -7.796693444252014160e-01 7.000000000000000000e+00
-1.070754051208496094e+00 -7.071683406829833984e+00 -8.781905174255371094e-01 1.000000000000000000e+00
-3.812600851058959961e+00 -2.509116172790526988e+01 -1.330065965652466042e+00 1.100000000000000000e+01
-2.786632478237152100e-01 -1.829614400863647017e+00 4.958972930908203125e-01 3.200000000000000000e+01
-4.923664927482604980e-01 -3.195247173309326172e+00 -7.463876008987426758e-01 9.000000000000000000e+00
-5.908857583999633789e-01 -3.830153465270996094e+00 -7.533138990402221680e-01 9.000000000000000000e+00
-7.543579936027526855e-01 -4.878488063812255859e+00 -7.818594574928283691e-01 9.000000000000000000e+00
-1.095432281494141069e+00 -7.067902565002441406e+00 -8.781905174255371094e-01 1.000000000000000000e+00
-3.909983873367310014e+00 -2.514085388183594105e+01 -1.333415508270263894e+00 1.100000000000000000e+01
-5.023532509803771973e-01 -3.189746856689453125e+00 -7.454878091812133789e-01 9.000000000000000000e+00
-6.075587272644042969e-01 -3.853384017944335938e+00 -7.582749724388122559e-01 9.000000000000000000e+00
-7.702231407165527344e-01 -4.874008178710938388e+00 -7.815465927124023438e-01 7.000000000000000000e+00
-1.117001056671143022e+00 -7.052467346191406250e+00 -8.767280578613281250e-01 1.000000000000000000e+00
-3.975151062011719194e+00 -2.501334381103515980e+01 -1.327344536781311035e+00 1.100000000000000000e+01
-5.128647089004516602e-01 -3.184125900268555132e+00 -7.445880174636840820e-01 9.000000000000000000e+00
-6.188181042671203613e-01 -3.837672233581542969e+00 -7.556036114692687988e-01 8.000000000000000000e+00
-7.878621816635131836e-01 -4.875190258026123047e+00 -7.821723222732543945e-01 7.000000000000000000e+00
-1.146690011024475098e+00 -7.079877853393554688e+00 -8.806278705596923828e-01 1.000000000000000000e+00
-4.066924571990966797e+00 -2.502691459655762074e+01 -1.328809976577759011e+00 1.100000000000000000e+01
-5.246094465255737305e-01 -3.186161994934082031e+00 -7.454878091812133789e-01 9.000000000000000000e+00
-6.302945017814636230e-01 -3.823865890502930132e+00 -7.533138990402221680e-01 9.000000000000000000e+00
-8.045530319213867188e-01 -4.870461463928222656e+00 -7.818594574928283691e-01 9.000000000000000000e+00
-1.166857361793518066e+00 -7.048414230346679688e+00 -8.772155046463012695e-01 1.000000000000000000e+00
-4.164077281951904297e+00 -2.507167434692383168e+01 -1.331950068473815918e+00 1.100000000000000000e+01
-5.357280373573303223e-01 -3.184311389923096147e+00 -7.454878091812133789e-01 1.000000000000000000e+01
-6.459208726882934570e-01 -3.835194349288939986e+00 -7.559852600097656250e-01 9.000000000000000000e+00
-8.192479610443115234e-01 -4.853988647460938388e+00 -7.796693444252014160e-01 6.000000000000000000e+00
-1.188143372535706010e+00 -7.024724960327148438e+00 -8.747781515121459961e-01 1.000000000000000000e+00
-4.257582187652587891e+00 -2.509243011474609020e+01 -1.333834171295166016e+00 1.100000000000000000e+01
-5.493776798248291016e-01 -3.193849802017211914e+00 -7.481871843338012695e-01 9.000000000000000000e+00
-6.599732041358947754e-01 -3.832801342010498047e+00 -7.559852600097656250e-01 9.000000000000000000e+00
-8.397203087806701660e-01 -4.866526126861572266e+00 -7.821723222732543945e-01 4.000000000000000000e+00
-1.219970226287842019e+00 -7.055532455444335938e+00 -8.791654706001281738e-01 1.000000000000000000e+00
-4.349522113800048828e+00 -2.507665634155273082e+01 -1.333834171295166016e+00 1.100000000000000000e+01
-5.585005879402160645e-01 -3.180396318435668945e+00 -7.454878091812133789e-01 9.000000000000000000e+00
-6.740279793739318848e-01 -3.834341526031494141e+00 -7.567484974861145020e-01 9.000000000000000000e+00
-8.728085756301879883e-01 -4.955000400543212891e+00 -7.968771457672119141e-01 1.000000000000000000e+00
-7.898975849151611328e+00 -4.479731750488281250e+01 5.585271835327148438e+00 3.900000000000000000e+01
-1.241830825805664062e+00 -7.035592079162597656e+00 -8.772155046463012695e-01 1.000000000000000000e+00
-4.435636520385742188e+00 -2.505345535278319957e+01 -1.333415508270263894e+00 1.100000000000000000e+01
-5.676704049110412598e-01 -3.170853853225708008e+00 -7.436881661415100098e-01 9.000000000000000000e+00
-6.863930821418762207e-01 -3.830152750015258789e+00 -7.563668489456176758e-01 8.000000000000000000e+00
-8.822525143623352051e-01 -4.913193225860595703e+00 -7.906197905540466309e-01 3.000000000000000000e+00
-1.266561031341552956e+00 -7.039249897003173828e+00 -8.781905174255371094e-01 1.000000000000000000e+00
-1.885189414024353027e+00 -1.046695995330811080e+01 -9.304746985435485840e-01 2.000000000000000000e+00
-4.515854835510253906e+00 -2.502288436889648082e+01 -1.332578063011168990e+00 1.100000000000000000e+01
-5.794355273246765137e-01 -3.172687053680419922e+00 -7.445880174636840820e-01 9.000000000000000000e+00
-6.955219507217407227e-01 -3.804558515548706055e+00 -7.517874240875244141e-01 2.000000000000000000e+00
-8.954823613166809082e-01 -4.888710021972656250e+00 -7.871782183647155762e-01 4.000000000000000000e+00
-8.454320907592773438e+00 -4.610929489135742188e+01 5.755888938903808594e+00 4.300000000000000000e+01
-1.291124820709228960e+00 -7.034786224365234375e+00 -8.781905174255371094e-01 1.000000000000000000e+00
-1.901554107666016069e+00 -1.035057830810547053e+01 -9.207132458686828613e-01 2.000000000000000000e+00
-4.611128330230712891e+00 -2.505018234252930043e+01 -1.334880948066710982e+00 1.100000000000000000e+01
-5.924886465072631836e-01 -3.178205013275146040e+00 -7.463876008987426758e-01 9.000000000000000000e+00
-9.061336517333984375e-01 -4.846560478210449219e+00 -7.809208631515502930e-01 7.000000000000000000e+00
-1.313975930213928001e+00 -7.014397144317626953e+00 -8.762405514717102051e-01 1.000000000000000000e+00
-1.926259398460387962e+00 -1.027304172515868963e+01 -9.144380688667297363e-01 2.000000000000000000e+00
-4.716186523437500000e+00 -2.510377883911133168e+01 -1.338649034500122070e+00 2.300000000000000000e+01
-6.046705245971679688e-01 -3.181860923767089844e+00 -7.477372884750366211e-01 8.000000000000000000e+00
-9.230458140373229980e-01 -4.843368053436279297e+00 -7.809208631515502930e-01 7.000000000000000000e+00
-1.341431260108947976e+00 -7.025366783142089844e+00 -8.781905174255371094e-01 1.000000000000000000e+00
-1.953878760337830034e+00 -1.022320175170898082e+01 -9.106032252311706543e-01 4.000000000000000000e+00
-4.805288791656494141e+00 -2.509500885009765980e+01 -1.339067816734313965e+00 1.100000000000000000e+01
-6.191081404685974121e-01 -3.196949481964110884e+00 -7.517864108085632324e-01 1.000000000000000000e+00
-9.391934871673583984e-01 -4.836237907409667969e+00 -7.802951335906982422e-01 9.000000000000000000e+00
-1.363671422004699929e+00 -7.008950233459472656e+00 -8.767280578613281250e-01 1.000000000000000000e+00
-1.972795248031615989e+00 -1.013027095794677912e+01 -9.029334783554077148e-01 1.200000000000000000e+01
-4.880618572235107422e+00 -2.501535415649414062e+01 -1.335718274116515891e+00 1.100000000000000000e+01
-9.545360207557678223e-01 -4.825179100036621094e+00 -7.790436148643493652e-01 6.000000000000000000e+00
-1.383498072624206987e+00 -6.980781078338623047e+00 -8.738031983375549316e-01 3.000000000000000000e+00
-1.995738863945007102e+00 -1.006078529357909979e+01 -8.973555564880371094e-01 1.200000000000000000e+01
-4.978030681610107422e+00 -2.504909706115723012e+01 -1.338439702987670898e+00 1.100000000000000000e+01
-9.767680168151855469e-01 -4.852971553802490234e+00 -7.840495109558105469e-01 4.000000000000000000e+00
-1.408993721008301003e+00 -6.987830162048339844e+00 -8.752655982971191406e-01 1.000000000000000000e+00
-2.029090642929077148e+00 -1.005411148071289062e+01 -8.973555564880371094e-01 8.000000000000000000e+00
-5.068193435668945312e+00 -2.506768989562987926e+01 -1.340323805809020996e+00 1.100000000000000000e+01
-9.972708225250244141e-01 -4.866949081420898438e+00 -7.868653535842895508e-01 1.000000000000000000e+00
-1.430982232093811035e+00 -6.971201896667479581e+00 -8.738031983375549316e-01 3.000000000000000000e+00
-2.080613374710083008e+00 -1.012698459625243963e+01 -9.045022726058959961e-01 1.200000000000000000e+01
-5.150833606719970703e+00 -2.502637100219726918e+01 -1.339067816734313965e+00 1.100000000000000000e+01
-1.026403784751892090e+00 -4.917405128479003906e+00 -7.956256866455078125e-01 1.000000000000000000e+00
-1.460586190223694070e+00 -6.985341072082520419e+00 -8.762405514717102051e-01 1.000000000000000000e+00
-2.122205972671508789e+00 -1.014074230194091975e+01 -9.064197540283203125e-01 6.000000000000000000e+00
-5.230231285095214844e+00 -2.494868087768555043e+01 -1.335927605628967063e+00 1.100000000000000000e+01
-1.041921019554137962e+00 -4.906063079833984375e+00 -7.943742275238037109e-01 1.000000000000000000e+00
-1.480830073356627974e+00 -6.960783958435058594e+00 -8.738031983375549316e-01 1.000000000000000000e+00
-2.160080194473267046e+00 -1.014496421813965021e+01 -9.074655771255493164e-01 6.000000000000000000e+00
-5.333950996398925781e+00 -2.500840377807616832e+01 -1.340114474296570046e+00 1.100000000000000000e+01
-1.055683732032776101e+00 -4.890995502471923828e+00 -7.924969792366027832e-01 1.000000000000000000e+00
-1.500548720359802024e+00 -6.940312862396240234e+00 -8.718532919883728027e-01 1.000000000000000000e+00
-2.184439897537231001e+00 -1.009490489959716975e+01 -9.036307334899902344e-01 8.000000000000000000e+00
-5.416852474212645596e+00 -2.499057960510253906e+01 -1.340114474296570046e+00 1.100000000000000000e+01
-1.065973877906799094e+00 -4.856409549713134766e+00 -7.874910831451416016e-01 4.000000000000000000e+00
-1.532438635826111062e+00 -6.969930648803710938e+00 -8.762405514717102051e-01 1.000000000000000000e+00
-2.208531856536864790e+00 -1.003662586212158025e+01 -8.990986347198486328e-01 8.000000000000000000e+00
-5.521249294281005859e+00 -2.504953575134276988e+01 -1.344301342964171919e+00 1.100000000000000000e+01
-1.079047203063965066e+00 -4.835307598114013672e+00 -7.846753001213073730e-01 4.000000000000000000e+00
-1.557624936103821023e+00 -6.968413829803466797e+00 -8.767280578613281250e-01 1.000000000000000000e+00
-2.231373786926269975e+00 -9.974414825439453125e+00 -8.942179083824157715e-01 6.000000000000000000e+00
-5.608654975891113281e+00 -2.503011131286621094e+01 -1.344301342964171919e+00 1.100000000000000000e+01
-1.088927507400512917e+00 -4.800688266754150391e+00 -7.796693444252014160e-01 6.000000000000000000e+00
-1.577102065086364968e+00 -6.941640853881835938e+00 -8.740469217300415039e-01 3.000000000000000000e+00
-2.277220964431763139e+00 -1.001513481140137074e+01 -8.985757231712341309e-01 6.000000000000000000e+00
-5.696878910064697266e+00 -2.501427459716796875e+01 -1.344510674476623979e+00 2.300000000000000000e+01
-1.103954434394835982e+00 -4.793200969696044922e+00 -7.790436148643493652e-01 7.000000000000000000e+00
-1.597881674766540971e+00 -6.926701068878173828e+00 -8.728282451629638672e-01 1.000000000000000000e+00
-2.291147708892821822e+00 -9.924051284790039062e+00 -8.910803198814392090e-01 3.000000000000000000e+00
-5.781598091125488281e+00 -2.500302886962890980e+01 -1.344929456710814986e+00 2.300000000000000000e+01
-1.119778990745543990e+00 -4.785471439361572266e+00 -7.784178853034973145e-01 7.000000000000000000e+00
-1.618426918983459029e+00 -6.905619621276854581e+00 -8.708783388137817383e-01 3.000000000000000000e+00
-2.235692262649536133e+00 -9.531923294067382812e+00 -8.565666675567626953e-01 1.000000000000000000e+00
-5.868839740753173828e+00 -2.498269653320312855e+01 -1.344929456710814986e+00 1.100000000000000000e+01
-1.139975428581238015e+00 -4.788823127746582031e+00 -7.796693444252014160e-01 7.000000000000000000e+00
-1.642168283462523970e+00 -6.887768745422363281e+00 -8.694158792495727539e-01 3.000000000000000000e+00
-2.314817428588867188e+00 -9.701562881469726562e+00 -8.726032972335815430e-01 5.000000000000000000e+00
-5.971221923828125000e+00 -2.498717308044433949e+01 -1.346394777297974077e+00 1.100000000000000000e+01
-1.152507185935973899e+00 -4.767534255981445312e+00 -7.768535614013671875e-01 9.000000000000000000e+00
-1.673674941062927024e+00 -6.912863731384277344e+00 -8.733156919479370117e-01 1.000000000000000000e+00
-2.388547420501708984e+00 -9.858014106750488281e+00 -8.874197602272033691e-01 5.000000000000000000e+00
-6.058406829833984375e+00 -2.496617698669433949e+01 -1.346394777297974077e+00 1.100000000000000000e+01
-1.170083642005919966e+00 -4.767319202423095703e+00 -7.774792909622192383e-01 9.000000000000000000e+00
-1.694952130317687988e+00 -6.895413398742675781e+00 -8.718532919883728027e-01 1.000000000000000000e+00
-1.110920524597167969e+01 -4.519453048706054688e+01 7.371191978454589844e+00 1.500000000000000000e+01
-2.419612407684326172e+00 -9.836073875427246094e+00 -8.861995935440063477e-01 7.000000000000000000e+00
-6.164628982543945312e+00 -2.502244758605957031e+01 -1.350581645965575950e+00 1.200000000000000000e+01
-1.186239957809448020e+00 -4.761288642883300781e+00 -7.771664261817932129e-01 7.000000000000000000e+00
-1.719011306762695090e+00 -6.889454841613770419e+00 -8.718532919883728027e-01 3.000000000000000000e+00
-2.347742795944213867e+00 -9.402299880981445312e+00 -8.478510379791259766e-01 3.000000000000000000e+00
-6.251935958862304688e+00 -2.500077629089355113e+01 -1.350581645965575950e+00 1.200000000000000000e+01
-1.205273985862731934e+00 -4.766694545745849609e+00 -7.787307500839233398e-01 9.000000000000000000e+00
-1.738176584243773970e+00 -6.864168643951416016e+00 -8.694158792495727539e-01 1.000000000000000000e+00
-2.384953498840332031e+00 -9.411429405212402344e+00 -8.494198918342590332e-01 5.000000000000000000e+00
-6.335236549377441406e+00 -2.496331405639648082e+01 -1.349744319915771040e+00 1.200000000000000000e+01
-1.221905469894408958e+00 -4.762458324432373047e+00 -7.787307500839233398e-01 9.000000000000000000e+00
-1.762620329856873003e+00 -6.859982490539550781e+00 -8.696596622467041016e-01 3.000000000000000000e+00
-2.403402328491210938e+00 -9.347087860107421875e+00 -8.443648219108581543e-01 6.000000000000000000e+00
-6.440265655517578125e+00 -2.501067733764648082e+01 -1.353512525558471902e+00 1.200000000000000000e+01
-1.236531734466552956e+00 -4.750517368316650391e+00 -7.774792909622192383e-01 9.000000000000000000e+00
-1.784051895141602007e+00 -6.844183444976806641e+00 -8.684409260749816895e-01 1.000000000000000000e+00
-2.428471803665161133e+00 -9.309722900390625000e+00 -8.417501449584960938e-01 9.000000000000000000e+00
-6.521472454071044922e+00 -2.496485519409180043e+01 -1.352256417274475098e+00 1.200000000000000000e+01
-1.249072432518004927e+00 -4.730892658233642578e+00 -7.749763131141662598e-01 9.000000000000000000e+00
-1.810976147651671919e+00 -6.849429130554199219e+00 -8.699033856391906738e-01 1.000000000000000000e+00
-2.459425210952758789e+00 -9.295411109924316406e+00 -8.412272334098815918e-01 9.000000000000000000e+00
-6.612668991088867188e+00 -2.495738410949707031e+01 -1.353093862533568892e+00 1.200000000000000000e+01
-1.269666194915771040e+00 -4.741768836975097656e+00 -7.774792909622192383e-01 9.000000000000000000e+00
-1.829732894897460938e+00 -6.823892116546630859e+00 -8.674659729003906250e-01 1.000000000000000000e+00
-2.484628438949584961e+00 -9.259829521179199219e+00 -8.387868404388427734e-01 3.000000000000000000e+00
-6.703892230987548828e+00 -2.494958114624023082e+01 -1.353931188583374023e+00 1.200000000000000000e+01
-1.287245512008666992e+00 -4.741120815277099609e+00 -7.781050205230712891e-01 9.000000000000000000e+00
-1.844167113304137962e+00 -6.782983779907226562e+00 -8.630787134170532227e-01 6.000000000000000000e+00
-2.501244544982910156e+00 -9.193424224853515625e+00 -8.335575461387634277e-01 1.000000000000000000e+00
-6.808792114257813388e+00 -2.499154663085937855e+01 -1.357490062713623047e+00 1.200000000000000000e+01
-1.305275321006774902e+00 -4.748481750488281250e+00 -7.799822688102722168e-01 9.000000000000000000e+00
-1.193278980255126953e+01 -4.338085937500000000e+01 5.524337291717529297e+00 3.700000000000000000e+01
-1.857038259506226030e+00 -6.746533870697020596e+00 -8.591789007186889648e-01 9.000000000000000000e+00
-6.891520023345947266e+00 -2.498543548583984020e+01 -1.358327388763427956e+00 1.200000000000000000e+01
-1.316540360450745073e+00 -4.724867820739746094e+00 -7.768535614013671875e-01 9.000000000000000000e+00
-1.872040867805480957e+00 -6.709417819976806641e+00 -8.552790284156799316e-01 1.100000000000000000e+01
-6.974390983581542969e+00 -2.494584083557128906e+01 -1.357490062713623047e+00 1.200000000000000000e+01
-1.330340981483459029e+00 -4.710738182067871094e+00 -7.752892374992370605e-01 9.000000000000000000e+00
-1.895989775657654031e+00 -6.704752445220947266e+00 -8.555228114128112793e-01 1.100000000000000000e+01
-7.047269344329833984e+00 -2.487138175964355113e+01 -1.354768514633178933e+00 1.200000000000000000e+01
-1.349493861198425071e+00 -4.715561389923095703e+00 -7.768535614013671875e-01 9.000000000000000000e+00
-1.911179780960083008e+00 -6.669468879699707031e+00 -8.518667221069335938e-01 1.100000000000000000e+01
-7.160500526428222656e+00 -2.493877601623535156e+01 -1.359792828559875044e+00 1.200000000000000000e+01
-1.356885528564452947e+01 -4.722688293457031250e+01 1.134428119659424006e+01 1.400000000000000000e+01
-1.365667223930359109e+00 -4.706789493560791016e+00 -7.762278318405151367e-01 9.000000000000000000e+00
-1.930627346038817915e+00 -6.645262718200683594e+00 -8.496730327606201172e-01 8.000000000000000000e+00
-3.271526336669921875e+00 -1.125333595275879084e+01 -1.025300145149230957e+00 2.000000000000000000e+00
-7.256323814392089844e+00 -2.492770385742187855e+01 -1.360630154609679954e+00 1.200000000000000000e+01
-1.366774082183838068e+01 -4.692237854003906250e+01 1.128309535980224965e+01 1.400000000000000000e+01
-1.389887690544127974e+00 -4.728526592254638672e+00 -7.806079983711242676e-01 9.000000000000000000e+00
-1.939239501953125000e+00 -6.588970661163330078e+00 -8.433358669281005859e-01 4.000000000000000000e+00
-3.325422286987305132e+00 -1.129153919219971058e+01 -1.029832243919373003e+00 2.000000000000000000e+00
-7.343293190002441406e+00 -2.490222358703612926e+01 -1.360630154609679954e+00 1.200000000000000000e+01
-1.383144760131835938e+01 -4.687438201904296875e+01 1.128309535980224965e+01 1.400000000000000000e+01
-1.402697205543518066e+00 -4.708255290985107422e+00 -7.781050205230712891e-01 9.000000000000000000e+00
-1.943515539169311968e+00 -6.515239715576171875e+00 -8.348050117492675781e-01 6.000000000000000000e+00
-3.351969003677368164e+00 -1.122963714599609020e+01 -1.025300145149230957e+00 2.000000000000000000e+00
-7.457392215728759766e+00 -2.495168685913085938e+01 -1.364817023277282937e+00 1.200000000000000000e+01
-1.415699839591979980e+00 -4.691983222961425781e+00 -7.762278318405151367e-01 9.000000000000000000e+00
-1.950171709060668945e+00 -6.455208301544188565e+00 -8.279803395271301270e-01 7.000000000000000000e+00
-7.546759128570556641e+00 -2.493314933776855113e+01 -1.365235805511475053e+00 1.200000000000000000e+01
-8.791562080383300781e+00 -2.882786941528319957e+01 1.579499125480652078e+00 1.500000000000000000e+01
-1.171246528625488059e+00 -3.838161468505858931e+00 -7.800271511077880859e-01 1.000000000000000000e+00
-1.432069301605225053e+00 -4.687013149261474609e+00 -7.762278318405151367e-01 1.200000000000000000e+01
-1.947141170501708984e+00 -6.364838600158691406e+00 -8.172557950019836426e-01 1.000000000000000000e+01
-7.626722812652587891e+00 -2.488373947143555043e+01 -1.363979697227478027e+00 1.200000000000000000e+01
-1.428743457794188920e+01 -4.655766296386718750e+01 -8.500717878341674805e-01 1.300000000000000000e+01
-1.152181267738342063e+00 -3.729007244110106978e+00 -7.586565613746643066e-01 1.000000000000000000e+00
-1.453091740608215110e+00 -4.697082996368408203e+00 -7.787307500839233398e-01 9.000000000000000000e+00
-1.947027921676635964e+00 -6.285946846008300781e+00 -8.079937696456909180e-01 1.000000000000000000e+01
-3.469379663467406782e+00 -1.119392108917235973e+01 -1.025300145149230957e+00 2.000000000000000000e+00
-7.719456195831298828e+00 -2.487604141235351918e+01 -1.365026354789734109e+00 2.400000000000000000e+01
-1.446529102325438920e+01 -4.655715560913085938e+01 -8.509793281555175781e-01 1.300000000000000000e+01
-1.164540767669677956e+00 -3.725165843963623047e+00 -7.586565613746643066e-01 1.000000000000000000e+00
-1.467479705810547097e+00 -4.688467979431152344e+00 -7.781050205230712891e-01 9.000000000000000000e+00
-1.948272585868835005e+00 -6.216945171356201172e+00 -7.999503612518310547e-01 1.200000000000000000e+01
-3.476674079895019975e+00 -1.108729839324950994e+01 -1.016584634780884011e+00 2.000000000000000000e+00
-7.799512386322020596e+00 -2.484268379211426137e+01 -1.364607691764831987e+00 1.200000000000000000e+01
-1.176944613456726074e+00 -3.719206333160399947e+00 -7.582749724388122559e-01 3.000000000000000000e+00
-1.479063510894774947e+00 -4.668251991271972656e+00 -7.756021022796630859e-01 9.000000000000000000e+00
-1.947753310203552024e+00 -6.140096187591552734e+00 -7.909320592880249023e-01 1.000000000000000000e+01
-3.515354633331298828e+00 -1.107509517669677912e+01 -1.016584634780884011e+00 2.000000000000000000e+00
-7.887392044067382812e+00 -2.481911468505859020e+01 -1.364817023277282937e+00 1.200000000000000000e+01
-9.093852043151855469e+00 -2.842627143859862926e+01 5.209543108940124512e-01 2.000000000000000000e+01
-1.191716432571410911e+00 -3.720684528350830078e+00 -7.594197988510131836e-01 5.000000000000000000e+00
-1.495349645614624023e+00 -4.663060665130615234e+00 -7.756021022796630859e-01 9.000000000000000000e+00
-1.952789902687072976e+00 -6.082228183746337891e+00 -7.843511104583740234e-01 1.200000000000000000e+01
-3.562524080276488814e+00 -1.108931350708007990e+01 -1.019024968147278054e+00 2.000000000000000000e+00
-7.954409122467041016e+00 -2.473058700561523082e+01 -1.361467599868773970e+00 1.200000000000000000e+01
-1.201669931411742942e+00 -3.707164049148560014e+00 -7.575117349624633789e-01 6.000000000000000000e+00
-1.511617660522460938e+00 -4.657812595367431641e+00 -7.756021022796630859e-01 9.000000000000000000e+00
-1.954379200935363992e+00 -6.014960765838623047e+00 -7.765514850616455078e-01 1.300000000000000000e+01
-3.592587232589722124e+00 -1.105028343200683949e+01 -1.016584634780884011e+00 2.000000000000000000e+00
-8.091377258300781250e+00 -2.485840415954589844e+01 -1.370050668716431108e+00 1.200000000000000000e+01
-1.217050552368164062e+00 -3.710408687591553178e+00 -7.590382099151611328e-01 7.000000000000000000e+00
-1.527867317199707031e+00 -4.652507781982421875e+00 -7.756021022796630859e-01 9.000000000000000000e+00
-1.951802968978882058e+00 -5.936442375183104581e+00 -7.672894001007080078e-01 1.300000000000000000e+01
-8.219337463378906250e+00 -2.495521163940430043e+01 -1.376958966255187988e+00 1.200000000000000000e+01
-1.511399745941161932e+01 -4.586154937744141336e+01 1.114812469482422053e+01 1.400000000000000000e+01
-1.229994893074036089e+00 -3.706137895584106001e+00 -7.590382099151611328e-01 7.000000000000000000e+00
-1.545343995094299094e+00 -4.650895118713378906e+00 -7.762278318405151367e-01 9.000000000000000000e+00
-1.954968571662903054e+00 -5.876852035522460938e+00 -7.604647278785705566e-01 1.300000000000000000e+01
-1.454311466217041016e+01 -4.371821594238281250e+01 7.297354698181152344e+00 1.500000000000000000e+01
-3.638183355331420898e+00 -1.093041229248047053e+01 -1.007869005203247070e+00 2.000000000000000000e+00
-8.315237045288085938e+00 -2.495289611816405895e+01 -1.378424406051635964e+00 1.200000000000000000e+01
-9.392871856689453125e+00 -2.815395927429198863e+01 -5.180572271347045898e-01 8.000000000000000000e+00
-1.237886548042296919e+00 -3.691087245941162109e+00 -7.567484974861145020e-01 7.000000000000000000e+00
-1.561205029487610085e+00 -4.649762630462645596e+00 -7.768535614013671875e-01 9.000000000000000000e+00
-1.957608819007873979e+00 -5.823640823364257812e+00 -7.543712258338928223e-01 1.100000000000000000e+01
-8.406335830688476562e+00 -2.496450614929198863e+01 -1.380517840385437012e+00 1.200000000000000000e+01
-9.497882843017578125e+00 -2.817358016967773082e+01 -5.189647674560546875e-01 4.000000000000000000e+00
-1.250132560729980025e+00 -3.684884548187255859e+00 -7.563668489456176758e-01 8.000000000000000000e+00
-1.572343945503235085e+00 -4.629321098327636719e+00 -7.743505835533142090e-01 9.000000000000000000e+00
-1.450905036926270064e+01 -4.269331741333007812e+01 5.536524295806884766e+00 3.800000000000000000e+01
-1.967700123786926047e+00 -5.786701202392578125e+00 -7.504714131355285645e-01 1.100000000000000000e+01
-3.710595846176147017e+00 -1.090604305267333984e+01 -1.007869005203247070e+00 2.000000000000000000e+00
-8.496002197265625000e+00 -2.494257354736328125e+01 -1.380936503410338911e+00 1.200000000000000000e+01
-9.539371490478515625e+00 -2.797369956970214844e+01 -5.158931612968444824e-01 8.000000000000000000e+00
-9.663806915283203125e+00 -2.816149902343750000e+01 5.196977853775024414e-01 2.000000000000000000e+01
-1.269375205039978027e+00 -3.694911003112792969e+00 -7.594197988510131836e-01 8.000000000000000000e+00
-1.595247387886046919e+00 -4.638193607330322266e+00 -7.768535614013671875e-01 9.000000000000000000e+00
-1.973101496696471946e+00 -5.730302810668945312e+00 -7.441341876983642578e-01 7.000000000000000000e+00
-8.589107513427734375e+00 -2.490221405029296875e+01 -1.380517840385437012e+00 1.200000000000000000e+01
-9.683262825012207031e+00 -2.804271507263183949e+01 -5.178477764129638672e-01 8.000000000000000000e+00
-1.276466012001038042e+00 -3.673767089843750000e+00 -7.559852600097656250e-01 9.000000000000000000e+00
-1.614023923873900923e+00 -4.640059947967529297e+00 -7.781050205230712891e-01 9.000000000000000000e+00
-1.981341004371643066e+00 -5.689636230468750000e+00 -7.397469282150268555e-01 3.000000000000000000e+00
-8.690451622009277344e+00 -2.491356849670410156e+01 -1.382820606231689009e+00 1.200000000000000000e+01
-9.792958259582519531e+00 -2.804272460937500000e+01 -5.184760689735412598e-01 4.000000000000000000e+00
-1.288001179695128950e+00 -3.669738769531250000e+00 -7.559852600097656250e-01 9.000000000000000000e+00
-1.629902839660644975e+00 -4.638693809509277344e+00 -7.787307500839233398e-01 9.000000000000000000e+00
-2.001840591430664062e+00 -5.690874099731445312e+00 -7.407218813896179199e-01 5.000000000000000000e+00
-2.514894962310791016e+00 -7.145411491394042969e+00 -6.627322435379028320e-01 6.000000000000000000e+00
-8.773986816406250000e+00 -2.490121459960937855e+01 -1.383658051490783913e+00 2.400000000000000000e+01
-1.121170520782470925e+00 -3.160827159881591797e+00 -7.742815017700195312e-01 1.000000000000000000e+00
-1.300803065299988015e+00 -3.665220499038695845e+00 -7.559852600097656250e-01 9.000000000000000000e+00
-1.645423531532288042e+00 -4.631114482879638672e+00 -7.784178853034973145e-01 1.000000000000000000e+01
-2.023023843765258789e+00 -5.687592506408691406e+00 -7.412093281745910645e-01 9.000000000000000000e+00
-2.524457216262816939e+00 -7.093416690826416016e+00 -6.587231159210205078e-01 7.000000000000000000e+00
-8.871580123901367188e+00 -2.490053939819335938e+01 -1.385332703590393066e+00 1.200000000000000000e+01
-1.102471232414246050e+00 -3.072322368621826172e+00 -7.535860538482666016e-01 1.000000000000000000e+00
-1.316881656646728960e+00 -3.667819261550902876e+00 -7.575117349624633789e-01 9.000000000000000000e+00
-1.658377408981323020e+00 -4.613899230957031250e+00 -7.765406966209411621e-01 1.000000000000000000e+01
-2.037135124206542969e+00 -5.661460876464843750e+00 -7.387719750404357910e-01 1.100000000000000000e+01
-2.547739267349243164e+00 -7.076618194580078125e+00 -6.580258607864379883e-01 3.000000000000000000e+00
-8.961431503295898438e+00 -2.486409759521484020e+01 -1.385123372077941895e+00 1.200000000000000000e+01
-9.517526030540466309e-01 -2.626322746276855025e+00 -7.485046982765197754e-01 1.000000000000000000e+00
-1.101890802383423074e+00 -3.037312984466553178e+00 -7.459377050399780273e-01 4.000000000000000000e+00
-1.328337073326111062e+00 -3.659509420394897017e+00 -7.567484974861145020e-01 9.000000000000000000e+00
-1.673798203468322976e+00 -4.606225490570068359e+00 -7.762278318405151367e-01 9.000000000000000000e+00
-2.053491830825806108e+00 -5.644988059997558594e+00 -7.375532388687133789e-01 1.300000000000000000e+01
-2.559478521347045898e+00 -7.032109260559082031e+00 -6.547139286994934082e-01 1.000000000000000000e+00
-9.072783470153808594e+00 -2.490022087097167969e+01 -1.388891577720642090e+00 1.200000000000000000e+01
-9.398658871650695801e-01 -2.566915988922119141e+00 -7.324578762054443359e-01 2.000000000000000000e+00
-1.111956834793091042e+00 -3.033642292022705078e+00 -7.459377050399780273e-01 7.000000000000000000e+00
-1.339789152145385964e+00 -3.653241157531737837e+00 -7.563668489456176758e-01 9.000000000000000000e+00
-1.691106200218200906e+00 -4.606212615966796875e+00 -7.771664261817932129e-01 1.000000000000000000e+01
-2.067406415939331055e+00 -5.625104904174804688e+00 -7.358471155166625977e-01 1.600000000000000000e+01
-3.864548683166503906e+00 -1.050919532775879084e+01 -9.796305298805236816e-01 2.000000000000000000e+00
-9.155305862426757812e+00 -2.486999702453612926e+01 -1.388891577720642090e+00 1.200000000000000000e+01
-9.548552632331848145e-01 -2.579925298690795898e+00 -7.371166348457336426e-01 6.000000000000000000e+00
-1.123893618583678977e+00 -3.033396959304810014e+00 -7.468374967575073242e-01 9.000000000000000000e+00
-1.349121093750000000e+00 -3.639337778091431108e+00 -7.544587850570678711e-01 1.000000000000000000e+01
-1.710610866546631081e+00 -4.609541416168212891e+00 -7.787307500839233398e-01 9.000000000000000000e+00
-2.078042268753052202e+00 -5.593663215637207031e+00 -7.326784729957580566e-01 1.800000000000000000e+01
-9.246241569519042969e+00 -2.484911918640137074e+01 -1.389519691467284934e+00 1.200000000000000000e+01
-9.604707360267639160e-01 -2.567529439926147017e+00 -7.345284223556518555e-01 8.000000000000000000e+00
-1.135158658027648926e+00 -3.031280279159545898e+00 -7.472873926162719727e-01 9.000000000000000000e+00
-1.362505316734313965e+00 -3.636444807052611861e+00 -7.548403739929199219e-01 9.000000000000000000e+00
-1.722528457641602007e+00 -4.592444896697998047e+00 -7.768535614013671875e-01 9.000000000000000000e+00
-2.080110549926757812e+00 -5.539915084838867188e+00 -7.265850305557250977e-01 2.000000000000000000e+01
-9.375107765197753906e+00 -2.492885780334473012e+01 -1.395799994468688965e+00 1.200000000000000000e+01
-9.714767932891845703e-01 -2.569582223892211914e+00 -7.360813617706298828e-01 9.000000000000000000e+00
-1.144353270530700906e+00 -3.023654222488402876e+00 -7.463876008987426758e-01 1.000000000000000000e+01
-1.376581072807312012e+00 -3.635338783264160156e+00 -7.556036114692687988e-01 9.000000000000000000e+00
-1.738548517227173074e+00 -4.586404323577880859e+00 -7.768535614013671875e-01 9.000000000000000000e+00
-2.105774164199829102e+00 -5.549324035644531250e+00 -7.287786602973937988e-01 1.600000000000000000e+01
-2.675992727279663086e+00 -7.048306465148925781e+00 -6.595946550369262695e-01 1.000000000000000000e+00
-9.454973220825195312e+00 -2.487731170654296875e+01 -1.394753217697143999e+00 1.200000000000000000e+01
-9.818193316459655762e-01 -2.569784879684447798e+00 -7.371166348457336426e-01 1.200000000000000000e+01
-1.151420116424560991e+00 -3.010540485382080078e+00 -7.441380620002746582e-01 1.000000000000000000e+01
-1.392068982124329057e+00 -3.637845754623413086e+00 -7.571300864219665527e-01 9.000000000000000000e+00
-1.757374048233032005e+00 -4.587686061859130859e+00 -7.781050205230712891e-01 1.000000000000000000e+01
-2.104520320892333984e+00 -5.488188266754150391e+00 -7.217102646827697754e-01 1.600000000000000000e+01
-3.939534902572631836e+00 -1.026819515228270951e+01 -9.621993899345397949e-01 2.000000000000000000e+00
-9.537457466125488281e+00 -2.483296966552734020e+01 -1.394125223159790039e+00 1.200000000000000000e+01
-9.935666918754577637e-01 -2.573550701141356978e+00 -7.391871809959411621e-01 1.100000000000000000e+01
-1.163326859474181907e+00 -3.010138273239136186e+00 -7.450379133224487305e-01 1.100000000000000000e+01
-1.400510787963866965e+00 -3.621977567672729048e+00 -7.548403739929199219e-01 9.000000000000000000e+00
-1.774803400039673074e+00 -4.585208415985107422e+00 -7.787307500839233398e-01 9.000000000000000000e+00
-1.657088851928710938e+01 -4.278874206542968750e+01 5.634019851684570312e+00 4.000000000000000000e+01
-2.125816583633422852e+00 -5.486361980438232422e+00 -7.224414944648742676e-01 1.600000000000000000e+01
-3.994077920913695845e+00 -1.030268096923827947e+01 -9.667314887046813965e-01 2.000000000000000000e+00
-9.628417968750000000e+00 -2.481069755554198863e+01 -1.394753217697143999e+00 1.200000000000000000e+01
