-1.742795586585998979e+00 2.050676822662353960e+00 -6.213148236274719238e-01 1.500000000000000000e+01
-2.024892568588256836e+00 2.383451700210570845e+00 -6.079174876213073730e-01 1.100000000000000000e+01
-2.452051877975463867e+00 2.888293266296387163e+00 -6.000826358795166016e-01 9.000000000000000000e+00
-3.091073274612427202e+00 3.643579244613647017e+00 -5.866790413856506348e-01 8.000000000000000000e+00
-4.140455245971679688e+00 4.882257461547851562e+00 -5.600628256797790527e-01 4.000000000000000000e+00
-6.245896816253662109e+00 7.370122909545898438e+00 -5.062980651855468750e-01 2.000000000000000000e+00
-1.258717250823974965e+01 1.486330699920653942e+01 -3.399728834629058838e-01 3.000000000000000000e+00
-1.504420876502990945e+00 1.781502723693848100e+00 -6.247891783714294434e-01 1.800000000000000000e+01
-1.736883640289307085e+00 2.058237075805664062e+00 -6.217647194862365723e-01 1.600000000000000000e+01
-2.015294551849364790e+00 2.389004707336425781e+00 -6.075358390808105469e-01 1.100000000000000000e+01
-2.433042764663695845e+00 2.886262655258179155e+00 -5.978925228118896484e-01 8.000000000000000000e+00
-3.075778245925902876e+00 3.651310443878173828e+00 -5.861915349960327148e-01 9.000000000000000000e+00
-4.113121032714843750e+00 4.884488105773925781e+00 -5.586683154106140137e-01 4.000000000000000000e+00
-6.207273006439208984e+00 7.376598358154296875e+00 -5.052513480186462402e-01 2.000000000000000000e+00
-1.250689983367919922e+01 1.487348270416259943e+01 -3.392049670219420832e-01 3.000000000000000000e+00
-1.494469404220581055e+00 1.782302379608154075e+00 -6.232362389564514160e-01 1.600000000000000000e+01
-1.733443140983581987e+00 2.068768501281737837e+00 -6.231144070625305176e-01 1.500000000000000000e+01
-2.008203744888306108e+00 2.397530078887939009e+00 -6.079174876213073730e-01 1.100000000000000000e+01
-2.431828260421752930e+00 2.905341386795043945e+00 -6.000826358795166016e-01 9.000000000000000000e+00
-3.060466766357421875e+00 3.658979415893555132e+00 -5.857040882110595703e-01 8.000000000000000000e+00
-4.094768047332763672e+00 4.897287368774414062e+00 -5.584939718246459961e-01 4.000000000000000000e+00
-6.225026607513427734e+00 7.450331687927246094e+00 -5.088101625442504883e-01 2.000000000000000000e+00
-1.242414569854735973e+01 1.488020992279052912e+01 -3.383672535419464111e-01 3.000000000000000000e+00
-1.494419336318969949e+00 1.794931411743164062e+00 -6.258244514465332031e-01 1.700000000000000000e+01
-1.722472190856934038e+00 2.070312500000000000e+00 -6.217647194862365723e-01 1.400000000000000000e+01
-2.001077890396118164e+00 2.406034708023070845e+00 -6.082990765571594238e-01 1.100000000000000000e+01
-2.407783269882202148e+00 2.897101163864136186e+00 -5.966410636901855469e-01 8.000000000000000000e+00
-3.055285692214965820e+00 3.678802728652954102e+00 -5.871664881706237793e-01 9.000000000000000000e+00
-4.072557449340820312e+00 4.905419349670410156e+00 -5.577967762947082520e-01 6.000000000000000000e+00
-6.155623912811279297e+00 7.419753074645996094e+00 -5.052513480186462402e-01 2.000000000000000000e+00
-1.240148258209229049e+01 1.495889472961425959e+01 -3.391700685024260919e-01 3.000000000000000000e+00
-1.490606427192687988e+00 1.803114891052246094e+00 -6.268597245216369629e-01 1.700000000000000000e+01
-1.705305933952331987e+00 2.064293384552001953e+00 -6.181654930114746094e-01 1.300000000000000000e+01
-1.995167374610901101e+00 2.416032791137694868e+00 -6.090623140335083008e-01 1.100000000000000000e+01
-2.403942346572875977e+00 2.913106203079224077e+00 -5.982053875923156738e-01 9.000000000000000000e+00
-3.032322168350220171e+00 3.677192926406859907e+00 -5.852165818214416504e-01 9.000000000000000000e+00
-4.057944297790527344e+00 4.922679901123046875e+00 -5.581454038619995117e-01 6.000000000000000000e+00
-6.116987705230712891e+00 7.425779342651367188e+00 -5.042046308517456055e-01 2.000000000000000000e+00
-1.228564643859862926e+01 1.492489814758300959e+01 -3.374248147010803223e-01 3.000000000000000000e+00
-1.487980365753174050e+00 1.812786817550658958e+00 -6.284126639366149902e-01 1.700000000000000000e+01
-1.699325680732727051e+00 2.071740150451660156e+00 -6.186153888702392578e-01 1.300000000000000000e+01
-1.978008031845092995e+00 2.412355422973632812e+00 -6.063910126686096191e-01 1.200000000000000000e+01
-2.396262884140015093e+00 2.924535751342772993e+00 -5.988311171531677246e-01 9.000000000000000000e+00
-3.024498224258422852e+00 3.693899154663085938e+00 -5.861915349960327148e-01 8.000000000000000000e+00
-4.038212299346923828e+00 4.933731079101563388e+00 -5.577967762947082520e-01 4.000000000000000000e+00
-6.078384876251220703e+00 7.431626319885253906e+00 -5.031578540802001953e-01 2.000000000000000000e+00
-1.215754508972167969e+01 1.487479209899901988e+01 -3.353305459022521973e-01 3.000000000000000000e+00
-1.474004983901977983e+00 1.809242010116576926e+00 -6.253067851066589355e-01 1.600000000000000000e+01
-1.695412039756774902e+00 2.082488298416138139e+00 -6.199650764465332031e-01 1.200000000000000000e+01
-1.969152927398682085e+00 2.419588804244995117e+00 -6.063910126686096191e-01 1.000000000000000000e+01
-2.386774301528931108e+00 2.934831380844116211e+00 -5.991439819335937500e-01 9.000000000000000000e+00
-3.008435010910034180e+00 3.701878547668457031e+00 -5.857040882110595703e-01 9.000000000000000000e+00
-4.005026817321777344e+00 4.929942131042479581e+00 -5.557050108909606934e-01 7.000000000000000000e+00
-6.076282024383544922e+00 7.484867095947265625e+00 -5.052513480186462402e-01 2.000000000000000000e+00
-1.213317966461181996e+01 1.495652294158936080e+01 -3.361682593822479248e-01 3.000000000000000000e+00
-1.460390806198119895e+00 1.805364370346068892e+00 -6.222009658813476562e-01 1.700000000000000000e+01
-1.691807627677917036e+00 2.092940330505371094e+00 -6.213148236274719238e-01 1.200000000000000000e+01
-1.960695028305053933e+00 2.426447868347167969e+00 -6.063910126686096191e-01 1.000000000000000000e+01
-2.375274181365966797e+00 2.941607952117919922e+00 -5.988311171531677246e-01 9.000000000000000000e+00
-2.994248151779174805e+00 3.710812568664550781e+00 -5.854603052139282227e-01 9.000000000000000000e+00
-3.967779636383057085e+00 4.919079780578613281e+00 -5.529160499572753906e-01 6.000000000000000000e+00
-6.017529487609863281e+00 7.465601444244384766e+00 -5.025298595428466797e-01 2.000000000000000000e+00
-1.203323173522949041e+01 1.493960571289063033e+01 -3.348418772220612127e-01 3.000000000000000000e+00
-1.464393854141234907e+00 1.821989655494689941e+00 -6.263421177864074707e-01 1.500000000000000000e+01
-1.681563258171081987e+00 2.093686819076538086e+00 -6.199650764465332031e-01 1.300000000000000000e+01
-1.957978963851928933e+00 2.438719034194945845e+00 -6.079174876213073730e-01 1.100000000000000000e+01
-2.357367992401123047e+00 2.938270092010498047e+00 -5.966410636901855469e-01 8.000000000000000000e+00
-2.981333971023560014e+00 3.718652009963988814e+00 -5.852165818214416504e-01 9.000000000000000000e+00
-3.951060295104980025e+00 4.929965972900390625e+00 -5.527417063713073730e-01 4.000000000000000000e+00
-5.989052295684813565e+00 7.478233337402343750e+00 -5.021111369132995605e-01 2.000000000000000000e+00
-1.195375156402588068e+01 1.493674182891846058e+01 -3.339343369007111151e-01 3.000000000000000000e+00
-1.454410076141356978e+00 1.822560310363769975e+00 -6.247891783714294434e-01 1.600000000000000000e+01
-1.665739774703979048e+00 2.088878393173218218e+00 -6.168158054351806641e-01 1.300000000000000000e+01
-1.953125596046447976e+00 2.450144529342650923e+00 -6.090623140335083008e-01 1.100000000000000000e+01
-2.355712652206420898e+00 2.957296609878540039e+00 -5.988311171531677246e-01 9.000000000000000000e+00
-2.962153673171997070e+00 3.721270561218262163e+00 -5.839979052543640137e-01 9.000000000000000000e+00
-3.940030336380004883e+00 4.951522827148438388e+00 -5.536133050918579102e-01 4.000000000000000000e+00
-5.950481414794921875e+00 7.483460903167724609e+00 -5.010644197463989258e-01 2.000000000000000000e+00
-1.193388462066650035e+01 1.501908397674561080e+01 -3.348418772220612127e-01 3.000000000000000000e+00
-1.454916834831238015e+00 1.836965084075927956e+00 -6.278949975967407227e-01 1.600000000000000000e+01
-1.658072471618651900e+00 2.094969749450684038e+00 -6.168158054351806641e-01 1.300000000000000000e+01
-1.938041567802428977e+00 2.449588298797606978e+00 -6.071542501449584961e-01 1.100000000000000000e+01
-2.342407703399658203e+00 2.962811708450316939e+00 -5.982053875923156738e-01 9.000000000000000000e+00
-2.944802999496459961e+00 3.727429628372191939e+00 -5.832666754722595215e-01 1.100000000000000000e+01
-3.923090457916260210e+00 4.967494010925292969e+00 -5.537875890731811523e-01 6.000000000000000000e+00
-5.910639762878417969e+00 7.489541530609130859e+00 -5.000177025794982910e-01 2.000000000000000000e+00
-1.189113903045653942e+01 1.507842445373534979e+01 -3.351909220218657892e-01 3.000000000000000000e+00
-1.438942670822143999e+00 1.829883933067321999e+00 -6.237539052963256836e-01 1.600000000000000000e+01
-1.656769752502440962e+00 2.108406066894530806e+00 -6.190652847290039062e-01 1.400000000000000000e+01
-1.927053570747375044e+00 2.453250646591186968e+00 -6.063910126686096191e-01 1.100000000000000000e+01
-2.330831527709960938e+00 2.969416379928588867e+00 -5.978925228118896484e-01 8.000000000000000000e+00
-2.935449361801147017e+00 3.742372035980225053e+00 -5.839979052543640137e-01 9.000000000000000000e+00
-3.899579763412476030e+00 4.973318576812744141e+00 -5.529160499572753906e-01 7.000000000000000000e+00
-5.852432727813720703e+00 7.469252109527587891e+00 -4.972962439060211182e-01 2.000000000000000000e+00
-1.174967288970947088e+01 1.500647735595702947e+01 -3.326777815818787176e-01 3.000000000000000000e+00
-1.431357502937316895e+00 1.833372831344604048e+00 -6.232362389564514160e-01 1.800000000000000000e+01
-1.651797413825988992e+00 2.117249250411986861e+00 -6.199650764465332031e-01 1.400000000000000000e+01
-1.912441730499268022e+00 2.452221632003784180e+00 -6.044828891754150391e-01 1.000000000000000000e+01
-2.324094772338867188e+00 2.982208728790283203e+00 -5.988311171531677246e-01 9.000000000000000000e+00
-2.924807548522949219e+00 3.755728244781494141e+00 -5.844853520393371582e-01 9.000000000000000000e+00
-3.868733167648314986e+00 4.969606399536132812e+00 -5.509986281394958496e-01 7.000000000000000000e+00
-5.831230163574218750e+00 7.495941162109375000e+00 -4.977149367332457941e-01 2.000000000000000000e+00
-1.174140071868895951e+01 1.510423564910889027e+01 -3.339343369007111151e-01 3.000000000000000000e+00
-1.423765659332274947e+00 1.836831212043761985e+00 -6.227186322212219238e-01 1.600000000000000000e+01
-1.645590066909790039e+00 2.124542951583861861e+00 -6.204150319099426270e-01 1.500000000000000000e+01
-1.906274080276489036e+00 2.461987018585205078e+00 -6.052461266517639160e-01 9.000000000000000000e+00
-2.304000377655028853e+00 2.977804422378540039e+00 -5.963281989097595215e-01 9.000000000000000000e+00
-2.914108276367187944e+00 3.769055604934691939e+00 -5.849728584289550781e-01 9.000000000000000000e+00
-3.845270395278931108e+00 4.975198268890380859e+00 -5.501270294189453125e-01 6.000000000000000000e+00
-5.795262336730957031e+00 7.503604888916015625e+00 -4.968775808811187744e-01 2.000000000000000000e+00
-1.162751770019531072e+01 1.506597614288330078e+01 -3.321891129016876221e-01 3.000000000000000000e+00
-1.424737334251404031e+00 1.850727200508117898e+00 -6.258244514465332031e-01 1.600000000000000000e+01
-1.629030108451843040e+00 2.117631435394287109e+00 -6.168158054351806641e-01 1.500000000000000000e+01
-1.907673597335814986e+00 2.480745315551757812e+00 -6.082990765571594238e-01 9.000000000000000000e+00
-2.291705608367919922e+00 2.982295751571654829e+00 -5.957024693489074707e-01 9.000000000000000000e+00
-2.894339561462401900e+00 3.769251585006713867e+00 -5.835103988647460938e-01 9.000000000000000000e+00
-3.812979698181151900e+00 4.967376708984375000e+00 -5.478609800338745117e-01 6.000000000000000000e+00
-5.755760669708251953e+00 7.503764629364013672e+00 -4.956215023994445801e-01 2.000000000000000000e+00
-1.157749271392822088e+01 1.510445117950438920e+01 -3.321891129016876221e-01 3.000000000000000000e+00
-1.421787738800049050e+00 1.860293865203856978e+00 -6.273773908615112305e-01 1.600000000000000000e+01
-1.621628284454345925e+00 2.123304843902587891e+00 -6.168158054351806641e-01 1.600000000000000000e+01
-1.888280510902405007e+00 2.473345041275023970e+00 -6.048645377159118652e-01 1.000000000000000000e+01
-2.286074161529541016e+00 2.996559143066405806e+00 -5.969539284706115723e-01 9.000000000000000000e+00
-2.871536731719971147e+00 3.766702413558959961e+00 -5.815604925155639648e-01 9.000000000000000000e+00
-3.801655292510985884e+00 4.988579273223876953e+00 -5.487325787544250488e-01 7.000000000000000000e+00
-5.734372615814208984e+00 7.530166149139404297e+00 -4.960401952266693115e-01 2.000000000000000000e+00
-1.146415042877197088e+01 1.506520557403563920e+01 -3.304438591003417969e-01 3.000000000000000000e+00
-1.412949919700623003e+00 1.862167596817017046e+00 -6.263421177864074707e-01 1.800000000000000000e+01
-1.615384101867676003e+00 2.130505323410034180e+00 -6.172657012939453125e-01 1.600000000000000000e+01
-1.884378910064697044e+00 2.486179828643798828e+00 -6.063910126686096191e-01 1.000000000000000000e+01
-2.277985572814940962e+00 3.007670164108275923e+00 -5.975796580314636230e-01 9.000000000000000000e+00
-2.863162994384766069e+00 3.783034563064575195e+00 -5.825354456901550293e-01 9.000000000000000000e+00
-3.784218788146973100e+00 5.001819133758544922e+00 -5.487325787544250488e-01 6.000000000000000000e+00
-5.712870121002197266e+00 7.556509494781494141e+00 -4.964588880538939875e-01 2.000000000000000000e+00
-1.135122299194335938e+01 1.502535343170166016e+01 -3.286986351013184149e-01 3.000000000000000000e+00
-1.400629401206969993e+00 1.859373092651366965e+00 -6.237539052963256836e-01 1.600000000000000000e+01
-1.612625241279602051e+00 2.142359018325806108e+00 -6.190652847290039062e-01 1.600000000000000000e+01
-1.868606567382812944e+00 2.483329772949219194e+00 -6.041013002395629883e-01 1.100000000000000000e+01
-2.262724399566649947e+00 3.009288072586060014e+00 -5.963281989097595215e-01 9.000000000000000000e+00
-2.849940299987792969e+00 3.793005704879761186e+00 -5.825354456901550293e-01 9.000000000000000000e+00
-3.755967140197753906e+00 5.000660419464111328e+00 -5.471637248992919922e-01 9.000000000000000000e+00
-5.667275905609130859e+00 7.550847053527832031e+00 -4.947841167449951172e-01 2.000000000000000000e+00
-1.126990985870360973e+01 1.502649116516112926e+01 -3.278609216213225763e-01 3.000000000000000000e+00
-1.395287394523621050e+00 1.865797996520996094e+00 -6.242715120315551758e-01 1.600000000000000000e+01
-1.602804183959960938e+00 2.144852876663208008e+00 -6.181654930114746094e-01 1.600000000000000000e+01
-1.862276554107666016e+00 2.492983102798461914e+00 -6.048645377159118652e-01 1.000000000000000000e+01
-2.249842882156372070e+00 3.014002323150635210e+00 -5.957024693489074707e-01 9.000000000000000000e+00
-2.839056730270386186e+00 3.806113243103026900e+00 -5.830229520797729492e-01 9.000000000000000000e+00
-3.737297773361206055e+00 5.012143611907958984e+00 -5.469894409179687500e-01 6.000000000000000000e+00
-5.640883922576904297e+00 7.570583343505859375e+00 -4.947841167449951172e-01 2.000000000000000000e+00
-1.122933197021484020e+01 1.508177757263183949e+01 -3.282099664211273193e-01 3.000000000000000000e+00
-1.389917612075806108e+00 1.872208237648010032e+00 -6.247891783714294434e-01 1.200000000000000000e+01
-1.587180018424988015e+00 2.139479160308837891e+00 -6.150161623954772949e-01 1.500000000000000000e+01
-1.858240842819214089e+00 2.505776166915893999e+00 -6.063910126686096191e-01 1.200000000000000000e+01
-2.234603881835937944e+00 3.015488862991333008e+00 -5.944509506225585938e-01 9.000000000000000000e+00
-2.821028232574462891e+00 3.809618949890137163e+00 -5.820479989051818848e-01 9.000000000000000000e+00
-3.718593835830688032e+00 5.023557186126708984e+00 -5.468151569366455078e-01 6.000000000000000000e+00
-5.590668678283691406e+00 7.558113574981688565e+00 -4.926906824111937921e-01 1.000000000000000000e+00
-1.113501644134520951e+01 1.506460094451903942e+01 -3.269882798194885254e-01 3.000000000000000000e+00
-1.385666131973267046e+00 1.880158782005310059e+00 -6.258244514465332031e-01 1.100000000000000000e+01
-1.579702138900757058e+00 2.145006418228148970e+00 -6.150161623954772949e-01 1.600000000000000000e+01
-1.847154855728148970e+00 2.509085416793822798e+00 -6.056277751922607422e-01 1.200000000000000000e+01
-2.231087684631348100e+00 3.032817840576171875e+00 -5.963281989097595215e-01 9.000000000000000000e+00
-2.800658464431763139e+00 3.809846401214600053e+00 -5.805855393409729004e-01 9.000000000000000000e+00
-3.695136785507202148e+00 5.028479576110839844e+00 -5.459435582160949707e-01 8.000000000000000000e+00
-5.573708534240722656e+00 7.590461254119873047e+00 -4.935280680656433105e-01 1.000000000000000000e+00
-1.110602283477783025e+01 1.513562202453612926e+01 -3.276863694190979004e-01 3.000000000000000000e+00
-1.380235433578490989e+00 1.886543393135071023e+00 -6.263421177864074707e-01 9.000000000000000000e+00
-1.575655341148376021e+00 2.155226945877075195e+00 -6.163659095764160156e-01 1.600000000000000000e+01
-1.827959656715393066e+00 2.501252174377440962e+00 -6.021931767463684082e-01 1.200000000000000000e+01
-2.218157529830933061e+00 3.037396907806396040e+00 -5.957024693489074707e-01 9.000000000000000000e+00
-2.785002231597899947e+00 3.816392183303833008e+00 -5.800980925559997559e-01 1.100000000000000000e+01
-3.677561521530150923e+00 5.041347503662109375e+00 -5.459435582160949707e-01 6.000000000000000000e+00
-5.549531936645507812e+00 7.613098621368408203e+00 -4.937373995780944824e-01 1.000000000000000000e+00
-1.367158770561218040e+00 1.881732583045959029e+00 -6.232362389564514160e-01 7.000000000000000000e+00
-1.570789456367492898e+00 2.163594007492064986e+00 -6.172657012939453125e-01 1.700000000000000000e+01
-1.821961522102355957e+00 2.510478019714355025e+00 -6.029564142227172852e-01 1.200000000000000000e+01
-2.208073139190673828e+00 3.044735908508300781e+00 -5.957024693489074707e-01 9.000000000000000000e+00
-2.778155326843262163e+00 3.833643674850463867e+00 -5.813167691230773926e-01 1.100000000000000000e+01
-3.658485889434814009e+00 5.050287723541259766e+00 -5.455949306488037109e-01 8.000000000000000000e+00
-5.535966873168945312e+00 7.647638320922851562e+00 -4.947841167449951172e-01 2.000000000000000000e+00
-1.097930145263672053e+01 1.517846202850341975e+01 -3.269882798194885254e-01 3.000000000000000000e+00
-1.363972067832946999e+00 1.891193985939026101e+00 -6.247891783714294434e-01 7.000000000000000000e+00
-1.557530641555785911e+00 2.161159276962279829e+00 -6.150161623954772949e-01 1.500000000000000000e+01
-1.817777514457703081e+00 2.523194313049315962e+00 -6.044828891754150391e-01 1.100000000000000000e+01
-2.192815065383911133e+00 3.046012163162231001e+00 -5.944509506225585938e-01 9.000000000000000000e+00
-2.767075061798096147e+00 3.846540689468383789e+00 -5.818042159080505371e-01 1.100000000000000000e+01
-3.648977279663085938e+00 5.074350357055664062e+00 -5.468151569366455078e-01 8.000000000000000000e+00
-5.462618827819824219e+00 7.602038383483886719e+00 -4.905972480773925781e-01 1.000000000000000000e+00
-1.092625236511229936e+01 1.521669483184813920e+01 -3.269882798194885254e-01 3.000000000000000000e+00
-1.355113148689270020e+00 1.892802000045775923e+00 -6.237539052963256836e-01 8.000000000000000000e+00
-1.545441985130310059e+00 2.160243272781372070e+00 -6.132165789604187012e-01 1.500000000000000000e+01
-1.810100913047790971e+00 2.531121015548706055e+00 -6.048645377159118652e-01 1.100000000000000000e+01
-2.179872035980225053e+00 3.050433635711669922e+00 -5.938252210617065430e-01 9.000000000000000000e+00
-2.746709585189818892e+00 3.846483230590819868e+00 -5.803418159484863281e-01 1.100000000000000000e+01
-3.624296903610229048e+00 5.077327251434326172e+00 -5.457692742347717285e-01 8.000000000000000000e+00
-5.454606533050537109e+00 7.647076129913330078e+00 -4.922719895839691162e-01 1.000000000000000000e+00
-1.081503582000732067e+01 1.517332172393799006e+01 -3.252430558204650879e-01 3.000000000000000000e+00
-1.356331348419189009e+00 1.908543705940247026e+00 -6.273773908615112305e-01 9.000000000000000000e+00
-1.540148496627808061e+00 2.168802261352539062e+00 -6.141163706779479980e-01 1.500000000000000000e+01
-1.795572400093079057e+00 2.529419660568236861e+00 -6.029564142227172852e-01 1.100000000000000000e+01
-2.169210672378540039e+00 3.058024168014525923e+00 -5.938252210617065430e-01 9.000000000000000000e+00
-2.720638751983643022e+00 3.838232994079589844e+00 -5.776606798171997070e-01 1.000000000000000000e+01
-3.599640369415283203e+00 5.080193519592285156e+00 -5.447233915328979492e-01 9.000000000000000000e+00
-5.409413814544677734e+00 7.639988899230957031e+00 -4.905972480773925781e-01 1.000000000000000000e+00
-1.076200580596924006e+01 1.521098136901854936e+01 -3.252430558204650879e-01 3.000000000000000000e+00
-1.344093084335326926e+00 1.905373454093933105e+00 -6.247891783714294434e-01 1.300000000000000000e+01
-1.535936832427978960e+00 2.178943634033203125e+00 -6.154660582542419434e-01 1.700000000000000000e+01
-1.782208800315856934e+00 2.529252529144287109e+00 -6.014299392700195312e-01 1.100000000000000000e+01
-2.165346622467041016e+00 3.075268507003784180e+00 -5.957024693489074707e-01 9.000000000000000000e+00
-2.718647241592406782e+00 3.863941431045531782e+00 -5.800980925559997559e-01 1.100000000000000000e+01
-3.587616443634033203e+00 5.100875854492188388e+00 -5.455949306488037109e-01 9.000000000000000000e+00
-5.394196510314941406e+00 7.675165653228759766e+00 -4.916439652442932129e-01 1.000000000000000000e+00
-1.065138053894042969e+01 1.516663265228270951e+01 -3.234978020191193182e-01 3.000000000000000000e+00
-1.336325883865356001e+00 1.908471107482909934e+00 -6.242715120315551758e-01 1.400000000000000000e+01
-1.531673192977905051e+00 2.189081907272338867e+00 -6.168158054351806641e-01 1.500000000000000000e+01
-1.777870059013366921e+00 2.541893243789672852e+00 -6.029564142227172852e-01 1.100000000000000000e+01
-2.152335643768310991e+00 3.079570055007935014e+00 -5.950766801834106445e-01 9.000000000000000000e+00
-2.700596570968627930e+00 3.866897821426392046e+00 -5.791231393814086914e-01 9.000000000000000000e+00
-3.559524536132812944e+00 5.098664760589599609e+00 -5.440261363983154297e-01 8.000000000000000000e+00
-5.310236454010009766e+00 7.612045288085938388e+00 -4.864103794097899836e-01 1.000000000000000000e+00
-1.063954162597656072e+01 1.526277637481688920e+01 -3.247543871402739923e-01 3.000000000000000000e+00
-1.327450871467590110e+00 1.909951448440551980e+00 -6.232362389564514160e-01 1.500000000000000000e+01
-1.521799325942992942e+00 2.191213846206665039e+00 -6.159160137176513672e-01 1.600000000000000000e+01
-1.770105957984924094e+00 2.549696445465087891e+00 -6.033380627632141113e-01 1.000000000000000000e+01
-2.135942935943603960e+00 3.078948974609375000e+00 -5.935123562812805176e-01 1.000000000000000000e+01
-2.691605806350708008e+00 3.882826805114746094e+00 -5.800980925559997559e-01 9.000000000000000000e+00
-3.545109510421752930e+00 5.115972042083740234e+00 -5.445491075515747070e-01 6.000000000000000000e+00
-5.317742824554443359e+00 7.679796218872070312e+00 -4.895505309104918878e-01 1.000000000000000000e+00
-1.054523849487305043e+01 1.524062252044677912e+01 -3.234978020191193182e-01 3.000000000000000000e+00
-1.326260805130005105e+00 1.922524452209473100e+00 -6.258244514465332031e-01 1.900000000000000000e+01
-1.506399154663085938e+00 2.185281276702880859e+00 -6.127666831016540527e-01 1.600000000000000000e+01
-1.767879009246825950e+00 2.565559387207030806e+00 -6.056277751922607422e-01 1.000000000000000000e+01
-2.121821403503417969e+00 3.081505060195922852e+00 -5.925737619400024414e-01 9.000000000000000000e+00
-2.663407802581787109e+00 3.870938777923583984e+00 -5.769294500350952148e-01 1.000000000000000000e+01
-3.529488086700439009e+00 5.131598472595214844e+00 -5.448976755142211914e-01 6.000000000000000000e+00
-5.261490345001220703e+00 7.655515670776367188e+00 -4.868290722370148260e-01 1.000000000000000000e+00
-1.049197483062743963e+01 1.527733993530273082e+01 -3.234978020191193182e-01 3.000000000000000000e+00
-1.320633292198180930e+00 1.928736209869384988e+00 -6.263421177864074707e-01 2.000000000000000000e+01
-1.499862313270569070e+00 2.192134618759154829e+00 -6.132165789604187012e-01 1.600000000000000000e+01
-1.748937845230102983e+00 2.557130336761475053e+00 -6.021931767463684082e-01 1.100000000000000000e+01
-2.115510463714600053e+00 3.095416307449340820e+00 -5.938252210617065430e-01 9.000000000000000000e+00
-2.648760080337523970e+00 3.878572940826416016e+00 -5.766857266426086426e-01 1.000000000000000000e+01
-3.502567291259766069e+00 5.130723476409912109e+00 -5.435032248497009277e-01 8.000000000000000000e+00
-5.254994392395020419e+00 7.703534126281738281e+00 -4.887131452560424805e-01 1.000000000000000000e+00
-1.036875247955322088e+01 1.521142578125000000e+01 -3.213337063789368231e-01 3.000000000000000000e+00
-1.311720967292786089e+00 1.930138707160949929e+00 -6.253067851066589355e-01 1.900000000000000000e+01
-1.494390726089477983e+00 2.200581073760985884e+00 -6.141163706779479980e-01 1.500000000000000000e+01
-1.731179833412169966e+00 2.550225019454956055e+00 -5.991402268409729004e-01 1.200000000000000000e+01
-2.103583812713623047e+00 3.101147413253784180e+00 -5.935123562812805176e-01 1.000000000000000000e+01
-2.637432575225830078e+00 3.891081571578979048e+00 -5.771732330322265625e-01 8.000000000000000000e+00
-3.475695610046387163e+00 5.129723072052001953e+00 -5.421087145805358887e-01 6.000000000000000000e+00
-5.212395668029785156e+00 7.698676586151123047e+00 -4.872477650642395020e-01 1.000000000000000000e+00
-1.027301120758056996e+01 1.518458843231200994e+01 -3.200073242187500000e-01 3.000000000000000000e+00
-1.296333312988281028e+00 1.921893119812011941e+00 -6.211656928062438965e-01 1.800000000000000000e+01
-1.486700177192687988e+00 2.205784082412720171e+00 -6.141163706779479980e-01 1.500000000000000000e+01
-1.728849172592163086e+00 2.566021442413330078e+00 -6.014299392700195312e-01 1.300000000000000000e+01
-2.091642618179320845e+00 3.106832742691040039e+00 -5.931994915008544922e-01 9.000000000000000000e+00
-2.628266334533690962e+00 3.906852483749390093e+00 -5.781481862068176270e-01 8.000000000000000000e+00
-3.451097488403319868e+00 5.131904125213623047e+00 -5.410628318786621094e-01 4.000000000000000000e+00
-5.181035041809082031e+00 7.710193157196044922e+00 -4.868290722370148260e-01 1.000000000000000000e+00
-1.021994400024414062e+01 1.522035598754882990e+01 -3.200073242187500000e-01 3.000000000000000000e+00
-1.290691375732422097e+00 1.928011775016784890e+00 -6.216833591461181641e-01 1.600000000000000000e+01
-1.478991508483886941e+00 2.210960149765015093e+00 -6.141163706779479980e-01 1.500000000000000000e+01
-1.720972895622252974e+00 2.573672771453856978e+00 -6.018115878105163574e-01 1.200000000000000000e+01
-2.076395273208618164e+00 3.107545137405395952e+00 -5.919480323791503906e-01 9.000000000000000000e+00
-2.621226549148560014e+00 3.925908565521239790e+00 -5.796105861663818359e-01 9.000000000000000000e+00
-3.449753284454346147e+00 5.168777465820313388e+00 -5.436775088310241699e-01 8.000000000000000000e+00
-5.149656772613525391e+00 7.721584796905517578e+00 -4.864103794097899836e-01 1.000000000000000000e+00
-1.013792037963867010e+01 1.521267223358153942e+01 -3.190998136997222900e-01 3.000000000000000000e+00
-1.287160754203795943e+00 1.937332630157470925e+00 -6.232362389564514160e-01 1.700000000000000000e+01
-1.464797735214232954e+00 2.206368207931518999e+00 -6.114169359207153320e-01 1.500000000000000000e+01
-1.715235352516174094e+00 2.584571838378905806e+00 -6.029564142227172852e-01 1.200000000000000000e+01
-2.063351869583129883e+00 3.111481428146361861e+00 -5.913223028182983398e-01 9.000000000000000000e+00
-2.596541404724121094e+00 3.918486833572388139e+00 -5.771732330322265625e-01 1.000000000000000000e+01
-3.425088405609130859e+00 5.170821666717529297e+00 -5.426316261291503906e-01 6.000000000000000000e+00
-5.111648559570313388e+00 7.722858905792236328e+00 -4.853636622428894043e-01 1.000000000000000000e+00
-1.011343765258789062e+01 1.529133319854735973e+01 -3.200073242187500000e-01 3.000000000000000000e+00
-1.285707592964171919e+00 1.949877858161926047e+00 -6.258244514465332031e-01 1.600000000000000000e+01
-1.458159327507019043e+00 2.213095188140869141e+00 -6.118668913841247559e-01 1.300000000000000000e+01
-1.699723839759827104e+00 2.580705881118773970e+00 -6.006667017936706543e-01 1.200000000000000000e+01
-2.050306081771851030e+00 3.115364789962768999e+00 -5.906965136528015137e-01 9.000000000000000000e+00
-2.577394008636475053e+00 3.919233798980712891e+00 -5.759544968605041504e-01 1.000000000000000000e+01
-3.405923604965209961e+00 5.181080818176270419e+00 -5.424573421478271484e-01 8.000000000000000000e+00
-5.091238975524902344e+00 7.750670433044433594e+00 -4.859916865825653076e-01 1.000000000000000000e+00
-1.005999946594237926e+01 1.532654190063476918e+01 -3.200073242187500000e-01 3.000000000000000000e+00
-1.279951214790344016e+00 1.955970525741576926e+00 -6.263421177864074707e-01 1.700000000000000000e+01
-1.456824183464050071e+00 2.227957725524901900e+00 -6.145662665367126465e-01 1.400000000000000000e+01
-1.687482714653014915e+00 2.581693172454833984e+00 -5.995218753814697266e-01 1.200000000000000000e+01
-2.040499210357666016e+00 3.124156713485718218e+00 -5.910094380378723145e-01 8.000000000000000000e+00
-2.568037271499633789e+00 3.934856176376343218e+00 -5.769294500350952148e-01 1.000000000000000000e+01
-3.378019809722899947e+00 5.177920341491699219e+00 -5.408885478973388672e-01 8.000000000000000000e+00
-5.029250621795654297e+00 7.714854717254638672e+00 -4.826421737670897882e-01 1.000000000000000000e+00
-9.967146873474121094e+00 1.530124473571776988e+01 -3.187507390975952148e-01 3.000000000000000000e+00
-1.263646364212035911e+00 1.945844769477844016e+00 -6.216833591461181641e-01 1.700000000000000000e+01
-1.454342246055603027e+00 2.241203069686890093e+00 -6.168158054351806641e-01 1.200000000000000000e+01
-1.683802604675292969e+00 2.595803260803223100e+00 -6.014299392700195312e-01 1.100000000000000000e+01
-2.032804727554320845e+00 3.136233091354370117e+00 -5.919480323791503906e-01 9.000000000000000000e+00
-2.554286479949951172e+00 3.943796396255493164e+00 -5.769294500350952148e-01 1.000000000000000000e+01
-3.354511022567749023e+00 5.181317806243895596e+00 -5.400170087814331055e-01 8.000000000000000000e+00
-4.997950553894042969e+00 7.725655078887938565e+00 -4.822235107421875000e-01 1.000000000000000000e+00
-9.872422218322753906e+00 1.527212715148925959e+01 -3.174243569374083918e-01 3.000000000000000000e+00
-1.256479978561400923e+00 1.948181509971619096e+00 -6.211656928062438965e-01 1.600000000000000000e+01
-1.436737656593322976e+00 2.229380369186400923e+00 -6.123167872428894043e-01 1.300000000000000000e+01
-1.672449707984924094e+00 2.596128940582274947e+00 -6.002851128578186035e-01 1.100000000000000000e+01
-2.018665075302124023e+00 3.135959863662720171e+00 -5.906965136528015137e-01 9.000000000000000000e+00
-2.537588596343994141e+00 3.945123195648192915e+00 -5.759544968605041504e-01 1.000000000000000000e+01
-3.339294433593750000e+00 5.193506717681884766e+00 -5.401912927627563477e-01 4.000000000000000000e+00
-4.980132579803466797e+00 7.751400470733642578e+00 -4.828515350818634033e-01 1.000000000000000000e+00
-9.824394226074218750e+00 1.530306720733642933e+01 -3.174243569374083918e-01 3.000000000000000000e+00
-1.256961703300476074e+00 1.963945508003235085e+00 -6.247891783714294434e-01 1.600000000000000000e+01
-1.426847100257873979e+00 2.231098651885985884e+00 -6.114169359207153320e-01 1.200000000000000000e+01
-1.670779585838318093e+00 2.613529920578002930e+00 -6.029564142227172852e-01 1.100000000000000000e+01
-2.006642818450928178e+00 3.141322612762451172e+00 -5.903836488723754883e-01 1.000000000000000000e+01
-2.528074264526367188e+00 3.960650205612183061e+00 -5.769294500350952148e-01 1.000000000000000000e+01
-3.321145296096802202e+00 5.205131053924561435e+00 -5.401912927627563477e-01 6.000000000000000000e+00
-4.950897216796875000e+00 7.765368938446044922e+00 -4.826421737670897882e-01 1.000000000000000000e+00
-9.704301834106445312e+00 1.523270225524901988e+01 -3.152602612972260077e-01 3.000000000000000000e+00
-1.249062895774841087e+00 1.966690421104430930e+00 -6.242715120315551758e-01 1.600000000000000000e+01
-1.415917754173279031e+00 2.231129407882689986e+00 -6.100672483444213867e-01 1.200000000000000000e+01
-1.652181386947632058e+00 2.604425907135010210e+00 -5.995218753814697266e-01 1.200000000000000000e+01
-1.994607806205749956e+00 3.146639585494995117e+00 -5.900707840919494629e-01 9.000000000000000000e+00
-2.499362707138061968e+00 3.945972681045531782e+00 -5.735171437263488770e-01 1.000000000000000000e+01
-3.304021596908568892e+00 5.218375682830811435e+00 -5.403655767440795898e-01 4.000000000000000000e+00
-4.928032398223876953e+00 7.789354801177979404e+00 -4.830608665943145752e-01 1.000000000000000000e+00
-9.646796226501464844e+00 1.525972270965575994e+01 -3.151206374168395996e-01 3.000000000000000000e+00
-1.244250297546386941e+00 1.974307179450988992e+00 -6.253067851066589355e-01 1.900000000000000000e+01
-1.411236405372620073e+00 2.241005420684814009e+00 -6.114169359207153320e-01 1.300000000000000000e+01
-1.639942526817321999e+00 2.605192899703979048e+00 -5.983769893646240234e-01 1.100000000000000000e+01
-1.983611822128295898e+00 3.153582811355590820e+00 -5.900707840919494629e-01 9.000000000000000000e+00
-2.487686157226562944e+00 3.958034515380858931e+00 -5.740045905113220215e-01 1.000000000000000000e+01
-3.283666133880614790e+00 5.226502895355224609e+00 -5.400170087814331055e-01 8.000000000000000000e+00
-4.871078014373779297e+00 7.759146213531494141e+00 -4.801300764083861750e-01 1.000000000000000000e+00
-9.529713630676269531e+00 1.519166469573974965e+01 -3.130263686180114746e-01 3.000000000000000000e+00
-1.230180978775023970e+00 1.967172741889954057e+00 -6.216833591461181641e-01 1.800000000000000000e+01
-1.408568620681762917e+00 2.254180908203125000e+00 -6.136664748191833496e-01 1.400000000000000000e+01
-1.637079119682312012e+00 2.620892047882080078e+00 -6.006667017936706543e-01 1.100000000000000000e+01
-1.970499873161315918e+00 3.157136201858520952e+00 -5.894450545310974121e-01 9.000000000000000000e+00
-2.480157613754272017e+00 3.976800203323363814e+00 -5.754670500755310059e-01 1.000000000000000000e+01
-3.251699686050415039e+00 5.215953826904296875e+00 -5.377509593963623047e-01 6.000000000000000000e+00
-4.843964099884033203e+00 7.776102066040039062e+00 -4.801300764083861750e-01 1.000000000000000000e+00
-1.220251083374022993e+00 1.966530323028564009e+00 -6.201304197311401367e-01 1.900000000000000000e+01
-1.398637652397155984e+00 2.255771636962891069e+00 -6.127666831016540527e-01 1.300000000000000000e+01
-1.624817848205565962e+00 2.621584415435791016e+00 -5.995218753814697266e-01 1.000000000000000000e+01
-1.954267144203186035e+00 3.155598163604735884e+00 -5.878807306289672852e-01 9.000000000000000000e+00
-2.471483945846558061e+00 3.993873357772827148e+00 -5.766857266426086426e-01 8.000000000000000000e+00
-3.236617088317871094e+00 5.232355594635009766e+00 -5.382738709449768066e-01 6.000000000000000000e+00
-4.823091506958007812e+00 7.803156852722167969e+00 -4.807581007480620783e-01 1.000000000000000000e+00
-9.467556953430175781e+00 1.532928085327148082e+01 -3.144923746585845947e-01 3.000000000000000000e+00
-1.220468997955322044e+00 1.982293248176574929e+00 -6.237539052963256836e-01 1.900000000000000000e+01
-1.380543947219849077e+00 2.244042158126831055e+00 -6.082676649093627930e-01 1.200000000000000000e+01
-1.615656852722167969e+00 2.627240180969237837e+00 -5.995218753814697266e-01 1.200000000000000000e+01
-1.940137505531311035e+00 3.157351732254027876e+00 -5.869421362876892090e-01 9.000000000000000000e+00
-2.441947221755981001e+00 3.977101325988769975e+00 -5.730296373367309570e-01 1.000000000000000000e+01
-3.212080001831055132e+00 5.233433246612548828e+00 -5.372279882431030273e-01 6.000000000000000000e+00
-4.770764350891113281e+00 7.779083251953125000e+00 -4.782459735870360773e-01 1.000000000000000000e+00
-9.422348976135253906e+00 1.537587547302245916e+01 -3.147715926170349121e-01 3.000000000000000000e+00
-3.215209197998046875e+01 5.246744155883789062e+01 1.648832702636719105e+01 2.600000000000000000e+01
-1.212535023689270020e+00 1.984892845153809038e+00 -6.232362389564514160e-01 1.600000000000000000e+01
-1.378794193267822044e+00 2.258827447891234907e+00 -6.109670400619506836e-01 1.300000000000000000e+01
-1.607498764991760032e+00 2.634539604187012163e+00 -5.999034643173217773e-01 1.100000000000000000e+01
-1.937330961227416992e+00 3.177597761154174805e+00 -5.894450545310974121e-01 9.000000000000000000e+00
-2.424951553344727007e+00 3.980515241622924805e+00 -5.722984075546264648e-01 1.000000000000000000e+01
-3.202082395553588867e+00 5.258227348327636719e+00 -5.386224985122680664e-01 6.000000000000000000e+00
-4.731122493743895596e+00 7.775214195251464844e+00 -4.769898951053618830e-01 1.000000000000000000e+00
-9.368619918823242188e+00 1.540867233276367010e+01 -3.147715926170349121e-01 3.000000000000000000e+00
-1.200246572494507058e+00 1.981062293052672896e+00 -6.206480860710144043e-01 1.800000000000000000e+01
-1.367478251457213911e+00 2.258864641189575195e+00 -6.096173524856567383e-01 1.200000000000000000e+01
-1.592749834060668945e+00 2.632015466690063032e+00 -5.979954004287719727e-01 1.200000000000000000e+01
-1.922605156898498979e+00 3.179605960845946822e+00 -5.885064601898193359e-01 8.000000000000000000e+00
-2.414452075958251953e+00 3.996172428131103960e+00 -5.732734203338623047e-01 8.000000000000000000e+00
-3.174548387527465820e+00 5.256284236907958984e+00 -5.372279882431030273e-01 8.000000000000000000e+00
-4.712912559509277344e+00 7.809602737426757812e+00 -4.780366122722625732e-01 1.000000000000000000e+00
-9.312081336975097656e+00 1.544290637969971058e+01 -3.147715926170349121e-01 3.000000000000000000e+00
-1.188347816467284934e+00 1.976961135864258035e+00 -6.180598735809326172e-01 1.900000000000000000e+01
-1.363598585128783958e+00 2.270306587219237837e+00 -6.114169359207153320e-01 1.200000000000000000e+01
-1.588605403900146040e+00 2.645975112915039062e+00 -5.999034643173217773e-01 1.100000000000000000e+01
-1.908445835113524947e+00 3.181215763092041016e+00 -5.875678658485412598e-01 9.000000000000000000e+00
-2.408653020858765093e+00 4.018197059631347656e+00 -5.752233266830444336e-01 1.000000000000000000e+01
-3.142868280410767046e+00 5.245115756988525391e+00 -5.349619388580322266e-01 6.000000000000000000e+00
-4.691779136657714844e+00 7.836287498474121094e+00 -4.786646664142609198e-01 3.000000000000000000e+00
-9.206787109375000000e+00 1.538951492309569957e+01 -3.130263686180114746e-01 3.000000000000000000e+00
-1.185744524002074973e+00 1.987527132034301980e+00 -6.201304197311401367e-01 1.900000000000000000e+01
-1.356062531471251997e+00 2.274816036224364790e+00 -6.114169359207153320e-01 1.200000000000000000e+01
-1.578817367553710938e+00 2.649542093276977983e+00 -5.995218753814697266e-01 1.200000000000000000e+01
-1.891822576522826926e+00 3.177343130111693892e+00 -5.856906175613403320e-01 1.000000000000000000e+01
-2.393285036087036133e+00 4.022750377655029297e+00 -5.747358202934265137e-01 1.000000000000000000e+01
-3.132586240768433061e+00 5.267496109008789062e+00 -5.361821055412292480e-01 8.000000000000000000e+00
-4.653523921966552734e+00 7.831199169158936435e+00 -4.774085879325867254e-01 3.000000000000000000e+00
-9.118949890136718750e+00 1.535806179046631037e+01 -3.117697834968566895e-01 3.000000000000000000e+00
-1.180767416954040971e+00 1.994979023933411089e+00 -6.211656928062438965e-01 1.900000000000000000e+01
-1.340177774429321067e+00 2.266116857528686968e+00 -6.078177690505981445e-01 1.200000000000000000e+01
-1.571557283401489036e+00 2.658416986465454102e+00 -6.002851128578186035e-01 1.100000000000000000e+01
-1.888757348060607910e+00 3.197534084320067915e+00 -5.881935954093933105e-01 9.000000000000000000e+00
-2.373174428939818892e+00 4.020823001861572266e+00 -5.732734203338623047e-01 1.000000000000000000e+01
-3.113167762756348100e+00 5.276682853698729581e+00 -5.360078215599060059e-01 6.000000000000000000e+00
-4.616016864776611328e+00 7.830189704895020419e+00 -4.763618707656859796e-01 3.000000000000000000e+00
-9.065284729003906250e+00 1.538979911804199041e+01 -3.117697834968566895e-01 3.000000000000000000e+00
-1.172818303108215110e+00 1.997422575950623003e+00 -6.206480860710144043e-01 1.800000000000000000e+01
-1.335217714309691939e+00 2.275823593139647993e+00 -6.091674566268920898e-01 1.200000000000000000e+01
-1.559288620948791948e+00 2.658806085586547852e+00 -5.991402268409729004e-01 1.100000000000000000e+01
-1.877584338188170943e+00 3.204107522964477983e+00 -5.881935954093933105e-01 9.000000000000000000e+00
-2.354109525680541992e+00 4.020516872406005859e+00 -5.720546841621398926e-01 1.000000000000000000e+01
-3.101774692535399947e+00 5.299554347991943359e+00 -5.372279882431030273e-01 8.000000000000000000e+00
-4.598738670349121094e+00 7.863495826721191406e+00 -4.774085879325867254e-01 1.000000000000000000e+00
-8.973170280456542969e+00 1.535574054718017933e+01 -3.104434013366699219e-01 3.000000000000000000e+00
-1.164866566658020020e+00 1.999835014343261941e+00 -6.201304197311401367e-01 1.900000000000000000e+01
-1.328245759010314941e+00 2.282154560089110884e+00 -6.096173524856567383e-01 1.200000000000000000e+01
-1.549010872840880904e+00 2.662535905838013139e+00 -5.987586379051208496e-01 1.200000000000000000e+01
-1.868373990058898926e+00 3.214057683944702148e+00 -5.888193249702453613e-01 9.000000000000000000e+00
-2.345046281814575195e+00 4.037292480468750000e+00 -5.732734203338623047e-01 8.000000000000000000e+00
-3.074253320693970171e+00 5.294842243194580078e+00 -5.356591939926147461e-01 9.000000000000000000e+00
-4.571261882781982422e+00 7.879500389099121094e+00 -4.774085879325867254e-01 1.000000000000000000e+00
-8.893439292907714844e+00 1.534198856353759943e+01 -3.095358908176422119e-01 3.000000000000000000e+00
-3.119029998779296875e+01 5.382774353027343750e+01 1.666950035095214844e+01 2.700000000000000000e+01
-1.155945658683777078e+00 2.000543594360352007e+00 -6.190951466560363770e-01 1.900000000000000000e+01
-1.322220206260680930e+00 2.290152549743651900e+00 -6.105171442031860352e-01 1.200000000000000000e+01
-1.539707422256469949e+00 2.667926788330078125e+00 -5.987586379051208496e-01 1.000000000000000000e+01
-1.857143402099608931e+00 3.220559835433959961e+00 -5.888193249702453613e-01 9.000000000000000000e+00
-2.326974868774414062e+00 4.038573741912841797e+00 -5.722984075546264648e-01 8.000000000000000000e+00
-3.047796964645386186e+00 5.291728973388671875e+00 -5.342646837234497070e-01 9.000000000000000000e+00
-4.529782772064208984e+00 7.871174335479736328e+00 -4.759431779384613037e-01 1.000000000000000000e+00
-1.146073460578918013e+00 1.999538302421570046e+00 -6.175422668457031250e-01 1.700000000000000000e+01
-1.317123413085937944e+00 2.299827098846435991e+00 -6.118668913841247559e-01 1.400000000000000000e+01
-1.531360626220702903e+00 2.674988985061645952e+00 -5.991402268409729004e-01 1.100000000000000000e+01
-1.838043808937072976e+00 3.213305473327637163e+00 -5.863163471221923828e-01 9.000000000000000000e+00
-2.314833641052246094e+00 4.050118923187255859e+00 -5.727859139442443848e-01 1.000000000000000000e+01
-3.029306888580321822e+00 5.302335262298583984e+00 -5.342646837234497070e-01 9.000000000000000000e+00
-4.506240367889404297e+00 7.893876075744628906e+00 -4.763618707656859796e-01 1.000000000000000000e+00
-8.687040328979492188e+00 1.523000240325927912e+01 -3.060454130172728937e-01 2.000000000000000000e+00
-1.140996336936950906e+00 2.006885528564453125e+00 -6.185775399208068848e-01 1.700000000000000000e+01
-1.297536730766295943e+00 2.284077644348144975e+00 -6.064680218696594238e-01 1.100000000000000000e+01
-1.522013902664185014e+00 2.680318117141724077e+00 -5.991402268409729004e-01 1.200000000000000000e+01
-1.826816082000731978e+00 3.219702005386352983e+00 -5.863163471221923828e-01 9.000000000000000000e+00
-2.298723936080933061e+00 4.054720401763916016e+00 -5.722984075546264648e-01 8.000000000000000000e+00
-3.009797334671020952e+00 5.311143875122070312e+00 -5.340903997421264648e-01 9.000000000000000000e+00
-4.462912559509277344e+00 7.881750106811523438e+00 -4.746871292591094971e-01 1.000000000000000000e+00
-8.683059692382812500e+00 1.534725570678710938e+01 -3.077906370162963867e-01 3.000000000000000000e+00
-1.136830925941467063e+00 2.015904188156127930e+00 -6.201304197311401367e-01 1.900000000000000000e+01
-1.296252369880676047e+00 2.300477504730225053e+00 -6.096173524856567383e-01 1.300000000000000000e+01
-1.512648582458496094e+00 2.685614585876464844e+00 -5.991402268409729004e-01 1.200000000000000000e+01
-1.813628435134887917e+00 3.222616195678710938e+00 -5.856906175613403320e-01 9.000000000000000000e+00
-2.270934581756591797e+00 4.038496017456054688e+00 -5.688861012458801270e-01 1.000000000000000000e+01
-2.994168519973754883e+00 5.326828479766845703e+00 -5.346133112907409668e-01 8.000000000000000000e+00
-4.447109222412109375e+00 7.918177604675292969e+00 -4.759431779384613037e-01 1.000000000000000000e+00
-3.002448081970214844e+01 5.348112106323242188e+01 1.415976905822754084e+01 2.400000000000000000e+01
-8.619647979736328125e+00 1.536003208160400035e+01 -3.074415922164916992e-01 3.000000000000000000e+00
-1.127901077270508035e+00 2.016488075256348100e+00 -6.190951466560363770e-01 1.900000000000000000e+01
-1.283460736274719016e+00 2.296482563018798828e+00 -6.073678731918334961e-01 1.200000000000000000e+01
-1.497519850730895996e+00 2.680594682693481001e+00 -5.968505144119262695e-01 1.200000000000000000e+01
-1.807182312011718972e+00 3.237551450729370117e+00 -5.872550010681152344e-01 1.000000000000000000e+01
-2.264559268951416016e+00 4.060267925262451172e+00 -5.708360075950622559e-01 8.000000000000000000e+00
-2.959063053131103960e+00 5.307663917541503906e+00 -5.316500067710876465e-01 9.000000000000000000e+00
-4.417498588562011719e+00 7.930162906646729404e+00 -4.757338464260100763e-01 1.000000000000000000e+00
-8.527078628540039062e+00 1.532013607025145951e+01 -3.060454130172728937e-01 2.000000000000000000e+00
-1.116169452667236106e+00 2.011966466903686968e+00 -6.165069937705993652e-01 1.700000000000000000e+01
-1.282994866371155007e+00 2.314584016799927202e+00 -6.109670400619506836e-01 1.400000000000000000e+01
-1.488153696060181108e+00 2.685805559158325195e+00 -5.968505144119262695e-01 1.100000000000000000e+01
-1.792999863624572976e+00 3.238655328750609907e+00 -5.863163471221923828e-01 9.000000000000000000e+00
-2.249411582946776900e+00 4.066410541534423828e+00 -5.705922842025756836e-01 1.000000000000000000e+01
-2.942445993423461914e+00 5.321447849273681641e+00 -5.319986343383789062e-01 9.000000000000000000e+00
-4.391721725463867188e+00 7.949030876159667969e+00 -4.759431779384613037e-01 1.000000000000000000e+00
-8.473548889160156250e+00 1.534980773925781072e+01 -3.060454130172728937e-01 2.000000000000000000e+00
-1.108787775039673074e+00 2.016043901443481001e+00 -6.165069937705993652e-01 1.800000000000000000e+01
-1.265117764472960982e+00 2.302192449569702148e+00 -6.064680218696594238e-01 1.100000000000000000e+01
-1.477354526519774947e+00 2.689521312713623047e+00 -5.964689254760742188e-01 1.100000000000000000e+01
-1.777315735816956010e+00 3.238278388977050781e+00 -5.850648880004882812e-01 9.000000000000000000e+00
-2.235446691513061968e+00 4.076368331909179688e+00 -5.708360075950622559e-01 8.000000000000000000e+00
-2.921006679534912109e+00 5.328702449798583984e+00 -5.316500067710876465e-01 9.000000000000000000e+00
-4.343369007110595703e+00 7.930039405822753906e+00 -4.738497436046599787e-01 1.000000000000000000e+00
