2.138885259628295898e+00 5.173939704895020419e+00 -4.898152649402617853e-01 9.000000000000000000e+00
3.095170021057128906e+00 7.479784965515136719e+00 -4.242352545261383057e-01 2.000000000000000000e+00
5.474600791931152344e+00 1.321685504913330078e+01 -2.497090250253677091e-01 2.000000000000000000e+00
8.612053394317626953e-01 2.070950269699097124e+00 -6.009778380393981934e-01 2.000000000000000000e+01
9.758058786392211914e-01 2.344223022460937944e+00 -5.862224698066711426e-01 1.100000000000000000e+01
1.128404736518860085e+00 2.709485292434691939e+00 -5.705189108848571777e-01 1.000000000000000000e+01
1.347626805305480957e+00 3.232693433761597124e+00 -5.547165870666503906e-01 8.000000000000000000e+00
1.659644126892090066e+00 3.977252721786499023e+00 -5.291566848754882812e-01 9.000000000000000000e+00
2.153862237930297852e+00 5.159087657928466797e+00 -4.891180396080017090e-01 9.000000000000000000e+00
3.105858087539672852e+00 7.432078838348388672e+00 -4.221418201923369806e-01 2.000000000000000000e+00
5.488291740417479581e+00 1.312018299102783025e+01 -2.482430338859558105e-01 2.000000000000000000e+00
8.691771030426025391e-01 2.069712638854980025e+00 -6.014954447746276855e-01 2.100000000000000000e+01
9.839828014373779297e-01 2.340802669525146040e+00 -5.862224698066711426e-01 1.100000000000000000e+01
1.135572433471679910e+00 2.700100898742675781e+00 -5.693740248680114746e-01 1.000000000000000000e+01
1.358136296272278054e+00 3.226149082183837891e+00 -5.544037222862243652e-01 9.000000000000000000e+00
1.673517227172852007e+00 3.971435070037841797e+00 -5.291566848754882812e-01 1.000000000000000000e+01
2.177275896072388139e+00 5.164389133453369141e+00 -4.903382062911986750e-01 9.000000000000000000e+00
3.141100406646728960e+00 7.443273544311523438e+00 -4.233978986740111750e-01 2.000000000000000000e+00
5.532499790191650391e+00 1.309726142883300959e+01 -2.481732219457626065e-01 2.000000000000000000e+00
8.696085214614868164e-01 2.050659179687500000e+00 -5.968367457389831543e-01 1.800000000000000000e+01
9.967163801193237305e-01 2.348116636276245117e+00 -5.889218449592590332e-01 1.000000000000000000e+01
1.148827791213989036e+00 2.705155849456787109e+00 -5.712821483612060547e-01 1.000000000000000000e+01
1.365525484085083008e+00 3.212298870086669922e+00 -5.528393983840942383e-01 8.000000000000000000e+00
1.688924431800842063e+00 3.969222545623778853e+00 -5.296441912651062012e-01 1.000000000000000000e+01
2.191387653350830078e+00 5.147591590881347656e+00 -4.894666373729705811e-01 9.000000000000000000e+00
3.162365436553955078e+00 7.421239376068115234e+00 -4.227698445320128839e-01 1.000000000000000000e+00
5.578184127807617188e+00 1.307786941528319957e+01 -2.481732219457626065e-01 2.000000000000000000e+00
8.801616430282592773e-01 2.054561138153076172e+00 -5.989072918891906738e-01 1.800000000000000000e+01
1.006851911544800027e+00 2.348029613494873047e+00 -5.898216366767883301e-01 1.000000000000000000e+01
1.157186865806580034e+00 2.697318553924560991e+00 -5.705189108848571777e-01 1.000000000000000000e+01
1.374951601028441939e+00 3.201827287673950195e+00 -5.519008040428161621e-01 9.000000000000000000e+00
1.706596732139586958e+00 3.970300674438477007e+00 -5.306191444396972656e-01 9.000000000000000000e+00
2.207091331481934038e+00 5.132204055786132812e+00 -4.887694120407103937e-01 9.000000000000000000e+00
3.189544439315795898e+00 7.409598827362061435e+00 -4.227698445320128839e-01 1.000000000000000000e+00
5.610253810882568359e+00 1.302060699462890980e+01 -2.474751174449920932e-01 2.000000000000000000e+00
8.850272297859191895e-01 2.046157121658325195e+00 -5.973543524742126465e-01 1.600000000000000000e+01
1.008847951889038086e+00 2.330194234848022017e+00 -5.862224698066711426e-01 1.000000000000000000e+01
1.170496821403502974e+00 2.702270269393920898e+00 -5.724269747734069824e-01 1.000000000000000000e+01
1.389262795448303001e+00 3.204257726669311968e+00 -5.531522631645202637e-01 9.000000000000000000e+00
1.715703487396240012e+00 3.953393220901488814e+00 -5.291566848754882812e-01 9.000000000000000000e+00
2.226579666137694868e+00 5.128123760223388672e+00 -4.891180396080017090e-01 9.000000000000000000e+00
3.205836296081542969e+00 7.376439094543457031e+00 -4.215137958526610773e-01 1.000000000000000000e+00
5.221722602844238281e+00 1.200341033935547053e+01 -2.284869104623795111e-01 2.000000000000000000e+00
8.975760340690612793e-01 2.055448055267333984e+00 -6.009778380393981934e-01 1.700000000000000000e+01
1.016975760459899902e+00 2.326658487319945845e+00 -5.862224698066711426e-01 1.100000000000000000e+01
1.175202727317810059e+00 2.687375307083129883e+00 -5.701372623443603516e-01 1.100000000000000000e+01
1.404399871826172097e+00 3.208436727523804155e+00 -5.547165870666503906e-01 8.000000000000000000e+00
1.721526622772217019e+00 3.929198026657104048e+00 -5.267193317413330078e-01 9.000000000000000000e+00
2.246066331863402876e+00 5.123969554901123047e+00 -4.894666373729705811e-01 9.000000000000000000e+00
3.242799997329711914e+00 7.390809059143066406e+00 -4.229792058467864990e-01 2.000000000000000000e+00
5.709057807922363281e+00 1.299943256378174006e+01 -2.478241771459578913e-01 2.000000000000000000e+00
9.024075865745544434e-01 2.046999454498291016e+00 -5.994248986244201660e-01 1.600000000000000000e+01
1.026664495468140093e+00 2.326660156250000000e+00 -5.871222615242004395e-01 1.100000000000000000e+01
1.183783292770385964e+00 2.681460618972777876e+00 -5.697556734085083008e-01 1.000000000000000000e+01
1.415590763092041016e+00 3.203515052795410156e+00 -5.547165870666503906e-01 8.000000000000000000e+00
1.738443493843079057e+00 3.930426597595214844e+00 -5.276942849159240723e-01 9.000000000000000000e+00
2.260713577270507812e+00 5.108810424804688388e+00 -4.887694120407103937e-01 9.000000000000000000e+00
3.271814346313477007e+00 7.386749267578125000e+00 -4.233978986740111750e-01 2.000000000000000000e+00
5.746294975280761719e+00 1.296114349365234020e+01 -2.474751174449920932e-01 2.000000000000000000e+00
9.048347473144531250e-01 2.033246994018555132e+00 -5.963190793991088867e-01 1.600000000000000000e+01
1.034779787063599077e+00 2.323062181472777876e+00 -5.871222615242004395e-01 1.000000000000000000e+01
1.195533633232116921e+00 2.682691812515258789e+00 -5.709004998207092285e-01 9.000000000000000000e+00
1.427569270133971946e+00 3.200358152389525923e+00 -5.550295114517211914e-01 9.000000000000000000e+00
1.760245800018310991e+00 3.942460536956787109e+00 -5.301316380500793457e-01 9.000000000000000000e+00
2.276907682418822798e+00 5.097249507904052734e+00 -4.884207844734191895e-01 9.000000000000000000e+00
3.287796258926392046e+00 7.353403568267822266e+00 -4.221418201923369806e-01 2.000000000000000000e+00
5.775165557861328125e+00 1.290450191497802912e+01 -2.467770278453826904e-01 2.000000000000000000e+00
9.143013954162597656e-01 2.035362958908081055e+00 -5.978720188140869141e-01 1.500000000000000000e+01
1.041284203529357910e+00 2.315881252288817915e+00 -5.862224698066711426e-01 1.100000000000000000e+01
1.202474474906920943e+00 2.673130989074707031e+00 -5.697556734085083008e-01 1.100000000000000000e+01
1.432243824005126953e+00 3.180945873260498047e+00 -5.525265336036682129e-01 9.000000000000000000e+00
1.773996829986572044e+00 3.936292171478271040e+00 -5.301316380500793457e-01 9.000000000000000000e+00
2.293867588043212891e+00 5.087454319000244141e+00 -4.882464706897736151e-01 8.000000000000000000e+00
3.313444614410399947e+00 7.341882228851318359e+00 -4.221418201923369806e-01 2.000000000000000000e+00
5.830054283142089844e+00 1.290613269805908025e+01 -2.471958845853806097e-01 2.000000000000000000e+00
9.266279935836791992e-01 2.044636726379394975e+00 -6.014954447746276855e-01 1.500000000000000000e+01
1.047348141670227051e+00 2.308866262435913086e+00 -5.853226184844970703e-01 1.000000000000000000e+01
1.216200351715087891e+00 2.679855346679687944e+00 -5.720453858375549316e-01 1.000000000000000000e+01
1.444418311119080034e+00 3.179775953292847124e+00 -5.531522631645202637e-01 9.000000000000000000e+00
1.785397052764893022e+00 3.926773548126221147e+00 -5.296441912651062012e-01 9.000000000000000000e+00
2.316500425338745117e+00 5.092514514923095703e+00 -4.894666373729705811e-01 9.000000000000000000e+00
3.347704172134398970e+00 7.352666854858398438e+00 -4.233978986740111750e-01 2.000000000000000000e+00
5.879454612731933594e+00 1.290128517150879084e+01 -2.474751174449920932e-01 2.000000000000000000e+00
9.329558610916137695e-01 2.039633035659790039e+00 -6.009778380393981934e-01 1.600000000000000000e+01
1.053778767585753950e+00 2.301652431488037109e+00 -5.844228267669677734e-01 1.100000000000000000e+01
1.221459507942199929e+00 2.666669130325316939e+00 -5.701372623443603516e-01 9.000000000000000000e+00
1.458801984786987083e+00 3.181897163391112837e+00 -5.544037222862243652e-01 9.000000000000000000e+00
1.795781373977660911e+00 3.913300752639770952e+00 -5.286692380905151367e-01 9.000000000000000000e+00
2.333431243896483931e+00 5.082586765289306641e+00 -4.892923533916472834e-01 9.000000000000000000e+00
3.363342046737670898e+00 7.319158554077148438e+00 -4.221418201923369806e-01 1.000000000000000000e+00
5.907740592956542969e+00 1.284434890747069957e+01 -2.467770278453826904e-01 2.000000000000000000e+00
9.360212683677673340e-01 2.027594089508057085e+00 -5.983896255493164062e-01 1.600000000000000000e+01
1.066711068153380904e+00 2.308574199676514116e+00 -5.871222615242004395e-01 1.100000000000000000e+01
1.230760455131530984e+00 2.662389278411864790e+00 -5.701372623443603516e-01 9.000000000000000000e+00
1.469900012016295943e+00 3.176785469055175781e+00 -5.544037222862243652e-01 9.000000000000000000e+00
1.808596253395081010e+00 3.905207157135010210e+00 -5.284254550933837891e-01 1.000000000000000000e+01
2.352833747863769975e+00 5.078026294708251953e+00 -4.896409511566162109e-01 9.000000000000000000e+00
3.392231225967406782e+00 7.314621448516845703e+00 -4.225605130195618231e-01 2.000000000000000000e+00
5.952539443969726562e+00 1.282364940643311080e+01 -2.467770278453826904e-01 2.000000000000000000e+00
9.430931806564331055e-01 2.024314403533935991e+00 -5.983896255493164062e-01 1.600000000000000000e+01
1.078057289123534934e+00 2.311901330947875977e+00 -5.889218449592590332e-01 1.000000000000000000e+01
1.238386392593384011e+00 2.654518365859984907e+00 -5.693740248680114746e-01 9.000000000000000000e+00
1.482651591300963911e+00 3.175215005874633789e+00 -5.550295114517211914e-01 9.000000000000000000e+00
1.826419472694396973e+00 3.907861948013306108e+00 -5.296441912651062012e-01 9.000000000000000000e+00
2.368013143539429155e+00 5.064367771148681641e+00 -4.891180396080017090e-01 9.000000000000000000e+00
3.409277439117432085e+00 7.284646034240722656e+00 -4.215137958526610773e-01 2.000000000000000000e+00
5.997266292572020596e+00 1.280279254913330078e+01 -2.467770278453826904e-01 2.000000000000000000e+00
9.486268162727355957e-01 2.019593000411986861e+00 -5.978720188140869141e-01 1.800000000000000000e+01
1.080340266227721946e+00 2.297921657562255859e+00 -5.862224698066711426e-01 1.100000000000000000e+01
1.245884060859679954e+00 2.648838281631470171e+00 -5.689924359321594238e-01 1.000000000000000000e+01
1.485888481140136941e+00 3.156243562698363814e+00 -5.525265336036682129e-01 9.000000000000000000e+00
1.843764185905456987e+00 3.912879228591918945e+00 -5.311065912246704102e-01 9.000000000000000000e+00
2.380513429641724077e+00 5.049694538116455078e+00 -4.884207844734191895e-01 9.000000000000000000e+00
3.428736686706542969e+00 7.266674518585205078e+00 -4.210951030254364014e-01 2.000000000000000000e+00
6.027210235595703125e+00 1.276218986511229936e+01 -2.463581711053847989e-01 2.000000000000000000e+00
9.606352448463439941e-01 2.026743650436400923e+00 -6.009778380393981934e-01 1.800000000000000000e+01
1.090025544166564941e+00 2.297657966613769975e+00 -5.871222615242004395e-01 1.100000000000000000e+01
1.256806254386902078e+00 2.648020505905150923e+00 -5.697556734085083008e-01 1.000000000000000000e+01
1.496896743774414062e+00 3.151037693023682085e+00 -5.525265336036682129e-01 9.000000000000000000e+00
1.854001879692078081e+00 3.899248361587523970e+00 -5.301316380500793457e-01 9.000000000000000000e+00
2.404972553253173828e+00 5.055747985839843750e+00 -4.898152649402617853e-01 9.000000000000000000e+00
3.450646877288817915e+00 7.247448444366455078e+00 -4.206764101982117254e-01 2.000000000000000000e+00
6.045914173126220703e+00 1.268691730499267933e+01 -2.453110218048095981e-01 2.000000000000000000e+00
9.705585837364196777e-01 2.028436899185181108e+00 -6.025307178497314453e-01 1.600000000000000000e+01
1.101806402206420898e+00 2.300677776336669922e+00 -5.889218449592590332e-01 1.100000000000000000e+01
1.269896507263184038e+00 2.650478363037108931e+00 -5.712821483612060547e-01 1.000000000000000000e+01
1.508435845375061035e+00 3.145530223846435991e+00 -5.525265336036682129e-01 9.000000000000000000e+00
1.858832001686095969e+00 3.872740983963013139e+00 -5.274505019187927246e-01 1.000000000000000000e+01
2.423486471176147017e+00 5.046899318695068359e+00 -4.898152649402617853e-01 9.000000000000000000e+00
3.475456714630126953e+00 7.231152534484863281e+00 -4.204670786857604980e-01 2.000000000000000000e+00
6.078503608703613281e+00 1.263584041595458984e+01 -2.447525411844254095e-01 2.000000000000000000e+00
9.776332378387451172e-01 2.025036811828612837e+00 -6.025307178497314453e-01 1.900000000000000000e+01
1.104743480682373047e+00 2.286289930343627930e+00 -5.862224698066711426e-01 1.100000000000000000e+01
1.269741415977478027e+00 2.626586437225341797e+00 -5.670843124389648438e-01 1.000000000000000000e+01
1.519406557083130105e+00 3.140245437622069868e+00 -5.525265336036682129e-01 9.000000000000000000e+00
1.876665234565735085e+00 3.875161886215209961e+00 -5.286692380905151367e-01 9.000000000000000000e+00
2.442826271057128906e+00 5.041995048522949219e+00 -4.901638925075531006e-01 9.000000000000000000e+00
3.500676870346068892e+00 7.218976497650145596e+00 -4.204670786857604980e-01 1.000000000000000000e+00
6.115588665008544922e+00 1.260015392303466975e+01 -2.444733083248137873e-01 2.000000000000000000e+00
9.750409126281738281e-01 2.002677440643310991e+00 -5.968367457389831543e-01 1.600000000000000000e+01
1.117440938949584961e+00 2.293124675750731978e+00 -5.889218449592590332e-01 1.100000000000000000e+01
1.284466862678528054e+00 2.634714365005493164e+00 -5.697556734085083008e-01 1.000000000000000000e+01
1.531544208526611106e+00 3.138740301132202148e+00 -5.531522631645202637e-01 9.000000000000000000e+00
1.884278535842895952e+00 3.858215093612670898e+00 -5.272067785263061523e-01 9.000000000000000000e+00
2.450786113739014116e+00 5.015965461730957031e+00 -4.884207844734191895e-01 9.000000000000000000e+00
3.545654773712158203e+00 7.250389099121093750e+00 -4.229792058467864990e-01 1.000000000000000000e+00
6.171404361724854404e+00 1.260854148864745916e+01 -2.450317889451980868e-01 2.000000000000000000e+00
9.845808148384094238e-01 2.004463672637939009e+00 -5.983896255493164062e-01 1.900000000000000000e+01
1.123719096183777078e+00 2.285712480545043945e+00 -5.880220532417297363e-01 1.000000000000000000e+01
1.291056394577025923e+00 2.624929428100585938e+00 -5.686107873916625977e-01 1.000000000000000000e+01
1.538128852844238059e+00 3.124513864517211914e+00 -5.515879392623901367e-01 8.000000000000000000e+00
1.908263087272644043e+00 3.872982263565063032e+00 -5.301316380500793457e-01 1.000000000000000000e+01
2.471803665161132812e+00 5.014528274536132812e+00 -4.891180396080017090e-01 9.000000000000000000e+00
3.563872337341309038e+00 7.223639488220214844e+00 -4.221418201923369806e-01 1.000000000000000000e+00
6.201212882995604581e+00 1.255823421478270951e+01 -2.444733083248137873e-01 2.000000000000000000e+00
9.932872056961059570e-01 2.004476547241210938e+00 -5.994248986244201660e-01 1.500000000000000000e+01
1.127361536026000977e+00 2.273046970367432085e+00 -5.857725739479064941e-01 1.300000000000000000e+01
1.301083922386168990e+00 2.622165679931641069e+00 -5.689924359321594238e-01 1.000000000000000000e+01
1.553419232368469016e+00 3.127971887588500977e+00 -5.531522631645202637e-01 9.000000000000000000e+00
1.918236374855041948e+00 3.859187126159667969e+00 -5.291566848754882812e-01 9.000000000000000000e+00
2.495502471923828125e+00 5.018357276916503906e+00 -4.903382062911986750e-01 9.000000000000000000e+00
3.569487333297729048e+00 7.171818256378173828e+00 -4.198390543460845947e-01 1.000000000000000000e+00
6.241444587707520419e+00 1.252935218811034979e+01 -2.443336844444274902e-01 2.000000000000000000e+00
1.006324648857116921e+00 2.013092994689940962e+00 -6.030483841896057129e-01 1.500000000000000000e+01
1.134417057037353960e+00 2.267355203628540039e+00 -5.853226184844970703e-01 1.000000000000000000e+01
1.312865376472472922e+00 2.622874736785889116e+00 -5.701372623443603516e-01 9.000000000000000000e+00
1.562558770179748979e+00 3.118998050689696822e+00 -5.525265336036682129e-01 9.000000000000000000e+00
1.928136706352234109e+00 3.845369815826416016e+00 -5.281817317008972168e-01 9.000000000000000000e+00
2.514791488647460938e+00 5.013177871704101562e+00 -4.906868338584899902e-01 8.000000000000000000e+00
3.599876880645751953e+00 7.170024394989013672e+00 -4.204670786857604980e-01 1.000000000000000000e+00
6.276163578033447266e+00 1.248962116241455078e+01 -2.439846396446228027e-01 2.000000000000000000e+00
1.010736107826232910e+00 2.004393100738524947e+00 -6.014954447746276855e-01 1.600000000000000000e+01
1.144080877304076926e+00 2.266860961914062944e+00 -5.862224698066711426e-01 1.100000000000000000e+01
1.321128010749816895e+00 2.616523504257202148e+00 -5.697556734085083008e-01 1.000000000000000000e+01
1.582346200942992942e+00 3.131155014038085938e+00 -5.556552410125732422e-01 9.000000000000000000e+00
1.943339705467223899e+00 3.842158794403076172e+00 -5.286692380905151367e-01 1.000000000000000000e+01
2.527777433395386186e+00 4.995480060577392578e+00 -4.898152649402617853e-01 9.000000000000000000e+00
3.617664098739624023e+00 7.143160343170166016e+00 -4.196296930313109796e-01 2.000000000000000000e+00
6.316105842590332031e+00 1.246050262451172053e+01 -2.438450157642365057e-01 2.000000000000000000e+00
1.012471437454224077e+00 1.990521311759948953e+00 -5.983896255493164062e-01 1.600000000000000000e+01
1.154639005661010964e+00 2.268063545227050781e+00 -5.875721573829650879e-01 1.100000000000000000e+01
1.328471302986145020e+00 2.608397006988524947e+00 -5.689924359321594238e-01 1.000000000000000000e+01
1.586089491844177024e+00 3.111533164978026900e+00 -5.531522631645202637e-01 9.000000000000000000e+00
1.960348129272460938e+00 3.842424869537353960e+00 -5.296441912651062012e-01 9.000000000000000000e+00
2.536141872406005859e+00 4.968880176544188565e+00 -4.880721569061278742e-01 9.000000000000000000e+00
3.658931016921997070e+00 7.162504196166992188e+00 -4.215137958526610773e-01 2.000000000000000000e+00
6.355921268463134766e+00 1.243125724792479936e+01 -2.437054067850112915e-01 2.000000000000000000e+00
1.020829796791077104e+00 1.990590929985045943e+00 -5.994248986244201660e-01 1.900000000000000000e+01
1.162153840065001997e+00 2.264222145080565962e+00 -5.875721573829650879e-01 1.000000000000000000e+01
1.337113738059998003e+00 2.603977441787720171e+00 -5.689924359321594238e-01 1.000000000000000000e+01
1.589175462722778098e+00 3.092200994491577148e+00 -5.506493449211120605e-01 9.000000000000000000e+00
1.973079323768615945e+00 3.835902929306029829e+00 -5.296441912651062012e-01 9.000000000000000000e+00
2.555340290069580078e+00 4.965757369995117188e+00 -4.885950982570648193e-01 9.000000000000000000e+00
3.668030738830565962e+00 7.121921539306640625e+00 -4.198390543460845947e-01 2.000000000000000000e+00
6.404439926147460938e+00 1.242433166503906072e+01 -2.439846396446228027e-01 2.000000000000000000e+00
1.030434727668761985e+00 1.992163181304932085e+00 -6.009778380393981934e-01 2.000000000000000000e+01
1.164674878120421919e+00 2.249768018722534180e+00 -5.848727226257324219e-01 1.100000000000000000e+01
1.352515339851378950e+00 2.611497402191162109e+00 -5.716637372970581055e-01 9.000000000000000000e+00
1.607232093811034934e+00 3.100665092468262163e+00 -5.531522631645202637e-01 9.000000000000000000e+00
1.989199519157409890e+00 3.834278345108031782e+00 -5.303753614425659180e-01 1.000000000000000000e+01
2.567151546478271040e+00 4.946197032928466797e+00 -4.875492155551909845e-01 7.000000000000000000e+00
3.700233936309814009e+00 7.123253822326660156e+00 -4.206764101982117254e-01 2.000000000000000000e+00
6.447769641876220703e+00 1.240190029144286932e+01 -2.439846396446228027e-01 2.000000000000000000e+00
1.039517045021056907e+00 1.991798281669616921e+00 -6.020131111145019531e-01 1.800000000000000000e+01
1.172912955284119096e+00 2.245484113693236861e+00 -5.848727226257324219e-01 1.100000000000000000e+01
1.357531547546386941e+00 2.597822666168212891e+00 -5.697556734085083008e-01 1.000000000000000000e+01
1.616754770278931108e+00 3.091252565383911133e+00 -5.525265336036682129e-01 9.000000000000000000e+00
1.994033455848694070e+00 3.809374809265137163e+00 -5.279380083084106445e-01 1.000000000000000000e+01
2.594506025314331055e+00 4.954404830932617188e+00 -4.892923533916472834e-01 8.000000000000000000e+00
3.730026006698607954e+00 7.116719722747802734e+00 -4.210951030254364014e-01 2.000000000000000000e+00
6.474603176116943359e+00 1.234276771545409979e+01 -2.432865500450134000e-01 2.000000000000000000e+00
1.050062537193297896e+00 1.994995594024657981e+00 -6.040836572647094727e-01 1.900000000000000000e+01
1.185285329818726030e+00 2.249996900558472124e+00 -5.871222615242004395e-01 1.200000000000000000e+01
1.359268784523010032e+00 2.579173564910889116e+00 -5.667027235031127930e-01 1.000000000000000000e+01
1.634908199310302956e+00 3.099567890167235884e+00 -5.550295114517211914e-01 9.000000000000000000e+00
2.013805627822875977e+00 3.814679622650146040e+00 -5.296441912651062012e-01 9.000000000000000000e+00
2.610853910446166992e+00 4.943556308746337891e+00 -4.891180396080017090e-01 9.000000000000000000e+00
3.754845142364501953e+00 7.103656291961669922e+00 -4.210951030254364014e-01 2.000000000000000000e+00
6.540090560913085938e+00 1.236251449584960938e+01 -2.441242635250092108e-01 2.000000000000000000e+00
1.049428820610045943e+00 1.977850437164307085e+00 -5.999425649642944336e-01 1.900000000000000000e+01
1.197309851646422896e+00 2.254659652709960938e+00 -5.893717408180236816e-01 1.100000000000000000e+01
1.374261736869812012e+00 2.586788415908813032e+00 -5.693740248680114746e-01 9.000000000000000000e+00
1.640540838241576926e+00 3.085408687591553178e+00 -5.534651279449462891e-01 9.000000000000000000e+00
2.020849227905272993e+00 3.797466039657593218e+00 -5.281817317008972168e-01 9.000000000000000000e+00
2.624423980712891069e+00 4.929595470428466797e+00 -4.885950982570648193e-01 8.000000000000000000e+00
3.782137870788574219e+00 7.098216533660888672e+00 -4.215137958526610773e-01 1.000000000000000000e+00
6.573522567749023438e+00 1.232664299011229936e+01 -2.438450157642365057e-01 2.000000000000000000e+00
1.053592085838318093e+00 1.969065070152282937e+00 -5.983896255493164062e-01 1.900000000000000000e+01
1.201492905616760032e+00 2.243594884872436968e+00 -5.875721573829650879e-01 1.200000000000000000e+01
1.384210109710692915e+00 2.583706140518188032e+00 -5.697556734085083008e-01 9.000000000000000000e+00
1.650367498397826926e+00 3.077922344207764116e+00 -5.531522631645202637e-01 9.000000000000000000e+00
2.047233819961547852e+00 3.814876794815063032e+00 -5.315940976142883301e-01 9.000000000000000000e+00
2.651982307434082031e+00 4.939713954925537109e+00 -4.905125200748444159e-01 9.000000000000000000e+00
3.791766643524169922e+00 7.056820869445800781e+00 -4.198390543460845947e-01 2.000000000000000000e+00
6.582414150238037109e+00 1.224021911621093928e+01 -2.425884455442428866e-01 2.000000000000000000e+00
1.066880464553833008e+00 1.977276444435120073e+00 -6.020131111145019531e-01 1.900000000000000000e+01
1.201909422874450906e+00 2.225669622421265093e+00 -5.839729309082031250e-01 1.100000000000000000e+01
1.395086765289307085e+00 2.582313060760498047e+00 -5.705189108848571777e-01 9.000000000000000000e+00
1.657343268394469993e+00 3.065192222595214844e+00 -5.519008040428161621e-01 9.000000000000000000e+00
2.056758642196654829e+00 3.800724029541016069e+00 -5.306191444396972656e-01 9.000000000000000000e+00
2.659723520278931108e+00 4.912905216217041016e+00 -4.887694120407103937e-01 9.000000000000000000e+00
3.820182561874390093e+00 7.050566673278808594e+00 -4.202577173709868830e-01 2.000000000000000000e+00
6.644165515899658203e+00 1.225232505798340021e+01 -2.432865500450134000e-01 2.000000000000000000e+00
1.075622558593750000e+00 1.976934194564818892e+00 -6.030483841896057129e-01 2.000000000000000000e+01
1.213398933410644975e+00 2.228306531906127930e+00 -5.857725739479064941e-01 1.100000000000000000e+01
1.405031442642211914e+00 2.579151630401610884e+00 -5.709004998207092285e-01 9.000000000000000000e+00
1.673706173896789995e+00 3.069794416427611861e+00 -5.537779927253723145e-01 9.000000000000000000e+00
2.064307928085327148e+00 3.783066272735596147e+00 -5.291566848754882812e-01 9.000000000000000000e+00
2.686403036117554155e+00 4.921079158782958984e+00 -4.905125200748444159e-01 9.000000000000000000e+00
3.840939760208129883e+00 7.030177593231201172e+00 -4.198390543460845947e-01 2.000000000000000000e+00
6.675381183624267578e+00 1.220800399780273082e+01 -2.428676933050155917e-01 2.000000000000000000e+00
1.080658435821532981e+00 1.969780087471008079e+00 -6.020131111145019531e-01 1.900000000000000000e+01
1.221169829368591087e+00 2.224057197570800781e+00 -5.857725739479064941e-01 1.100000000000000000e+01
1.413080573081969993e+00 2.572510719299315962e+00 -5.705189108848571777e-01 1.100000000000000000e+01
1.686314940452575906e+00 3.067395448684691939e+00 -5.544037222862243652e-01 9.000000000000000000e+00
2.079414606094359907e+00 3.779315710067749023e+00 -5.296441912651062012e-01 9.000000000000000000e+00
2.700682163238524947e+00 4.906435489654541016e+00 -4.899895787239075262e-01 9.000000000000000000e+00
3.867383718490601030e+00 7.020226478576660156e+00 -4.200483858585358221e-01 2.000000000000000000e+00
6.702506542205811435e+00 1.215660953521729049e+01 -2.423092126846312921e-01 2.000000000000000000e+00
1.082852125167846902e+00 1.957543611526489036e+00 -5.994248986244201660e-01 1.900000000000000000e+01
1.232701301574707031e+00 2.226600646972655806e+00 -5.875721573829650879e-01 1.200000000000000000e+01
1.418246865272521973e+00 2.560692787170410156e+00 -5.689924359321594238e-01 1.100000000000000000e+01
1.697011828422545943e+00 3.061490297317504883e+00 -5.544037222862243652e-01 9.000000000000000000e+00
2.098372220993041992e+00 3.782449483871459961e+00 -5.311065912246704102e-01 9.000000000000000000e+00
2.712958097457886186e+00 4.888267993927001953e+00 -4.891180396080017090e-01 9.000000000000000000e+00
3.891865491867064986e+00 7.006683826446533203e+00 -4.200483858585358221e-01 2.000000000000000000e+00
6.760445594787597656e+00 1.216110420227050959e+01 -2.428676933050155917e-01 2.000000000000000000e+00
1.085574746131896973e+00 1.947192668914794922e+00 -5.973543524742126465e-01 1.900000000000000000e+01
1.239128708839416948e+00 2.220798969268798828e+00 -5.871222615242004395e-01 1.300000000000000000e+01
1.434385776519774947e+00 2.569689750671387163e+00 -5.720453858375549316e-01 1.000000000000000000e+01
1.703301191329956055e+00 3.048948049545288086e+00 -5.531522631645202637e-01 9.000000000000000000e+00
2.107028722763061968e+00 3.768539428710937944e+00 -5.301316380500793457e-01 9.000000000000000000e+00
2.733043670654296875e+00 4.886200428009033203e+00 -4.898152649402617853e-01 9.000000000000000000e+00
3.905323028564453125e+00 6.976311683654785156e+00 -4.190016686916350763e-01 2.000000000000000000e+00
6.775323867797851562e+00 1.209325981140137074e+01 -2.419601678848266879e-01 2.000000000000000000e+00
1.099937796592711958e+00 1.956863760948180930e+00 -6.014954447746276855e-01 1.900000000000000000e+01
1.242095828056335005e+00 2.207967758178710938e+00 -5.848727226257324219e-01 1.100000000000000000e+01
1.439495444297790971e+00 2.557823419570922852e+00 -5.705189108848571777e-01 1.100000000000000000e+01
1.711994767189026101e+00 3.039541482925415039e+00 -5.525265336036682129e-01 9.000000000000000000e+00
2.120170593261719194e+00 3.761161565780640093e+00 -5.301316380500793457e-01 9.000000000000000000e+00
2.752040624618529829e+00 4.880101203918457031e+00 -4.901638925075531006e-01 9.000000000000000000e+00
3.925724267959595171e+00 6.955679893493652344e+00 -4.185829758644104004e-01 2.000000000000000000e+00
6.821429729461669922e+00 1.207650089263916016e+01 -2.420997768640517911e-01 2.000000000000000000e+00
1.109619259834289995e+00 1.958054542541503906e+00 -6.030483841896057129e-01 2.000000000000000000e+01
1.251718282699584961e+00 2.207008838653564009e+00 -5.857725739479064941e-01 1.100000000000000000e+01
1.447446346282958984e+00 2.551075458526610884e+00 -5.701372623443603516e-01 1.100000000000000000e+01
1.727471351623534934e+00 3.042135715484619141e+00 -5.540908575057983398e-01 8.000000000000000000e+00
2.129363298416138139e+00 3.746834516525268999e+00 -5.291566848754882812e-01 9.000000000000000000e+00
2.772997379302978960e+00 4.877393245697020596e+00 -4.908611476421356201e-01 9.000000000000000000e+00
3.959857702255249023e+00 6.959293365478515625e+00 -4.196296930313109796e-01 2.000000000000000000e+00
6.839794158935546875e+00 1.201091098785400035e+01 -2.412620633840560913e-01 2.000000000000000000e+00
1.119322299957274947e+00 1.959201574325561968e+00 -6.046012639999389648e-01 2.100000000000000000e+01
1.265218257904052956e+00 2.212776422500609907e+00 -5.884719491004943848e-01 1.100000000000000000e+01
1.449518918991089089e+00 2.534078359603881836e+00 -5.674659609794616699e-01 1.100000000000000000e+01
1.739061355590820090e+00 3.037801504135131836e+00 -5.544037222862243652e-01 9.000000000000000000e+00
2.144402980804442915e+00 3.742823600769042969e+00 -5.296441912651062012e-01 9.000000000000000000e+00
2.786042690277100053e+00 4.860769748687744141e+00 -4.901638925075531006e-01 9.000000000000000000e+00
3.976175785064696822e+00 6.931568622589111328e+00 -4.187923073768615723e-01 2.000000000000000000e+00
6.875704288482666016e+00 1.197655773162841975e+01 -2.410526424646378119e-01 2.000000000000000000e+00
1.117476820945739968e+00 1.940216064453125000e+00 -5.999425649642944336e-01 2.000000000000000000e+01
1.272934675216675027e+00 2.208346366882324219e+00 -5.884719491004943848e-01 1.200000000000000000e+01
1.466201543807982954e+00 2.542609214782714844e+00 -5.705189108848571777e-01 1.100000000000000000e+01
1.747679829597472922e+00 3.028290748596190962e+00 -5.537779927253723145e-01 9.000000000000000000e+00
2.161426067352294922e+00 3.742191314697266069e+00 -5.306191444396972656e-01 9.000000000000000000e+00
2.783056974411011186e+00 4.816512584686279297e+00 -4.866776764392852783e-01 9.000000000000000000e+00
4.004346370697020596e+00 6.924562931060791016e+00 -4.192110002040863037e-01 2.000000000000000000e+00
6.909455299377441406e+00 1.193863773345947088e+01 -2.407733947038651068e-01 2.000000000000000000e+00
1.121332645416259988e+00 1.931291580200195090e+00 -5.983896255493164062e-01 1.900000000000000000e+01
1.282593607902527078e+00 2.207259416580200195e+00 -5.893717408180236816e-01 1.100000000000000000e+01
1.477041244506835938e+00 2.540870189666748047e+00 -5.712821483612060547e-01 1.000000000000000000e+01
1.756253242492676003e+00 3.018756866455078125e+00 -5.531522631645202637e-01 9.000000000000000000e+00
2.179469823837279829e+00 3.743201255798339844e+00 -5.318378210067749023e-01 1.000000000000000000e+01
2.816900730133057085e+00 4.836036205291748047e+00 -4.896409511566162109e-01 9.000000000000000000e+00
4.010387897491455078e+00 6.879484176635742188e+00 -4.173269271850585938e-01 2.000000000000000000e+00
6.947055816650390625e+00 1.190753746032715021e+01 -2.406337857246398926e-01 2.000000000000000000e+00
1.134898066520690918e+00 1.939036488533020020e+00 -6.020131111145019531e-01 1.800000000000000000e+01
1.280441045761107954e+00 2.185953855514525923e+00 -5.848727226257324219e-01 1.100000000000000000e+01
1.484909057617187944e+00 2.534005165100098100e+00 -5.709004998207092285e-01 1.000000000000000000e+01
1.770777225494384988e+00 3.019423961639403853e+00 -5.544037222862243652e-01 9.000000000000000000e+00
2.181469678878784180e+00 3.716738700866699219e+00 -5.291566848754882812e-01 9.000000000000000000e+00
2.835782051086425781e+00 4.829610347747802734e+00 -4.899895787239075262e-01 9.000000000000000000e+00
4.036400794982910156e+00 6.868887424468994141e+00 -4.175362586975098211e-01 1.000000000000000000e+00
6.990606307983398438e+00 1.188666248321533025e+01 -2.407035827636719028e-01 2.000000000000000000e+00
1.141659736633301003e+00 1.935063123703002930e+00 -6.020131111145019531e-01 1.600000000000000000e+01
1.294008493423461914e+00 2.191539287567139116e+00 -5.875721573829650879e-01 1.000000000000000000e+01
1.491748332977294922e+00 2.525425672531127930e+00 -5.701372623443603516e-01 1.100000000000000000e+01
1.779295682907104048e+00 3.009823322296143022e+00 -5.537779927253723145e-01 9.000000000000000000e+00
2.193419456481934038e+00 3.707392930984497070e+00 -5.289129614830017090e-01 1.000000000000000000e+01
2.861756563186645952e+00 4.835113048553466797e+00 -4.915584027767180841e-01 9.000000000000000000e+00
4.062388896942138672e+00 6.858192920684813565e+00 -4.177455902099608820e-01 2.000000000000000000e+00
7.034095287322998047e+00 1.186562919616699041e+01 -2.407733947038651068e-01 2.000000000000000000e+00
1.145108819007873979e+00 1.926284790039062944e+00 -6.004601716995239258e-01 1.500000000000000000e+01
1.303261637687683105e+00 2.190585851669311968e+00 -5.884719491004943848e-01 1.100000000000000000e+01
1.496098399162292036e+00 2.513716697692871094e+00 -5.686107873916625977e-01 9.000000000000000000e+00
1.794321179389954057e+00 3.012392044067382812e+00 -5.553423762321472168e-01 9.000000000000000000e+00
2.212816715240478960e+00 3.712034702301024947e+00 -5.306191444396972656e-01 9.000000000000000000e+00
2.869610786437987837e+00 4.811907291412354404e+00 -4.901638925075531006e-01 9.000000000000000000e+00
4.083062171936035156e+00 6.841253757476806641e+00 -4.175362586975098211e-01 1.000000000000000000e+00
7.061099529266357422e+00 1.182163619995117010e+01 -2.403545379638671875e-01 2.000000000000000000e+00
1.146861076354980025e+00 1.913990259170532005e+00 -5.978720188140869141e-01 1.100000000000000000e+01
1.316913485527039018e+00 2.196050882339477983e+00 -5.911713838577270508e-01 1.100000000000000000e+01
1.505873680114746094e+00 2.510162591934204102e+00 -5.689924359321594238e-01 1.100000000000000000e+01
1.794657468795775923e+00 2.989174604415893999e+00 -5.522136688232421875e-01 8.000000000000000000e+00
2.225760698318481001e+00 3.704287767410277876e+00 -5.306191444396972656e-01 9.000000000000000000e+00
2.886389970779418945e+00 4.801860809326171875e+00 -4.901638925075531006e-01 9.000000000000000000e+00
4.108976840972900391e+00 6.830382347106933594e+00 -4.177455902099608820e-01 1.000000000000000000e+00
7.085818767547607422e+00 1.176950550079346058e+01 -2.397960573434829989e-01 2.000000000000000000e+00
1.153535127639770952e+00 1.909975290298461914e+00 -5.978720188140869141e-01 9.000000000000000000e+00
1.322555065155029075e+00 2.188105106353760210e+00 -5.902715921401977539e-01 1.100000000000000000e+01
1.522753357887268066e+00 2.518330812454224077e+00 -5.720453858375549316e-01 1.000000000000000000e+01
1.810194253921509011e+00 2.991342067718505859e+00 -5.537779927253723145e-01 9.000000000000000000e+00
2.236620903015137163e+00 3.693099975585937944e+00 -5.301316380500793457e-01 9.000000000000000000e+00
2.896939516067504883e+00 4.781532287597656250e+00 -4.891180396080017090e-01 9.000000000000000000e+00
4.145220756530761719e+00 6.836491584777832031e+00 -4.190016686916350763e-01 2.000000000000000000e+00
7.126858711242675781e+00 1.174470043182373047e+01 -2.397960573434829989e-01 2.000000000000000000e+00
1.164213180541991965e+00 1.912537693977355957e+00 -5.999425649642944336e-01 9.000000000000000000e+00
1.323087930679321067e+00 2.171825408935546875e+00 -5.871222615242004395e-01 1.200000000000000000e+01
1.529491305351257102e+00 2.509647130966186968e+00 -5.712821483612060547e-01 1.100000000000000000e+01
1.816510558128356934e+00 2.978259325027465820e+00 -5.525265336036682129e-01 9.000000000000000000e+00
2.253635644912720171e+00 3.692047834396361861e+00 -5.311065912246704102e-01 9.000000000000000000e+00
2.919842720031737837e+00 4.781593322753906250e+00 -4.901638925075531006e-01 9.000000000000000000e+00
4.154478549957275391e+00 6.798121452331542969e+00 -4.175362586975098211e-01 1.000000000000000000e+00
7.184505939483642578e+00 1.174704647064208984e+01 -2.403545379638671875e-01 2.000000000000000000e+00
1.166509151458740012e+00 1.902079224586487038e+00 -5.978720188140869141e-01 9.000000000000000000e+00
1.331302046775818093e+00 2.169086933135985884e+00 -5.875721573829650879e-01 1.100000000000000000e+01
1.533696174621582031e+00 2.497869253158568892e+00 -5.697556734085083008e-01 1.000000000000000000e+01
1.828445196151732954e+00 2.975585222244263139e+00 -5.531522631645202637e-01 9.000000000000000000e+00
2.265866518020629883e+00 3.684554100036621094e+00 -5.311065912246704102e-01 9.000000000000000000e+00
2.934638977050780806e+00 4.770187377929688388e+00 -4.899895787239075262e-01 8.000000000000000000e+00
4.170716285705566406e+00 6.774102687835693359e+00 -4.169082343578339178e-01 2.000000000000000000e+00
7.223421096801757812e+00 1.172315692901610973e+01 -2.403545379638671875e-01 2.000000000000000000e+00
1.162984490394592063e+00 1.881562948226928933e+00 -5.926955938339233398e-01 7.000000000000000000e+00
1.332714438438415971e+00 2.154482841491699219e+00 -5.848727226257324219e-01 1.100000000000000000e+01
1.540339827537537065e+00 2.489161491394042969e+00 -5.689924359321594238e-01 1.000000000000000000e+01
1.842980980873107910e+00 2.975902080535889116e+00 -5.544037222862243652e-01 9.000000000000000000e+00
2.272439479827880859e+00 3.666498422622681108e+00 -5.296441912651062012e-01 9.000000000000000000e+00
2.952322006225585938e+00 4.761608123779296875e+00 -4.901638925075531006e-01 9.000000000000000000e+00
4.204867362976074219e+00 6.776473999023438388e+00 -4.179549515247344971e-01 2.000000000000000000e+00
7.247419357299804688e+00 1.167069053649901988e+01 -2.397960573434829989e-01 2.000000000000000000e+00
1.169217586517333984e+00 1.877696037292480025e+00 -5.926955938339233398e-01 9.000000000000000000e+00
1.356342077255249023e+00 2.176513671875000000e+00 -5.920711755752563477e-01 1.100000000000000000e+01
1.552740216255187988e+00 2.490703821182250977e+00 -5.705189108848571777e-01 1.000000000000000000e+01
1.850748062133789062e+00 2.966422319412231001e+00 -5.537779927253723145e-01 9.000000000000000000e+00
2.288790941238402876e+00 3.665678024291992188e+00 -5.306191444396972656e-01 9.000000000000000000e+00
2.961762666702270952e+00 4.741652488708496094e+00 -4.891180396080017090e-01 9.000000000000000000e+00
4.220963954925537109e+00 6.752331256866455078e+00 -4.173269271850585938e-01 2.000000000000000000e+00
7.307291984558104581e+00 1.168049812316895064e+01 -2.404941618442535123e-01 2.000000000000000000e+00
1.178845405578613059e+00 1.878512263298034890e+00 -5.942485332489013672e-01 1.000000000000000000e+01
1.359785556793212891e+00 2.165164709091186968e+00 -5.902715921401977539e-01 1.000000000000000000e+01
1.563513755798340066e+00 2.488593339920043945e+00 -5.712821483612060547e-01 1.100000000000000000e+01
1.856885671615601030e+00 2.953254699707030806e+00 -5.525265336036682129e-01 9.000000000000000000e+00
2.303687095642089844e+00 3.661026477813721147e+00 -5.311065912246704102e-01 9.000000000000000000e+00
2.984664678573607954e+00 4.741402149200438565e+00 -4.901638925075531006e-01 9.000000000000000000e+00
4.244508266448974609e+00 6.737556457519531250e+00 -4.173269271850585938e-01 2.000000000000000000e+00
7.326690673828125000e+00 1.162108898162841975e+01 -2.397960573434829989e-01 2.000000000000000000e+00
1.188821196556091087e+00 1.879076600074768066e+00 -5.958014130592346191e-01 1.400000000000000000e+01
1.359372496604918990e+00 2.146994590759276900e+00 -5.866723656654357910e-01 1.100000000000000000e+01
1.575775980949402078e+00 2.487821817398070845e+00 -5.724269747734069824e-01 1.100000000000000000e+01
1.863467097282409890e+00 2.939755439758300781e+00 -5.512750744819641113e-01 9.000000000000000000e+00
2.317090034484862837e+00 3.652558565139770952e+00 -5.311065912246704102e-01 9.000000000000000000e+00
3.002022743225098100e+00 4.730430603027343750e+00 -4.901638925075531006e-01 9.000000000000000000e+00
4.264890670776367188e+00 6.715210437774658203e+00 -4.169082343578339178e-01 2.000000000000000000e+00
7.347781658172607422e+00 1.156040382385254084e+01 -2.390979677438735962e-01 2.000000000000000000e+00
1.207835793495178001e+00 1.894462704658508079e+00 -6.020131111145019531e-01 2.000000000000000000e+01
1.364762187004088911e+00 2.138950824737548828e+00 -5.857725739479064941e-01 1.100000000000000000e+01
1.583394169807434082e+00 2.480651378631591797e+00 -5.720453858375549316e-01 1.100000000000000000e+01
1.881161212921143022e+00 2.944885969161986861e+00 -5.534651279449462891e-01 8.000000000000000000e+00
2.316995143890380859e+00 3.624377727508544922e+00 -5.281817317008972168e-01 9.000000000000000000e+00
3.024957180023192915e+00 4.729993820190429688e+00 -4.912097752094268799e-01 9.000000000000000000e+00
4.292612075805664062e+00 6.707011222839354581e+00 -4.173269271850585938e-01 2.000000000000000000e+00
7.409661293029785156e+00 1.156836318969726918e+01 -2.397960573434829989e-01 2.000000000000000000e+00
1.208891630172729048e+00 1.882319569587707964e+00 -5.994248986244201660e-01 2.100000000000000000e+01
1.378169655799865945e+00 2.144249439239501953e+00 -5.884719491004943848e-01 1.100000000000000000e+01
1.580993890762329102e+00 2.458873271942139116e+00 -5.682291984558105469e-01 1.000000000000000000e+01
1.898398876190185991e+00 2.950259685516356978e+00 -5.556552410125732422e-01 9.000000000000000000e+00
2.337599277496337891e+00 3.630026102066040039e+00 -5.301316380500793457e-01 9.000000000000000000e+00
3.036309957504272017e+00 4.713237285614013672e+00 -4.905125200748444159e-01 9.000000000000000000e+00
4.318076133728027344e+00 6.697775363922119141e+00 -4.176409244537354071e-01 3.000000000000000000e+00
7.426300048828125000e+00 1.151012134552001953e+01 -2.390979677438735962e-01 2.000000000000000000e+00
1.208107471466064009e+00 1.866735339164734109e+00 -5.958014130592346191e-01 2.000000000000000000e+01
1.388824105262755904e+00 2.144332408905028853e+00 -5.898216366767883301e-01 1.200000000000000000e+01
1.593837380409240945e+00 2.459930181503295898e+00 -5.697556734085083008e-01 1.100000000000000000e+01
1.908685684204102007e+00 2.943615198135375977e+00 -5.556552410125732422e-01 9.000000000000000000e+00
2.352417230606079102e+00 3.625174760818481001e+00 -5.306191444396972656e-01 9.000000000000000000e+00
3.062507152557373047e+00 4.717649936676025391e+00 -4.920813143253325861e-01 9.000000000000000000e+00
4.350134372711181641e+00 6.696060180664063388e+00 -4.184783101081848145e-01 4.000000000000000000e+00
7.488232135772705078e+00 1.151765918731688920e+01 -2.397960573434829989e-01 2.000000000000000000e+00
1.222003102302551047e+00 1.873834013938904031e+00 -5.994248986244201660e-01 2.100000000000000000e+01
1.395235776901244895e+00 2.137839555740356001e+00 -5.893717408180236816e-01 1.100000000000000000e+01
1.611000776290893999e+00 2.467503070831298828e+00 -5.728086233139038086e-01 1.100000000000000000e+01
1.908144235610961914e+00 2.920397996902465820e+00 -5.525265336036682129e-01 9.000000000000000000e+00
2.369402647018433061e+00 3.623586893081665039e+00 -5.315940976142883301e-01 9.000000000000000000e+00
3.061505556106566939e+00 4.680253505706787109e+00 -4.892923533916472834e-01 9.000000000000000000e+00
4.359260559082031250e+00 6.659111022949218750e+00 -4.171175658702849787e-01 4.000000000000000000e+00
7.488940715789794922e+00 1.143123340606688920e+01 -2.385394871234894076e-01 2.000000000000000000e+00
1.230658411979675071e+00 1.872786045074462891e+00 -6.004601716995239258e-01 2.200000000000000000e+01
1.402689695358275923e+00 2.132956266403197798e+00 -5.893717408180236816e-01 1.100000000000000000e+01
1.616367101669311968e+00 2.456943988800048828e+00 -5.716637372970581055e-01 1.200000000000000000e+01
1.918326735496520996e+00 2.913719415664672852e+00 -5.525265336036682129e-01 9.000000000000000000e+00
2.379852533340454102e+00 3.611978769302368164e+00 -5.311065912246704102e-01 9.000000000000000000e+00
3.093174695968627930e+00 4.692827701568604404e+00 -4.917326867580413818e-01 9.000000000000000000e+00
4.383578300476074219e+00 6.645521163940429688e+00 -4.172222316265106201e-01 3.000000000000000000e+00
7.535407543182373047e+00 1.141503524780273082e+01 -2.387489229440689087e-01 2.000000000000000000e+00
1.238254666328429954e+00 1.870089530944823997e+00 -6.009778380393981934e-01 1.900000000000000000e+01
1.405820846557616965e+00 2.121549129486083984e+00 -5.875721573829650879e-01 1.200000000000000000e+01
1.621679425239562988e+00 2.446377754211425781e+00 -5.705189108848571777e-01 1.000000000000000000e+01
1.935037851333617942e+00 2.916882038116455078e+00 -5.544037222862243652e-01 9.000000000000000000e+00
2.383662700653076172e+00 3.590419054031372070e+00 -5.291566848754882812e-01 9.000000000000000000e+00
3.115048408508300781e+00 4.690300464630126953e+00 -4.926042556762694757e-01 8.000000000000000000e+00
4.405642986297607422e+00 6.628515720367431641e+00 -4.171175658702849787e-01 5.000000000000000000e+00
7.581852436065673828e+00 1.139865207672118963e+01 -2.389583438634871881e-01 2.000000000000000000e+00
1.239414215087891069e+00 1.857720732688904031e+00 -5.983896255493164062e-01 2.100000000000000000e+01
1.417546153068542036e+00 2.123111724853516069e+00 -5.893717408180236816e-01 1.100000000000000000e+01
1.633480310440063032e+00 2.445599794387816939e+00 -5.716637372970581055e-01 1.100000000000000000e+01
1.946305632591248003e+00 2.911751985549927202e+00 -5.547165870666503906e-01 9.000000000000000000e+00
2.402803421020507812e+00 3.591976404190063032e+00 -5.306191444396972656e-01 9.000000000000000000e+00
3.121428966522216797e+00 4.664495944976806641e+00 -4.910354614257813055e-01 9.000000000000000000e+00
4.420974731445313388e+00 6.601480484008789062e+00 -4.163848757743834894e-01 6.000000000000000000e+00
7.610462188720703125e+00 1.135550594329833984e+01 -2.386092990636826117e-01 2.000000000000000000e+00
1.248046875000000000e+00 1.856589555740356001e+00 -5.994248986244201660e-01 2.400000000000000000e+01
1.426036357879638894e+00 2.119767665863037109e+00 -5.898216366767883301e-01 1.200000000000000000e+01
1.637622475624084029e+00 2.433367967605590820e+00 -5.701372623443603516e-01 1.100000000000000000e+01
1.957561135292053001e+00 2.906578779220581055e+00 -5.550295114517211914e-01 9.000000000000000000e+00
2.415327072143555132e+00 3.583567380905150923e+00 -5.306191444396972656e-01 9.000000000000000000e+00
3.133236646652222124e+00 4.646963596343994141e+00 -4.903382062911986750e-01 9.000000000000000000e+00
4.445108413696289062e+00 6.587663650512695312e+00 -4.164895415306090753e-01 6.000000000000000000e+00
7.654530048370361328e+00 1.133550071716308949e+01 -2.387489229440689087e-01 2.000000000000000000e+00
1.253436565399169922e+00 1.850622296333312988e+00 -5.989072918891906738e-01 2.300000000000000000e+01
1.436707258224487083e+00 2.119616270065308061e+00 -5.911713838577270508e-01 1.300000000000000000e+01
1.650513768196105957e+00 2.434136629104613814e+00 -5.716637372970581055e-01 1.300000000000000000e+01
1.958821654319762962e+00 2.886651277542113814e+00 -5.525265336036682129e-01 9.000000000000000000e+00
2.430051803588867188e+00 3.578398942947388139e+00 -5.311065912246704102e-01 9.000000000000000000e+00
3.149438619613647017e+00 4.635998249053955078e+00 -4.903382062911986750e-01 9.000000000000000000e+00
4.487165927886962891e+00 6.600185871124267578e+00 -4.182689487934113104e-01 6.000000000000000000e+00
7.680553436279296875e+00 1.128887176513672053e+01 -2.383300662040709894e-01 2.000000000000000000e+00
