4.127521514892578125e+00 3.853018760681151900e+00 -4.939987361431121826e-01 9.000000000000000000e+00
5.980604171752929688e+00 5.578955650329589844e+00 -4.286314845085144043e-01 1.000000000000000000e+00
9.791465759277343750e+00 9.127494812011718750e+00 -2.336528152227402011e-01 2.000000000000000000e+00
1.638494372367859109e+00 1.523115873336791992e+00 -5.994248986244201660e-01 1.700000000000000000e+01
1.881797194480895996e+00 1.748061895370482954e+00 -5.929709672927856445e-01 1.300000000000000000e+01
2.168022155761719194e+00 2.013240575790404829e+00 -5.750983357429504395e-01 1.300000000000000000e+01
2.583208084106444868e+00 2.397106409072875977e+00 -5.581581592559814453e-01 1.000000000000000000e+01
3.202275037765502930e+00 2.969494581222534180e+00 -5.362251400947570801e-01 1.000000000000000000e+01
4.143868446350097656e+00 3.841296434402465820e+00 -4.943473637104033869e-01 9.000000000000000000e+00
5.997111797332763672e+00 5.555330753326416016e+00 -4.284221231937407892e-01 2.000000000000000000e+00
9.835006713867187500e+00 9.104127883911132812e+00 -2.339320629835129062e-01 2.000000000000000000e+00
1.642116904258728027e+00 1.516363501548767090e+00 -5.989072918891906738e-01 1.900000000000000000e+01
1.890447974205017090e+00 1.744455218315124956e+00 -5.938707590103149414e-01 1.300000000000000000e+01
2.187673807144165039e+00 2.018020391464232954e+00 -5.785328745841979980e-01 1.400000000000000000e+01
2.585333108901977983e+00 2.383171558380126953e+00 -5.569067001342773438e-01 9.000000000000000000e+00
3.220864772796630859e+00 2.966928720474243164e+00 -5.376875400543212891e-01 1.000000000000000000e+01
4.165377616882324219e+00 3.835631608963013139e+00 -4.953932464122772217e-01 9.000000000000000000e+00
6.012561321258544922e+00 5.532708168029785156e+00 -4.282127916812896729e-01 2.000000000000000000e+00
9.906357765197753906e+00 9.109362602233886719e+00 -2.349093854427337924e-01 2.000000000000000000e+00
1.654519200325011985e+00 1.517150402069092019e+00 -6.014954447746276855e-01 1.900000000000000000e+01
1.882158160209655984e+00 1.724680185317992942e+00 -5.893717408180236816e-01 1.100000000000000000e+01
2.186018466949462891e+00 2.002415180206298828e+00 -5.762431621551513672e-01 1.200000000000000000e+01
2.596550464630126953e+00 2.376800298690795898e+00 -5.575324296951293945e-01 9.000000000000000000e+00
3.219483852386475053e+00 2.944948911666870117e+00 -5.357376337051391602e-01 1.000000000000000000e+01
4.180211544036865234e+00 3.822412729263306108e+00 -4.955675601959229071e-01 8.000000000000000000e+00
6.040684223175048828e+00 5.519770622253417969e+00 -4.288408160209655762e-01 2.000000000000000000e+00
9.923328399658203125e+00 9.061244010925292969e+00 -2.345603406429291049e-01 2.000000000000000000e+00
1.660969376564026101e+00 1.512956380844115989e+00 -6.020131111145019531e-01 1.900000000000000000e+01
1.890749216079711914e+00 1.721052765846251997e+00 -5.902715921401977539e-01 1.200000000000000000e+01
2.192646741867064986e+00 1.995155096054076926e+00 -5.762431621551513672e-01 1.300000000000000000e+01
2.610264062881470171e+00 2.373492479324340820e+00 -5.587838888168334961e-01 9.000000000000000000e+00
3.220417022705078125e+00 2.926246881484984907e+00 -5.342751741409301758e-01 1.000000000000000000e+01
4.189914703369140625e+00 3.805850505828856978e+00 -4.952189326286315918e-01 8.000000000000000000e+00
6.050081729888916016e+00 5.491654396057128906e+00 -4.282127916812896729e-01 1.000000000000000000e+00
9.953321456909179688e+00 9.028286933898925781e+00 -2.345603406429291049e-01 2.000000000000000000e+00
1.660509586334228960e+00 1.501965641975403054e+00 -5.999425649642944336e-01 1.900000000000000000e+01
1.901082396507262962e+00 1.718362569808959961e+00 -5.916212797164916992e-01 1.200000000000000000e+01
2.193771123886107954e+00 1.982224345207213911e+00 -5.747166872024536133e-01 1.300000000000000000e+01
2.622931480407714844e+00 2.368337869644165039e+00 -5.597225427627563477e-01 1.000000000000000000e+01
3.251245260238647017e+00 2.933605194091796875e+00 -5.376875400543212891e-01 1.000000000000000000e+01
4.204653263092041016e+00 3.792536258697510210e+00 -4.953932464122772217e-01 9.000000000000000000e+00
6.089984416961669922e+00 5.489223003387451172e+00 -4.296782016754149836e-01 2.000000000000000000e+00
9.972888946533203125e+00 8.982782363891601562e+00 -2.342811077833175937e-01 2.000000000000000000e+00
1.664305090904236062e+00 1.494869351387023926e+00 -5.994248986244201660e-01 1.900000000000000000e+01
1.911419749259948953e+00 1.715621113777161089e+00 -5.929709672927856445e-01 1.400000000000000000e+01
2.206521987915039062e+00 1.979799032211303933e+00 -5.762431621551513672e-01 1.300000000000000000e+01
2.629711866378784180e+00 2.357849121093750000e+00 -5.594096183776855469e-01 9.000000000000000000e+00
3.252594947814940962e+00 2.914290428161621094e+00 -5.362251400947570801e-01 1.000000000000000000e+01
4.210445880889892578e+00 3.771189689636230025e+00 -4.945216774940490723e-01 9.000000000000000000e+00
6.121013641357421875e+00 5.478587627410888672e+00 -4.305155873298645020e-01 2.000000000000000000e+00
1.000418376922607067e+01 8.947915077209472656e+00 -2.342811077833175937e-01 2.000000000000000000e+00
1.663746118545532005e+00 1.483907103538512962e+00 -5.973543524742126465e-01 2.000000000000000000e+01
1.915941953659058061e+00 1.707641959190369096e+00 -5.925210714340209961e-01 1.300000000000000000e+01
2.213419437408446822e+00 1.972084760665893999e+00 -5.762431621551513672e-01 1.300000000000000000e+01
2.629074096679687944e+00 2.340773820877075195e+00 -5.575324296951293945e-01 9.000000000000000000e+00
3.271646261215209961e+00 2.910835981369018999e+00 -5.376875400543212891e-01 1.000000000000000000e+01
4.228050231933593750e+00 3.760441780090332031e+00 -4.950446188449860174e-01 9.000000000000000000e+00
6.116214752197265625e+00 5.435958862304688388e+00 -4.288408160209655762e-01 2.000000000000000000e+00
1.007722091674805043e+01 8.950120925903320312e+00 -2.352584451436995905e-01 2.000000000000000000e+00
1.689423680305480957e+00 1.495727539062500000e+00 -6.046012639999389648e-01 1.900000000000000000e+01
1.910511732101439986e+00 1.690278053283690962e+00 -5.889218449592590332e-01 1.300000000000000000e+01
2.222103118896483931e+00 1.965259552001952903e+00 -5.766248106956481934e-01 1.500000000000000000e+01
2.645036697387694868e+00 2.337662935256958008e+00 -5.590967535972595215e-01 1.000000000000000000e+01
3.279317378997803178e+00 2.896197080612183061e+00 -5.372000932693481445e-01 1.000000000000000000e+01
4.256740570068359375e+00 3.758106231689453125e+00 -4.967877268791198730e-01 9.000000000000000000e+00
6.136097431182861328e+00 5.413505554199218750e+00 -4.288408160209655762e-01 2.000000000000000000e+00
1.011595726013183949e+01 8.918416023254394531e+00 -2.353980541229248047e-01 2.000000000000000000e+00
1.691732764244080034e+00 1.487270116806030051e+00 -6.035659909248352051e-01 1.800000000000000000e+01
1.928112506866455078e+00 1.693888187408447044e+00 -5.925210714340209961e-01 1.200000000000000000e+01
2.227474451065063032e+00 1.956195473670959029e+00 -5.762431621551513672e-01 1.300000000000000000e+01
2.650211095809936968e+00 2.325809717178345171e+00 -5.584710240364074707e-01 1.000000000000000000e+01
3.292392015457152876e+00 2.887350320816040039e+00 -5.376875400543212891e-01 1.000000000000000000e+01
4.275825500488281250e+00 3.748478174209595171e+00 -4.974849820137023926e-01 9.000000000000000000e+00
6.139933586120604581e+00 5.378892421722412109e+00 -4.277940988540648859e-01 2.000000000000000000e+00
1.018614578247069957e+01 8.917297363281250000e+00 -2.363055795431137085e-01 2.000000000000000000e+00
3.615977096557617188e+01 3.164434051513671875e+01 1.287521266937256037e+01 1.400000000000000000e+01
1.695200324058532937e+00 1.480381250381469949e+00 -6.030483841896057129e-01 1.600000000000000000e+01
1.927845835685729980e+00 1.682359814643860085e+00 -5.907214879989624023e-01 1.200000000000000000e+01
2.230990409851074219e+00 1.946216940879821999e+00 -5.754799246788024902e-01 1.300000000000000000e+01
2.659398078918457031e+00 2.318306684494018999e+00 -5.587838888168334961e-01 9.000000000000000000e+00
3.292967796325684038e+00 2.868592977523804155e+00 -5.362251400947570801e-01 1.000000000000000000e+01
4.277714729309082031e+00 3.725119352340697798e+00 -4.962647855281829834e-01 8.000000000000000000e+00
6.169790267944335938e+00 5.368990898132324219e+00 -4.286314845085144043e-01 2.000000000000000000e+00
3.628519821166992188e+01 3.156448745727539062e+01 1.110313415527343928e+01 1.400000000000000000e+01
1.685762166976928933e+00 1.461798667907715066e+00 -5.978720188140869141e-01 1.900000000000000000e+01
1.942543148994446023e+00 1.683277130126952903e+00 -5.934208631515502930e-01 1.200000000000000000e+01
2.239254236221313032e+00 1.939702987670897993e+00 -5.758615732192993164e-01 1.300000000000000000e+01
2.667474508285522017e+00 2.309009552001953125e+00 -5.587838888168334961e-01 9.000000000000000000e+00
3.310467720031737837e+00 2.863574266433715820e+00 -5.374438166618347168e-01 1.000000000000000000e+01
4.290691852569580078e+00 3.710164785385131836e+00 -4.962647855281829834e-01 9.000000000000000000e+00
6.224763393402099609e+00 5.378761768341063565e+00 -4.311436116695404053e-01 2.000000000000000000e+00
3.639516067504882812e+01 3.143763542175292969e+01 1.110313415527343928e+01 1.400000000000000000e+01
1.695246338844299094e+00 1.459686875343322976e+00 -5.994248986244201660e-01 1.900000000000000000e+01
1.943975448608397993e+00 1.672673106193542036e+00 -5.920711755752563477e-01 1.100000000000000000e+01
2.237081050872803178e+00 1.924193263053894043e+00 -5.735718607902526855e-01 1.200000000000000000e+01
2.674020051956177202e+00 2.298396587371826172e+00 -5.584710240364074707e-01 1.000000000000000000e+01
3.690785598754882812e+01 3.171215820312500000e+01 5.974766254425048828e+00 4.900000000000000000e+01
3.326466798782349077e+00 2.857174873352050781e+00 -5.384187698364257812e-01 9.000000000000000000e+00
4.311174392700195312e+00 3.701654434204102007e+00 -4.971363544464110773e-01 9.000000000000000000e+00
6.234405994415283203e+00 5.349197387695313388e+00 -4.305155873298645020e-01 2.000000000000000000e+00
1.021367073059082031e+01 8.757266998291015625e+00 -2.348395884037018100e-01 2.000000000000000000e+00
1.706204533576965110e+00 1.458782076835632102e+00 -6.014954447746276855e-01 1.800000000000000000e+01
1.940912604331969993e+00 1.658281922340393066e+00 -5.893717408180236816e-01 1.200000000000000000e+01
2.252741336822510210e+00 1.924022912979125977e+00 -5.758615732192993164e-01 1.000000000000000000e+01
2.685031652450561968e+00 2.291613340377808061e+00 -5.590967535972595215e-01 1.400000000000000000e+01
3.333399295806885210e+00 2.842969655990601030e+00 -5.379312634468078613e-01 9.000000000000000000e+00
4.330133914947509766e+00 3.691753625869750977e+00 -4.978336095809937079e-01 9.000000000000000000e+00
6.250000000000000000e+00 5.324811935424804688e+00 -4.303062260150908869e-01 2.000000000000000000e+00
1.020763397216797053e+01 8.690449714660644531e+00 -2.340018600225448886e-01 2.000000000000000000e+00
3.602770233154296875e+01 3.066197967529296875e+01 1.267643928527832031e+01 1.400000000000000000e+01
1.716922640800476074e+00 1.458118200302124023e+00 -6.035659909248352051e-01 1.700000000000000000e+01
1.953830003738403098e+00 1.658141255378722922e+00 -5.916212797164916992e-01 1.200000000000000000e+01
2.248629570007324219e+00 1.907651424407958984e+00 -5.731902122497558594e-01 8.000000000000000000e+00
2.698643445968627930e+00 2.287806272506713867e+00 -5.603482723236083984e-01 1.000000000000000000e+01
3.336750030517578125e+00 2.826767444610596147e+00 -5.369563102722167969e-01 9.000000000000000000e+00
4.345393657684326172e+00 3.679949283599853960e+00 -4.981822371482849121e-01 9.000000000000000000e+00
6.255426406860351562e+00 5.293735504150390625e+00 -4.294688701629639227e-01 2.000000000000000000e+00
1.023334217071533025e+01 8.653969764709472656e+00 -2.339320629835129062e-01 2.000000000000000000e+00
3.644837570190429688e+01 3.082308197021484020e+01 1.279031944274901988e+01 1.400000000000000000e+01
1.713140845298767090e+00 1.444643855094909890e+00 -6.004601716995239258e-01 1.900000000000000000e+01
1.961096286773682085e+00 1.652566790580749956e+00 -5.920711755752563477e-01 1.100000000000000000e+01
2.262782335281372070e+00 1.906114816665648970e+00 -5.750983357429504395e-01 7.000000000000000000e+00
2.715680122375487837e+00 2.286005020141602007e+00 -5.622254610061645508e-01 1.000000000000000000e+01
3.343558549880981001e+00 2.812546968460083008e+00 -5.364688634872436523e-01 1.000000000000000000e+01
4.349062919616699219e+00 3.657064914703369141e+00 -4.971363544464110773e-01 9.000000000000000000e+00
6.301390647888183594e+00 5.294995307922363281e+00 -4.313529431819915771e-01 2.000000000000000000e+00
3.637750244140625000e+01 3.055682182312012074e+01 1.096816349029541016e+01 1.400000000000000000e+01
1.026961421966552912e+01 8.623339653015136719e+00 -2.340716719627380094e-01 2.000000000000000000e+00
1.713729619979857954e+00 1.434934377670288086e+00 -5.989072918891906738e-01 1.900000000000000000e+01
1.969842076301574929e+00 1.648212313652039018e+00 -5.929709672927856445e-01 1.200000000000000000e+01
2.272433996200561968e+00 1.900723814964293990e+00 -5.758615732192993164e-01 7.000000000000000000e+00
2.716064929962158203e+00 2.270177602767943892e+00 -5.606611371040344238e-01 1.100000000000000000e+01
3.353355884552001953e+00 2.800858736038208008e+00 -5.364688634872436523e-01 9.000000000000000000e+00
4.369448661804199219e+00 3.648246288299560991e+00 -4.980079233646392822e-01 9.000000000000000000e+00
6.329036712646484375e+00 5.280644416809082031e+00 -4.319809973239899237e-01 2.000000000000000000e+00
1.029965209960938033e+01 8.587439537048339844e+00 -2.340716719627380094e-01 2.000000000000000000e+00
3.607212829589843750e+01 3.007550239562987926e+01 1.258430004119873047e+01 1.400000000000000000e+01
1.724670052528380904e+00 1.433883786201477051e+00 -6.009778380393981934e-01 2.000000000000000000e+01
1.975583434104918990e+00 1.641326189041137917e+00 -5.929709672927856445e-01 1.200000000000000000e+01
2.279054880142211914e+00 1.892779946327209029e+00 -5.758615732192993164e-01 9.000000000000000000e+00
2.719412565231322798e+00 2.256898164749145952e+00 -5.597225427627563477e-01 1.000000000000000000e+01
3.370752334594727007e+00 2.795472383499145952e+00 -5.376875400543212891e-01 1.000000000000000000e+01
4.372953891754150391e+00 3.625342130661011186e+00 -4.969620406627655029e-01 9.000000000000000000e+00
6.313594341278076172e+00 5.230487823486328125e+00 -4.296782016754149836e-01 2.000000000000000000e+00
1.035113048553466975e+01 8.569287300109863281e+00 -2.345603406429291049e-01 2.000000000000000000e+00
3.627439117431641336e+01 3.001945304870605113e+01 1.261639308929443004e+01 1.400000000000000000e+01
1.724946737289428933e+00 1.424466371536255105e+00 -5.994248986244201660e-01 1.600000000000000000e+01
1.971997141838073953e+00 1.627323865890502930e+00 -5.902715921401977539e-01 1.400000000000000000e+01
2.292891502380371094e+00 1.891458511352539062e+00 -5.777696371078491211e-01 1.100000000000000000e+01
2.731454610824584961e+00 2.251637458801269975e+00 -5.606611371040344238e-01 1.200000000000000000e+01
3.378471612930297852e+00 2.783016920089722124e+00 -5.374438166618347168e-01 9.000000000000000000e+00
4.395718097686767578e+00 3.619686603546143022e+00 -4.981822371482849121e-01 9.000000000000000000e+00
6.364833831787109375e+00 5.237442016601563388e+00 -4.319809973239899237e-01 1.000000000000000000e+00
1.039184665679931996e+01 8.545075416564941406e+00 -2.348395884037018100e-01 2.000000000000000000e+00
3.642224121093750000e+01 2.994951629638671875e+01 1.263502788543700994e+01 1.400000000000000000e+01
1.737377882003783958e+00 1.424561023712157981e+00 -6.020131111145019531e-01 1.700000000000000000e+01
1.982187628746032937e+00 1.624135613441467063e+00 -5.916212797164916992e-01 1.300000000000000000e+01
2.297960996627808061e+00 1.882199287414551003e+00 -5.773880481719970703e-01 1.400000000000000000e+01
2.743883609771728960e+00 2.245842695236206055e+00 -5.615997314453125000e-01 1.000000000000000000e+01
3.382019281387329102e+00 2.766179800033568892e+00 -5.364688634872436523e-01 9.000000000000000000e+00
4.423750877380371094e+00 3.616931915283203125e+00 -4.999253451824188232e-01 1.100000000000000000e+01
6.370703697204589844e+00 5.205083370208740234e+00 -4.311436116695404053e-01 2.000000000000000000e+00
1.038133716583251953e+01 8.475867271423339844e+00 -2.339320629835129062e-01 2.000000000000000000e+00
3.625338745117188211e+01 2.958862113952637074e+01 1.253874778747558949e+01 1.300000000000000000e+01
1.742339968681335005e+00 1.418487787246704102e+00 -6.020131111145019531e-01 1.700000000000000000e+01
1.992379784584044966e+00 1.620896100997925027e+00 -5.929709672927856445e-01 1.300000000000000000e+01
2.302994012832642046e+00 1.872927665710448997e+00 -5.770063996315002441e-01 1.300000000000000000e+01
2.748640298843383789e+00 2.233759403228760210e+00 -5.609740018844604492e-01 1.000000000000000000e+01
3.391654491424560991e+00 2.754357576370238814e+00 -5.364688634872436523e-01 9.000000000000000000e+00
4.428615570068359375e+00 3.595189571380614790e+00 -4.990537762641906738e-01 1.100000000000000000e+01
6.407446861267089844e+00 5.197913169860839844e+00 -4.323996603488922119e-01 2.000000000000000000e+00
1.045124912261963068e+01 8.472318649291992188e+00 -2.348395884037018100e-01 2.000000000000000000e+00
3.648337173461914062e+01 2.957529258728026988e+01 1.258430004119873047e+01 1.400000000000000000e+01
1.741271257400512917e+00 1.407539486885071023e+00 -5.999425649642944336e-01 2.000000000000000000e+01
2.004089355468750000e+00 1.618829607963562012e+00 -5.947706103324890137e-01 1.100000000000000000e+01
2.306462764739989790e+00 1.862410545349121094e+00 -5.762431621551513672e-01 1.400000000000000000e+01
2.767182111740111861e+00 2.232834339141846147e+00 -5.631640553474426270e-01 9.000000000000000000e+00
3.404338836669921875e+00 2.744993686676024947e+00 -5.369563102722167969e-01 9.000000000000000000e+00
4.434933185577392578e+00 3.574707508087158203e+00 -4.983565509319304865e-01 1.100000000000000000e+01
6.413108348846436435e+00 5.165492534637451172e+00 -4.315623044967650812e-01 2.000000000000000000e+00
3.681300735473632812e+01 2.964075469970703125e+01 1.091147613525390980e+01 1.300000000000000000e+01
1.048387432098389027e+01 8.438293457031250000e+00 -2.349093854427337924e-01 2.000000000000000000e+00
1.746173858642577903e+00 1.401452660560607910e+00 -5.999425649642944336e-01 2.000000000000000000e+01
1.999086499214171919e+00 1.603289604187011941e+00 -5.916212797164916992e-01 1.300000000000000000e+01
2.322140216827393022e+00 1.861716389656066895e+00 -5.785328745841979980e-01 1.700000000000000000e+01
2.753376245498656782e+00 2.205870389938354048e+00 -5.587838888168334961e-01 9.000000000000000000e+00
3.457582092285156250e+01 2.769054985046387074e+01 5.439028739929199219e+00 3.500000000000000000e+01
3.430946350097655806e+00 2.746740579605102983e+00 -5.396374464035034180e-01 1.000000000000000000e+01
4.448939800262451172e+00 3.560449838638306108e+00 -4.985308349132537842e-01 9.000000000000000000e+00
6.434219837188720703e+00 5.145569801330566406e+00 -4.317716360092163086e-01 2.000000000000000000e+00
1.051326560974120916e+01 8.401646614074707031e+00 -2.349093854427337924e-01 2.000000000000000000e+00
1.760120272636414018e+00 1.402572393417357954e+00 -6.030483841896057129e-01 1.900000000000000000e+01
2.003146409988402876e+00 1.595087766647339089e+00 -5.911713838577270508e-01 1.100000000000000000e+01
2.327088832855225053e+00 1.852376580238342063e+00 -5.781512856483459473e-01 1.300000000000000000e+01
2.770334959030150923e+00 2.203624010086060014e+00 -5.606611371040344238e-01 9.000000000000000000e+00
3.434297323226929155e+00 2.729806661605834961e+00 -5.386624932289123535e-01 1.000000000000000000e+01
4.459781169891357422e+00 3.543658971786499023e+00 -4.983565509319304865e-01 1.100000000000000000e+01
6.470911979675292969e+00 5.137982368469238281e+00 -4.330277144908905029e-01 2.000000000000000000e+00
1.057385921478270951e+01 8.389755249023437500e+00 -2.356074899435043057e-01 2.000000000000000000e+00
3.769606018066406250e+01 2.990967941284180043e+01 1.289384746551514027e+01 1.400000000000000000e+01
1.765005350112915039e+00 1.396419882774353027e+00 -6.030483841896057129e-01 1.900000000000000000e+01
2.007173299789429155e+00 1.586877226829529031e+00 -5.907214879989624023e-01 1.200000000000000000e+01
2.338161468505858931e+00 1.847894191741942915e+00 -5.792961120605468750e-01 1.300000000000000000e+01
2.779560565948485884e+00 2.195164680480957031e+00 -5.609740018844604492e-01 1.000000000000000000e+01
3.434455394744873047e+00 2.710423469543457031e+00 -5.372000932693481445e-01 1.000000000000000000e+01
4.465866565704345703e+00 3.523133754730225053e+00 -4.976592957973480225e-01 1.600000000000000000e+01
6.473122596740722656e+00 5.102998256683349609e+00 -4.319809973239899237e-01 1.000000000000000000e+00
1.055595493316650035e+01 8.315670967102050781e+00 -2.345603406429291049e-01 2.000000000000000000e+00
1.766830682754517046e+00 1.387863755226135032e+00 -6.020131111145019531e-01 1.800000000000000000e+01
2.017299175262451172e+00 1.583470940589905007e+00 -5.920711755752563477e-01 1.200000000000000000e+01
2.329152345657349077e+00 1.827601909637450950e+00 -5.754799246788024902e-01 1.300000000000000000e+01
2.793424129486083984e+00 2.190324306488037109e+00 -5.622254610061645508e-01 1.000000000000000000e+01
3.450145959854125977e+00 2.703315734863280806e+00 -5.381750464439392090e-01 1.000000000000000000e+01
4.476568698883056641e+00 3.506294965744018999e+00 -4.974849820137023926e-01 1.100000000000000000e+01
6.490895748138427734e+00 5.080371856689453125e+00 -4.319809973239899237e-01 2.000000000000000000e+00
1.062587165832520064e+01 8.310804367065429688e+00 -2.354678660631180087e-01 2.000000000000000000e+00
3.851788330078125000e+01 3.011512756347655895e+01 1.310090255737305043e+01 1.500000000000000000e+01
1.762524247169495073e+00 1.374559640884398970e+00 -5.989072918891906738e-01 1.700000000000000000e+01
2.028962612152100053e+00 1.581211090087891069e+00 -5.938707590103149414e-01 1.200000000000000000e+01
2.338615179061890093e+00 1.821873545646667036e+00 -5.762431621551513672e-01 1.400000000000000000e+01
2.796376466751099077e+00 2.176919698715209961e+00 -5.612868666648864746e-01 9.000000000000000000e+00
3.459561347961425781e+00 2.691256046295166016e+00 -5.381750464439392090e-01 1.000000000000000000e+01
4.463615894317626953e+00 3.471078157424927202e+00 -4.946959912776947021e-01 1.100000000000000000e+01
6.533823490142822266e+00 5.077291488647460938e+00 -4.336557388305664062e-01 2.000000000000000000e+00
1.061375236511229936e+01 8.241774559020996094e+00 -2.345603406429291049e-01 2.000000000000000000e+00
1.770366668701172097e+00 1.370764374732970969e+00 -5.999425649642944336e-01 1.600000000000000000e+01
2.031387090682982954e+00 1.571734070777893066e+00 -5.929709672927856445e-01 1.200000000000000000e+01
2.352725028991699219e+00 1.819704771041869895e+00 -5.781512856483459473e-01 1.300000000000000000e+01
2.803958415985106978e+00 2.167145252227783203e+00 -5.612868666648864746e-01 9.000000000000000000e+00
3.552508163452147727e+01 2.744699859619140980e+01 5.512150287628173828e+00 3.700000000000000000e+01
3.464221239089965820e+00 2.675523281097412109e+00 -5.374438166618347168e-01 9.000000000000000000e+00
4.496206760406494141e+00 3.471304655075072798e+00 -4.969620406627655029e-01 1.100000000000000000e+01
6.545181274414063388e+00 5.049573421478270596e+00 -4.332370460033416748e-01 1.000000000000000000e+00
1.066779613494873047e+01 8.224210739135742188e+00 -2.351188212633132935e-01 2.000000000000000000e+00
1.780789136886596902e+00 1.369907379150391069e+00 -6.020131111145019531e-01 1.900000000000000000e+01
2.033224821090697798e+00 1.562969207763672097e+00 -5.920711755752563477e-01 1.100000000000000000e+01
2.361543655395507812e+00 1.814697027206420898e+00 -5.789144635200500488e-01 1.200000000000000000e+01
2.810752868652344194e+00 2.158325672149658203e+00 -5.612868666648864746e-01 9.000000000000000000e+00
3.469459772109984907e+00 2.662210226058959961e+00 -5.369563102722167969e-01 9.000000000000000000e+00
4.514994621276854581e+00 3.463225364685059038e+00 -4.978336095809937079e-01 9.000000000000000000e+00
6.551501750946044922e+00 5.021696090698242188e+00 -4.326090216636658270e-01 2.000000000000000000e+00
1.072215557098389027e+01 8.212543487548828125e+00 -2.357470989227294922e-01 2.000000000000000000e+00
1.785560131072998047e+00 1.363682985305785911e+00 -6.020131111145019531e-01 1.800000000000000000e+01
2.037119150161743164e+00 1.554680109024048074e+00 -5.916212797164916992e-01 1.200000000000000000e+01
2.366302967071533203e+00 1.805251836776732954e+00 -5.785328745841979980e-01 1.300000000000000000e+01
2.821411609649658203e+00 2.150896310806273970e+00 -5.619125962257385254e-01 1.000000000000000000e+01
3.481889724731444868e+00 2.652489185333251953e+00 -5.374438166618347168e-01 9.000000000000000000e+00
4.558758258819580078e+00 3.471585750579833984e+00 -5.013198256492614746e-01 9.000000000000000000e+00
6.581706047058104581e+00 5.008472442626953125e+00 -4.334463775157927912e-01 2.000000000000000000e+00
1.071573829650879084e+01 8.148436546325683594e+00 -2.349791973829269132e-01 2.000000000000000000e+00
1.787230610847472922e+00 1.355107545852660911e+00 -6.009778380393981934e-01 1.600000000000000000e+01
2.040980339050292969e+00 1.546382904052733931e+00 -5.911713838577270508e-01 1.100000000000000000e+01
2.361634731292725053e+00 1.788683533668518066e+00 -5.758615732192993164e-01 1.200000000000000000e+01
2.838352918624877930e+00 2.148187398910522017e+00 -5.637897849082946777e-01 9.000000000000000000e+00
3.495877265930175781e+00 2.643911123275756836e+00 -5.381750464439392090e-01 9.000000000000000000e+00
4.542240619659423828e+00 3.434023618698120117e+00 -4.981822371482849121e-01 9.000000000000000000e+00
6.589587211608886719e+00 4.978243827819824219e+00 -4.328183531761168878e-01 2.000000000000000000e+00
1.078561210632324041e+01 8.142308235168457031e+00 -2.358867228031157892e-01 2.000000000000000000e+00
1.793493390083312988e+00 1.350022435188293013e+00 -6.014954447746276855e-01 1.900000000000000000e+01
2.058824539184569868e+00 1.548620581626892090e+00 -5.947706103324890137e-01 1.100000000000000000e+01
2.375709772109984907e+00 1.786328315734863059e+00 -5.777696371078491211e-01 1.100000000000000000e+01
2.842675685882567915e+00 2.135893344879149947e+00 -5.631640553474426270e-01 9.000000000000000000e+00
3.506672382354735884e+00 2.632884025573730025e+00 -5.384187698364257812e-01 9.000000000000000000e+00
4.594037532806395596e+00 3.448047161102294922e+00 -5.025399923324584961e-01 9.000000000000000000e+00
6.626097679138183594e+00 4.969591617584229404e+00 -4.340744316577910822e-01 2.000000000000000000e+00
1.081396865844726918e+01 8.104609489440917969e+00 -2.358867228031157892e-01 2.000000000000000000e+00
1.795099973678589089e+00 1.341440916061400923e+00 -6.004601716995239258e-01 1.900000000000000000e+01
2.056410551071166992e+00 1.535594582557678001e+00 -5.925210714340209961e-01 1.300000000000000000e+01
2.380357503890991211e+00 1.776850223541259988e+00 -5.773880481719970703e-01 1.000000000000000000e+01
2.835863590240478960e+00 2.115327835083007812e+00 -5.603482723236083984e-01 1.000000000000000000e+01
3.525391101837158203e+00 2.627745389938354048e+00 -5.398811697959899902e-01 9.000000000000000000e+00
4.578885078430175781e+00 3.411752939224243164e+00 -4.995767176151276190e-01 9.000000000000000000e+00
6.649812698364257812e+00 4.951203346252441406e+00 -4.344930946826934814e-01 1.000000000000000000e+00
1.086144542694091975e+01 8.081136703491210938e+00 -2.363055795431137085e-01 2.000000000000000000e+00
3.218513488769531250e+01 2.393767356872558949e+01 1.074771976470947088e+01 9.000000000000000000e+00
1.812183737754821999e+00 1.344374775886536089e+00 -6.046012639999389648e-01 1.900000000000000000e+01
2.055496215820312944e+00 1.523764848709106001e+00 -5.907214879989624023e-01 1.200000000000000000e+01
2.396009683609008789e+00 1.775543808937072976e+00 -5.796777009963989258e-01 1.100000000000000000e+01
2.846405267715454102e+00 2.107767105102539062e+00 -5.609740018844604492e-01 1.000000000000000000e+01
3.536137819290161133e+00 2.616604328155518022e+00 -5.401249527931213379e-01 7.000000000000000000e+00
4.597173690795898438e+00 3.400488138198852983e+00 -5.002739429473876953e-01 9.000000000000000000e+00
6.634932041168212891e+00 4.904217243194580078e+00 -4.323996603488922119e-01 1.000000000000000000e+00
3.148896598815917969e+01 2.326660537719726918e+01 9.038983345031738281e+00 1.200000000000000000e+01
1.088958740234375000e+01 8.043173789978027344e+00 -2.363055795431137085e-01 2.000000000000000000e+00
3.224207687377929688e+01 2.380567169189453125e+01 1.073892021179199041e+01 1.900000000000000000e+01
1.811965823173522949e+00 1.334920406341552956e+00 -6.030483841896057129e-01 1.800000000000000000e+01
2.066815137863159180e+00 1.521561503410338911e+00 -5.925210714340209961e-01 1.200000000000000000e+01
2.395559310913085938e+00 1.762933969497681108e+00 -5.781512856483459473e-01 1.200000000000000000e+01
2.859744787216186968e+00 2.102997541427611861e+00 -5.622254610061645508e-01 1.000000000000000000e+01
3.527199268341064009e+00 2.591933488845825195e+00 -5.374438166618347168e-01 9.000000000000000000e+00
4.650173664093017578e+00 3.415892124176024947e+00 -5.048060417175292969e-01 9.000000000000000000e+00
6.660819053649902344e+00 4.889279365539550781e+00 -4.330277144908905029e-01 2.000000000000000000e+00
3.151252746582030895e+01 2.312285995483398082e+01 9.023686408996582031e+00 1.200000000000000000e+01
1.091619968414306996e+01 8.007019042968750000e+00 -2.363055795431137085e-01 2.000000000000000000e+00
3.234109497070313211e+01 2.371347236633301137e+01 1.074564933776854936e+01 9.000000000000000000e+00
1.816614508628844993e+00 1.328587293624877930e+00 -6.030483841896057129e-01 1.800000000000000000e+01
2.073687314987183061e+00 1.515487551689147949e+00 -5.929709672927856445e-01 1.100000000000000000e+01
2.403283834457397017e+00 1.755719304084778054e+00 -5.785328745841979980e-01 1.100000000000000000e+01
2.875045537948607954e+00 2.098825931549071822e+00 -5.637897849082946777e-01 1.100000000000000000e+01
3.544244050979613814e+00 2.585454940795897993e+00 -5.386624932289123535e-01 1.000000000000000000e+01
4.588016986846923828e+00 3.345639467239379883e+00 -4.967877268791198730e-01 9.000000000000000000e+00
6.693986892700195312e+00 4.877760887145996094e+00 -4.340744316577910822e-01 2.000000000000000000e+00
3.165605735778808949e+01 2.305861473083496094e+01 9.041682243347167969e+00 1.200000000000000000e+01
1.091175174713134943e+01 7.945323467254638672e+00 -2.356074899435043057e-01 2.000000000000000000e+00
3.215190124511718750e+01 2.340262031555176137e+01 1.065558052062987926e+01 9.000000000000000000e+00
1.818114519119262917e+00 1.319968104362488015e+00 -6.020131111145019531e-01 2.000000000000000000e+01
2.082119464874268022e+00 1.510528564453125000e+00 -5.938707590103149414e-01 1.200000000000000000e+01
2.409397840499877930e+00 1.747319579124450906e+00 -5.785328745841979980e-01 1.100000000000000000e+01
2.877555608749390093e+00 2.085299968719481978e+00 -5.628511905670166016e-01 1.200000000000000000e+01
3.556463003158568892e+00 2.575396060943603960e+00 -5.391499996185302734e-01 1.000000000000000000e+01
4.669065952301025391e+00 3.379839897155762163e+00 -5.042831301689147949e-01 9.000000000000000000e+00
6.710972785949707031e+00 4.854364871978759766e+00 -4.340744316577910822e-01 2.000000000000000000e+00
3.180899429321289062e+01 2.300049972534180043e+01 9.062377929687500000e+00 1.200000000000000000e+01
1.097183227539063033e+01 7.930614471435546875e+00 -2.363055795431137085e-01 2.000000000000000000e+00
3.182538986206055043e+01 2.300389671325683949e+01 1.052202987670898082e+01 9.000000000000000000e+00
1.819576501846313032e+00 1.311354637145996094e+00 -6.009778380393981934e-01 1.800000000000000000e+01
2.090542078018188032e+00 1.505529046058655007e+00 -5.947706103324890137e-01 1.100000000000000000e+01
2.417075872421265093e+00 1.740045547485352007e+00 -5.789144635200500488e-01 1.200000000000000000e+01
2.875195741653441939e+00 2.068321466445922852e+00 -5.609740018844604492e-01 1.300000000000000000e+01
3.575102329254149947e+00 2.569917917251586914e+00 -5.406123995780944824e-01 1.000000000000000000e+01
3.154045867919921875e+01 2.267246818542480113e+01 6.152254581451416016e+00 1.400000000000000000e+01
4.700251102447509766e+00 3.377473115921020952e+00 -5.063748359680175781e-01 9.000000000000000000e+00
6.724632263183593750e+00 4.828579902648925781e+00 -4.338650703430175781e-01 1.000000000000000000e+00
1.099944877624512074e+01 7.892267704010009766e+00 -2.363055795431137085e-01 2.000000000000000000e+00
1.829084753990172896e+00 1.308048009872436968e+00 -6.025307178497314453e-01 1.900000000000000000e+01
2.086533069610596147e+00 1.491058588027954102e+00 -5.920711755752563477e-01 1.200000000000000000e+01
2.426632165908813032e+00 1.733457207679748979e+00 -5.796777009963989258e-01 1.200000000000000000e+01
2.885972738265991211e+00 2.060064792633057085e+00 -5.615997314453125000e-01 1.400000000000000000e+01
3.574800968170166016e+00 2.549880743026732954e+00 -5.391499996185302734e-01 1.000000000000000000e+01
4.722332000732421875e+00 3.367163181304932085e+00 -5.074207186698913574e-01 8.000000000000000000e+00
6.739031314849854404e+00 4.801582336425781250e+00 -4.336557388305664062e-01 2.000000000000000000e+00
3.229339981079102273e+01 2.300065994262694957e+01 9.153258323669433594e+00 1.200000000000000000e+01
1.106088161468506037e+01 7.875095844268798828e+00 -2.370036840438843051e-01 2.000000000000000000e+00
1.846241831779479980e+00 1.310601472854614036e+00 -6.066718697547912598e-01 1.900000000000000000e+01
2.090135574340819868e+00 1.482638597488403098e+00 -5.916212797164916992e-01 1.300000000000000000e+01
2.434269666671752930e+00 1.726111769676208052e+00 -5.800593495368957520e-01 1.200000000000000000e+01
2.896369695663452148e+00 2.052262306213378906e+00 -5.622254610061645508e-01 1.300000000000000000e+01
3.582059860229492188e+00 2.536239624023437944e+00 -5.389062166213989258e-01 9.000000000000000000e+00
3.162518882751464844e+01 2.238359642028808949e+01 6.136610984802246094e+00 1.400000000000000000e+01
4.740561962127686435e+00 3.355262994766234907e+00 -5.081179738044738770e-01 8.000000000000000000e+00
6.755751132965087891e+00 4.778029441833496094e+00 -4.336557388305664062e-01 1.000000000000000000e+00
1.105564212799072088e+01 7.813355445861816406e+00 -2.363055795431137085e-01 2.000000000000000000e+00
3.203458023071289062e+01 2.263142013549805043e+01 1.050960636138916016e+01 9.000000000000000000e+00
1.844261884689331055e+00 1.300019741058350053e+00 -6.046012639999389648e-01 1.900000000000000000e+01
2.098227024078369141e+00 1.477943778038024902e+00 -5.925210714340209961e-01 1.300000000000000000e+01
2.433559417724608931e+00 1.713508844375609907e+00 -5.785328745841979980e-01 1.200000000000000000e+01
2.914468288421630859e+00 2.050603151321411133e+00 -5.644155740737915039e-01 1.200000000000000000e+01
3.255526733398438211e+01 2.289720726013183949e+01 4.886960506439208984e+00 2.100000000000000000e+01
3.593698263168334961e+00 2.526630640029906782e+00 -5.393937230110168457e-01 9.000000000000000000e+00
4.761442661285400391e+00 3.346397876739501953e+00 -5.091638565063476562e-01 8.000000000000000000e+00
6.794440746307373047e+00 4.771670818328857422e+00 -4.351211488246917725e-01 2.000000000000000000e+00
3.143801307678223012e+01 2.207042312622069957e+01 8.868020057678222656e+00 1.200000000000000000e+01
1.109786033630370916e+01 7.788137912750244141e+00 -2.366546243429183960e-01 2.000000000000000000e+00
3.240597152709960938e+01 2.274151611328125000e+01 1.060795783996582031e+01 9.000000000000000000e+00
1.840874195098876953e+00 1.288036584854125977e+00 -6.020131111145019531e-01 2.000000000000000000e+01
2.117747068405150923e+00 1.480660319328308105e+00 -5.965701937675476074e-01 1.300000000000000000e+01
2.434698343276977983e+00 1.701629638671875000e+00 -5.773880481719970703e-01 1.200000000000000000e+01
2.915130376815795898e+00 2.035893201828002930e+00 -5.631640553474426270e-01 1.100000000000000000e+01
3.604123830795288086e+00 2.515207052230834961e+00 -5.396374464035034180e-01 1.000000000000000000e+01
3.185782051086426137e+01 2.222432327270508168e+01 6.152254581451416016e+00 1.400000000000000000e+01
4.773094654083251953e+00 3.329756975173950195e+00 -5.091638565063476562e-01 9.000000000000000000e+00
6.820886135101318359e+00 4.754777431488037109e+00 -4.357491731643676758e-01 2.000000000000000000e+00
3.026456451416015980e+01 2.108930206298828125e+01 8.516197204589843750e+00 1.100000000000000000e+01
1.113482379913330078e+01 7.756209373474121094e+00 -2.368640601634978970e-01 2.000000000000000000e+00
3.250178909301757812e+01 2.263142013549805043e+01 1.061209869384765980e+01 9.000000000000000000e+00
1.845359086990356001e+00 1.281602859497070090e+00 -6.020131111145019531e-01 2.000000000000000000e+01
2.114897727966309038e+00 1.467703700065613015e+00 -5.943207144737243652e-01 1.200000000000000000e+01
2.445462465286254883e+00 1.696477770805359109e+00 -5.785328745841979980e-01 1.100000000000000000e+01
2.923842668533325195e+00 2.026830434799193892e+00 -5.634769201278686523e-01 1.200000000000000000e+01
3.617777109146118164e+00 2.506001949310303178e+00 -5.403686761856079102e-01 1.000000000000000000e+01
4.779774665832520419e+00 3.309672832489014116e+00 -5.086408853530883789e-01 9.000000000000000000e+00
6.827587604522705078e+00 4.724120616912841797e+00 -4.351211488246917725e-01 2.000000000000000000e+00
3.036363983154296875e+01 2.100126838684082031e+01 8.523395538330078125e+00 1.100000000000000000e+01
1.114867115020751953e+01 7.708196640014648438e+00 -2.365848273038864136e-01 2.000000000000000000e+00
3.259572601318358664e+01 2.253669929504394887e+01 1.061830997467041016e+01 9.000000000000000000e+00
1.849821448326111062e+00 1.275153636932373047e+00 -6.020131111145019531e-01 1.800000000000000000e+01
2.108774185180664062e+00 1.452574133872986062e+00 -5.911713838577270508e-01 1.400000000000000000e+01
2.451369524002075195e+00 1.687931180000304954e+00 -5.785328745841979980e-01 1.100000000000000000e+01
2.926017761230469194e+00 2.013252735137939009e+00 -5.625383257865905762e-01 1.100000000000000000e+01
3.225351715087891336e+01 2.218380928039551137e+01 4.806527137756347656e+00 2.000000000000000000e+01
3.623231172561645952e+00 2.491108894348144975e+00 -5.398811697959899902e-01 1.000000000000000000e+01
4.822495937347412109e+00 3.314409732818603960e+00 -5.119528174400329590e-01 9.000000000000000000e+00
6.817693710327148438e+00 4.682168006896972656e+00 -4.334463775157927912e-01 2.000000000000000000e+00
3.048174667358398082e+01 2.092603302001953125e+01 8.535992622375488281e+00 1.100000000000000000e+01
1.120189094543457031e+01 7.687337398529052734e+00 -2.371432930231094083e-01 2.000000000000000000e+00
3.244870758056641336e+01 2.225971221923828125e+01 1.054376983642577947e+01 9.000000000000000000e+00
1.864272594451904075e+00 1.274583339691162109e+00 -6.051189303398132324e-01 1.700000000000000000e+01
2.119163513183594194e+00 1.447764158248900923e+00 -5.925210714340209961e-01 1.500000000000000000e+01
2.456211328506470171e+00 1.677398920059204102e+00 -5.781512856483459473e-01 1.000000000000000000e+01
2.946779727935791016e+00 2.010910511016846147e+00 -5.650413036346435547e-01 1.200000000000000000e+01
3.272547149658203125e+01 2.232380294799805043e+01 4.864049434661865234e+00 2.100000000000000000e+01
3.631129503250122070e+00 2.476060152053833008e+00 -5.396374464035034180e-01 1.000000000000000000e+01
4.826955318450927734e+00 3.290257453918457031e+00 -5.110812783241271973e-01 9.000000000000000000e+00
6.862033367156982422e+00 4.673945426940917969e+00 -4.351211488246917725e-01 2.000000000000000000e+00
3.068429374694823863e+01 2.089219093322753906e+01 8.570185661315917969e+00 1.100000000000000000e+01
1.123132514953612926e+01 7.644268512725830078e+00 -2.371432930231094083e-01 2.000000000000000000e+00
3.260034561157227273e+01 2.218845939636230113e+01 1.056654644012450994e+01 9.000000000000000000e+00
1.865513324737549050e+00 1.265898585319519043e+00 -6.040836572647094727e-01 1.700000000000000000e+01
2.124204158782958984e+00 1.440358161926269975e+00 -5.925210714340209961e-01 1.200000000000000000e+01
2.465301752090454102e+00 1.671018004417418990e+00 -5.789144635200500488e-01 1.200000000000000000e+01
2.953781127929687944e+00 2.000612258911132812e+00 -5.650413036346435547e-01 1.100000000000000000e+01
3.636462450027465820e+00 2.461144685745238814e+00 -5.391499996185302734e-01 1.000000000000000000e+01
3.176358604431151988e+01 2.148939895629883168e+01 6.074037551879882812e+00 1.400000000000000000e+01
4.845012187957763672e+00 3.277853727340697798e+00 -5.117785334587097168e-01 9.000000000000000000e+00
6.861760139465332031e+00 4.638777732849121094e+00 -4.340744316577910822e-01 2.000000000000000000e+00
1.126456832885742010e+01 7.609494686126708984e+00 -2.372829169034957886e-01 2.000000000000000000e+00
1.863073229789734109e+00 1.255712747573852983e+00 -6.020131111145019531e-01 1.800000000000000000e+01
2.136800289154053178e+00 1.439120650291443093e+00 -5.947706103324890137e-01 1.300000000000000000e+01
2.478682041168212891e+00 1.668746829032897949e+00 -5.808225870132446289e-01 1.100000000000000000e+01
2.951856613159180132e+00 1.985809683799744096e+00 -5.634769201278686523e-01 1.000000000000000000e+01
3.657356262207030806e+00 2.458568096160889116e+00 -5.410999059677124023e-01 1.000000000000000000e+01
4.856939315795898438e+00 3.263727903366088867e+00 -5.119528174400329590e-01 9.000000000000000000e+00
6.876299381256104404e+00 4.617198467254638672e+00 -4.340744316577910822e-01 1.000000000000000000e+00
3.217486572265625000e+01 2.159616851806640980e+01 8.946303367614746094e+00 1.200000000000000000e+01
1.127513408660889027e+01 7.565155506134033203e+00 -2.370036840438843051e-01 2.000000000000000000e+00
1.867445111274719016e+00 1.249201774597167969e+00 -6.020131111145019531e-01 1.600000000000000000e+01
2.141810894012451172e+00 1.431653022766113059e+00 -5.947706103324890137e-01 1.100000000000000000e+01
2.481227159500122070e+00 1.657903075218200906e+00 -5.800593495368957520e-01 1.200000000000000000e+01
2.943984746932982954e+00 1.965621709823607954e+00 -5.606611371040344238e-01 1.000000000000000000e+01
3.675823688507080078e+00 2.452396631240845171e+00 -5.425623059272766113e-01 1.000000000000000000e+01
3.185239791870116832e+01 2.125094223022460938e+01 6.064651489257813388e+00 1.400000000000000000e+01
4.871617317199707031e+00 3.248965024948120117e+00 -5.123014450073242188e-01 9.000000000000000000e+00
6.892374515533447266e+00 4.593167304992675781e+00 -4.340744316577910822e-01 2.000000000000000000e+00
3.202948760986328125e+01 2.133679199218750000e+01 8.885116577148437500e+00 1.200000000000000000e+01
1.136472129821776988e+01 7.567869186401367188e+00 -2.383300662040709894e-01 2.000000000000000000e+00
3.279112625122070312e+01 2.183590316772460938e+01 1.055619335174561080e+01 9.000000000000000000e+00
1.881451010704040971e+00 1.249086618423461914e+00 -6.051189303398132324e-01 1.700000000000000000e+01
2.137051820755004883e+00 1.417704224586487038e+00 -5.920711755752563477e-01 1.100000000000000000e+01
2.490271568298339844e+00 1.651401877403259055e+00 -5.808225870132446289e-01 1.200000000000000000e+01
2.965648174285889116e+00 1.965153574943542036e+00 -5.634769201278686523e-01 1.000000000000000000e+01
3.679396390914916992e+00 2.436262845993041992e+00 -5.418310761451721191e-01 1.000000000000000000e+01
4.881267547607421875e+00 3.230840444564818892e+00 -5.121271610260009766e-01 9.000000000000000000e+00
6.895039081573486328e+00 4.560266017913818359e+00 -4.332370460033416748e-01 2.000000000000000000e+00
1.135436630249023082e+01 7.503897190093994141e+00 -2.375621497631072998e-01 2.000000000000000000e+00
3.295740127563477273e+01 2.178095436096191051e+01 1.058518123626708984e+01 9.000000000000000000e+00
1.885799646377563032e+00 1.242511510848999023e+00 -6.051189303398132324e-01 1.800000000000000000e+01
3.254029083251953125e+01 2.143193244934082031e+01 6.801202893257141113e-01 3.300000000000000000e+01
2.153381109237670898e+00 1.417737245559691939e+00 -5.952205061912536621e-01 1.100000000000000000e+01
2.502580881118773970e+00 1.647016406059264915e+00 -5.823490619659423828e-01 1.300000000000000000e+01
2.974140167236328125e+00 1.955874919891356978e+00 -5.637897849082946777e-01 1.100000000000000000e+01
3.676265478134154829e+00 2.415773630142211914e+00 -5.401249527931213379e-01 1.000000000000000000e+01
4.895845890045166016e+00 3.215969800949097124e+00 -5.124757885932922363e-01 9.000000000000000000e+00
6.937630653381347656e+00 4.553705692291259766e+00 -4.349117875099182129e-01 2.000000000000000000e+00
3.242532348632813211e+01 2.127515983581542969e+01 8.953501701354980469e+00 1.200000000000000000e+01
1.136711406707764027e+01 7.455443382263183594e+00 -2.372829169034957886e-01 2.000000000000000000e+00
3.319533920288085938e+01 2.176381683349609020e+01 1.063591003417968928e+01 9.000000000000000000e+00
1.886891603469849077e+00 1.233806729316710982e+00 -6.040836572647094727e-01 2.000000000000000000e+01
2.153422594070435014e+00 1.407014131546020952e+00 -5.938707590103149414e-01 1.000000000000000000e+01
2.495164871215819868e+00 1.629682064056396040e+00 -5.792961120605468750e-01 1.400000000000000000e+01
2.979295253753662109e+00 1.944401741027832031e+00 -5.634769201278686523e-01 1.000000000000000000e+01
3.691326618194580078e+00 2.407263755798339844e+00 -5.410999059677124023e-01 1.000000000000000000e+01
3.297705459594727273e+01 2.149747085571289062e+01 6.234851837158203125e+00 1.400000000000000000e+01
4.912049293518066406e+00 3.202124595642089844e+00 -5.129987001419067383e-01 9.000000000000000000e+00
6.963524818420410156e+00 4.536001682281494141e+00 -4.355398416519165039e-01 2.000000000000000000e+00
3.116681861877441051e+01 2.029414749145508168e+01 8.586381912231445312e+00 1.100000000000000000e+01
1.140982818603515980e+01 7.426628112792968750e+00 -2.376319617033005038e-01 2.000000000000000000e+00
3.256788253784179688e+01 2.119835090637207031e+01 1.041229057312012074e+01 8.000000000000000000e+00
1.889566302299499956e+00 1.226161122322082964e+00 -6.035659909248352051e-01 1.900000000000000000e+01
2.163226127624512163e+00 1.402669310569762962e+00 -5.952205061912536621e-01 1.200000000000000000e+01
2.507428169250487837e+00 1.625233769416809082e+00 -5.808225870132446289e-01 1.400000000000000000e+01
2.991038322448730025e+00 1.937211751937865989e+00 -5.644155740737915039e-01 1.000000000000000000e+01
3.701373577117919922e+00 2.395442485809326172e+00 -5.413436293601989746e-01 9.000000000000000000e+00
3.298554992675781250e+01 2.133930969238280895e+01 6.222337245941162109e+00 1.400000000000000000e+01
4.918178081512451172e+00 3.181712150573730025e+00 -5.124757885932922363e-01 9.000000000000000000e+00
3.089426612854003906e+01 1.997875022888183949e+01 7.151521205902099609e+00 6.100000000000000000e+01
6.979315757751464844e+00 4.511666774749755859e+00 -4.355398416519165039e-01 2.000000000000000000e+00
1.144240188598632990e+01 7.391095161437988281e+00 -2.377715855836868009e-01 2.000000000000000000e+00
3.267737960815429688e+01 2.110759925842285156e+01 1.042367839813232067e+01 8.000000000000000000e+00
1.895459175109863059e+00 1.220603823661803977e+00 -6.040836572647094727e-01 1.900000000000000000e+01
3.225850677490233664e+01 2.076529121398926137e+01 6.696488261222839355e-01 3.200000000000000000e+01
2.168109178543090820e+00 1.395109772682189941e+00 -5.952205061912536621e-01 1.200000000000000000e+01
2.514737367630004883e+00 1.617533326148987038e+00 -5.812041759490966797e-01 1.400000000000000000e+01
3.006090879440308061e+00 1.932099461555480957e+00 -5.659798979759216309e-01 8.000000000000000000e+00
3.716393947601317915e+00 2.386798620223999023e+00 -5.423185825347900391e-01 9.000000000000000000e+00
4.935960769653320312e+00 3.168830633163452148e+00 -5.131729841232299805e-01 9.000000000000000000e+00
