1.130005121231078963e-01 5.349991798400878906e+00 9.340527653694152832e-02 3.600000000000000000e+01
5.456122010946273804e-02 2.562012434005736861e+00 -5.916212797164916992e-01 1.400000000000000000e+01
1.169574484229087968e-01 5.447267532348632812e+00 2.855449914932250977e-01 6.500000000000000000e+01
6.397310644388198853e-02 2.979533433914185014e+00 -5.792961120605468750e-01 1.100000000000000000e+01
1.188710629940032959e-01 5.491731166839599609e+00 4.805767536163330078e-01 7.000000000000000000e+01
7.717887312173843384e-02 3.537057638168334961e+00 -5.603482723236083984e-01 1.000000000000000000e+01
9.719008207321166992e-02 4.383991718292236328e+00 -5.384187698364257812e-01 9.000000000000000000e+00
1.270221322774887085e-01 5.684860229492188388e+00 -4.974849820137023926e-01 9.000000000000000000e+00
1.879108697175979892e-01 8.280501365661621094e+00 -4.340744316577910822e-01 1.000000000000000000e+00
1.238703951239586015e-01 5.375753879547119141e+00 -9.385903924703598022e-02 2.100000000000000000e+02
5.494003742933273315e-02 2.248003959655762163e+00 -6.025307178497314453e-01 1.700000000000000000e+01
1.317239850759505948e-01 5.351563453674316406e+00 9.344018250703811646e-02 3.500000000000000000e+01
6.340739130973815918e-02 2.557909965515137163e+00 -5.907214879989624023e-01 1.700000000000000000e+01
1.360210925340651911e-01 5.448822498321533203e+00 2.856496572494506836e-01 6.300000000000000000e+01
7.442222535610198975e-02 2.981254577636719194e+00 -5.796777009963989258e-01 1.200000000000000000e+01
1.383404731750488004e-01 5.503233432769775391e+00 4.816226363182067871e-01 6.000000000000000000e+01
8.947505056858062744e-02 3.534791946411132812e+00 -5.600354075431823730e-01 9.000000000000000000e+00
1.122378557920455933e-01 4.373703479766845703e+00 -5.372000932693481445e-01 7.000000000000000000e+00
1.473283618688583096e-01 5.702307701110839844e+00 -4.990537762641906738e-01 8.000000000000000000e+00
1.593037098646163940e-01 6.083562850952148438e+00 -3.189353048801422119e-01 3.000000000000000000e+00
1.431119143962860107e-01 5.393279552459716797e+00 -9.417318552732467651e-02 2.130000000000000000e+02
6.305640190839767456e-02 2.257454156875609907e+00 -6.051189303398132324e-01 1.900000000000000000e+01
1.506845504045485895e-01 5.361065864562988281e+00 9.361470490694046021e-02 3.600000000000000000e+01
7.217050343751907349e-02 2.551829099655150923e+00 -5.893717408180236816e-01 1.500000000000000000e+01
1.550970077514647882e-01 5.450310707092285156e+00 2.857543230056763250e-01 6.500000000000000000e+01
8.477245271205902100e-02 2.979014158248900923e+00 -5.792961120605468750e-01 1.100000000000000000e+01
1.579486429691314975e-01 5.516657829284667969e+00 4.828428030014038086e-01 6.500000000000000000e+01
1.020407527685164989e-01 3.542356491088867188e+00 -5.612868666648864746e-01 9.000000000000000000e+00
1.272728443145751953e-01 4.365348339080811435e+00 -5.362251400947570801e-01 9.000000000000000000e+00
1.677579432725906095e-01 5.719682693481445312e+00 -5.006225705146789551e-01 9.000000000000000000e+00
1.808938384056091031e-01 6.094948291778563565e+00 -3.195633590221405029e-01 1.000000000000000000e+00
1.618770807981491089e-01 5.390748500823974609e+00 -9.413827955722808838e-02 2.240000000000000000e+02
7.075396180152893066e-02 2.251427650451660156e+00 -6.035659909248352051e-01 2.000000000000000000e+01
1.697762012481688898e-01 5.372499465942382812e+00 9.382414072751998901e-02 3.800000000000000000e+01
8.132517337799072266e-02 2.559352874755858931e+00 -5.911713838577270508e-01 1.200000000000000000e+01
1.741849929094315130e-01 5.451732635498046875e+00 2.858589887619019110e-01 6.100000000000000000e+01
9.485715627670288086e-02 2.968888998031616211e+00 -5.773880481719970703e-01 1.100000000000000000e+01
1.773323565721512118e-01 5.520055770874023438e+00 4.831914305686951239e-01 6.000000000000000000e+01
1.146603450179100037e-01 3.549875974655150923e+00 -5.625383257865905762e-01 9.000000000000000000e+00
1.427043080329895020e-01 4.370829582214354581e+00 -5.369563102722167969e-01 9.000000000000000000e+00
1.871340721845627109e-01 5.701140403747558594e+00 -4.990537762641906738e-01 9.000000000000000000e+00
2.005788087844848910e-01 6.046371459960938388e+00 -3.170512318611145020e-01 1.000000000000000000e+00
1.805593222379683893e-01 5.386153697967529297e+00 -9.406846761703491211e-02 2.240000000000000000e+02
7.834279537200927734e-02 2.243444204330443892e+00 -6.014954447746276855e-01 2.000000000000000000e+01
1.884585469961166104e-01 5.369875431060791016e+00 9.378923475742340088e-02 3.500000000000000000e+01
9.046456217765808105e-02 2.564895868301392046e+00 -5.925210714340209961e-01 1.400000000000000000e+01
1.935677677392959872e-01 5.461071491241455078e+00 2.863823473453521729e-01 6.500000000000000000e+01
1.052894815802574019e-01 2.970501661300659180e+00 -5.777696371078491211e-01 1.100000000000000000e+01
1.963870972394942960e-01 5.513429641723632812e+00 4.826684892177581787e-01 5.500000000000000000e+01
1.270510256290436069e-01 3.549454212188721147e+00 -5.625383257865905762e-01 9.000000000000000000e+00
1.583906859159469882e-01 4.382207393646240234e+00 -5.384187698364257812e-01 9.000000000000000000e+00
2.065997421741485873e-01 5.688506126403808594e+00 -4.980079233646392822e-01 9.000000000000000000e+00
2.208051234483718872e-01 6.021683692932128906e+00 -3.157951533794403076e-01 1.000000000000000000e+00
1.998032480478287021e-01 5.397480487823486328e+00 -9.427789598703384399e-02 2.200000000000000000e+02
8.632171899080276489e-02 2.247017860412598100e+00 -6.025307178497314453e-01 1.900000000000000000e+01
2.072017639875411987e-01 5.369184970855712891e+00 9.378923475742340088e-02 3.500000000000000000e+01
9.903972595930099487e-02 2.554828166961669922e+00 -5.902715921401977539e-01 1.300000000000000000e+01
2.134064286947250089e-01 5.480319976806640625e+00 2.874290645122528076e-01 6.500000000000000000e+01
1.155814304947852950e-01 2.968154191970825195e+00 -5.773880481719970703e-01 1.000000000000000000e+01
2.165658473968506137e-01 5.536601066589354581e+00 4.847602546215056818e-01 5.500000000000000000e+01
1.383544206619262973e-01 3.521355152130126953e+00 -5.581581592559814453e-01 9.000000000000000000e+00
1.734506040811538974e-01 4.375677108764648438e+00 -5.376875400543212891e-01 7.000000000000000000e+00
2.266135960817337036e-01 5.691731929779052734e+00 -4.983565509319304865e-01 8.000000000000000000e+00
2.427852153778075894e-01 6.044824123382568359e+00 -3.170512318611145020e-01 1.000000000000000000e+00
2.192094027996062955e-01 5.410736560821533203e+00 -9.452223032712936401e-02 2.130000000000000000e+02
9.384115785360336304e-02 2.238982200622559038e+00 -6.004601716995239258e-01 1.800000000000000000e+01
2.260265499353409091e-01 5.370427131652832031e+00 9.382414072751998901e-02 3.800000000000000000e+01
1.076280027627944946e-01 2.546678781509398970e+00 -5.884719491004943848e-01 1.200000000000000000e+01
2.323656529188156128e-01 5.475550651550292969e+00 2.872197329998015802e-01 2.600000000000000000e+01
1.261912435293197909e-01 2.973617315292357954e+00 -5.785328745841979980e-01 1.100000000000000000e+01
2.361453324556350986e-01 5.541782855987548828e+00 4.852831661701201837e-01 5.500000000000000000e+01
1.511520594358443936e-01 3.532692193984984907e+00 -5.600354075431823730e-01 9.000000000000000000e+00
1.888090670108794888e-01 4.377028465270996094e+00 -5.379312634468078613e-01 9.000000000000000000e+00
2.466524988412857056e-01 5.694887161254882812e+00 -4.987051486968994141e-01 8.000000000000000000e+00
2.602250874042510986e-01 5.960134506225585938e+00 -3.126550018787384033e-01 1.000000000000000000e+00
2.384467571973800937e-01 5.417929172515869141e+00 -9.466185420751571655e-02 2.160000000000000000e+02
1.017442643642425953e-01 2.257975339889525923e+00 -6.056365370750427246e-01 1.900000000000000000e+01
2.438007295131683072e-01 5.389667034149169922e+00 9.417318552732467651e-02 3.600000000000000000e+01
1.157164871692657054e-01 2.548274755477904829e+00 -5.889218449592590332e-01 1.400000000000000000e+01
2.484750300645827970e-01 5.450851440429688388e+00 2.859636545181273859e-01 6.000000000000000000e+00
1.349960863590239923e-01 2.961438894271851030e+00 -5.762431621551513672e-01 1.100000000000000000e+01
2.547381520271301270e-01 5.566887855529785156e+00 4.875492155551909845e-01 4.700000000000000000e+01
1.626121401786803922e-01 3.540092945098876953e+00 -5.612868666648864746e-01 9.000000000000000000e+00
2.729308605194091797e-01 5.919211387634277344e+00 7.275599837303161621e-01 1.000000000000000000e+00
2.021918296813965121e-01 4.368481636047363281e+00 -5.369563102722167969e-01 9.000000000000000000e+00
2.638025283813477118e-01 5.678162097930908203e+00 -4.973106682300568182e-01 9.000000000000000000e+00
2.810026109218596857e-01 6.003179550170898438e+00 -3.149577975273131769e-01 1.000000000000000000e+00
2.557490766048430841e-01 5.423145771026611328e+00 -9.476656466722488403e-02 2.090000000000000000e+02
1.092506572604178966e-01 2.249888181686400923e+00 -6.035659909248352051e-01 1.900000000000000000e+01
2.630020380020142157e-01 5.396772384643554688e+00 9.431280195713043213e-02 3.800000000000000000e+01
1.248013079166411937e-01 2.551748275756835938e+00 -5.898216366767883301e-01 1.300000000000000000e+01
2.691650688648223877e-01 5.483863353729248047e+00 2.877430915832520086e-01 8.000000000000000000e+00
1.456213593482970914e-01 2.966832160949707031e+00 -5.773880481719970703e-01 1.000000000000000000e+01
2.744627296924591064e-01 5.571934700012207031e+00 4.880721569061278742e-01 4.700000000000000000e+01
1.747733205556870062e-01 3.535557746887207031e+00 -5.606611371040344238e-01 9.000000000000000000e+00
2.935911118984221857e-01 5.918222904205322266e+00 7.275599837303161621e-01 1.300000000000000000e+01
2.172420322895050049e-01 4.363783836364746094e+00 -5.364688634872436523e-01 9.000000000000000000e+00
2.841184735298156738e-01 5.687156200408936435e+00 -4.981822371482849121e-01 9.000000000000000000e+00
4.153524637222290039e-01 8.256214141845703125e+00 -4.332370460033416748e-01 1.000000000000000000e+00
2.733626067638397217e-01 5.396257400512695312e+00 -9.431280195713043213e-02 1.370000000000000000e+02
1.169027090072631975e-01 2.245634555816649947e+00 -6.025307178497314453e-01 1.900000000000000000e+01
2.825688421726226807e-01 5.409800052642822266e+00 9.455713629722595215e-02 3.800000000000000000e+01
1.340137869119643887e-01 2.557135343551636186e+00 -5.911713838577270508e-01 1.200000000000000000e+01
2.884105741977692206e-01 5.484884738922119141e+00 2.878477573394774836e-01 9.000000000000000000e+00
1.558735519647597989e-01 2.964345216751099077e+00 -5.770063996315002441e-01 1.100000000000000000e+01
2.940157055854796808e-01 5.572932243347167969e+00 4.882464706897736151e-01 3.400000000000000000e+01
1.875313222408294955e-01 3.542816638946533203e+00 -5.619125962257385254e-01 9.000000000000000000e+00
2.319450527429580966e-01 4.353087902069091797e+00 -5.352501273155212402e-01 9.000000000000000000e+00
3.029050529003142755e-01 5.666234493255615234e+00 -4.964390993118286133e-01 9.000000000000000000e+00
1.243120580911635936e-01 2.237497329711914062e+00 -6.004601716995239258e-01 1.700000000000000000e+01
3.013395667076110840e-01 5.406784057617188388e+00 9.452223032712936401e-02 3.800000000000000000e+01
1.432653814554213922e-01 2.562489032745360884e+00 -5.925210714340209961e-01 1.100000000000000000e+01
3.086730241775513250e-01 5.503786087036132812e+00 2.888944745063781738e-01 9.000000000000000000e+00
1.663300395011902133e-01 2.965743303298950195e+00 -5.773880481719970703e-01 1.000000000000000000e+01
3.139147162437438965e-01 5.579829216003417969e+00 4.889437258243560791e-01 3.100000000000000000e+01
1.990064978599548062e-01 3.526362657546997070e+00 -5.594096183776855469e-01 9.000000000000000000e+00
2.478139996528624933e-01 4.364142894744873047e+00 -5.367125868797302246e-01 7.000000000000000000e+00
3.222288489341735840e-01 5.657186031341552734e+00 -4.957418739795684814e-01 8.000000000000000000e+00
3.119495213031768799e-01 5.410188674926757812e+00 -9.459204226732254028e-02 5.300000000000000000e+01
1.323494166135787964e-01 2.240906715393065962e+00 -6.014954447746276855e-01 1.500000000000000000e+01
3.211568892002106268e-01 5.421669006347656250e+00 9.480147063732147217e-02 3.800000000000000000e+01
1.508223861455917081e-01 2.538629531860352007e+00 -5.871222615242004395e-01 1.100000000000000000e+01
3.285957276821135919e-01 5.514637470245361328e+00 2.895224988460540771e-01 1.100000000000000000e+01
1.771485060453414917e-01 2.972983837127685991e+00 -5.789144635200500488e-01 1.000000000000000000e+01
3.350540399551392157e-01 5.606543064117431641e+00 4.913840889930725098e-01 2.600000000000000000e+01
2.116691470146178922e-01 3.531562089920043945e+00 -5.603482723236083984e-01 1.000000000000000000e+01
2.630461752414702814e-01 4.363251209259033203e+00 -5.367125868797302246e-01 9.000000000000000000e+00
3.429360985755919855e-01 5.671936511993408203e+00 -4.971363544464110773e-01 9.000000000000000000e+00
3.331521749496459961e-01 5.446990013122558594e+00 -9.525523334741592407e-02 4.300000000000000000e+01
1.404120922088623047e-01 2.244287252426147017e+00 -6.025307178497314453e-01 1.800000000000000000e+01
3.408313691616057794e-01 5.432489395141601562e+00 9.501089900732040405e-02 3.600000000000000000e+01
1.605394780635834018e-01 2.551701784133911133e+00 -5.902715921401977539e-01 1.300000000000000000e+01
3.485979437828063965e-01 5.525416374206542969e+00 2.901505529880524237e-01 1.100000000000000000e+01
1.872778385877608975e-01 2.968428611755371094e+00 -5.781512856483459473e-01 1.000000000000000000e+01
3.566352427005767822e-01 5.637154102325438565e+00 4.941730499267578125e-01 1.500000000000000000e+01
2.242454439401626864e-01 3.534744501113892046e+00 -5.609740018844604492e-01 1.000000000000000000e+01
2.778960466384888250e-01 4.356363296508789062e+00 -5.359813570976257324e-01 9.000000000000000000e+00
3.628599643707274836e-01 5.672693252563476562e+00 -4.973106682300568182e-01 8.000000000000000000e+00
3.739360868930817206e-01 5.813992023468017578e+00 -3.053279817104340155e-01 1.000000000000000000e+00
3.526798784732819159e-01 5.453775882720947266e+00 -9.539485722780227661e-02 3.800000000000000000e+01
1.482537984848021906e-01 2.237974643707274947e+00 -6.009778380393981934e-01 1.600000000000000000e+01
3.624630272388458252e-01 5.457142829895020419e+00 9.546466171741485596e-02 4.000000000000000000e+01
1.697613596916199008e-01 2.549151897430419922e+00 -5.898216366767883301e-01 1.100000000000000000e+01
3.694756925106049139e-01 5.548079967498779297e+00 2.914066016674041748e-01 1.100000000000000000e+01
1.976332366466521939e-01 2.959886550903319868e+00 -5.766248106956481934e-01 1.000000000000000000e+01
3.800888061523438055e-01 5.677555561065673828e+00 4.978336095809937079e-01 2.000000000000000000e+00
2.369348406791687012e-01 3.529956817626953125e+00 -5.603482723236083984e-01 1.000000000000000000e+01
2.939946949481964111e-01 4.357295989990234375e+00 -5.362251400947570801e-01 7.000000000000000000e+00
3.823042511940001886e-01 5.651446819305419922e+00 -4.955675601959229071e-01 8.000000000000000000e+00
3.957849144935607910e-01 5.820552825927734375e+00 -3.057466447353363037e-01 1.000000000000000000e+00
3.736211061477661133e-01 5.466412067413330078e+00 -9.563918411731719971e-02 2.800000000000000000e+01
1.553927659988403043e-01 2.227807760238647017e+00 -5.983896255493164062e-01 1.700000000000000000e+01
3.829047083854674738e-01 5.475792407989501953e+00 9.581371396780014038e-02 3.500000000000000000e+01
1.792036294937134067e-01 2.556319713592528853e+00 -5.916212797164916992e-01 1.100000000000000000e+01
3.913481235504149836e-01 5.568604469299316406e+00 2.925579845905303955e-01 9.000000000000000000e+00
2.085144966840744019e-01 2.967012405395507812e+00 -5.781512856483459473e-01 1.000000000000000000e+01
2.491160780191422064e-01 3.527137756347655806e+00 -5.600354075431823730e-01 1.000000000000000000e+01
3.087810575962067206e-01 4.350303173065186435e+00 -5.354939103126525879e-01 9.000000000000000000e+00
4.017463326454163153e-01 5.646103382110595703e+00 -4.952189326286315918e-01 9.000000000000000000e+00
4.155302047729492188e-01 5.811167240142822266e+00 -3.053279817104340155e-01 1.000000000000000000e+00
3.948499858379364014e-01 5.494992733001708984e+00 -9.616275876760482788e-02 1.900000000000000000e+01
1.629527509212493896e-01 2.235015392303466797e+00 -6.004601716995239258e-01 1.500000000000000000e+01
4.017088413238524836e-01 5.496500492095947266e+00 9.619766473770141602e-02 3.100000000000000000e+01
1.875184178352355957e-01 2.559631109237670898e+00 -5.925210714340209961e-01 1.100000000000000000e+01
4.099117517471312921e-01 5.595305919647216797e+00 2.940233945846558172e-01 9.000000000000000000e+00
2.172594517469406128e-01 2.958510875701903853e+00 -5.766248106956481934e-01 1.100000000000000000e+01
2.597595751285552979e-01 3.520427703857421875e+00 -5.590967535972595215e-01 1.000000000000000000e+01
7.187668323516845703e+00 9.718075561523437500e+01 1.196488857269286932e+01 6.300000000000000000e+01
3.236205279827117920e-01 4.365149021148681641e+00 -5.374438166618347168e-01 9.000000000000000000e+00
4.196297526359558105e-01 5.646800041198729581e+00 -4.953932464122772217e-01 9.000000000000000000e+00
4.325947761535645086e-01 5.793899536132813388e+00 -3.044905960559844971e-01 1.000000000000000000e+00
4.167482256889343262e-01 5.555541992187500000e+00 -9.724480658769607544e-02 1.700000000000000000e+01
1.711950302124022882e-01 2.240211725234984907e+00 -6.020131111145019531e-01 1.600000000000000000e+01
4.236417114734650213e-01 5.530954360961914062e+00 9.682594984769821167e-02 1.800000000000000000e+01
1.951095610857009888e-01 2.541473865509033203e+00 -5.884719491004943848e-01 1.200000000000000000e+01
4.323452413082122803e-01 5.631677627563476562e+00 2.960121631622313898e-01 1.100000000000000000e+01
2.281877398490906039e-01 2.965564250946044922e+00 -5.781512856483459473e-01 1.000000000000000000e+01
2.712853848934174139e-01 3.509652137756348100e+00 -5.575324296951293945e-01 9.000000000000000000e+00
3.380873799324036200e-01 4.354096889495849609e+00 -5.362251400947570801e-01 7.000000000000000000e+00
4.401111304759979248e-01 5.655232906341552734e+00 -4.962647855281829834e-01 9.000000000000000000e+00
4.518826603889464777e-01 5.780406951904296875e+00 -3.038625717163085938e-01 1.000000000000000000e+00
4.403648972511292059e-01 5.607879638671875000e+00 -9.818723797798156738e-02 1.900000000000000000e+01
1.799501329660415927e-01 2.241463422775268999e+00 -6.025307178497314453e-01 1.600000000000000000e+01
4.498474299907683771e-01 5.591077804565429688e+00 9.790799766778945923e-02 1.300000000000000000e+01
2.053365260362625122e-01 2.546533107757567915e+00 -5.898216366767883301e-01 1.100000000000000000e+01
4.568791687488555908e-01 5.653785705566406250e+00 2.972682416439055841e-01 1.100000000000000000e+01
2.392567098140717108e-01 2.960752487182617188e+00 -5.773880481719970703e-01 1.000000000000000000e+01
2.855584621429442804e-01 3.518429040908813032e+00 -5.590967535972595215e-01 1.000000000000000000e+01
3.543195724487305243e-01 4.346830844879150391e+00 -5.354939103126525879e-01 9.000000000000000000e+00
4.623090028762816828e-01 5.659458637237548828e+00 -4.967877268791198730e-01 9.000000000000000000e+00
4.750542938709259033e-01 5.790572643280029297e+00 -3.044905960559844971e-01 1.000000000000000000e+00
4.633721113204956055e-01 5.624083995819091797e+00 -9.850138425827026367e-02 2.200000000000000000e+01
1.874505728483200073e-01 2.236971616744995117e+00 -6.014954447746276855e-01 1.500000000000000000e+01
4.772257208824158270e-01 5.683129787445068359e+00 9.954852610826492310e-02 1.500000000000000000e+01
2.145511507987976074e-01 2.549684762954711914e+00 -5.907214879989624023e-01 1.100000000000000000e+01
4.858411848545073908e-01 5.773643493652343750e+00 3.036532104015349787e-01 1.000000000000000000e+00
2.492602765560149869e-01 2.955986738204956055e+00 -5.766248106956481934e-01 1.100000000000000000e+01
2.976716458797454834e-01 3.515442609786986861e+00 -5.587838888168334961e-01 9.000000000000000000e+00
3.684816062450408936e-01 4.333700180053710938e+00 -5.340314507484436035e-01 9.000000000000000000e+00
4.805390834808350164e-01 5.639943599700927734e+00 -4.952189326286315918e-01 9.000000000000000000e+00
4.959452748298645020e-01 5.796839237213134766e+00 -3.049092888832091730e-01 1.000000000000000000e+00
4.843702316284180243e-01 5.638370990753173828e+00 -9.878061711788177490e-02 2.800000000000000000e+01
1.949218511581420898e-01 2.232454538345336914e+00 -6.004601716995239258e-01 1.700000000000000000e+01
4.988034963607788086e-01 5.701350212097167969e+00 9.989757090806961060e-02 1.500000000000000000e+01
2.237902730703353882e-01 2.552802801132202148e+00 -5.916212797164916992e-01 1.000000000000000000e+01
2.595770657062531073e-01 2.955098628997803178e+00 -5.766248106956481934e-01 1.100000000000000000e+01
3.099410235881804865e-01 3.514382123947143999e+00 -5.587838888168334961e-01 9.000000000000000000e+00
3.843071162700653076e-01 4.340296745300292969e+00 -5.350064039230346680e-01 9.000000000000000000e+00
5.003992915153503418e-01 5.640216350555419922e+00 -4.953932464122772217e-01 9.000000000000000000e+00
5.074329376220703125e-01 5.674489021301270419e+00 -9.944380819797515869e-02 1.500000000000000000e+01
2.023638784885405939e-01 2.227912664413452148e+00 -5.994248986244201660e-01 1.700000000000000000e+01
5.216016769409179688e-01 5.731437683105468750e+00 1.004560515284537991e-01 1.600000000000000000e+01
2.319920212030411044e-01 2.544243335723876953e+00 -5.898216366767883301e-01 1.000000000000000000e+01
2.697120904922484796e-01 2.952219486236571822e+00 -5.762431621551513672e-01 1.100000000000000000e+01
3.216654062271118164e-01 3.507377386093140093e+00 -5.578452944755554199e-01 8.000000000000000000e+00
3.992732763290405273e-01 4.336952209472656250e+00 -5.347626805305480957e-01 9.000000000000000000e+00
5.177053213119506836e-01 5.612643718719482422e+00 -4.931271970272064209e-01 9.000000000000000000e+00
7.599494457244873047e-01 8.207580566406250000e+00 -4.319809973239899237e-01 1.000000000000000000e+00
1.377590775489806907e+00 1.482185173034667969e+01 -2.598314285278319757e-01 2.000000000000000000e+00
2.106839120388031006e-01 2.232962608337401900e+00 -6.009778380393981934e-01 1.600000000000000000e+01
2.401367425918579102e-01 2.535657882690430132e+00 -5.880220532417297363e-01 1.200000000000000000e+01
2.802010774612426758e-01 2.953214406967163086e+00 -5.766248106956481934e-01 1.100000000000000000e+01
3.344682753086090088e-01 3.512132644653319868e+00 -5.587838888168334961e-01 9.000000000000000000e+00
4.147873818874359131e-01 4.339484214782714844e+00 -5.352501273155212402e-01 7.000000000000000000e+00
5.390032529830932617e-01 5.628652572631835938e+00 -4.946959912776947021e-01 8.000000000000000000e+00
7.828621864318847656e-01 8.145235061645507812e+00 -4.288408160209655762e-01 1.000000000000000000e+00
1.423175930976867898e+00 1.475325775146484020e+01 -2.587144672870635986e-01 2.000000000000000000e+00
2.194180190563201904e-01 2.241826772689818892e+00 -6.035659909248352051e-01 1.900000000000000000e+01
2.486053854227066040e-01 2.530925273895264116e+00 -5.871222615242004395e-01 1.100000000000000000e+01
2.897389531135559082e-01 2.944402933120727983e+00 -5.750983357429504395e-01 1.000000000000000000e+01
3.461434841156005859e-01 3.505046367645264116e+00 -5.578452944755554199e-01 9.000000000000000000e+00
4.271915555000305176e-01 4.310354232788085938e+00 -5.318378210067749023e-01 9.000000000000000000e+00
5.586476325988769531e-01 5.626736640930175781e+00 -4.946959912776947021e-01 9.000000000000000000e+00
8.085173368453979492e-01 8.114628791809082031e+00 -4.273754060268402100e-01 2.000000000000000000e+00
1.477849125862122026e+00 1.478003597259520951e+01 -2.592729628086090088e-01 2.000000000000000000e+00
2.249054312705993930e-01 2.221866607666016069e+00 -5.983896255493164062e-01 1.800000000000000000e+01
2.573907375335692804e-01 2.533964395523070845e+00 -5.880220532417297363e-01 1.100000000000000000e+01
2.991038560867310125e-01 2.939519643783568892e+00 -5.743350982666015625e-01 1.100000000000000000e+01
3.595705926418303888e-01 3.521565675735474077e+00 -5.606611371040344238e-01 9.000000000000000000e+00
4.439108073711395264e-01 4.332610607147216797e+00 -5.347626805305480957e-01 7.000000000000000000e+00
5.754727125167846680e-01 5.607015132904052734e+00 -4.931271970272064209e-01 8.000000000000000000e+00
8.378772735595703125e-01 8.135744094848632812e+00 -4.286314845085144043e-01 1.000000000000000000e+00
1.527264475822448953e+00 1.477903270721436080e+01 -2.593427598476409912e-01 2.000000000000000000e+00
2.318547666072844904e-01 2.213382720947266069e+00 -5.963190793991088867e-01 1.600000000000000000e+01
2.670491337776184082e-01 2.540802955627440962e+00 -5.898216366767883301e-01 1.100000000000000000e+01
3.091573417186737061e-01 2.936505317687987837e+00 -5.739534497261047363e-01 1.100000000000000000e+01
3.706158995628356934e-01 3.508502244949340820e+00 -5.587838888168334961e-01 9.000000000000000000e+00
4.596594274044036865e-01 4.336956977844238281e+00 -5.354939103126525879e-01 9.000000000000000000e+00
5.950413346290588379e-01 5.604972362518311435e+00 -4.931271970272064209e-01 8.000000000000000000e+00
8.658481240272521973e-01 8.128798484802246094e+00 -4.284221231937407892e-01 1.000000000000000000e+00
1.572468757629394975e+00 1.471396064758300959e+01 -2.582956254482268732e-01 2.000000000000000000e+00
2.391933351755141934e-01 2.212601661682128906e+00 -5.963190793991088867e-01 1.500000000000000000e+01
2.754732668399810791e-01 2.539903402328491211e+00 -5.898216366767883301e-01 1.000000000000000000e+01
3.197415471076964777e-01 2.943270921707152876e+00 -5.754799246788024902e-01 1.100000000000000000e+01
3.813923597335814875e-01 3.499398946762084961e+00 -5.575324296951293945e-01 9.000000000000000000e+00
4.738229811191558838e-01 4.333435535430908203e+00 -5.352501273155212402e-01 7.000000000000000000e+00
6.149262785911560059e-01 5.614851474761962891e+00 -4.941730499267578125e-01 9.000000000000000000e+00
8.906181454658508301e-01 8.106028556823730469e+00 -4.273754060268402100e-01 2.000000000000000000e+00
1.625635147094727007e+00 1.474841785430908025e+01 -2.589937150478363037e-01 2.000000000000000000e+00
2.482013255357742032e-01 2.223272800445557085e+00 -5.994248986244201660e-01 1.600000000000000000e+01
2.817348837852478027e-01 2.515686750411986861e+00 -5.844228267669677734e-01 1.100000000000000000e+01
3.306700587272644043e-01 2.947989940643310991e+00 -5.766248106956481934e-01 1.100000000000000000e+01
3.929426074028015137e-01 3.492157459259033203e+00 -5.565938353538513184e-01 8.000000000000000000e+00
4.889466166496276855e-01 4.331755161285400391e+00 -5.352501273155212402e-01 7.000000000000000000e+00
6.342982053756713867e-01 5.610691070556640625e+00 -4.939987361431121826e-01 9.000000000000000000e+00
9.175577163696289062e-01 8.090963363647460938e+00 -4.267473816871643066e-01 2.000000000000000000e+00
1.673942446708678977e+00 1.471483707427979049e+01 -2.585050463676453192e-01 2.000000000000000000e+00
2.570124566555023193e-01 2.228105545043944868e+00 -6.009778380393981934e-01 1.600000000000000000e+01
2.927453219890593927e-01 2.530123710632324219e+00 -5.880220532417297363e-01 1.100000000000000000e+01
3.403428196907042902e-01 2.937007188796997070e+00 -5.747166872024536133e-01 1.100000000000000000e+01
4.068797230720520020e-01 3.500504493713378906e+00 -5.581581592559814453e-01 9.000000000000000000e+00
5.032108426094055176e-01 4.316131591796875000e+00 -5.335440039634704590e-01 9.000000000000000000e+00
6.541649103164672852e-01 5.602391719818115234e+00 -4.934758245944976807e-01 8.000000000000000000e+00
9.462770819664001465e-01 8.079611778259277344e+00 -4.263286888599395752e-01 1.000000000000000000e+00
1.727863788604736106e+00 1.470860290527343928e+01 -2.585050463676453192e-01 2.000000000000000000e+00
2.647884488105773926e-01 2.227194786071776900e+00 -6.009778380393981934e-01 1.500000000000000000e+01
3.020367920398712158e-01 2.532956600189208984e+00 -5.889218449592590332e-01 1.100000000000000000e+01
3.498944044113159180e-01 2.929953098297119141e+00 -5.735718607902526855e-01 1.100000000000000000e+01
4.205057919025421143e-01 3.510831117630004883e+00 -5.600354075431823730e-01 9.000000000000000000e+00
5.192209482192993164e-01 4.322232723236083984e+00 -5.345189571380615234e-01 9.000000000000000000e+00
6.739549040794372559e-01 5.602052211761474609e+00 -4.936501383781433105e-01 9.000000000000000000e+00
9.754314422607421875e-01 8.084190368652343750e+00 -4.267473816871643066e-01 1.000000000000000000e+00
1.778715372085571067e+00 1.469851207733153942e+01 -2.584352493286132812e-01 2.000000000000000000e+00
2.699113190174102783e-01 2.211010932922362837e+00 -5.968367457389831543e-01 1.800000000000000000e+01
3.099927902221680243e-01 2.531995058059691939e+00 -5.889218449592590332e-01 1.100000000000000000e+01
3.586195409297943115e-01 2.924942016601562944e+00 -5.728086233139038086e-01 1.100000000000000000e+01
4.300868213176726740e-01 3.497729063034058061e+00 -5.581581592559814453e-01 9.000000000000000000e+00
5.323111414909362793e-01 4.316639900207520419e+00 -5.340314507484436035e-01 9.000000000000000000e+00
6.913067102432250977e-01 5.597929954528808594e+00 -4.934758245944976807e-01 8.000000000000000000e+00
1.005242466926574929e+00 8.116764068603515625e+00 -4.286314845085144043e-01 1.000000000000000000e+00
1.824883222579956055e+00 1.469285106658936080e+01 -2.584352493286132812e-01 2.000000000000000000e+00
2.783499062061309814e-01 2.215805768966674805e+00 -5.983896255493164062e-01 1.600000000000000000e+01
3.188292086124420166e-01 2.530897617340087891e+00 -5.889218449592590332e-01 1.100000000000000000e+01
3.698101937770844061e-01 2.931463718414307085e+00 -5.743350982666015625e-01 1.000000000000000000e+01
4.417977035045623779e-01 3.492286920547484907e+00 -5.575324296951293945e-01 9.000000000000000000e+00
5.486249327659606934e-01 4.324602127075195312e+00 -5.352501273155212402e-01 7.000000000000000000e+00
7.108429670333862305e-01 5.595482826232910156e+00 -4.934758245944976807e-01 8.000000000000000000e+00
1.029025912284851074e+00 8.077543258666992188e+00 -4.267473816871643066e-01 1.000000000000000000e+00
1.871598601341248003e+00 1.465068721771240057e+01 -2.578069567680358887e-01 2.000000000000000000e+00
2.860828042030333918e-01 2.214820623397827148e+00 -5.983896255493164062e-01 1.600000000000000000e+01
3.261598646640778143e-01 2.518173694610596147e+00 -5.862224698066711426e-01 1.100000000000000000e+01
3.820608258247374933e-01 2.945730686187744141e+00 -5.773880481719970703e-01 1.000000000000000000e+01
4.532210826873778742e-01 3.484846830368041992e+00 -5.565938353538513184e-01 9.000000000000000000e+00
5.624337196350097656e-01 4.312818527221679688e+00 -5.340314507484436035e-01 9.000000000000000000e+00
7.306284904479980469e-01 5.594943046569824219e+00 -4.936501383781433105e-01 8.000000000000000000e+00
1.056178331375122070e+00 8.065980911254882812e+00 -4.263286888599395752e-01 1.000000000000000000e+00
1.927413344383239968e+00 1.467975330352783025e+01 -2.584352493286132812e-01 2.000000000000000000e+00
2.948288619518280029e-01 2.221468687057495117e+00 -6.004601716995239258e-01 1.600000000000000000e+01
3.359761834144591730e-01 2.524746656417847124e+00 -5.880220532417297363e-01 1.100000000000000000e+01
3.894885480403900146e-01 2.922972440719604048e+00 -5.731902122497558594e-01 1.000000000000000000e+01
4.651211202144622803e-01 3.481285572052001953e+00 -5.562809705734252930e-01 9.000000000000000000e+00
5.759034156799316406e-01 4.299023628234863281e+00 -5.325690507888793945e-01 9.000000000000000000e+00
7.493593692779541016e-01 5.586434364318847656e+00 -4.931271970272064209e-01 9.000000000000000000e+00
1.085392355918884055e+00 8.070162773132324219e+00 -4.267473816871643066e-01 1.000000000000000000e+00
1.974902153015136941e+00 1.464519119262694957e+01 -2.579465806484221857e-01 2.000000000000000000e+00
3.021854460239409845e-01 2.214630842208861861e+00 -5.989072918891906738e-01 1.400000000000000000e+01
3.462841510772705078e-01 2.531221389770507812e+00 -5.898216366767883301e-01 1.000000000000000000e+01
3.996662795543671209e-01 2.917634963989257812e+00 -5.724269747734069824e-01 1.100000000000000000e+01
4.800277054309844971e-01 3.495213508605957031e+00 -5.587838888168334961e-01 9.000000000000000000e+00
5.927394032478332520e-01 4.304750442504882812e+00 -5.335440039634704590e-01 9.000000000000000000e+00
7.698296308517456055e-01 5.583650588989257812e+00 -4.931271970272064209e-01 8.000000000000000000e+00
1.118792295455933061e+00 8.093828201293945312e+00 -4.282127916812896729e-01 2.000000000000000000e+00
2.030213356018065962e+00 1.464973926544188920e+01 -2.581560015678405762e-01 2.000000000000000000e+00
3.088426589965819757e-01 2.205909729003905806e+00 -5.968367457389831543e-01 1.500000000000000000e+01
3.556593954563140869e-01 2.533856868743896040e+00 -5.907214879989624023e-01 1.000000000000000000e+01
4.106679856777191162e-01 2.922054529190063032e+00 -5.735718607902526855e-01 1.000000000000000000e+01
4.916741549968718927e-01 3.489604473114014116e+00 -5.581581592559814453e-01 9.000000000000000000e+00
6.077621579170227051e-01 4.302655220031738281e+00 -5.335440039634704590e-01 9.000000000000000000e+00
7.898735404014587402e-01 5.584874629974365234e+00 -4.934758245944976807e-01 8.000000000000000000e+00
1.144795179367064986e+00 8.074053764343261719e+00 -4.273754060268402100e-01 2.000000000000000000e+00
2.081337928771973100e+00 1.464256286621093928e+01 -2.581560015678405762e-01 2.000000000000000000e+00
3.183496594429016113e-01 2.220171928405762163e+00 -6.009778380393981934e-01 1.500000000000000000e+01
3.635054528713225763e-01 2.528805732727050781e+00 -5.898216366767883301e-01 1.000000000000000000e+01
4.200759530067443848e-01 2.918733596801757812e+00 -5.731902122497558594e-01 1.100000000000000000e+01
5.015508532524108887e-01 3.476224184036254883e+00 -5.562809705734252930e-01 9.000000000000000000e+00
6.234477758407592773e-01 4.310439109802246094e+00 -5.347626805305480957e-01 9.000000000000000000e+00
8.078182339668273926e-01 5.578280925750732422e+00 -4.931271970272064209e-01 9.000000000000000000e+00
1.167546272277832031e+00 8.042541503906250000e+00 -4.259100258350371759e-01 2.000000000000000000e+00
2.128155231475830078e+00 1.462370777130126953e+01 -2.579465806484221857e-01 2.000000000000000000e+00
3.255358040332794189e-01 2.215224504470825195e+00 -5.999425649642944336e-01 1.600000000000000000e+01
3.706263899803162176e-01 2.515953779220581055e+00 -5.871222615242004395e-01 1.000000000000000000e+01
4.316939711570739746e-01 2.926960468292235884e+00 -5.750983357429504395e-01 1.000000000000000000e+01
5.139710307121276855e-01 3.476406335830688032e+00 -5.565938353538513184e-01 9.000000000000000000e+00
6.376171708106994629e-01 4.302345752716063565e+00 -5.340314507484436035e-01 9.000000000000000000e+00
8.267002701759338379e-01 5.571485519409179688e+00 -4.927785694599152166e-01 8.000000000000000000e+00
1.194437623023987038e+00 8.030515670776367188e+00 -4.254913330078125000e-01 1.000000000000000000e+00
2.173290729522705078e+00 1.457663345336914062e+01 -2.572484612464904785e-01 2.000000000000000000e+00
3.329788446426392157e-01 2.212164402008057085e+00 -5.994248986244201660e-01 1.600000000000000000e+01
3.799879252910614014e-01 2.518498659133911133e+00 -5.880220532417297363e-01 1.000000000000000000e+01
4.407353699207305908e-01 2.917670965194702148e+00 -5.735718607902526855e-01 1.000000000000000000e+01
5.275814533233642578e-01 3.484356641769409180e+00 -5.581581592559814453e-01 9.000000000000000000e+00
6.496525406837463379e-01 4.280467510223388672e+00 -5.315940976142883301e-01 9.000000000000000000e+00
8.488371372222900391e-01 5.586294174194335938e+00 -4.943473637104033869e-01 9.000000000000000000e+00
1.224867820739746094e+00 8.042093276977539062e+00 -4.263286888599395752e-01 1.000000000000000000e+00
2.233213186264038086e+00 1.462826156616210938e+01 -2.582956254482268732e-01 2.000000000000000000e+00
3.406987190246582031e-01 2.210988521575928178e+00 -5.994248986244201660e-01 1.400000000000000000e+01
3.893717229366301935e-01 2.521008729934691939e+00 -5.889218449592590332e-01 1.000000000000000000e+01
4.494172036647797186e-01 2.906413793563843218e+00 -5.716637372970581055e-01 9.000000000000000000e+00
5.388332605361938477e-01 3.476637601852416992e+00 -5.572195649147033691e-01 8.000000000000000000e+00
6.664185523986816406e-01 4.289943218231201172e+00 -5.330564975738525391e-01 9.000000000000000000e+00
8.646575808525085449e-01 5.559672355651854581e+00 -4.922556281089783270e-01 9.000000000000000000e+00
1.252932548522948997e+00 8.037768363952636719e+00 -4.263286888599395752e-01 1.000000000000000000e+00
2.275001049041748047e+00 1.456110572814941051e+01 -2.572484612464904785e-01 2.000000000000000000e+00
3.462255001068115234e-01 2.198396682739257812e+00 -5.963190793991088867e-01 1.400000000000000000e+01
3.995526134967803955e-01 2.531253099441527876e+00 -5.916212797164916992e-01 1.000000000000000000e+01
4.599720835685729980e-01 2.910724878311156782e+00 -5.728086233139038086e-01 1.000000000000000000e+01
5.509772896766662598e-01 3.478733777999877930e+00 -5.578452944755554199e-01 9.000000000000000000e+00
6.787735223770141602e-01 4.275946617126464844e+00 -5.315940976142883301e-01 9.000000000000000000e+00
8.818385004997253418e-01 5.548903465270996094e+00 -4.915584027767180841e-01 9.000000000000000000e+00
1.279579877853393999e+00 8.033569335937500000e+00 -4.263286888599395752e-01 1.000000000000000000e+00
2.323275089263916016e+00 1.455348110198974965e+01 -2.572484612464904785e-01 2.000000000000000000e+00
3.545116186141967773e-01 2.200989246368408203e+00 -5.973543524742126465e-01 1.600000000000000000e+01
4.059014022350310724e-01 2.514452219009398970e+00 -5.880220532417297363e-01 1.100000000000000000e+01
4.698163866996765137e-01 2.907163619995117188e+00 -5.724269747734069824e-01 1.000000000000000000e+01
5.615378618240356445e-01 3.467039585113524947e+00 -5.562809705734252930e-01 9.000000000000000000e+00
6.962397098541259766e-01 4.289226531982421875e+00 -5.335440039634704590e-01 9.000000000000000000e+00
9.043982028961181641e-01 5.565457344055175781e+00 -4.933015108108521063e-01 9.000000000000000000e+00
1.302477717399596946e+00 7.997513294219970703e+00 -4.246539473533629816e-01 1.000000000000000000e+00
2.382437229156494141e+00 1.459659576416015980e+01 -2.581560015678405762e-01 2.000000000000000000e+00
3.637616336345673163e-01 2.209269285202025923e+00 -5.999425649642944336e-01 1.600000000000000000e+01
4.140414595603942871e-01 2.509174585342406782e+00 -5.871222615242004395e-01 1.000000000000000000e+01
4.818812608718872070e-01 2.917127847671508789e+00 -5.747166872024536133e-01 1.000000000000000000e+01
5.726687908172607422e-01 3.459211587905883789e+00 -5.553423762321472168e-01 9.000000000000000000e+00
7.092582583427429199e-01 4.275020122528076172e+00 -5.320815443992614746e-01 9.000000000000000000e+00
9.241461753845214844e-01 5.564232349395751953e+00 -4.934758245944976807e-01 8.000000000000000000e+00
1.333009719848633035e+00 8.008679389953613281e+00 -4.254913330078125000e-01 2.000000000000000000e+00
2.424819946289062944e+00 1.453690719604492010e+01 -2.572484612464904785e-01 2.000000000000000000e+00
3.721122443675994873e-01 2.211796045303345171e+00 -6.009778380393981934e-01 1.600000000000000000e+01
4.237695634365081787e-01 2.513478994369506836e+00 -5.884719491004943848e-01 9.000000000000000000e+00
4.910808205604553223e-01 2.909620523452758789e+00 -5.735718607902526855e-01 1.100000000000000000e+01
5.837519168853759766e-01 3.451348543167113814e+00 -5.544037222862243652e-01 9.000000000000000000e+00
7.255035042762756348e-01 4.280347347259520596e+00 -5.330564975738525391e-01 9.000000000000000000e+00
9.428967833518981934e-01 5.557043552398681641e+00 -4.931271970272064209e-01 6.000000000000000000e+00
1.364974737167357954e+00 8.027605056762695312e+00 -4.267473816871643066e-01 2.000000000000000000e+00
2.475548505783081055e+00 1.452835464477539062e+01 -2.572484612464904785e-01 2.000000000000000000e+00
3.788490891456604004e-01 2.204771995544434038e+00 -5.994248986244201660e-01 1.600000000000000000e+01
4.315485656261444092e-01 2.506222963333129883e+00 -5.871222615242004395e-01 1.100000000000000000e+01
4.992333650588989258e-01 2.896280050277709961e+00 -5.712821483612060547e-01 1.000000000000000000e+01
5.998305082321166992e-01 3.472648382186890093e+00 -5.581581592559814453e-01 9.000000000000000000e+00
7.397631406784057617e-01 4.273876667022705078e+00 -5.325690507888793945e-01 9.000000000000000000e+00
9.609281420707702637e-01 5.545866012573242188e+00 -4.924299418926239014e-01 9.000000000000000000e+00
1.388204574584960938e+00 7.995242118835449219e+00 -4.252819716930388849e-01 2.000000000000000000e+00
2.535158872604370117e+00 1.457084751129150035e+01 -2.581560015678405762e-01 2.000000000000000000e+00
3.852076828479766846e-01 2.195824861526488814e+00 -5.973543524742126465e-01 1.600000000000000000e+01
4.423186480998992920e-01 2.516217231750487837e+00 -5.898216366767883301e-01 1.100000000000000000e+01
5.093402266502380371e-01 2.894519805908203125e+00 -5.712821483612060547e-01 1.000000000000000000e+01
6.109195947647094727e-01 3.464697360992432085e+00 -5.572195649147033691e-01 8.000000000000000000e+00
7.532956600189208984e-01 4.263449192047119141e+00 -5.315940976142883301e-01 9.000000000000000000e+00
9.795869588851928711e-01 5.538554191589354581e+00 -4.920813143253325861e-01 8.000000000000000000e+00
1.417498826980591042e+00 7.998214244842529297e+00 -4.257006645202637274e-01 1.000000000000000000e+00
2.576914310455321822e+00 1.451071834564208984e+01 -2.572484612464904785e-01 2.000000000000000000e+00
3.938915133476256769e-01 2.200171709060668945e+00 -5.989072918891906738e-01 1.800000000000000000e+01
4.497228264808654785e-01 2.506985425949097124e+00 -5.880220532417297363e-01 1.000000000000000000e+01
5.197878479957580566e-01 2.894656658172606978e+00 -5.716637372970581055e-01 1.000000000000000000e+01
6.205613017082214355e-01 3.448934555053710938e+00 -5.550295114517211914e-01 9.000000000000000000e+00
7.695821523666381836e-01 4.268608093261718750e+00 -5.325690507888793945e-01 9.000000000000000000e+00
1.000329494476317915e+00 5.542943954467773438e+00 -4.927785694599152166e-01 9.000000000000000000e+00
1.446120023727416992e+00 7.997148513793945312e+00 -4.259100258350371759e-01 2.000000000000000000e+00
2.627550601959228960e+00 1.450163459777832031e+01 -2.572484612464904785e-01 2.000000000000000000e+00
4.015691578388214111e-01 2.198783397674560991e+00 -5.989072918891906738e-01 1.600000000000000000e+01
4.570679664611815851e-01 2.497732639312744141e+00 -5.862224698066711426e-01 1.100000000000000000e+01
5.313038825988769531e-01 2.900549173355102983e+00 -5.731902122497558594e-01 9.000000000000000000e+00
6.315267682075500488e-01 3.440918684005736861e+00 -5.540908575057983398e-01 8.000000000000000000e+00
7.837596535682678223e-01 4.261991024017333984e+00 -5.320815443992614746e-01 9.000000000000000000e+00
1.017868518829345925e+00 5.529621124267578125e+00 -4.919070005416870117e-01 9.000000000000000000e+00
1.471852898597717063e+00 7.980267047882080078e+00 -4.252819716930388849e-01 2.000000000000000000e+00
2.678154706954956055e+00 1.449237442016601918e+01 -2.572484612464904785e-01 2.000000000000000000e+00
4.088583588600159247e-01 2.197439670562744141e+00 -5.989072918891906738e-01 1.800000000000000000e+01
4.639196991920471191e-01 2.488540172576903853e+00 -5.844228267669677734e-01 1.100000000000000000e+01
5.383985638618469238e-01 2.885261774063109907e+00 -5.705189108848571777e-01 1.000000000000000000e+01
6.451119780540466309e-01 3.450455904006958008e+00 -5.559681057929992676e-01 8.000000000000000000e+00
7.971575856208801270e-01 4.255465984344482422e+00 -5.315940976142883301e-01 9.000000000000000000e+00
1.037301301956176980e+00 5.532089710235595703e+00 -4.924299418926239014e-01 8.000000000000000000e+00
1.498308300971985085e+00 7.975342273712158203e+00 -4.252819716930388849e-01 1.000000000000000000e+00
2.726198434829711914e+00 1.448341369628906072e+01 -2.572484612464904785e-01 2.000000000000000000e+00
4.172463715076447088e-01 2.199795007705688032e+00 -5.999425649642944336e-01 1.800000000000000000e+01
4.755140841007233221e-01 2.502221584320067915e+00 -5.880220532417297363e-01 1.100000000000000000e+01
5.480998754501342773e-01 2.881436109542847124e+00 -5.701372623443603516e-01 9.000000000000000000e+00
6.586316227912902832e-01 3.455944776535034180e+00 -5.572195649147033691e-01 9.000000000000000000e+00
8.127517104148864746e-01 4.256557464599609375e+00 -5.320815443992614746e-01 9.000000000000000000e+00
1.056979656219481978e+00 5.530392169952392578e+00 -4.926042556762694757e-01 9.000000000000000000e+00
1.529143333435059038e+00 7.985756397247313565e+00 -4.261193573474884033e-01 1.000000000000000000e+00
2.776738405227661133e+00 1.447380924224854049e+01 -2.572484612464904785e-01 2.000000000000000000e+00
4.241892993450164795e-01 2.194531679153441939e+00 -5.989072918891906738e-01 1.900000000000000000e+01
4.842455685138701837e-01 2.500546455383300781e+00 -5.880220532417297363e-01 1.100000000000000000e+01
5.592753887176513672e-01 2.885287523269652876e+00 -5.712821483612060547e-01 1.000000000000000000e+01
6.695613861083984375e-01 3.447807312011719194e+00 -5.562809705734252930e-01 9.000000000000000000e+00
8.291213512420654297e-01 4.261488437652587891e+00 -5.330564975738525391e-01 9.000000000000000000e+00
1.075516104698180930e+00 5.522758007049561435e+00 -4.922556281089783270e-01 9.000000000000000000e+00
1.553949713706969993e+00 7.964687824249267578e+00 -4.252819716930388849e-01 2.000000000000000000e+00
2.827244520187377930e+00 1.446402835845947088e+01 -2.572484612464904785e-01 2.000000000000000000e+00
4.303540587425231934e-01 2.185455799102783203e+00 -5.968367457389831543e-01 1.600000000000000000e+01
4.925939738750457764e-01 2.496928930282593218e+00 -5.875721573829650879e-01 9.000000000000000000e+00
5.708648562431335449e-01 2.891021966934204102e+00 -5.728086233139038086e-01 1.000000000000000000e+01
6.804423332214355469e-01 3.439635515213013139e+00 -5.553423762321472168e-01 8.000000000000000000e+00
8.432198762893676758e-01 4.254673957824707031e+00 -5.325690507888793945e-01 9.000000000000000000e+00
1.095175266265868919e+00 5.520924091339111328e+00 -4.924299418926239014e-01 9.000000000000000000e+00
1.580185055732727051e+00 7.951379299163818359e+00 -4.248632788658142090e-01 2.000000000000000000e+00
2.877716064453125000e+00 1.445407104492188033e+01 -2.572484612464904785e-01 2.000000000000000000e+00
4.402592778205872137e-01 2.195305109024047852e+00 -5.999425649642944336e-01 1.700000000000000000e+01
4.986199438571929932e-01 2.481820344924927202e+00 -5.844228267669677734e-01 1.200000000000000000e+01
5.809528827667236328e-01 2.889011621475220171e+00 -5.728086233139038086e-01 1.100000000000000000e+01
6.932249665260314941e-01 3.441112518310546875e+00 -5.559681057929992676e-01 9.000000000000000000e+00
8.584589958190917969e-01 4.253650665283203125e+00 -5.328127741813659668e-01 7.000000000000000000e+00
1.116018176078795943e+00 5.524879455566406250e+00 -4.931271970272064209e-01 9.000000000000000000e+00
1.608723163604736106e+00 7.949729919433593750e+00 -4.250726401805878241e-01 2.000000000000000000e+00
2.928152799606322798e+00 1.444393825531006037e+01 -2.572484612464904785e-01 2.000000000000000000e+00
4.479196369647979736e-01 2.193754911422729048e+00 -5.999425649642944336e-01 1.500000000000000000e+01
5.064990520477294922e-01 2.476246356964110884e+00 -5.835230350494384766e-01 1.100000000000000000e+01
5.894588828086853027e-01 2.879272699356079102e+00 -5.712821483612060547e-01 1.000000000000000000e+01
7.028512954711914062e-01 3.427061080932617188e+00 -5.540908575057983398e-01 8.000000000000000000e+00
8.697063326835632324e-01 4.233127593994140625e+00 -5.306191444396972656e-01 9.000000000000000000e+00
1.134494185447693093e+00 5.517046928405761719e+00 -4.927785694599152166e-01 8.000000000000000000e+00
1.633239388465880904e+00 7.928416728973388672e+00 -4.242352545261383057e-01 1.000000000000000000e+00
2.978553533554077148e+00 1.443362903594971058e+01 -2.572484612464904785e-01 2.000000000000000000e+00
