2.093317985534667969e+01 -3.694851636886597124e+00 -3.710381686687468927e-01 7.000000000000000000e+00
3.474052810668945312e+01 -6.131944656372070312e+00 9.452589035034179688e+00 7.000000000000000000e+00
2.392682313919066939e+00 -4.257707893848419189e-01 -6.511887311935424805e-01 1.700000000000000000e+01
2.729998826980590820e+00 -4.867784380912780762e-01 -6.402106881141662598e-01 1.100000000000000000e+01
3.216029167175292969e+00 -5.740203261375427246e-01 -6.350123286247253418e-01 1.200000000000000000e+01
3.887099981307982954e+00 -6.951981186866760254e-01 -6.254249811172485352e-01 1.100000000000000000e+01
3.853337478637695312e+01 -6.898538589477539062e+00 4.806527137756347656e+00 2.000000000000000000e+01
4.980654239654541016e+00 -8.925719261169433594e-01 -6.212899088859558105e-01 9.000000000000000000e+00
3.726249694824218750e+01 -6.677728652954101562e+00 5.995820045471191406e+00 1.300000000000000000e+01
6.638273715972900391e+00 -1.190826058387755904e+00 -5.900443792343139648e-01 8.000000000000000000e+00
1.040867424011229936e+01 -1.870940685272217019e+00 -5.542377829551696777e-01 2.000000000000000000e+00
3.423333740234375000e+01 -6.159549713134765625e+00 8.030303001403808594e+00 1.000000000000000000e+01
2.082765769958496094e+01 -3.751240015029906782e+00 -3.693976402282714844e-01 1.000000000000000000e+01
3.531859970092772727e+01 -6.367547512054443359e+00 9.616163253784179688e+00 7.000000000000000000e+00
2.389280796051024947e+00 -4.337751269340515137e-01 -6.506710648536682129e-01 1.900000000000000000e+01
5.976191329956054688e+01 -1.086058044433593928e+01 1.060233712196350098e+00 6.100000000000000000e+01
2.747455596923828125e+00 -4.997926950454711914e-01 -6.447097063064575195e-01 1.300000000000000000e+01
3.212074518203734907e+00 -5.848912000656127930e-01 -6.346307396888732910e-01 1.100000000000000000e+01
3.892422914505004883e+00 -7.101806402206420898e-01 -6.266764402389526367e-01 1.200000000000000000e+01
4.977508544921875000e+00 -9.099521636962890625e-01 -6.212899088859558105e-01 9.000000000000000000e+00
6.624277591705322266e+00 -1.212197422981261985e+00 -5.891728401184082031e-01 6.000000000000000000e+00
1.046494483947754084e+01 -1.918788790702820046e+00 -5.575872659683227539e-01 2.000000000000000000e+00
2.076919937133789062e+01 -3.815608739852904829e+00 -3.685948252677916925e-01 6.000000000000000000e+00
3.523345947265625000e+01 -6.479263305664063388e+00 9.599081039428710938e+00 1.400000000000000000e+01
2.376431465148925781e+00 -4.395875632762908936e-01 -6.475652456283569336e-01 2.100000000000000000e+01
2.745783090591431108e+00 -5.089008212089538574e-01 -6.447097063064575195e-01 1.400000000000000000e+01
3.210117101669311968e+00 -5.955395698547363281e-01 -6.346307396888732910e-01 1.200000000000000000e+01
3.891988515853881836e+00 -7.234454751014709473e-01 -6.269893646240234375e-01 1.500000000000000000e+01
4.986172676086425781e+00 -9.286339282989501953e-01 -6.227523684501647949e-01 9.000000000000000000e+00
6.641766548156738281e+00 -1.238174200057982954e+00 -5.910902619361877441e-01 6.000000000000000000e+00
1.045852375030517933e+01 -1.953481197357177956e+00 -5.575872659683227539e-01 2.000000000000000000e+00
3.320219421386718750e+01 -6.207624435424804688e+00 7.798153400421142578e+00 1.900000000000000000e+01
1.978937149047851918e+01 -3.703480243682860884e+00 -3.514216542243958075e-01 1.300000000000000000e+01
3.520608139038085938e+01 -6.594999313354492188e+00 9.597527503967285156e+00 7.000000000000000000e+00
2.374882459640502930e+00 -4.478801786899567206e-01 -6.475652456283569336e-01 2.100000000000000000e+01
2.736330747604370117e+00 -5.170350670814514160e-01 -6.429101228713989258e-01 1.100000000000000000e+01
3.208018779754639116e+00 -6.067413687705993652e-01 -6.346307396888732910e-01 1.200000000000000000e+01
3.875853776931763139e+00 -7.344521880149841309e-01 -6.247992515563964844e-01 1.000000000000000000e+01
5.004353523254395419e+00 -9.501062035560607910e-01 -6.254334449768066406e-01 1.000000000000000000e+01
6.643276214599609375e+00 -1.262466669082642046e+00 -5.916131734848022461e-01 6.000000000000000000e+00
1.049088191986083984e+01 -1.997447729110717995e+00 -5.596807003021240234e-01 2.000000000000000000e+00
3.321095275878906250e+01 -6.329320907592773438e+00 7.805351734161376953e+00 1.900000000000000000e+01
1.977043151855469105e+01 -3.771411418914794922e+00 -3.513169288635253906e-01 1.000000000000000000e+01
3.532326507568358664e+01 -6.744663238525390625e+00 9.635832786560058594e+00 7.000000000000000000e+00
2.386584520339965820e+00 -4.587198197841643732e-01 -6.511887311935424805e-01 2.000000000000000000e+01
2.736422777175902876e+00 -5.269519686698913574e-01 -6.433600187301635742e-01 1.300000000000000000e+01
3.205881357192993164e+00 -6.179357171058654785e-01 -6.346307396888732910e-01 1.100000000000000000e+01
3.879085063934326172e+00 -7.491006255149841309e-01 -6.257378458976745605e-01 1.100000000000000000e+01
4.977619171142578125e+00 -9.630439877510070801e-01 -6.225085854530334473e-01 1.000000000000000000e+01
3.612348175048828125e+01 -6.988984107971191406e+00 5.827496528625488281e+00 1.300000000000000000e+01
6.644696712493895596e+00 -1.286784768104553001e+00 -5.921361446380615234e-01 6.000000000000000000e+00
1.050345230102539062e+01 -2.037859678268433061e+00 -5.607274174690246582e-01 2.000000000000000000e+00
3.332639312744141336e+01 -6.471958637237548828e+00 7.837744712829589844e+00 1.900000000000000000e+01
2.078769683837890980e+01 -4.040719032287597656e+00 -3.696419596672058105e-01 1.400000000000000000e+01
2.384968757629394975e+00 -4.670477509498596191e-01 -6.511887311935424805e-01 1.800000000000000000e+01
2.734566688537598100e+00 -5.365006327629089355e-01 -6.433600187301635742e-01 1.200000000000000000e+01
3.219116449356079102e+00 -6.321490406990051270e-01 -6.376836895942687988e-01 1.100000000000000000e+01
3.886137723922729048e+00 -7.645431756973266602e-01 -6.273022294044494629e-01 1.000000000000000000e+01
4.966436862945556641e+00 -9.788777828216552734e-01 -6.215336322784423828e-01 1.000000000000000000e+01
3.772298431396483664e+01 -7.435147762298583984e+00 6.089680671691895419e+00 1.400000000000000000e+01
6.659711837768554688e+00 -1.313827514648437944e+00 -5.938792228698730469e-01 6.000000000000000000e+00
1.047668075561523082e+01 -2.070638656616210938e+00 -5.596807003021240234e-01 2.000000000000000000e+00
3.329212951660156250e+01 -6.585980892181395596e+00 7.835045337677001953e+00 9.000000000000000000e+00
2.039291381835937855e+01 -4.037905693054199219e+00 -3.628704249858856201e-01 6.000000000000000000e+00
3.663213348388671875e+01 -7.260002613067626953e+00 1.000646209716797053e+01 8.000000000000000000e+00
2.385301351547241211e+00 -4.753315746784210205e-01 -6.517063379287719727e-01 1.900000000000000000e+01
2.738505601882935014e+00 -5.467103719711303711e-01 -6.447097063064575195e-01 1.400000000000000000e+01
3.201601028442382812e+00 -6.397430300712585449e-01 -6.346307396888732910e-01 1.200000000000000000e+01
3.889391899108887163e+00 -7.785891294479370117e-01 -6.282408237457275391e-01 1.100000000000000000e+01
3.766296768188477273e+01 -7.546313762664794922e+00 4.716343402862548828e+00 2.000000000000000000e+01
4.984572887420654297e+00 -9.996353387832641602e-01 -6.242147684097290039e-01 9.000000000000000000e+00
3.847284698486328125e+01 -7.715568542480468750e+00 6.214828491210938388e+00 1.400000000000000000e+01
6.668992519378662109e+00 -1.338649392127990945e+00 -5.950993895530700684e-01 6.000000000000000000e+00
1.050891876220702947e+01 -2.113244056701660156e+00 -5.617741346359252930e-01 2.000000000000000000e+00
3.366365432739257812e+01 -6.775555610656738281e+00 7.927724838256835938e+00 1.900000000000000000e+01
1.974427032470703125e+01 -3.977557182312012163e+00 -3.515612781047821045e-01 6.000000000000000000e+00
4.017328643798828125e+01 -8.093059539794921875e+00 1.098065662384033025e+01 1.000000000000000000e+01
2.366588115692139116e+00 -4.801975190639495850e-01 -6.470476388931274414e-01 2.000000000000000000e+01
2.748038768768310991e+00 -5.585953593254089355e-01 -6.474091410636901855e-01 1.400000000000000000e+01
3.207043647766112837e+00 -6.524804234504699707e-01 -6.361572146415710449e-01 1.300000000000000000e+01
3.876972436904906782e+00 -7.901883721351623535e-01 -6.266764402389526367e-01 1.000000000000000000e+01
3.764028930664063211e+01 -7.678529739379882812e+00 4.716831207275390625e+00 2.000000000000000000e+01
4.996613025665283203e+00 -1.020205616950988992e+00 -6.261646747589111328e-01 9.000000000000000000e+00
6.687703609466552734e+00 -1.366707444190979004e+00 -5.971911549568176270e-01 6.000000000000000000e+00
1.048191070556640980e+01 -2.145908355712891069e+00 -5.607274174690246582e-01 2.000000000000000000e+00
3.381925201416016336e+01 -6.929793357849121094e+00 7.970016002655029297e+00 1.000000000000000000e+01
1.817488098144530895e+01 -3.727461576461791992e+00 -3.238468468189240057e-01 6.000000000000000000e+00
3.560539245605468750e+01 -7.308737754821777344e+00 9.739360809326171875e+00 7.000000000000000000e+00
2.380033016204833984e+00 -4.915816485881804865e-01 -6.511887311935424805e-01 1.900000000000000000e+01
2.738438844680786133e+00 -5.666049718856811523e-01 -6.456094980239868164e-01 1.300000000000000000e+01
3.210514068603516069e+00 -6.648654937744140625e-01 -6.373020410537719727e-01 1.300000000000000000e+01
3.881927251815795898e+00 -8.053217530250549316e-01 -6.279279589653015137e-01 1.100000000000000000e+01
3.716233062744141336e+01 -7.716243743896484375e+00 4.660283565521240234e+00 2.000000000000000000e+01
4.981359958648681641e+00 -1.035217404365539995e+00 -6.247022747993469238e-01 1.000000000000000000e+01
6.677040100097656250e+00 -1.388826370239258035e+00 -5.966682434082031250e-01 6.000000000000000000e+00
1.053301429748534979e+01 -2.194706201553345171e+00 -5.638675689697265625e-01 2.000000000000000000e+00
1.806779861450194957e+01 -3.771268844604492188e+00 -3.221714198589324951e-01 3.000000000000000000e+00
3.550910186767578125e+01 -7.411769866943359375e+00 9.719690322875976562e+00 7.000000000000000000e+00
2.380192995071411133e+00 -5.002838969230651855e-01 -6.517063379287719727e-01 2.100000000000000000e+01
2.732630491256713867e+00 -5.753574371337890625e-01 -6.447097063064575195e-01 1.400000000000000000e+01
3.210094690322875977e+00 -6.764730215072631836e-01 -6.376836895942687988e-01 1.200000000000000000e+01
3.877159833908081055e+00 -8.184592723846435547e-01 -6.276150941848754883e-01 1.100000000000000000e+01
4.983542442321777344e+00 -1.053831338882446067e+00 -6.254334449768066406e-01 1.000000000000000000e+01
6.670202255249023438e+00 -1.411712527275085005e+00 -5.964938998222351074e-01 6.000000000000000000e+00
1.050575065612792969e+01 -2.227317571640015093e+00 -5.628208518028259277e-01 2.000000000000000000e+00
1.798410606384276988e+01 -3.819359064102172852e+00 -3.209148347377777100e-01 3.000000000000000000e+00
2.376631736755371094e+00 -5.077704787254333496e-01 -6.511887311935424805e-01 2.000000000000000000e+01
2.728801965713500977e+00 -5.840082168579101562e-01 -6.442598104476928711e-01 1.500000000000000000e+01
3.211673259735106978e+00 -6.879367828369140625e-01 -6.384469270706176758e-01 1.300000000000000000e+01
3.887944221496582031e+00 -8.342128396034240723e-01 -6.298051476478576660e-01 1.000000000000000000e+01
3.748547363281250000e+01 -8.049876213073730469e+00 4.707569122314453125e+00 2.000000000000000000e+01
4.981961250305175781e+00 -1.070768713951111062e+00 -6.256772279739379883e-01 9.000000000000000000e+00
3.629248428344727273e+01 -7.800312995910645419e+00 5.879433155059813565e+00 1.300000000000000000e+01
6.679119110107421875e+00 -1.436756968498229980e+00 -5.977140665054321289e-01 6.000000000000000000e+00
1.051392650604248047e+01 -2.265509366989136186e+00 -5.636582374572753906e-01 2.000000000000000000e+00
1.801825332641601918e+01 -3.889101266860961914e+00 -3.217525780200958252e-01 3.000000000000000000e+00
2.374844789505004883e+00 -5.160633921623229980e-01 -6.511887311935424805e-01 2.000000000000000000e+01
2.736267566680908203e+00 -5.956023335456848145e-01 -6.465093493461608887e-01 1.300000000000000000e+01
3.201579093933105025e+00 -6.974718570709228516e-01 -6.369204521179199219e-01 1.200000000000000000e+01
3.892728567123413086e+00 -8.494638204574584961e-01 -6.310566067695617676e-01 1.000000000000000000e+01
3.727484512329102273e+01 -8.140861511230468750e+00 4.684657573699951172e+00 2.000000000000000000e+01
4.985950469970703125e+00 -1.089848041534424050e+00 -6.266521811485290527e-01 9.000000000000000000e+00
6.681848526000976562e+00 -1.461765885353087935e+00 -5.984113216400146484e-01 5.000000000000000000e+00
1.053717041015625000e+01 -2.309036254882812944e+00 -5.653330087661743164e-01 2.000000000000000000e+00
3.629021453857421875e+01 -7.959003448486328125e+00 8.577383995056152344e+00 1.100000000000000000e+01
2.361710786819458008e+00 -5.218491554260253906e-01 -6.480829119682312012e-01 1.900000000000000000e+01
2.736074447631835938e+00 -6.055711507797241211e-01 -6.469592452049255371e-01 1.500000000000000000e+01
3.201041936874390093e+00 -7.090677618980407715e-01 -6.373020410537719727e-01 1.200000000000000000e+01
3.885882616043090820e+00 -8.621910214424133301e-01 -6.304308772087097168e-01 1.000000000000000000e+01
3.666483306884766336e+01 -8.141826629638671875e+00 4.611536026000976562e+00 1.900000000000000000e+01
5.001493930816650391e+00 -1.111552357673645020e+00 -6.290895342826843262e-01 9.000000000000000000e+00
6.670870780944824219e+00 -1.483783245086669922e+00 -5.978884100914001465e-01 5.000000000000000000e+00
1.054854011535645064e+01 -2.350147247314453125e+00 -5.663797259330749512e-01 2.000000000000000000e+00
3.634970474243164062e+01 -8.105140686035156250e+00 8.598078727722167969e+00 1.100000000000000000e+01
2.373069047927856001e+00 -5.330536365509033203e-01 -6.517063379287719727e-01 2.200000000000000000e+01
4.581147384643554688e+01 -1.029885959625243963e+01 8.195999264717102051e-01 5.400000000000000000e+01
2.724437952041625977e+00 -6.129793524742126465e-01 -6.447097063064575195e-01 1.400000000000000000e+01
3.200462579727172852e+00 -7.206684350967407227e-01 -6.376836895942687988e-01 1.200000000000000000e+01
3.880922317504882812e+00 -8.753154277801513672e-01 -6.301180124282836914e-01 1.100000000000000000e+01
5.011137485504150391e+00 -1.132066011428833008e+00 -6.307957172393798828e-01 1.000000000000000000e+01
3.615343475341796875e+01 -8.174054145812988281e+00 5.870672702789306641e+00 1.300000000000000000e+01
6.688971042633056641e+00 -1.512332439422606978e+00 -5.999801158905029297e-01 7.000000000000000000e+00
1.057143974304199041e+01 -2.394012212753295898e+00 -5.680544972419738770e-01 2.000000000000000000e+00
1.876050186157226918e+01 -4.255395412445068359e+00 -3.357842862606049139e-01 6.000000000000000000e+00
3.782720184326171875e+01 -8.587186813354492188e+00 1.039365482330322088e+01 8.000000000000000000e+00
2.371193885803223100e+00 -5.413339138031005859e-01 -6.517063379287719727e-01 2.100000000000000000e+01
2.714682817459106001e+00 -6.207481026649475098e-01 -6.429101228713989258e-01 1.400000000000000000e+01
3.205582618713378906e+00 -7.335876226425170898e-01 -6.392101049423217773e-01 1.200000000000000000e+01
3.877843379974364790e+00 -8.888570070266723633e-01 -6.301180124282836914e-01 1.200000000000000000e+01
4.993611812591552734e+00 -1.146441936492919922e+00 -6.290895342826843262e-01 1.000000000000000000e+01
6.660349369049072266e+00 -1.530318140983581987e+00 -5.978884100914001465e-01 3.000000000000000000e+00
1.060973167419433949e+01 -2.441648960113524947e+00 -5.705665946006774902e-01 3.000000000000000000e+00
1.806352424621582031e+01 -4.163652420043945312e+00 -3.235676288604735773e-01 9.000000000000000000e+00
3.796041107177733664e+01 -8.749895095825195312e+00 1.043817234039306996e+01 8.000000000000000000e+00
2.371171712875366211e+00 -5.500441789627075195e-01 -6.522240042686462402e-01 2.000000000000000000e+01
2.723888397216796875e+00 -6.328665018081665039e-01 -6.456094980239868164e-01 1.200000000000000000e+01
3.204914569854735884e+00 -7.452173829078674316e-01 -6.395917534828186035e-01 1.200000000000000000e+01
3.874716997146606001e+00 -9.023877978324890137e-01 -6.301180124282836914e-01 1.100000000000000000e+01
4.276017761230468750e+01 -9.966341018676757812e+00 5.391012191772460938e+00 3.400000000000000000e+01
4.981846809387207031e+00 -1.162062168121337891e+00 -6.281145811080932617e-01 1.000000000000000000e+01
3.596614456176757812e+01 -8.389437675476074219e+00 5.849397659301757812e+00 1.300000000000000000e+01
6.689891338348388672e+00 -1.561710596084594949e+00 -6.010259985923767090e-01 5.000000000000000000e+00
3.499310302734375000e+01 -8.175347328186035156e+00 6.985135555267333984e+00 6.000000000000000000e+01
1.065170955657958984e+01 -2.490491628646851030e+00 -5.732880830764770508e-01 3.000000000000000000e+00
3.792123794555664062e+01 -8.873400688171386719e+00 8.991293907165527344e+00 1.200000000000000000e+01
1.804887962341308949e+01 -4.226680278778076172e+00 -3.235676288604735773e-01 1.500000000000000000e+01
2.369237184524536133e+00 -5.583177804946899414e-01 -6.522240042686462402e-01 1.900000000000000000e+01
2.725455999374390093e+00 -6.432660818099975586e-01 -6.465093493461608887e-01 1.400000000000000000e+01
3.194651126861571822e+00 -7.545948028564453125e-01 -6.380652785301208496e-01 1.200000000000000000e+01
3.890766620635985884e+00 -9.204552769660949707e-01 -6.332467198371887207e-01 1.100000000000000000e+01
4.249718856811522727e+01 -1.006157398223876953e+01 5.362251281738281250e+00 3.300000000000000000e+01
4.987418174743652344e+00 -1.181733369827270952e+00 -6.293333172798156738e-01 1.000000000000000000e+01
3.609660720825195312e+01 -8.559489250183105469e+00 5.875678539276123047e+00 1.300000000000000000e+01
6.676644325256347656e+00 -1.583214282989501953e+00 -6.003287434577941895e-01 5.000000000000000000e+00
1.060408687591552912e+01 -2.518427848815917969e+00 -5.711946487426757812e-01 3.000000000000000000e+00
3.780282211303710938e+01 -8.984988212585449219e+00 8.970598220825195312e+00 1.200000000000000000e+01
1.798148918151855113e+01 -4.277163028717041016e+00 -3.226251900196074884e-01 1.200000000000000000e+01
2.363516330718994141e+00 -5.656852126121520996e-01 -6.511887311935424805e-01 1.900000000000000000e+01
2.730774164199829102e+00 -6.545928120613098145e-01 -6.483089327812194824e-01 1.500000000000000000e+01
3.205361127853393999e+00 -7.689474821090698242e-01 -6.407365798950195312e-01 1.100000000000000000e+01
3.883688449859619141e+00 -9.331080317497253418e-01 -6.326209902763366699e-01 1.000000000000000000e+01
4.989052772521972656e+00 -1.200528860092163086e+00 -6.300644874572753906e-01 1.000000000000000000e+01
3.738011550903320312e+01 -9.001776695251464844e+00 6.089680671691895419e+00 1.400000000000000000e+01
6.659455299377441406e+00 -1.603711724281311035e+00 -5.992828607559204102e-01 5.000000000000000000e+00
1.063406276702881037e+01 -2.564793348312377930e+00 -5.732880830764770508e-01 3.000000000000000000e+00
3.776364898681641336e+01 -9.115060806274414062e+00 8.968798637390136719e+00 1.200000000000000000e+01
3.712526702880858664e+01 -8.974688529968261719e+00 1.023422241210938033e+01 8.000000000000000000e+00
2.359750270843505859e+00 -5.730639100074768066e-01 -6.506710648536682129e-01 1.900000000000000000e+01
2.730482101440430132e+00 -6.641052961349487305e-01 -6.487588286399841309e-01 1.400000000000000000e+01
3.195163488388061968e+00 -7.777153849601745605e-01 -6.392101049423217773e-01 1.200000000000000000e+01
3.870976924896239790e+00 -9.436424374580383301e-01 -6.310566067695617676e-01 1.100000000000000000e+01
5.006257534027099609e+00 -1.222245573997498003e+00 -6.327456235885620117e-01 1.000000000000000000e+01
6.683132648468017578e+00 -1.632879734039307085e+00 -6.018975377082824707e-01 3.000000000000000000e+00
1.064101982116699041e+01 -2.603840827941894975e+00 -5.741254687309265137e-01 3.000000000000000000e+00
3.768400192260742188e+01 -9.228187561035156250e+00 8.957100868225097656e+00 1.200000000000000000e+01
2.013307571411133168e+01 -4.933981418609619141e+00 -3.618232905864716131e-01 3.000000000000000000e+00
3.914583969116210938e+01 -9.593409538269042969e+00 1.079948329925536932e+01 9.000000000000000000e+00
2.367113828659058061e+00 -5.836097002029418945e-01 -6.532592773437500000e-01 1.800000000000000000e+01
2.718687534332274947e+00 -6.712966561317443848e-01 -6.465093493461608887e-01 1.500000000000000000e+01
3.194335222244263139e+00 -7.893348336219787598e-01 -6.395917534828186035e-01 1.100000000000000000e+01
3.879164695739746094e+00 -9.599961638450622559e-01 -6.329338550567626953e-01 1.000000000000000000e+01
5.000033855438232422e+00 -1.239235639572143999e+00 -6.325019001960754395e-01 9.000000000000000000e+00
6.675457954406738281e+00 -1.655718684196471946e+00 -6.017232537269592285e-01 3.000000000000000000e+00
1.065124893188476918e+01 -2.645783901214600053e+00 -5.751721858978271484e-01 3.000000000000000000e+00
3.598731994628906250e+01 -8.945965766906738281e+00 8.561186790466308594e+00 1.100000000000000000e+01
1.817906188964844105e+01 -4.522440433502197266e+00 -3.269882798194885254e-01 3.000000000000000000e+00
3.912710952758789062e+01 -9.733726501464843750e+00 1.080362415313721058e+01 9.000000000000000000e+00
2.374328851699829102e+00 -5.946283340454101562e-01 -6.558474898338317871e-01 1.900000000000000000e+01
2.723769664764403853e+00 -6.831529736518859863e-01 -6.483089327812194824e-01 1.500000000000000000e+01
4.234452819824218750e+01 -1.062049865722656072e+01 2.287918567657471147e+00 3.100000000000000000e+01
3.191420555114746094e+00 -8.010373115539550781e-01 -6.395917534828186035e-01 1.200000000000000000e+01
3.873704195022583008e+00 -9.737260341644287109e-01 -6.326209902763366699e-01 1.100000000000000000e+01
4.999308109283447266e+00 -1.258522510528564009e+00 -6.329893469810485840e-01 9.000000000000000000e+00
6.673208713531494141e+00 -1.681147813796997070e+00 -6.020718812942504883e-01 5.000000000000000000e+00
3.643657684326171875e+01 -9.186045646667480469e+00 7.304168224334716797e+00 6.200000000000000000e+01
1.066471862792968928e+01 -2.690668106079102007e+00 -5.764282345771789551e-01 3.000000000000000000e+00
1.805379295349121094e+01 -4.561607360839843750e+00 -3.250336050987244207e-01 3.000000000000000000e+00
2.361004829406737837e+00 -6.000574827194213867e-01 -6.527416110038757324e-01 1.900000000000000000e+01
2.719480037689208984e+00 -6.921758651733398438e-01 -6.478590369224548340e-01 1.400000000000000000e+01
3.196215152740478960e+00 -8.141109347343444824e-01 -6.411182284355163574e-01 1.100000000000000000e+01
3.708405303955078125e+01 -9.452606201171875000e+00 3.348175048828125000e+00 4.900000000000000000e+01
3.883680343627930132e+00 -9.906595945358276367e-01 -6.348110437393188477e-01 1.000000000000000000e+01
4.996808052062988281e+00 -1.276457071304321067e+00 -6.332331299781799316e-01 1.000000000000000000e+01
6.703975677490234375e+00 -1.713807225227355957e+00 -6.053838133811950684e-01 5.000000000000000000e+00
1.069395923614501953e+01 -2.737785339355469194e+00 -5.785216689109802246e-01 3.000000000000000000e+00
3.572227859497070312e+01 -9.151988029479980469e+00 8.513497352600097656e+00 1.100000000000000000e+01
1.648037719726562855e+01 -4.225310325622558594e+00 -2.969701588153839111e-01 2.000000000000000000e+00
2.357131242752075195e+00 -6.074014902114868164e-01 -6.522240042686462402e-01 1.800000000000000000e+01
4.227631759643554688e+01 -1.090191650390625000e+01 7.620767951011657715e-01 4.500000000000000000e+01
2.726604223251343218e+00 -7.036249041557312012e-01 -6.501085758209228516e-01 1.500000000000000000e+01
3.191596984863280806e+00 -8.242145776748657227e-01 -6.407365798950195312e-01 1.200000000000000000e+01
3.882286310195922852e+00 -1.004027485847472922e+00 -6.351239085197448730e-01 1.100000000000000000e+01
3.600446701049804688e+01 -9.318092346191406250e+00 4.566444396972656250e+00 1.900000000000000000e+01
4.998312473297119141e+00 -1.294513106346129927e+00 -6.339643001556396484e-01 1.000000000000000000e+01
6.696327209472656250e+00 -1.735529184341431108e+00 -6.052094697952270508e-01 5.000000000000000000e+00
1.068482112884520951e+01 -2.773232936859130859e+00 -5.785216689109802246e-01 3.000000000000000000e+00
3.566532516479492188e+01 -9.263538360595703125e+00 8.507199287414550781e+00 1.100000000000000000e+01
3.630071640014647727e+01 -9.435334205627441406e+00 1.004994392395020064e+01 8.000000000000000000e+00
2.353127479553223100e+00 -6.151371002197265625e-01 -6.517063379287719727e-01 1.900000000000000000e+01
2.726016759872436968e+00 -7.136317491531372070e-01 -6.505584716796875000e-01 1.400000000000000000e+01
3.194397926330565962e+00 -8.368428945541381836e-01 -6.418814659118652344e-01 1.200000000000000000e+01
3.869204282760620117e+00 -1.015066742897033913e+00 -6.335595846176147461e-01 1.000000000000000000e+01
3.591796112060546875e+01 -9.429600715637207031e+00 4.559619426727294922e+00 1.900000000000000000e+01
5.016802787780761719e+00 -1.318005442619323953e+00 -6.368891596794128418e-01 9.000000000000000000e+00
3.632540130615233664e+01 -9.550122261047363281e+00 5.948889732360839844e+00 1.300000000000000000e+01
6.669032096862792969e+00 -1.753320574760437012e+00 -6.032920479774475098e-01 6.000000000000000000e+00
1.070211601257324041e+01 -2.817631959915161133e+00 -5.799870491027832031e-01 3.000000000000000000e+00
4.236397552490233664e+01 -1.116141033172607067e+01 1.011424922943115057e+01 1.300000000000000000e+01
2.584089088439941051e+01 -6.812984943389892578e+00 -4.664679169654846191e-01 4.000000000000000000e+00
3.631612777709960938e+01 -9.574795722961425781e+00 1.006340217590332031e+01 8.000000000000000000e+00
2.356567859649658203e+00 -6.248326897621154785e-01 -6.532592773437500000e-01 1.800000000000000000e+01
2.706557750701903853e+00 -7.186420559883117676e-01 -6.465093493461608887e-01 1.500000000000000000e+01
3.199047088623046875e+00 -8.500049710273742676e-01 -6.434079408645629883e-01 1.300000000000000000e+01
3.875182151794434038e+00 -1.031106233596801980e+00 -6.351239085197448730e-01 1.100000000000000000e+01
3.600375747680664062e+01 -9.586587905883789062e+00 4.574731349945068359e+00 1.900000000000000000e+01
4.989153385162354404e+00 -1.329376101493835005e+00 -6.339643001556396484e-01 9.000000000000000000e+00
3.581633758544921875e+01 -9.543378829956054688e+00 5.870672702789306641e+00 1.300000000000000000e+01
6.684047698974609375e+00 -1.782235622406006081e+00 -6.052094697952270508e-01 3.000000000000000000e+00
1.066520023345947088e+01 -2.847758769989014116e+00 -5.785216689109802246e-01 3.000000000000000000e+00
3.611283111572266336e+01 -9.662895202636718750e+00 1.001681423187256037e+01 8.000000000000000000e+00
2.363700389862060991e+00 -6.355629563331604004e-01 -6.558474898338317871e-01 1.900000000000000000e+01
4.225638580322266336e+01 -1.137000656127930043e+01 7.638220191001892090e-01 4.500000000000000000e+01
2.715323209762572798e+00 -7.311253547668457031e-01 -6.492087244987487793e-01 1.500000000000000000e+01
3.196060419082642046e+00 -8.611665368080139160e-01 -6.434079408645629883e-01 1.200000000000000000e+01
3.873466491699219194e+00 -1.045141458511352983e+00 -6.354367733001708984e-01 1.000000000000000000e+01
4.995980739593505859e+00 -1.349890232086182085e+00 -6.354267597198486328e-01 9.000000000000000000e+00
6.716252326965332031e+00 -1.815957188606261985e+00 -6.086956858634948730e-01 5.000000000000000000e+00
1.069375133514403942e+01 -2.895409584045410156e+00 -5.806151032447814941e-01 3.000000000000000000e+00
3.675754165649414062e+01 -9.973026275634765625e+00 1.020523452758789062e+01 8.000000000000000000e+00
2.355875968933105025e+00 -6.422855257987976074e-01 -6.542945504188537598e-01 2.000000000000000000e+01
2.718394279479980025e+00 -7.421388626098632812e-01 -6.505584716796875000e-01 1.400000000000000000e+01
3.189247131347655806e+00 -8.712828755378723145e-01 -6.426447033882141113e-01 1.200000000000000000e+01
3.879321575164794922e+00 -1.061262249946594016e+00 -6.370011568069458008e-01 1.100000000000000000e+01
3.641461563110352273e+01 -9.968743324279785156e+00 4.635665893554688388e+00 1.900000000000000000e+01
5.006555080413818359e+00 -1.371517062187195046e+00 -6.373766660690307617e-01 1.200000000000000000e+01
6.702186584472656250e+00 -1.837283134460448997e+00 -6.079984903335571289e-01 5.000000000000000000e+00
1.075676822662354049e+01 -2.952810764312744141e+00 -5.845926403999328613e-01 3.000000000000000000e+00
3.560490417480468750e+01 -9.793854713439941406e+00 9.894652366638183594e+00 7.000000000000000000e+00
2.349895715713500977e+00 -6.494758725166320801e-01 -6.532592773437500000e-01 1.900000000000000000e+01
2.715787172317504883e+00 -7.516233325004577637e-01 -6.505584716796875000e-01 1.400000000000000000e+01
3.186186552047729048e+00 -8.824101090431213379e-01 -6.426447033882141113e-01 1.200000000000000000e+01
3.598885345458983664e+01 -9.973828315734863281e+00 3.267294406890869141e+00 4.700000000000000000e+01
3.877496957778931108e+00 -1.075325131416321023e+00 -6.373140215873718262e-01 1.300000000000000000e+01
5.005562305450438565e+00 -1.390047073364258035e+00 -6.378641724586486816e-01 1.000000000000000000e+01
3.818878936767578125e+01 -1.060504531860351918e+01 6.277402400970458984e+00 1.400000000000000000e+01
6.691893100738525391e+00 -1.859600067138672097e+00 -6.076498627662658691e-01 6.000000000000000000e+00
1.075024318695068004e+01 -2.991411685943603960e+00 -5.848019719123840332e-01 3.000000000000000000e+00
3.549606704711914062e+01 -9.897324562072753906e+00 9.873946189880371094e+00 7.000000000000000000e+00
2.347843647003173828e+00 -6.568550467491149902e-01 -6.532592773437500000e-01 1.900000000000000000e+01
2.711535930633544922e+00 -7.596257925033569336e-01 -6.501085758209228516e-01 1.500000000000000000e+01
3.198521614074707031e+00 -8.966549038887023926e-01 -6.456976532936096191e-01 1.200000000000000000e+01
3.864590406417847124e+00 -1.084831953048706055e+00 -6.357496380805969238e-01 1.100000000000000000e+01
3.658467864990233664e+01 -1.027659988403319957e+01 4.665889739990234375e+00 2.000000000000000000e+01
4.993526458740234375e+00 -1.403617024421691895e+00 -6.368891596794128418e-01 9.000000000000000000e+00
6.691771984100341797e+00 -1.882232546806335005e+00 -6.081727743148803711e-01 5.000000000000000000e+00
1.076386260986327947e+01 -3.031667470932006836e+00 -5.860580205917358398e-01 3.000000000000000000e+00
3.809292984008789062e+01 -1.073614025115966975e+01 9.137062072753906250e+00 1.200000000000000000e+01
3.547397994995117188e+01 -1.000469684600830078e+01 9.876017570495605469e+00 7.000000000000000000e+00
2.354829311370850053e+00 -6.676814556121826172e-01 -6.558474898338317871e-01 1.900000000000000000e+01
2.705118656158446822e+00 -7.680217027664184570e-01 -6.492087244987487793e-01 1.500000000000000000e+01
3.184041023254394975e+00 -9.045951962471008301e-01 -6.434079408645629883e-01 1.200000000000000000e+01
3.864579916000366211e+00 -1.099396228790282981e+00 -6.363754272460937500e-01 1.100000000000000000e+01
3.692279434204102273e+01 -1.051076793670653942e+01 4.713662624359130859e+00 2.000000000000000000e+01
5.003869533538818359e+00 -1.425389766693115012e+00 -6.388391256332397461e-01 9.000000000000000000e+00
6.694741249084472656e+00 -1.908310532569885032e+00 -6.090443134307861328e-01 3.000000000000000000e+00
3.509708404541016336e+01 -1.001091384887694957e+01 7.094278335571289062e+00 6.100000000000000000e+01
1.080698966979979936e+01 -3.084570646286011186e+00 -5.889888405799865723e-01 3.000000000000000000e+00
3.754706573486328125e+01 -1.073808479309082031e+01 1.046405410766601918e+01 9.000000000000000000e+00
2.363624811172484907e+00 -6.790980696678161621e-01 -6.589533090591430664e-01 1.900000000000000000e+01
4.627995681762695312e+01 -1.330553722381591975e+01 8.405427932739257812e-01 5.800000000000000000e+01
2.704293966293334961e+00 -7.779984474182128906e-01 -6.496586203575134277e-01 1.400000000000000000e+01
3.190297365188599077e+00 -9.184196591377258301e-01 -6.453160047531127930e-01 1.200000000000000000e+01
3.868311166763306108e+00 -1.115067958831787109e+00 -6.376268863677978516e-01 1.100000000000000000e+01
3.646626663208007812e+01 -1.051855278015137074e+01 4.660039901733398438e+00 2.000000000000000000e+01
4.991234779357910156e+00 -1.440645933151244895e+00 -6.378641724586486816e-01 9.000000000000000000e+00
6.726322174072265625e+00 -1.942724943161010964e+00 -6.125305891036987305e-01 3.000000000000000000e+00
1.075778388977050959e+01 -3.111177921295166016e+00 -5.868954062461853027e-01 3.000000000000000000e+00
3.722335052490233664e+01 -1.077212524414063033e+01 8.946303367614746094e+00 1.200000000000000000e+01
2.350110769271851030e+00 -6.841048598289489746e-01 -6.558474898338317871e-01 1.900000000000000000e+01
2.701561689376831055e+00 -7.874334454536437988e-01 -6.496586203575134277e-01 1.400000000000000000e+01
3.185187101364136186e+00 -9.290006160736083984e-01 -6.449344158172607422e-01 1.200000000000000000e+01
3.871979951858520952e+00 -1.130779147148132102e+00 -6.388783454895019531e-01 1.100000000000000000e+01
3.628833007812500000e+01 -1.060457515716552912e+01 4.642003059387207031e+00 1.900000000000000000e+01
4.997607231140136719e+00 -1.461402654647826926e+00 -6.393265724182128906e-01 9.000000000000000000e+00
6.688904285430908203e+00 -1.957239866256714089e+00 -6.097415685653686523e-01 3.000000000000000000e+00
3.525997161865233664e+01 -1.032409954071044922e+01 7.141599178314208984e+00 6.100000000000000000e+01
1.078519248962401988e+01 -3.159941911697388139e+00 -5.889888405799865723e-01 3.000000000000000000e+00
2.708233451843262074e+01 -7.945089817047119141e+00 -4.926465153694152832e-01 4.000000000000000000e+00
2.345855474472045898e+00 -6.917577385902404785e-01 -6.553298234939575195e-01 2.000000000000000000e+01
2.715617418289185014e+00 -8.018254637718200684e-01 -6.537077426910400391e-01 1.600000000000000000e+01
3.181925058364868164e+00 -9.401133060455322266e-01 -6.449344158172607422e-01 1.300000000000000000e+01
3.873691797256470171e+00 -1.145969152450561968e+00 -6.398169398307800293e-01 1.300000000000000000e+01
3.626631927490233664e+01 -1.073568820953368963e+01 4.643953323364257812e+00 1.900000000000000000e+01
4.984862327575683594e+00 -1.476583480834960938e+00 -6.383516192436218262e-01 9.000000000000000000e+00
3.639189529418945312e+01 -1.077977085113525035e+01 6.011463642120361328e+00 1.300000000000000000e+01
6.674390792846679688e+00 -1.978311777114867942e+00 -6.090443134307861328e-01 2.000000000000000000e+00
1.077409648895264027e+01 -3.197570085525513139e+00 -5.889888405799865723e-01 3.000000000000000000e+00
3.872706985473632812e+01 -1.150825119018555043e+01 1.082536506652832031e+01 9.000000000000000000e+00
2.339724540710449219e+00 -6.988363265991210938e-01 -6.542945504188537598e-01 1.900000000000000000e+01
2.705333948135375977e+00 -8.090663552284240723e-01 -6.519081592559814453e-01 1.500000000000000000e+01
3.184266567230225053e+00 -9.529030919075012207e-01 -6.460792422294616699e-01 1.200000000000000000e+01
3.856422424316405806e+00 -1.155514955520630105e+00 -6.376268863677978516e-01 1.100000000000000000e+01
5.019606590270996094e+00 -1.505954146385193093e+00 -6.434701085090637207e-01 1.100000000000000000e+01
6.686527252197265625e+00 -2.007326364517211914e+00 -6.107874512672424316e-01 3.000000000000000000e+00
1.080112361907958984e+01 -3.246657848358153853e+00 -5.910822749137878418e-01 3.000000000000000000e+00
3.896209716796875000e+01 -1.173367691040039062e+01 1.090301132202148082e+01 1.000000000000000000e+01
2.337270736694335938e+00 -7.069992423057556152e-01 -6.542945504188537598e-01 2.000000000000000000e+01
2.696897983551024947e+00 -8.168101906776428223e-01 -6.505584716796875000e-01 1.400000000000000000e+01
3.182799816131591797e+00 -9.645819067955017090e-01 -6.464608907699584961e-01 1.300000000000000000e+01
3.852365255355834961e+00 -1.168969392776489036e+00 -6.376268863677978516e-01 1.100000000000000000e+01
5.001023292541503906e+00 -1.519427061080933061e+00 -6.417639851570129395e-01 9.000000000000000000e+00
6.706166744232177734e+00 -2.038767814636230025e+00 -6.132277846336364746e-01 3.000000000000000000e+00
1.075151062011718928e+01 -3.272708892822266069e+00 -5.889888405799865723e-01 3.000000000000000000e+00
3.896706008911132812e+01 -1.186882019042968928e+01 9.404303550720214844e+00 1.200000000000000000e+01
3.929256057739257812e+01 -1.197545623779297053e+01 1.100653839111327947e+01 1.000000000000000000e+01
2.349565744400023970e+00 -7.196797728538513184e-01 -6.584356427192687988e-01 1.900000000000000000e+01
2.699619531631470171e+00 -8.279333114624023438e-01 -6.519081592559814453e-01 1.500000000000000000e+01
3.188797712326049805e+00 -9.785658717155456543e-01 -6.483689546585083008e-01 1.300000000000000000e+01
3.859591007232666016e+00 -1.185890555381774902e+00 -6.395040750503540039e-01 1.100000000000000000e+01
3.632267761230468750e+01 -1.116737556457520064e+01 4.665889739990234375e+00 2.000000000000000000e+01
4.989997386932373047e+00 -1.535123586654663086e+00 -6.410327553749084473e-01 1.100000000000000000e+01
3.589747619628906250e+01 -1.105036449432373047e+01 5.948889732360839844e+00 1.300000000000000000e+01
6.710434436798095703e+00 -2.065681457519530806e+00 -6.142736673355102539e-01 5.000000000000000000e+00
1.074002170562743963e+01 -3.310218572616577148e+00 -5.889888405799865723e-01 3.000000000000000000e+00
3.920410156250000000e+01 -1.210571098327637074e+01 1.099411582946776988e+01 1.000000000000000000e+01
2.343348979949951172e+00 -7.267324328422546387e-01 -6.574003696441650391e-01 2.000000000000000000e+01
2.702296495437622070e+00 -8.390853404998779297e-01 -6.532578468322753906e-01 1.400000000000000000e+01
3.166614055633544922e+00 -9.838657379150390625e-01 -6.445527672767639160e-01 1.200000000000000000e+01
3.870517492294311968e+00 -1.204050064086914062e+00 -6.420070528984069824e-01 1.100000000000000000e+01
4.990293979644775391e+00 -1.554303526878356934e+00 -6.417639851570129395e-01 9.000000000000000000e+00
6.691770076751708984e+00 -2.085535526275635210e+00 -6.132277846336364746e-01 2.000000000000000000e+00
1.078559875488281072e+01 -3.365536212921143022e+00 -5.921289920806884766e-01 3.000000000000000000e+00
3.906785583496093750e+01 -1.220569324493408025e+01 1.096719837188721058e+01 1.000000000000000000e+01
2.340797901153564009e+00 -7.349078655242919922e-01 -6.574003696441650391e-01 1.900000000000000000e+01
2.704928159713745117e+00 -8.502661585807800293e-01 -6.546075940132141113e-01 1.500000000000000000e+01
3.176270008087158203e+00 -9.990366697311401367e-01 -6.472241282463073730e-01 1.200000000000000000e+01
3.849333763122559038e+00 -1.212213158607482910e+00 -6.391912102699279785e-01 1.300000000000000000e+01
3.550922393798828125e+01 -1.118920135498047053e+01 4.571319103240966797e+00 1.900000000000000000e+01
4.973478794097900391e+00 -1.568131923675537109e+00 -6.403015255928039551e-01 9.000000000000000000e+00
6.667348861694335938e+00 -2.103486537933350053e+00 -6.116589903831481934e-01 3.000000000000000000e+00
3.471026992797852273e+01 -1.095742797851563033e+01 7.075197696685791016e+00 6.100000000000000000e+01
1.082711124420166016e+01 -3.420008897781372070e+00 -5.950598120689392090e-01 3.000000000000000000e+00
1.367045021057129084e+01 -4.323395729064941406e+00 -2.502675056457520086e-01 2.000000000000000000e+00
3.999166107177733664e+01 -1.265538024902343928e+01 1.123947620391846058e+01 1.000000000000000000e+01
2.334536075592041016e+00 -7.419040799140930176e-01 -6.563650965690612793e-01 1.900000000000000000e+01
2.694515705108643022e+00 -8.573394417762756348e-01 -6.528079509735107422e-01 1.500000000000000000e+01
3.176504850387572798e+00 -1.011309027671813965e+00 -6.479873657226562500e-01 1.300000000000000000e+01
3.845078706741333008e+00 -1.225642442703247070e+00 -6.391912102699279785e-01 1.100000000000000000e+01
4.990668296813964844e+00 -1.592725396156311035e+00 -6.432263851165771484e-01 9.000000000000000000e+00
3.644043731689453125e+01 -1.162962722778319957e+01 6.058393955230712891e+00 1.400000000000000000e+01
6.669455528259277344e+00 -2.129777431488037109e+00 -6.125305891036987305e-01 3.000000000000000000e+00
1.085696029663085938e+01 -3.471162796020507812e+00 -5.973625779151916504e-01 3.000000000000000000e+00
2.339288473129272017e+00 -7.524147033691406250e-01 -6.584356427192687988e-01 2.000000000000000000e+01
2.687796831130981001e+00 -8.655451536178588867e-01 -6.519081592559814453e-01 1.500000000000000000e+01
3.182298421859741211e+00 -1.025401473045348899e+00 -6.498954296112060547e-01 1.200000000000000000e+01
3.852056980133057085e+00 -1.242695808410644975e+00 -6.410684585571289062e-01 1.000000000000000000e+01
3.725134277343750000e+01 -1.202467727661132990e+01 4.806282997131347656e+00 2.000000000000000000e+01
4.973744392395020419e+00 -1.606475591659545898e+00 -6.417639851570129395e-01 9.000000000000000000e+00
6.692314147949218750e+00 -2.162848472595214844e+00 -6.153195500373840332e-01 3.000000000000000000e+00
1.078776931762694957e+01 -3.490593433380126953e+00 -5.942224264144897461e-01 3.000000000000000000e+00
2.336514949798583984e+00 -7.609835863113403320e-01 -6.584356427192687988e-01 2.000000000000000000e+01
2.684606313705443892e+00 -8.753906488418579102e-01 -6.519081592559814453e-01 1.600000000000000000e+01
3.165453910827637163e+00 -1.032795667648314986e+00 -6.472241282463073730e-01 1.200000000000000000e+01
3.853109598159790039e+00 -1.258646011352539062e+00 -6.420070528984069824e-01 1.100000000000000000e+01
4.975369930267333984e+00 -1.627162694931030051e+00 -6.427389383316040039e-01 9.000000000000000000e+00
6.691916465759277344e+00 -2.189841032028197798e+00 -6.160168051719665527e-01 2.000000000000000000e+00
1.077490329742431996e+01 -3.530109167098999023e+00 -5.942224264144897461e-01 3.000000000000000000e+00
2.322835683822631836e+00 -7.655069231986999512e-01 -6.553298234939575195e-01 1.900000000000000000e+01
2.688936710357666016e+00 -8.871987462043762207e-01 -6.537077426910400391e-01 1.600000000000000000e+01
3.167422294616699219e+00 -1.045685291290282981e+00 -6.483689546585083008e-01 1.200000000000000000e+01
3.852443695068358931e+00 -1.273328065872191939e+00 -6.426327824592590332e-01 1.100000000000000000e+01
3.885680389404296875e+01 -1.285065841674805043e+01 5.025160312652587891e+00 2.500000000000000000e+01
4.977198123931884766e+00 -1.647014617919922097e+00 -6.437138915061950684e-01 9.000000000000000000e+00
6.688014507293701172e+00 -2.214439392089844194e+00 -6.163654327392578125e-01 3.000000000000000000e+00
1.085730552673340021e+01 -3.599121570587158203e+00 -5.994560718536376953e-01 3.000000000000000000e+00
3.899614715576171875e+01 -1.293450641632080078e+01 9.485285758972167969e+00 1.200000000000000000e+01
4.038444900512695312e+01 -1.341063690185547053e+01 1.140201377868651988e+01 1.100000000000000000e+01
2.324085235595703125e+00 -7.740213871002197266e-01 -6.563650965690612793e-01 1.900000000000000000e+01
2.686136245727539062e+00 -8.956418633460998535e-01 -6.537077426910400391e-01 1.600000000000000000e+01
3.167846202850341797e+00 -1.056873440742492898e+00 -6.491321921348571777e-01 1.300000000000000000e+01
3.842803478240966797e+00 -1.283547163009643999e+00 -6.416941881179809570e-01 1.100000000000000000e+01
4.975764274597167969e+00 -1.663901925086975098e+00 -6.442013382911682129e-01 9.000000000000000000e+00
6.673466682434082031e+00 -2.232910633087158203e+00 -6.156681776046752930e-01 3.000000000000000000e+00
1.079291820526123047e+01 -3.615449666976929155e+00 -5.965252518653869629e-01 3.000000000000000000e+00
4.041041946411132812e+01 -1.355251502990723012e+01 1.142064952850341975e+01 1.100000000000000000e+01
2.325030565261840820e+00 -7.833628654479980469e-01 -6.574003696441650391e-01 1.900000000000000000e+01
2.686686515808105025e+00 -9.062585234642028809e-01 -6.546075940132141113e-01 1.600000000000000000e+01
3.162277698516846147e+00 -1.067297101020812988e+00 -6.487506031990051270e-01 1.300000000000000000e+01
3.830814123153686968e+00 -1.294423818588257058e+00 -6.404427289962768555e-01 1.000000000000000000e+01
4.986849784851074219e+00 -1.686985492706299050e+00 -6.463949680328369141e-01 1.100000000000000000e+01
6.684504032135009766e+00 -2.262579679489136186e+00 -6.174112558364868164e-01 3.000000000000000000e+00
1.079536533355713068e+01 -3.658230066299438032e+00 -5.973625779151916504e-01 3.000000000000000000e+00
4.014333343505858664e+01 -1.361901283264159979e+01 1.135853290557860973e+01 1.100000000000000000e+01
2.324110507965087891e+00 -7.920971512794494629e-01 -6.579180359840393066e-01 1.900000000000000000e+01
2.674284934997559038e+00 -9.124847650527954102e-01 -6.523580551147460938e-01 1.400000000000000000e+01
3.158532857894897017e+00 -1.078328967094420943e+00 -6.487506031990051270e-01 1.300000000000000000e+01
3.833749055862427202e+00 -1.310343503952025923e+00 -6.416941881179809570e-01 1.100000000000000000e+01
4.979052543640136719e+00 -1.703739881515502930e+00 -6.461512446403503418e-01 1.100000000000000000e+01
6.665255546569824219e+00 -2.282027006149291992e+00 -6.163654327392578125e-01 5.000000000000000000e+00
1.065783214569091975e+01 -3.653148651123046875e+00 -5.904542803764343262e-01 3.000000000000000000e+00
4.033789062500000000e+01 -1.383434772491455078e+01 9.845208168029785156e+00 1.300000000000000000e+01
4.008824157714843750e+01 -1.375654792785645064e+01 1.135646247863770064e+01 1.100000000000000000e+01
2.341421604156494141e+00 -8.071304559707641602e-01 -6.636120080947875977e-01 1.900000000000000000e+01
2.680294275283813032e+00 -9.249928593635559082e-01 -6.546075940132141113e-01 1.500000000000000000e+01
4.032317352294921875e+01 -1.392375469207764027e+01 2.235687494277954102e+00 2.900000000000000000e+01
3.162172317504882812e+00 -1.091910839080810991e+00 -6.502770781517028809e-01 1.200000000000000000e+01
3.832885742187500000e+00 -1.325008511543273926e+00 -6.423199176788330078e-01 1.000000000000000000e+01
4.969323158264160156e+00 -1.719811201095581055e+00 -6.456637978553771973e-01 9.000000000000000000e+00
6.691137790679931641e+00 -2.317014217376708984e+00 -6.195030212402343750e-01 5.000000000000000000e+00
1.048461437225341975e+01 -3.634722232818603960e+00 -5.815571546554565430e-01 1.200000000000000000e+01
4.030034255981445312e+01 -1.399464321136474965e+01 1.143100166320800959e+01 1.100000000000000000e+01
2.323713779449462891e+00 -8.110221624374389648e-01 -6.594709157943725586e-01 2.000000000000000000e+01
2.680402040481566939e+00 -9.365631937980651855e-01 -6.555073857307434082e-01 1.600000000000000000e+01
3.148690223693848100e+00 -1.100805163383484109e+00 -6.483689546585083008e-01 1.300000000000000000e+01
3.842685699462891069e+00 -1.344936490058898926e+00 -6.448228359222412109e-01 1.000000000000000000e+01
4.966429710388183594e+00 -1.740192055702209029e+00 -6.461512446403503418e-01 9.000000000000000000e+00
6.682191848754882812e+00 -2.342689275741577148e+00 -6.195030212402343750e-01 5.000000000000000000e+00
1.069861125946044922e+01 -3.754987478256226030e+00 -5.942224264144897461e-01 3.000000000000000000e+00
4.014346313476563211e+01 -1.409738159179688033e+01 9.822712898254394531e+00 1.300000000000000000e+01
2.308116436004639116e+00 -8.146277666091918945e-01 -6.558474898338317871e-01 2.000000000000000000e+01
2.689978361129761186e+00 -9.504584074020385742e-01 -6.586567163467407227e-01 1.400000000000000000e+01
4.012834548950195312e+01 -1.417867279052734020e+01 2.230453729629517046e+00 2.900000000000000000e+01
3.144828557968140093e+00 -1.111789345741271973e+00 -6.483689546585083008e-01 1.200000000000000000e+01
3.834243297576903853e+00 -1.357023596763611062e+00 -6.441971063613891602e-01 1.000000000000000000e+01
4.975294113159179688e+00 -1.762821316719054954e+00 -6.481011509895324707e-01 9.000000000000000000e+00
6.694630146026611328e+00 -2.373323202133179155e+00 -6.214204430580139160e-01 5.000000000000000000e+00
1.079837322235107067e+01 -3.832390546798706055e+00 -6.005027890205383301e-01 3.000000000000000000e+00
4.047950744628906250e+01 -1.438226795196533025e+01 1.151071834564208984e+01 1.100000000000000000e+01
2.314644336700439009e+00 -8.251183032989501953e-01 -6.584356427192687988e-01 1.900000000000000000e+01
2.681473255157471147e+00 -9.569395184516906738e-01 -6.573069691658020020e-01 1.500000000000000000e+01
3.148715734481811968e+00 -1.124304413795470969e+00 -6.498954296112060547e-01 1.200000000000000000e+01
