3.222584486007689986e+00 -2.909785747528076172e+00 -6.876859068870544434e-01 1.000000000000000000e+01
4.237505912780761719e+00 -3.828880548477172852e+00 -7.012361884117126465e-01 1.100000000000000000e+01
5.493992328643798828e+00 -4.965944766998291016e+00 -6.479157805442810059e-01 1.600000000000000000e+01
3.758573913574218750e+01 -3.402094650268554688e+01 -8.849068284034729004e-01 1.300000000000000000e+01
1.911074399948119895e+00 -1.734680652618407981e+00 -6.915645003318786621e-01 1.600000000000000000e+01
2.204128980636597124e+00 -2.002089738845825195e+00 -6.874504089355468750e-01 1.400000000000000000e+01
2.618316888809204102e+00 -2.379145860671997070e+00 -6.876755952835083008e-01 1.100000000000000000e+01
3.218253850936890093e+00 -2.926332712173461914e+00 -6.889373660087585449e-01 1.000000000000000000e+01
4.237329006195068359e+00 -3.855672836303710938e+00 -7.034298777580261230e-01 1.300000000000000000e+01
5.473677635192871094e+00 -4.982409954071044922e+00 -6.475671529769897461e-01 1.900000000000000000e+01
3.736921691894531250e+01 -3.406303024291992188e+01 -8.826031088829040527e-01 1.300000000000000000e+01
1.896452188491821067e+00 -1.733520627021789995e+00 -6.884586811065673828e-01 1.600000000000000000e+01
2.198564767837523970e+00 -2.011086702346802202e+00 -6.879003047943115234e-01 1.300000000000000000e+01
2.607099533081055132e+00 -2.385620355606079102e+00 -6.869123578071594238e-01 1.000000000000000000e+01
3.218217372894287109e+00 -2.946887016296387163e+00 -6.911274790763854980e-01 9.000000000000000000e+00
4.231162071228027344e+00 -3.877146005630493164e+00 -7.046485543251037598e-01 1.100000000000000000e+01
5.456252574920654297e+00 -5.001486301422119141e+00 -6.475671529769897461e-01 1.600000000000000000e+01
1.884704113006592019e+00 -1.734896421432494895e+00 -6.863881349563598633e-01 1.500000000000000000e+01
2.201564550399779829e+00 -2.027991056442261186e+00 -6.910496354103088379e-01 1.300000000000000000e+01
2.601643562316894975e+00 -2.397367000579833984e+00 -6.876755952835083008e-01 1.000000000000000000e+01
3.205006837844849077e+00 -2.955424547195435014e+00 -6.905017495155334473e-01 1.000000000000000000e+01
4.220520496368408203e+00 -3.894584178924560991e+00 -7.051360011100769043e-01 1.100000000000000000e+01
5.450472831726074219e+00 -5.031312942504882812e+00 -6.489616632461547852e-01 1.000000000000000000e+01
1.885720610618591087e+00 -1.748031377792357954e+00 -6.889762878417968750e-01 1.600000000000000000e+01
2.190186023712158203e+00 -2.031687736511230025e+00 -6.896999478340148926e-01 1.200000000000000000e+01
2.596137762069702148e+00 -2.409104585647583008e+00 -6.884388327598571777e-01 9.000000000000000000e+00
3.193223476409912109e+00 -2.965250015258789062e+00 -6.901888847351074219e-01 1.000000000000000000e+01
4.209808349609375000e+00 -3.911995410919189009e+00 -7.056235074996948242e-01 1.100000000000000000e+01
5.497085094451904297e+00 -5.109994888305664062e+00 -6.566313505172729492e-01 7.000000000000000000e+00
1.886668205261230025e+00 -1.761194348335265891e+00 -6.915645003318786621e-01 1.500000000000000000e+01
2.167416334152222124e+00 -2.024687290191649947e+00 -6.847510337829589844e-01 1.300000000000000000e+01
2.593450307846068892e+00 -2.423513889312744141e+00 -6.899653077125549316e-01 9.000000000000000000e+00
3.185739040374755859e+00 -2.979076623916625977e+00 -6.908146142959594727e-01 1.000000000000000000e+01
4.196127414703369141e+00 -3.926666498184204102e+00 -7.056235074996948242e-01 1.100000000000000000e+01
5.461760044097900391e+00 -5.112812995910645419e+00 -6.545396447181701660e-01 1.200000000000000000e+01
1.885350108146667036e+00 -1.771080851554871050e+00 -6.931173801422119141e-01 1.500000000000000000e+01
2.175243616104125977e+00 -2.044833898544311968e+00 -6.892500519752502441e-01 1.300000000000000000e+01
2.581533193588256836e+00 -2.427614688873291016e+00 -6.888204813003540039e-01 1.000000000000000000e+01
2.579215240478515980e+01 -2.426283454895019887e+01 3.098037958145142046e+00 4.200000000000000000e+01
3.182118654251099077e+00 -2.994485378265380859e+00 -6.920660734176635742e-01 1.000000000000000000e+01
2.623705863952637074e+01 -2.469862937927246094e+01 4.424344539642333984e+00 1.800000000000000000e+01
4.175099849700927734e+00 -3.931664228439331055e+00 -7.041610479354858398e-01 1.100000000000000000e+01
5.445670604705811435e+00 -5.129946231842041016e+00 -6.545396447181701660e-01 1.000000000000000000e+01
1.874946117401123047e+00 -1.773668408393860085e+00 -6.915645003318786621e-01 1.500000000000000000e+01
2.742948722839355113e+01 -2.595691871643066051e+01 6.591773629188537598e-01 3.100000000000000000e+01
2.169507741928101030e+00 -2.053754329681396040e+00 -6.896999478340148926e-01 1.500000000000000000e+01
2.571617841720581055e+00 -2.435261249542235884e+00 -6.884388327598571777e-01 1.100000000000000000e+01
3.174514055252075195e+00 -3.008292198181151900e+00 -6.926918029785156250e-01 1.000000000000000000e+01
4.161350250244140625e+00 -3.946214199066162109e+00 -7.041610479354858398e-01 1.100000000000000000e+01
2.765071296691894887e+01 -2.623037528991698863e+01 6.036493301391601562e+00 1.300000000000000000e+01
5.432066917419433594e+00 -5.153037548065186435e+00 -6.550625562667846680e-01 8.000000000000000000e+00
1.861749649047852007e+00 -1.773539900779723899e+00 -6.889762878417968750e-01 1.600000000000000000e+01
2.166557073593140093e+00 -2.065348625183105025e+00 -6.910496354103088379e-01 1.600000000000000000e+01
2.561680793762207031e+00 -2.442868232727050781e+00 -6.880572438240051270e-01 1.000000000000000000e+01
3.163993835449219194e+00 -3.019355058670043945e+00 -6.926918029785156250e-01 1.000000000000000000e+01
2.698582458496094105e+01 -2.576119422912598012e+01 4.580824851989746094e+00 1.900000000000000000e+01
4.170520305633544922e+00 -3.982651233673096147e+00 -7.080608606338500977e-01 1.100000000000000000e+01
2.709213638305664062e+01 -2.587172126770019887e+01 5.933246612548828125e+00 1.300000000000000000e+01
5.416927814483642578e+00 -5.174720287322998047e+00 -6.554111838340759277e-01 6.000000000000000000e+00
1.854153394699096902e+00 -1.778690457344054954e+00 -6.884586811065673828e-01 1.600000000000000000e+01
2.160740375518798828e+00 -2.074248313903809038e+00 -6.914995312690734863e-01 1.800000000000000000e+01
2.563050270080565962e+00 -2.461313962936400923e+00 -6.907285451889038086e-01 1.200000000000000000e+01
3.156283855438231978e+00 -3.033118486404418945e+00 -6.933175325393676758e-01 1.000000000000000000e+01
4.160885334014892578e+00 -4.001312732696533203e+00 -7.087920904159545898e-01 9.000000000000000000e+00
5.433292388916015625e+00 -5.226747989654541016e+00 -6.595946550369262695e-01 7.000000000000000000e+00
1.857659220695496050e+00 -1.794547438621520996e+00 -6.920821070671081543e-01 1.600000000000000000e+01
2.145080089569091797e+00 -2.073651313781737837e+00 -6.888001561164855957e-01 1.800000000000000000e+01
2.558676958084106001e+00 -2.474340200424193892e+00 -6.918734312057495117e-01 1.200000000000000000e+01
3.139998912811278853e+00 -3.038622617721558061e+00 -6.920660734176635742e-01 1.000000000000000000e+01
4.144040584564208984e+00 -4.013050556182861328e+00 -7.083046436309814453e-01 9.000000000000000000e+00
5.362066268920898438e+00 -5.194389343261718750e+00 -6.531451344490051270e-01 8.000000000000000000e+00
1.858307480812072976e+00 -1.807756185531615989e+00 -6.946703195571899414e-01 1.700000000000000000e+01
2.137828588485718218e+00 -2.081126451492310014e+00 -6.888001561164855957e-01 1.900000000000000000e+01
2.554244041442871094e+00 -2.487365484237670898e+00 -6.930182576179504395e-01 1.100000000000000000e+01
3.143520116806029829e+00 -3.063351392745972124e+00 -6.951947808265686035e-01 1.000000000000000000e+01
2.774654579162598012e+01 -2.704837036132812855e+01 4.757779121398925781e+00 2.000000000000000000e+01
4.128585815429688388e+00 -4.026105880737304688e+00 -7.080608606338500977e-01 1.100000000000000000e+01
5.292559623718261719e+00 -5.162989139556884766e+00 -6.468698978424072266e-01 1.300000000000000000e+01
2.797646713256835938e+01 -2.732970428466796875e+01 -6.826683282852172852e-01 9.000000000000000000e+00
1.840945720672606978e+00 -1.803416848182678001e+00 -6.905292272567749023e-01 1.600000000000000000e+01
2.138900756835937944e+00 -2.096761465072631836e+00 -6.914995312690734863e-01 1.900000000000000000e+01
2.528725147247314009e+00 -2.479771137237548828e+00 -6.884388327598571777e-01 1.100000000000000000e+01
2.769342231750487926e+01 -2.716678619384765980e+01 3.394018888473511186e+00 5.100000000000000000e+01
3.129988193511962891e+00 -3.071538448333739790e+00 -6.945690512657165527e-01 1.000000000000000000e+01
2.676517105102539062e+01 -2.627452659606933949e+01 4.605198860168457031e+00 1.900000000000000000e+01
4.117339611053466797e+00 -4.043274402618408203e+00 -7.085483670234680176e-01 1.100000000000000000e+01
5.280189990997313565e+00 -5.187017440795898438e+00 -6.475671529769897461e-01 7.000000000000000000e+00
2.714315795898437855e+01 -2.669213867187500000e+01 8.788837432861328125e+00 1.100000000000000000e+01
2.764425659179687855e+01 -2.719440269470214844e+01 -6.768741607666015625e-01 8.000000000000000000e+00
1.834639430046081987e+00 -1.809831976890563965e+00 -6.905292272567749023e-01 1.800000000000000000e+01
2.135729074478148970e+00 -2.108321905136107954e+00 -6.928492188453674316e-01 1.900000000000000000e+01
2.534022808074951172e+00 -2.502377748489379883e+00 -6.922550201416015625e-01 1.100000000000000000e+01
3.124867677688599077e+00 -3.087999343872069868e+00 -6.958205103874206543e-01 1.100000000000000000e+01
2.694152069091796875e+01 -2.663295173645019887e+01 4.651509284973145419e+00 1.900000000000000000e+01
4.117315769195556641e+00 -4.071579933166503906e+00 -7.109857201576232910e-01 1.100000000000000000e+01
2.795398330688476918e+01 -2.764346504211426137e+01 6.226717472076416016e+00 1.400000000000000000e+01
5.291797161102294922e+00 -5.234841823577880859e+00 -6.512277126312255859e-01 7.000000000000000000e+00
2.698058509826660156e+01 -2.671816062927246094e+01 8.766342163085937500e+00 1.100000000000000000e+01
2.755768585205078125e+01 -2.729917716979980113e+01 -6.770835518836975098e-01 8.000000000000000000e+00
1.825569629669189009e+00 -1.813501954078674094e+00 -6.894939541816711426e-01 1.500000000000000000e+01
2.128356695175170898e+00 -2.115764141082764116e+00 -6.928492188453674316e-01 2.000000000000000000e+01
2.521096229553223100e+00 -2.507055044174193892e+00 -6.911101937294006348e-01 1.000000000000000000e+01
3.102867841720581055e+00 -3.087741374969481978e+00 -6.933175325393676758e-01 1.000000000000000000e+01
2.693280220031737926e+01 -2.681086158752441051e+01 4.666133403778076172e+00 2.000000000000000000e+01
4.108705043792724609e+00 -4.091530323028563565e+00 -7.119607329368591309e-01 1.100000000000000000e+01
5.111165523529052734e+00 -5.091577529907226562e+00 -6.311818957328796387e-01 9.000000000000000000e+00
1.828788757324218972e+00 -1.829427242279052956e+00 -6.931173801422119141e-01 1.600000000000000000e+01
2.109940290451049805e+00 -2.112151145935059038e+00 -6.892500519752502441e-01 2.000000000000000000e+01
2.513716936111450195e+00 -2.517229080200194868e+00 -6.914917826652526855e-01 1.100000000000000000e+01
3.096256732940673828e+00 -3.102748394012451172e+00 -6.942561268806457520e-01 1.000000000000000000e+01
2.656987571716308949e+01 -2.663487625122069957e+01 4.619335651397705078e+00 1.900000000000000000e+01
4.085987567901611328e+00 -4.097413539886474609e+00 -7.104982733726501465e-01 1.100000000000000000e+01
5.096174716949462891e+00 -5.112209796905517578e+00 -6.315305233001708984e-01 1.100000000000000000e+01
1.829518318176269975e+00 -1.842335581779479980e+00 -6.957055926322937012e-01 1.700000000000000000e+01
2.104297399520874023e+00 -2.120519399642943892e+00 -6.896999478340148926e-01 2.100000000000000000e+01
2.515034198760985884e+00 -2.535307645797729048e+00 -6.941631436347961426e-01 1.100000000000000000e+01
3.092904090881348100e+00 -3.120013236999512163e+00 -6.958205103874206543e-01 1.100000000000000000e+01
2.647302055358887074e+01 -2.671438026428223012e+01 4.617873191833496094e+00 1.900000000000000000e+01
4.061201095581054688e+00 -4.099658489227294922e+00 -7.085483670234680176e-01 1.100000000000000000e+01
5.132467269897460938e+00 -5.182878017425537109e+00 -6.381543278694152832e-01 9.000000000000000000e+00
1.814937472343445046e+00 -1.840457439422606978e+00 -6.925997734069824219e-01 1.700000000000000000e+01
2.105089426040648970e+00 -2.136180162429810014e+00 -6.923993229866027832e-01 2.100000000000000000e+01
2.499279975891112837e+00 -2.537078142166138139e+00 -6.922550201416015625e-01 1.100000000000000000e+01
3.090309143066405806e+00 -3.139236927032471147e+00 -6.976976990699768066e-01 1.100000000000000000e+01
4.055218696594238281e+00 -4.122300624847412109e+00 -7.100107669830322266e-01 1.100000000000000000e+01
5.072434902191162109e+00 -5.158144474029541016e+00 -6.329250335693359375e-01 1.400000000000000000e+01
1.809853672981261985e+00 -1.848161697387695090e+00 -6.931173801422119141e-01 1.600000000000000000e+01
2.107160806655883789e+00 -2.153264760971068892e+00 -6.955486536026000977e-01 2.000000000000000000e+01
2.489035844802856001e+00 -2.544383525848389116e+00 -6.918734312057495117e-01 1.100000000000000000e+01
3.068285226821898970e+00 -3.138704299926757812e+00 -6.951947808265686035e-01 1.000000000000000000e+01
4.058837413787841797e+00 -4.154891014099121094e+00 -7.131794095039367676e-01 1.300000000000000000e+01
5.040478706359863281e+00 -5.161564350128173828e+00 -6.311818957328796387e-01 1.300000000000000000e+01
1.799350976943969949e+00 -1.850313186645508035e+00 -6.915645003318786621e-01 1.600000000000000000e+01
2.096915483474731001e+00 -2.157811880111693892e+00 -6.946488618850708008e-01 2.000000000000000000e+01
2.749938774108887074e+01 -2.830788040161133168e+01 2.068316936492919922e+00 2.200000000000000000e+01
2.489715099334716797e+00 -2.562913656234741211e+00 -6.945447325706481934e-01 1.200000000000000000e+01
3.055934667587279829e+00 -3.147978305816649947e+00 -6.948819160461425781e-01 1.000000000000000000e+01
4.044309616088867188e+00 -4.169033527374267578e+00 -7.131794095039367676e-01 1.300000000000000000e+01
2.585897827148437855e+01 -2.666576385498046875e+01 5.883187294006347656e+00 1.300000000000000000e+01
5.057106494903563565e+00 -5.214885234832763672e+00 -6.355396509170532227e-01 7.000000000000000000e+00
1.804958939552306907e+00 -1.869089722633362038e+00 -6.962232589721679688e-01 1.900000000000000000e+01
2.082604408264160156e+00 -2.158107042312622070e+00 -6.923993229866027832e-01 2.100000000000000000e+01
2.484842777252196822e+00 -2.575827598571776900e+00 -6.956896185874938965e-01 1.200000000000000000e+01
3.069604873657227007e+00 -3.184225320816040039e+00 -7.005135416984558105e-01 1.000000000000000000e+01
2.683026123046875000e+01 -2.784183692932128906e+01 4.747541904449462891e+00 2.000000000000000000e+01
4.029732227325438565e+00 -4.183125495910645419e+00 -7.131794095039367676e-01 1.300000000000000000e+01
5.131468296051025391e+00 -5.328660011291503906e+00 -6.472185254096984863e-01 1.300000000000000000e+01
1.805109262466431108e+00 -1.882350444793700950e+00 -6.988114118576049805e-01 1.800000000000000000e+01
2.080451726913452148e+00 -2.170991420745850053e+00 -6.941989660263061523e-01 2.100000000000000000e+01
2.474478244781494141e+00 -2.583068132400513139e+00 -6.953079700469970703e-01 1.100000000000000000e+01
3.051641225814818892e+00 -3.187786102294921875e+00 -6.989492177963256836e-01 1.100000000000000000e+01
4.012361526489257812e+00 -4.194297313690186435e+00 -7.126919031143188477e-01 1.300000000000000000e+01
5.077033996582031250e+00 -5.309101104736328125e+00 -6.426864266395568848e-01 1.200000000000000000e+01
1.790534138679503950e+00 -1.880246043205261008e+00 -6.957055926322937012e-01 1.700000000000000000e+01
2.074204444885253906e+00 -2.179652214050292969e+00 -6.946488618850708008e-01 2.000000000000000000e+01
2.464093446731566939e+00 -2.590267419815063032e+00 -6.949263811111450195e-01 1.200000000000000000e+01
3.048661231994628906e+00 -3.207009077072143999e+00 -7.008264064788818359e-01 1.100000000000000000e+01
4.000430583953857422e+00 -4.211155891418457031e+00 -7.131794095039367676e-01 1.300000000000000000e+01
5.061214923858642578e+00 -5.329680442810058594e+00 -6.430350542068481445e-01 1.000000000000000000e+01
1.774668455123900923e+00 -1.876659274101257102e+00 -6.920821070671081543e-01 1.900000000000000000e+01
2.065244913101195845e+00 -2.185462713241577148e+00 -6.941989660263061523e-01 2.100000000000000000e+01
2.450992107391356978e+00 -2.594571352005004883e+00 -6.937814950942993164e-01 1.100000000000000000e+01
3.034736156463623047e+00 -3.214758396148682085e+00 -7.002006769180297852e-01 1.100000000000000000e+01
4.004776954650878906e+00 -4.245310306549072266e+00 -7.165917158126831055e-01 1.300000000000000000e+01
5.028910636901854581e+00 -5.332819461822509766e+00 -6.412919759750366211e-01 9.000000000000000000e+00
1.776041507720947044e+00 -1.891292214393615945e+00 -6.951879262924194336e-01 1.900000000000000000e+01
2.058937072753905806e+00 -2.194079637527465820e+00 -6.946488618850708008e-01 2.000000000000000000e+01
2.452666044235229048e+00 -2.614566087722777876e+00 -6.968344449996948242e-01 1.200000000000000000e+01
3.016741037368773970e+00 -3.218126296997069868e+00 -6.986362934112548828e-01 1.000000000000000000e+01
2.645248603820801137e+01 -2.822821617126464844e+01 4.749979496002197266e+00 2.000000000000000000e+01
3.981790781021118164e+00 -4.250571250915527344e+00 -7.151293158531188965e-01 1.300000000000000000e+01
5.022521972656250000e+00 -5.363430023193359375e+00 -6.428607702255249023e-01 7.000000000000000000e+00
1.777333974838257058e+00 -1.905957341194153054e+00 -6.982938051223754883e-01 1.900000000000000000e+01
2.047280073165893999e+00 -2.196976184844971147e+00 -6.932991743087768555e-01 1.800000000000000000e+01
2.635597610473633168e+01 -2.829301071166991832e+01 2.026448249816894975e+00 2.200000000000000000e+01
2.440848112106322798e+00 -2.620238304138184038e+00 -6.960712075233459473e-01 1.200000000000000000e+01
3.010873079299927202e+00 -3.234420537948607954e+00 -6.998878121376037598e-01 1.000000000000000000e+01
3.977745771408081055e+00 -4.276072025299072266e+00 -7.170792222023010254e-01 1.500000000000000000e+01
4.990201473236083984e+00 -5.366338729858398438e+00 -6.411176323890686035e-01 7.000000000000000000e+00
1.769357562065124956e+00 -1.910732388496398926e+00 -6.977761387825012207e-01 1.700000000000000000e+01
2.046216487884521040e+00 -2.211260795593262163e+00 -6.955486536026000977e-01 1.900000000000000000e+01
2.439685821533203125e+00 -2.637389659881591797e+00 -6.983609199523925781e-01 1.200000000000000000e+01
3.007609844207764116e+00 -3.253614187240601030e+00 -7.017650008201599121e-01 1.000000000000000000e+01
3.949325561523437944e+00 -4.275349140167236328e+00 -7.146418094635009766e-01 1.500000000000000000e+01
4.978197574615479404e+00 -5.391044139862061435e+00 -6.419891715049743652e-01 1.000000000000000000e+01
1.765292406082153098e+00 -1.919741034507751021e+00 -6.988114118576049805e-01 1.700000000000000000e+01
2.039803981781005859e+00 -2.219824790954589844e+00 -6.959985494613647461e-01 1.600000000000000000e+01
2.423824310302733931e+00 -2.638660669326781782e+00 -6.964528560638427734e-01 1.200000000000000000e+01
3.006920814514160156e+00 -3.275734663009643999e+00 -7.042679786682128906e-01 1.000000000000000000e+01
2.592995834350585938e+01 -2.825795173645019887e+01 4.709031581878662109e+00 2.000000000000000000e+01
3.945112705230712891e+00 -4.300811767578125000e+00 -7.165917158126831055e-01 1.300000000000000000e+01
4.980893611907958984e+00 -5.431883811950683594e+00 -6.447781920433044434e-01 9.000000000000000000e+00
1.748159170150757058e+00 -1.914478659629821999e+00 -6.946703195571899414e-01 1.700000000000000000e+01
2.035983562469481978e+00 -2.231250047683715820e+00 -6.973482966423034668e-01 1.400000000000000000e+01
2.417244911193848100e+00 -2.650006294250487837e+00 -6.972160935401916504e-01 1.200000000000000000e+01
2.988814353942871094e+00 -3.278911352157593218e+00 -7.027035951614379883e-01 1.100000000000000000e+01
3.940770149230957031e+00 -4.326296806335449219e+00 -7.185416221618652344e-01 1.300000000000000000e+01
4.933732986450195312e+00 -5.418300628662109375e+00 -6.411176323890686035e-01 7.000000000000000000e+00
1.740168094635009988e+00 -1.919138073921204057e+00 -6.941526532173156738e-01 1.600000000000000000e+01
2.022948503494263139e+00 -2.232567071914672852e+00 -6.955486536026000977e-01 1.300000000000000000e+01
2.411933898925780806e+00 -2.662792921066284180e+00 -6.983609199523925781e-01 1.200000000000000000e+01
2.972048282623291016e+00 -3.283466100692749023e+00 -7.014521360397338867e-01 1.100000000000000000e+01
3.932302713394165039e+00 -4.347387313842773438e+00 -7.197603583335876465e-01 1.500000000000000000e+01
4.881382942199707031e+00 -5.398543834686279297e+00 -6.367598772048950195e-01 7.000000000000000000e+00
1.741214513778686968e+00 -1.933814525604248047e+00 -6.972585320472717285e-01 1.600000000000000000e+01
2.009929180145264116e+00 -2.233820199966431108e+00 -6.937490701675415039e-01 1.400000000000000000e+01
2.407876014709473100e+00 -2.677034616470336914e+00 -6.998873949050903320e-01 1.200000000000000000e+01
2.971132755279541016e+00 -3.305573701858520952e+00 -7.039551138877868652e-01 1.100000000000000000e+01
3.921082973480225053e+00 -4.365517616271972656e+00 -7.204915285110473633e-01 1.300000000000000000e+01
4.830562114715576172e+00 -5.379970073699951172e+00 -6.325764060020446777e-01 7.000000000000000000e+00
1.743467092514038086e+00 -1.949961781501770020e+00 -7.008819580078125000e-01 1.500000000000000000e+01
2.008611440658568892e+00 -2.248088598251343218e+00 -6.959985494613647461e-01 1.500000000000000000e+01
2.393285512924193892e+00 -2.679566383361815962e+00 -6.983609199523925781e-01 1.200000000000000000e+01
2.954314470291138139e+00 -3.310029745101929155e+00 -7.027035951614379883e-01 1.100000000000000000e+01
3.892607212066649947e+00 -4.364363670349121094e+00 -7.180541753768920898e-01 1.300000000000000000e+01
4.854182243347167969e+00 -5.444387435913085938e+00 -6.381543278694152832e-01 1.000000000000000000e+01
1.722541093826293945e+00 -1.940144777297974077e+00 -6.951879262924194336e-01 1.500000000000000000e+01
2.004631996154785156e+00 -2.259459257125854048e+00 -6.973482966423034668e-01 1.400000000000000000e+01
2.377403974533081055e+00 -2.680560350418090820e+00 -6.964528560638427734e-01 1.200000000000000000e+01
2.957154750823975053e+00 -3.336583614349364790e+00 -7.061451673507690430e-01 1.100000000000000000e+01
3.872084617614746094e+00 -4.371980667114257812e+00 -7.170792222023010254e-01 1.600000000000000000e+01
4.784961223602294922e+00 -5.404612064361572266e+00 -6.315305233001708984e-01 6.000000000000000000e+00
1.713203191757201926e+00 -1.943247556686400923e+00 -6.941526532173156738e-01 1.500000000000000000e+01
1.998020887374877930e+00 -2.267905235290526900e+00 -6.977981925010681152e-01 1.300000000000000000e+01
2.375818014144897017e+00 -2.697682619094849077e+00 -6.987425684928894043e-01 1.200000000000000000e+01
2.946794986724853960e+00 -3.348368644714355025e+00 -7.064580321311950684e-01 1.100000000000000000e+01
3.847623348236083984e+00 -4.375035762786865234e+00 -7.153730392456054688e-01 1.500000000000000000e+01
4.781852245330811435e+00 -5.439238071441650391e+00 -6.336222290992736816e-01 7.000000000000000000e+00
2.211109542846680043e+01 -2.518625831604003906e+01 -5.850046873092651367e-01 6.000000000000000000e+00
1.710227012634276900e+00 -1.953576564788817915e+00 -6.957055926322937012e-01 1.300000000000000000e+01
1.991375327110290971e+00 -2.276332616806029829e+00 -6.982480883598327637e-01 1.100000000000000000e+01
2.365094423294066939e+00 -2.704481601715087891e+00 -6.983609199523925781e-01 1.200000000000000000e+01
2.929889440536499023e+00 -3.352684736251831055e+00 -7.052065730094909668e-01 1.100000000000000000e+01
3.832328081130981001e+00 -4.388439655303955078e+00 -7.153730392456054688e-01 2.000000000000000000e+01
4.731390476226806641e+00 -5.419874191284179688e+00 -6.294387578964233398e-01 7.000000000000000000e+00
2.202304458618164062e+01 -2.526328659057616832e+01 -5.850046873092651367e-01 6.000000000000000000e+00
1.713536620140075906e+00 -1.971198320388793945e+00 -6.998466849327087402e-01 1.500000000000000000e+01
1.975749492645263894e+00 -2.274442672729492188e+00 -6.955486536026000977e-01 1.200000000000000000e+01
2.368511915206909180e+00 -2.727544307708739790e+00 -7.021771073341369629e-01 1.200000000000000000e+01
2.915579319000244141e+00 -3.359907627105712891e+00 -7.045808434486389160e-01 1.100000000000000000e+01
3.811784267425537109e+00 -4.395791053771972656e+00 -7.143980860710144043e-01 2.000000000000000000e+01
4.653716564178466797e+00 -5.368609428405761719e+00 -6.215947866439819336e-01 8.000000000000000000e+00
2.178290939331055043e+01 -2.516462326049805043e+01 -5.809556841850280762e-01 6.000000000000000000e+00
1.710432291030884011e+00 -1.981554865837096946e+00 -7.013996243476867676e-01 1.500000000000000000e+01
1.972889542579651101e+00 -2.287228107452393022e+00 -6.973482966423034668e-01 1.300000000000000000e+01
2.353848457336425781e+00 -2.729848146438599077e+00 -7.006506323814392090e-01 1.100000000000000000e+01
2.918017148971558061e+00 -3.386525630950928178e+00 -7.080224156379699707e-01 1.000000000000000000e+01
3.776987791061400923e+00 -4.386505603790283203e+00 -7.107419967651367188e-01 3.500000000000000000e+01
4.586856842041015625e+00 -5.328949451446533203e+00 -6.151452064514160156e-01 8.000000000000000000e+00
2.184613800048828125e+01 -2.541641998291015980e+01 -5.850046873092651367e-01 6.000000000000000000e+00
1.697219014167786089e+00 -1.980179309844970925e+00 -6.988114118576049805e-01 1.500000000000000000e+01
1.971231937408447044e+00 -2.301501274108887163e+00 -6.995977759361267090e-01 1.200000000000000000e+01
2.336643934249877930e+00 -2.729099988937377930e+00 -6.983609199523925781e-01 1.200000000000000000e+01
2.911315202713013139e+00 -3.402694702148437944e+00 -7.092738747596740723e-01 1.100000000000000000e+01
3.761653184890747070e+00 -4.399662971496582031e+00 -7.107419967651367188e-01 3.900000000000000000e+01
4.581172466278076172e+00 -5.360074043273925781e+00 -6.168883442878723145e-01 7.000000000000000000e+00
2.162746810913085938e+01 -2.534041976928710938e+01 -5.815141797065734863e-01 6.000000000000000000e+00
1.685288190841675027e+00 -1.980206966400146040e+00 -6.967408657073974609e-01 1.600000000000000000e+01
1.963186144828795943e+00 -2.308367967605590820e+00 -6.995977759361267090e-01 1.200000000000000000e+01
2.334733247756958008e+00 -2.746214389801024947e+00 -7.006506323814392090e-01 1.200000000000000000e+01
2.899419784545897993e+00 -3.412836313247681108e+00 -7.092738747596740723e-01 1.000000000000000000e+01
3.733425140380858931e+00 -4.397634029388427734e+00 -7.083046436309814453e-01 3.500000000000000000e+01
4.597242355346679688e+00 -5.417047977447509766e+00 -6.215947866439819336e-01 8.000000000000000000e+00
1.675871849060059038e+00 -1.983126640319823997e+00 -6.957055926322937012e-01 1.500000000000000000e+01
1.953859210014343040e+00 -2.313717842102050781e+00 -6.991478800773620605e-01 1.300000000000000000e+01
2.330198526382445845e+00 -2.760348081588745117e+00 -7.021771073341369629e-01 1.100000000000000000e+01
2.879846811294556108e+00 -3.413877010345458984e+00 -7.073966264724731445e-01 1.000000000000000000e+01
3.714213609695435014e+00 -4.406085968017578125e+00 -7.075734138488769531e-01 3.100000000000000000e+01
4.573169708251953125e+00 -5.426967620849609375e+00 -6.208975315093994141e-01 8.000000000000000000e+00
1.677631735801696999e+00 -1.999323606491089089e+00 -6.993290781974792480e-01 1.500000000000000000e+01
1.938258290290832964e+00 -2.311564445495605025e+00 -6.964484453201293945e-01 1.400000000000000000e+01
2.323071241378784180e+00 -2.771474361419678178e+00 -7.029403448104858398e-01 1.200000000000000000e+01
2.870449542999268022e+00 -3.426937341690063032e+00 -7.080224156379699707e-01 1.100000000000000000e+01
3.706455707550048828e+00 -4.428157329559326172e+00 -7.090358138084411621e-01 2.400000000000000000e+01
4.614290237426757812e+00 -5.514716148376464844e+00 -6.290901303291320801e-01 7.000000000000000000e+00
1.673115730285644975e+00 -2.008135795593262163e+00 -7.003643512725830078e-01 1.400000000000000000e+01
1.933918237686157005e+00 -2.322808980941772017e+00 -6.977981925010681152e-01 1.200000000000000000e+01
2.309615135192871094e+00 -2.775039672851562944e+00 -7.017954587936401367e-01 1.200000000000000000e+01
2.858469724655150923e+00 -3.436936378479003906e+00 -7.080224156379699707e-01 1.000000000000000000e+01
3.673212528228760210e+00 -4.419695377349854404e+00 -7.056235074996948242e-01 2.400000000000000000e+01
4.584826469421386719e+00 -5.518529415130615234e+00 -6.276956796646118164e-01 6.000000000000000000e+00
1.668558597564697044e+00 -2.016940832138061968e+00 -7.013996243476867676e-01 1.500000000000000000e+01
1.929523348808289018e+00 -2.334051370620727983e+00 -6.991478800773620605e-01 1.200000000000000000e+01
2.296162605285644975e+00 -2.778544664382935014e+00 -7.006506323814392090e-01 1.200000000000000000e+01
2.856517791748046875e+00 -3.459078550338745117e+00 -7.105253338813781738e-01 1.000000000000000000e+01
3.650181770324707031e+00 -4.423303604125976562e+00 -7.041610479354858398e-01 2.400000000000000000e+01
4.608642101287841797e+00 -5.586755752563476562e+00 -6.336222290992736816e-01 7.000000000000000000e+00
1.722044754028319957e+01 -2.089007377624512074e+01 -1.418827772140502930e+00 1.300000000000000000e+01
1.648019790649414062e+00 -2.006332159042357954e+00 -6.957055926322937012e-01 1.600000000000000000e+01
1.927546143531799094e+00 -2.348304033279418945e+00 -7.013973593711853027e-01 1.200000000000000000e+01
2.290185689926147017e+00 -2.791095972061156782e+00 -7.017954587936401367e-01 1.200000000000000000e+01
2.844425916671752930e+00 -3.469028472900391069e+00 -7.105253338813781738e-01 1.000000000000000000e+01
3.620879888534545898e+00 -4.419127941131591797e+00 -7.014799118041992188e-01 1.800000000000000000e+01
4.586587905883789062e+00 -5.599726200103759766e+00 -6.332736015319824219e-01 9.000000000000000000e+00
1.722838401794433949e+01 -2.104897308349609020e+01 -1.425526738166809082e+00 1.300000000000000000e+01
1.642227292060852051e+00 -2.013569593429564986e+00 -6.962232589721679688e-01 1.200000000000000000e+01
1.916875123977660911e+00 -2.351996898651123047e+00 -7.004975676536560059e-01 1.200000000000000000e+01
2.285389184951781782e+00 -2.805161476135253906e+00 -7.033219337463378906e-01 1.100000000000000000e+01
2.823569297790526900e+00 -3.468213081359862837e+00 -7.083352804183959961e-01 1.100000000000000000e+01
3.626729011535644975e+00 -4.457917690277099609e+00 -7.056235074996948242e-01 1.600000000000000000e+01
4.463931560516357422e+00 -5.488950729370117188e+00 -6.189801096916198730e-01 1.200000000000000000e+01
1.705907440185546875e+01 -2.099118614196776988e+01 -1.417571663856505904e+00 1.200000000000000000e+01
1.644914627075195090e+00 -2.031300544738769975e+00 -7.003643512725830078e-01 1.500000000000000000e+01
1.902524113655090110e+00 -2.351099252700806108e+00 -6.982480883598327637e-01 1.200000000000000000e+01
2.281756877899169922e+00 -2.820753812789916992e+00 -7.052300572395324707e-01 1.100000000000000000e+01
2.818896532058715820e+00 -3.487265348434447798e+00 -7.102124691009521484e-01 1.100000000000000000e+01
3.599919557571411133e+00 -4.456652164459229404e+00 -7.034298777580261230e-01 1.800000000000000000e+01
4.367139816284179688e+00 -5.408391475677490234e+00 -6.081727743148803711e-01 1.300000000000000000e+01
1.696813774108887074e+01 -2.102884483337401988e+01 -1.416106343269347922e+00 1.200000000000000000e+01
1.647498130798340066e+00 -2.049074411392211914e+00 -7.045054435729980469e-01 1.400000000000000000e+01
1.897967338562011941e+00 -2.362283468246459961e+00 -6.995977759361267090e-01 1.200000000000000000e+01
2.264520406723022017e+00 -2.819517374038695845e+00 -7.029403448104858398e-01 1.200000000000000000e+01
2.806706666946411133e+00 -3.497083902359008789e+00 -7.102124691009521484e-01 1.100000000000000000e+01
3.575647115707397017e+00 -4.458351135253906250e+00 -7.017236948013305664e-01 1.500000000000000000e+01
4.436719417572020596e+00 -5.533971309661865234e+00 -6.205489039421081543e-01 1.000000000000000000e+01
1.685466957092285156e+01 -2.103806686401366832e+01 -1.412756800651550071e+00 2.500000000000000000e+01
1.633104085922240989e+00 -2.045754194259643999e+00 -7.013996243476867676e-01 1.400000000000000000e+01
1.895786166191101074e+00 -2.376511096954346147e+00 -7.018473148345947266e-01 1.400000000000000000e+01
2.253440618515015093e+00 -2.825869798660277876e+00 -7.025586962699890137e-01 1.200000000000000000e+01
2.801868677139281782e+00 -3.516129016876221147e+00 -7.120896577835083008e-01 1.100000000000000000e+01
3.557589769363402876e+00 -4.467699527740479404e+00 -7.012361884117126465e-01 2.000000000000000000e+01
4.448396205902099609e+00 -5.588395118713378906e+00 -6.249066591262817383e-01 9.000000000000000000e+00
1.674631690979003906e+01 -2.105300712585448863e+01 -1.409826040267943892e+00 1.200000000000000000e+01
1.619953274726867898e+00 -2.043872356414794922e+00 -6.988114118576049805e-01 1.400000000000000000e+01
1.889898896217345969e+00 -2.386169433593750000e+00 -7.027471065521240234e-01 1.200000000000000000e+01
2.249656200408935991e+00 -2.841414690017700195e+00 -7.044668197631835938e-01 1.100000000000000000e+01
2.788352489471435991e+00 -3.524338960647583008e+00 -7.117767930030822754e-01 1.000000000000000000e+01
3.539510488510131836e+00 -4.476976394653320312e+00 -7.007487416267395020e-01 3.500000000000000000e+01
4.346091270446777344e+00 -5.499157905578613281e+00 -6.132277846336364746e-01 8.000000000000000000e+00
1.664797019958496094e+01 -2.107998657226562855e+01 -1.407732605934143066e+00 1.200000000000000000e+01
1.616392970085144043e+00 -2.054069042205810991e+00 -7.003643512725830078e-01 1.400000000000000000e+01
1.877944350242614968e+00 -2.388156414031981978e+00 -7.013973593711853027e-01 1.200000000000000000e+01
2.236084222793579102e+00 -2.844619750976562944e+00 -7.033219337463378906e-01 1.200000000000000000e+01
2.777253389358520952e+00 -3.535604000091553178e+00 -7.120896577835083008e-01 1.100000000000000000e+01
3.525087118148804155e+00 -4.490865707397460938e+00 -7.009924650192260742e-01 3.300000000000000000e+01
4.487988948822020596e+00 -5.719631671905517578e+00 -6.360626220703125000e-01 9.000000000000000000e+00
1.652991867065430043e+01 -2.108138847351073863e+01 -1.403964400291443093e+00 2.500000000000000000e+01
1.612781167030334029e+00 -2.064265727996826172e+00 -7.019172310829162598e-01 1.500000000000000000e+01
1.865998983383178933e+00 -2.390089035034180132e+00 -7.000476717948913574e-01 1.300000000000000000e+01
2.233388423919678178e+00 -2.861694097518920898e+00 -7.056116461753845215e-01 1.200000000000000000e+01
2.761250495910644975e+00 -3.540603876113892046e+00 -7.111510634422302246e-01 1.100000000000000000e+01
3.495967149734497070e+00 -4.485919952392578125e+00 -6.983113288879394531e-01 2.600000000000000000e+01
4.475342750549316406e+00 -5.744693279266357422e+00 -6.371085047721862793e-01 1.000000000000000000e+01
1.640960884094237926e+01 -2.107907104492187855e+01 -1.399986863136291948e+00 1.200000000000000000e+01
1.609117865562438965e+00 -2.074462175369263139e+00 -7.034701704978942871e-01 1.600000000000000000e+01
1.856450796127318892e+00 -2.395047664642333984e+00 -6.995977759361267090e-01 1.200000000000000000e+01
2.222183227539062944e+00 -2.867920637130736861e+00 -7.052300572395324707e-01 1.200000000000000000e+01
2.751293420791625977e+00 -3.553344726562500000e+00 -7.117767930030822754e-01 1.100000000000000000e+01
3.470568895339965820e+00 -4.485535621643066406e+00 -6.963614225387573242e-01 3.500000000000000000e+01
4.484517574310302734e+00 -5.798103809356688565e+00 -6.412919759750366211e-01 6.000000000000000000e+00
1.623089218139648082e+01 -2.100031852722167969e+01 -1.390985012054442915e+00 1.200000000000000000e+01
1.601413607597351074e+00 -2.077976942062377930e+00 -7.029525041580200195e-01 1.600000000000000000e+01
1.856051445007323997e+00 -2.410131931304932085e+00 -7.022972106933593750e-01 1.200000000000000000e+01
2.207174301147460938e+00 -2.867109298706055132e+00 -7.033219337463378906e-01 1.200000000000000000e+01
2.748547792434691939e+00 -3.572930574417113814e+00 -7.139669060707092285e-01 1.100000000000000000e+01
3.466138601303101030e+00 -4.509006977081298828e+00 -6.983113288879394531e-01 2.900000000000000000e+01
4.480848312377929688e+00 -5.831121444702148438e+00 -6.433836817741394043e-01 9.000000000000000000e+00
1.618429946899414062e+01 -2.107655143737792969e+01 -1.392659783363342063e+00 1.200000000000000000e+01
1.582411289215087891e+00 -2.068211555480957031e+00 -6.977761387825012207e-01 1.600000000000000000e+01
1.854728937149048074e+00 -2.425884723663330078e+00 -7.049965858459472656e-01 1.200000000000000000e+01
2.200729370117187944e+00 -2.879475831985474077e+00 -7.044668197631835938e-01 1.200000000000000000e+01
2.733661174774169922e+00 -3.579363107681273970e+00 -7.133411765098571777e-01 1.100000000000000000e+01
3.502163887023925781e+00 -4.588934421539306641e+00 -7.087920904159545898e-01 1.800000000000000000e+01
4.462883472442626953e+00 -5.849895477294921875e+00 -6.437323093414306641e-01 9.000000000000000000e+00
1.612758255004883168e+01 -2.115515518188476918e+01 -1.394125223159790039e+00 1.200000000000000000e+01
1.588474273681641069e+00 -2.092737674713135210e+00 -7.039877772331237793e-01 1.500000000000000000e+01
1.841867566108704057e+00 -2.428330421447753906e+00 -7.036468982696533203e-01 1.200000000000000000e+01
2.193215131759643999e+00 -2.892597913742064986e+00 -7.056116461753845215e-01 1.200000000000000000e+01
2.718704462051392046e+00 -3.588258743286132812e+00 -7.130283117294311523e-01 1.000000000000000000e+01
3.488112688064575195e+00 -4.607095718383789062e+00 -7.095233201980590820e-01 2.400000000000000000e+01
4.454817295074462891e+00 -5.886052608489990234e+00 -6.458240747451782227e-01 7.000000000000000000e+00
1.577671766281127930e+00 -2.093641042709351030e+00 -7.024348974227905273e-01 1.500000000000000000e+01
1.821657419204711914e+00 -2.419177532196044922e+00 -6.991478800773620605e-01 1.100000000000000000e+01
2.192550420761107954e+00 -2.912784576416016069e+00 -7.086645960807800293e-01 1.300000000000000000e+01
2.710912227630614790e+00 -3.604041576385498047e+00 -7.142797708511352539e-01 1.000000000000000000e+01
3.464853286743164062e+00 -4.609722614288330078e+00 -7.080608606338500977e-01 1.500000000000000000e+01
4.421078681945800781e+00 -5.884045600891113281e+00 -6.439066529273986816e-01 9.000000000000000000e+00
1.576507806777954102e+00 -2.106594800949097124e+00 -7.050230503082275391e-01 1.600000000000000000e+01
1.820627570152282937e+00 -2.434568881988524947e+00 -7.018473148345947266e-01 1.100000000000000000e+01
2.177001714706420898e+00 -2.912177085876464844e+00 -7.067565321922302246e-01 1.300000000000000000e+01
2.698945999145507812e+00 -3.613011360168457031e+00 -7.142797708511352539e-01 1.000000000000000000e+01
3.416299104690552202e+00 -4.576645374298095703e+00 -7.012361884117126465e-01 1.600000000000000000e+01
4.436097145080566406e+00 -5.944981575012207031e+00 -6.489616632461547852e-01 7.000000000000000000e+00
1.640287780761719105e+01 -2.199813652038573863e+01 -1.438087463378906028e+00 1.300000000000000000e+01
1.566840648651123047e+00 -2.108983516693114790e+00 -7.039877772331237793e-01 1.500000000000000000e+01
1.814441442489624023e+00 -2.444038629531859907e+00 -7.027471065521240234e-01 1.200000000000000000e+01
2.169162988662720171e+00 -2.922911405563354048e+00 -7.075197696685791016e-01 1.400000000000000000e+01
2.691024303436278853e+00 -3.628757238388061968e+00 -7.155312299728393555e-01 1.000000000000000000e+01
3.328207492828369141e+00 -4.491253376007080078e+00 -6.863681674003601074e-01 1.700000000000000000e+01
4.418876171112061435e+00 -5.965233325958251953e+00 -6.494845747947692871e-01 7.000000000000000000e+00
1.557175993919373003e+00 -2.111330509185791016e+00 -7.029525041580200195e-01 1.600000000000000000e+01
1.812836050987244096e+00 -2.459769725799560991e+00 -7.054464817047119141e-01 1.300000000000000000e+01
2.156617879867554155e+00 -2.927304267883300781e+00 -7.067565321922302246e-01 1.700000000000000000e+01
2.671314477920531782e+00 -3.628583908081055132e+00 -7.136540412902832031e-01 1.000000000000000000e+01
3.285454511642456055e+00 -4.466066360473632812e+00 -6.807621717453002930e-01 1.900000000000000000e+01
4.356713771820068359e+00 -5.924443244934082031e+00 -6.433836817741394043e-01 1.200000000000000000e+01
2.858782196044921875e+01 -3.893184280395507812e+01 -8.430908322334289551e-01 1.300000000000000000e+01
1.547514081001281960e+00 -2.113635778427124023e+00 -7.019172310829162598e-01 1.300000000000000000e+01
1.804238796234131081e+00 -2.466082572937012163e+00 -7.054464817047119141e-01 1.100000000000000000e+01
2.151022434234619141e+00 -2.941153049468994141e+00 -7.082830071449279785e-01 1.700000000000000000e+01
2.660963296890258789e+00 -3.641076087951660156e+00 -7.142797708511352539e-01 1.100000000000000000e+01
3.276869535446166992e+00 -4.487125873565673828e+00 -6.822245717048645020e-01 2.100000000000000000e+01
4.336007118225097656e+00 -5.939614772796630859e+00 -6.433836817741394043e-01 1.000000000000000000e+01
1.548448920249938965e+00 -2.129693508148192915e+00 -7.055407166481018066e-01 1.400000000000000000e+01
1.793760180473328081e+00 -2.468899011611938032e+00 -7.045466899871826172e-01 1.100000000000000000e+01
2.148179531097412109e+00 -2.957801103591918945e+00 -7.105727195739746094e-01 1.600000000000000000e+01
2.648874282836914062e+00 -3.649880170822143999e+00 -7.142797708511352539e-01 1.000000000000000000e+01
3.314414739608765093e+00 -4.570282459259033203e+00 -6.931928396224975586e-01 1.500000000000000000e+01
4.302253723144531250e+00 -5.934603691101074219e+00 -6.412919759750366211e-01 1.200000000000000000e+01
1.537613749504088911e+00 -2.130386114120482954e+00 -7.039877772331237793e-01 1.500000000000000000e+01
1.787410974502563032e+00 -2.478306531906127930e+00 -7.054464817047119141e-01 1.100000000000000000e+01
2.134397506713867188e+00 -2.960504055023192915e+00 -7.094278335571289062e-01 1.400000000000000000e+01
2.643045902252196822e+00 -3.668720722198485884e+00 -7.161569595336914062e-01 1.000000000000000000e+01
3.210297346115111861e+00 -4.459384441375732422e+00 -6.746686697006225586e-01 2.400000000000000000e+01
4.295477390289306641e+00 -5.968991279602050781e+00 -6.433836817741394043e-01 7.000000000000000000e+00
1.529422283172606978e+00 -2.136274576187133789e+00 -7.039877772331237793e-01 1.300000000000000000e+01
1.777881860733032005e+00 -2.485151290893555132e+00 -7.054464817047119141e-01 1.100000000000000000e+01
2.119588136672974077e+00 -2.963886976242064986e+00 -7.082830071449279785e-01 1.600000000000000000e+01
2.638127565383911133e+00 -3.691699743270874023e+00 -7.186599373817443848e-01 1.000000000000000000e+01
3.189690113067626953e+00 -4.466831684112548828e+00 -6.739374399185180664e-01 1.900000000000000000e+01
4.299149990081787109e+00 -6.022737979888916016e+00 -6.473928689956665039e-01 7.000000000000000000e+00
1.517479658126831055e+00 -2.135301351547241211e+00 -7.019172310829162598e-01 1.400000000000000000e+01
1.775966048240662065e+00 -2.500875473022460938e+00 -7.081459164619445801e-01 1.100000000000000000e+01
2.114911556243896040e+00 -2.979272127151488814e+00 -7.101910710334777832e-01 1.400000000000000000e+01
2.620653390884398970e+00 -3.694441318511962891e+00 -7.174084782600402832e-01 1.000000000000000000e+01
3.246399402618408203e+00 -4.579967498779296875e+00 -6.892930269241333008e-01 1.500000000000000000e+01
4.288467407226563388e+00 -6.052339076995849609e+00 -6.489616632461547852e-01 9.000000000000000000e+00
2.766613960266112926e+01 -3.910322570800781250e+01 -8.361098766326904297e-01 1.200000000000000000e+01
1.515584707260132058e+00 -2.148478269577025923e+00 -7.045054435729980469e-01 1.400000000000000000e+01
1.764980077743530051e+00 -2.503873825073242188e+00 -7.072461247444152832e-01 1.100000000000000000e+01
2.102237462997436968e+00 -2.983426570892333984e+00 -7.094278335571289062e-01 1.400000000000000000e+01
2.605467081069945845e+00 -3.700336217880249023e+00 -7.167826890945434570e-01 1.000000000000000000e+01
3.215542793273925781e+00 -4.570166110992431641e+00 -6.861243844032287598e-01 1.500000000000000000e+01
4.242098331451416016e+00 -6.031419277191162109e+00 -6.451268196105957031e-01 1.100000000000000000e+01
1.667182350158691051e+01 -2.372160530090332031e+01 -1.519522190093993919e+00 1.400000000000000000e+01
2.741454887390137074e+01 -3.903591537475585938e+01 -8.326194286346435547e-01 1.200000000000000000e+01
1.509184002876281960e+00 -2.155338048934936968e+00 -7.050230503082275391e-01 1.300000000000000000e+01
1.756229162216186968e+00 -2.510019540786743164e+00 -7.072461247444152832e-01 1.100000000000000000e+01
2.095186233520507812e+00 -2.995573043823242188e+00 -7.105727195739746094e-01 1.300000000000000000e+01
2.597060918807982954e+00 -3.715884923934936968e+00 -7.180342078208923340e-01 1.000000000000000000e+01
3.187067508697510210e+00 -4.563460350036621094e+00 -6.834432482719421387e-01 1.500000000000000000e+01
4.225581169128417969e+00 -6.052724838256835938e+00 -6.458240747451782227e-01 7.000000000000000000e+00
1.649749946594237926e+01 -2.364861106872558949e+01 -1.511148452758789062e+00 1.400000000000000000e+01
1.508266448974608931e+00 -2.170110940933227983e+00 -7.081289291381835938e-01 1.600000000000000000e+01
1.745233654975890891e+00 -2.512933492660522017e+00 -7.063463330268859863e-01 1.100000000000000000e+01
2.084716796875000000e+00 -3.002868175506591797e+00 -7.105727195739746094e-01 1.400000000000000000e+01
2.588578224182128906e+00 -3.731420040130614790e+00 -7.192856669425964355e-01 1.000000000000000000e+01
3.233319759368896040e+00 -4.664286613464354581e+00 -6.968489289283752441e-01 1.500000000000000000e+01
4.245280265808104581e+00 -6.126392841339111328e+00 -6.520992517471313477e-01 1.000000000000000000e+01
1.633526039123535156e+01 -2.359111213684082031e+01 -1.503821372985840066e+00 1.400000000000000000e+01
1.493003249168395996e+00 -2.164231300354003906e+00 -7.045054435729980469e-01 1.500000000000000000e+01
1.734239220619202104e+00 -2.515801191329956055e+00 -7.054464817047119141e-01 1.000000000000000000e+01
2.068652391433715820e+00 -3.002043962478638139e+00 -7.086645960807800293e-01 1.400000000000000000e+01
2.584499597549438032e+00 -3.753448963165283203e+00 -7.217886447906494141e-01 1.000000000000000000e+01
3.264277935028076172e+00 -4.744230270385742188e+00 -7.070859074592590332e-01 1.500000000000000000e+01
4.157253742218017578e+00 -6.044320583343505859e+00 -6.418148875236511230e-01 7.000000000000000000e+00
1.625281143188476918e+01 -2.364798927307128906e+01 -1.503821372985840066e+00 1.400000000000000000e+01
1.485439538955688032e+00 -2.169429779052733931e+00 -7.045054435729980469e-01 1.500000000000000000e+01
1.736451029777527078e+00 -2.537922620773314986e+00 -7.099454998970031738e-01 1.100000000000000000e+01
2.060377359390258789e+00 -3.012487649917602983e+00 -7.094278335571289062e-01 1.500000000000000000e+01
2.563579559326171875e+00 -3.751031398773192915e+00 -7.195985317230224609e-01 1.100000000000000000e+01
3.208514928817749023e+00 -4.698220729827880859e+00 -6.985550522804260254e-01 1.700000000000000000e+01
4.146239757537841797e+00 -6.073605060577392578e+00 -6.433836817741394043e-01 6.000000000000000000e+00
1.614090347290039062e+01 -2.366168022155762074e+01 -1.501099944114685059e+00 1.400000000000000000e+01
1.481115341186522993e+00 -2.179394960403441939e+00 -7.060583829879760742e-01 1.500000000000000000e+01
1.725391864776611106e+00 -2.540744304656981978e+00 -7.090457081794738770e-01 1.100000000000000000e+01
2.054259777069091797e+00 -3.026158809661864790e+00 -7.109543085098266602e-01 1.400000000000000000e+01
2.549361705780028853e+00 -3.758322477340697798e+00 -7.192856669425964355e-01 1.000000000000000000e+01
3.163137197494506836e+00 -4.666668891906738281e+00 -6.922178864479064941e-01 2.100000000000000000e+01
4.087015628814697266e+00 -6.031960487365722656e+00 -6.374570727348327637e-01 7.000000000000000000e+00
