6.574356555938720703e+00 -9.216254949569702148e-01 -5.808058977127075195e-01 5.000000000000000000e+00
1.027478504180908025e+01 -1.444026827812195046e+00 -5.437706112861633301e-01 2.000000000000000000e+00
3.458732604980468750e+01 -4.879400253295898438e+00 9.359414100646972656e+00 7.000000000000000000e+00
2.377335548400878906e+00 -3.383449316024780273e-01 -6.434241533279418945e-01 1.900000000000000000e+01
2.751043319702147993e+00 -3.925112485885620117e-01 -6.415604352951049805e-01 1.300000000000000000e+01
3.224304914474486861e+00 -4.606091082096099854e-01 -6.331042647361755371e-01 1.300000000000000000e+01
3.881520748138428178e+00 -5.558785200119018555e-01 -6.210448145866394043e-01 1.000000000000000000e+01
4.969346523284912109e+00 -7.134379744529724121e-01 -6.164151430130004883e-01 1.000000000000000000e+01
6.590820789337158203e+00 -9.474034905433654785e-01 -5.825489759445190430e-01 6.000000000000000000e+00
3.402598190307617188e+01 -4.897156715393066406e+00 6.682130813598632812e+00 5.900000000000000000e+01
1.026572799682617010e+01 -1.479313969612122026e+00 -5.435612201690673828e-01 2.000000000000000000e+00
3.565327835083007812e+01 -5.144067764282226562e+00 8.316440582275390625e+00 1.000000000000000000e+01
2.051588249206542969e+01 -2.963694334030150923e+00 -3.618232905864716131e-01 3.000000000000000000e+00
3.450403594970703125e+01 -4.984402179718017578e+00 9.341297149658203125e+00 1.400000000000000000e+01
2.391433000564575195e+00 -3.488723337650299072e-01 -6.475652456283569336e-01 1.900000000000000000e+01
2.741943597793579102e+00 -4.009838402271270752e-01 -6.397607922554016113e-01 1.300000000000000000e+01
3.234332799911499023e+00 -4.735677838325499933e-01 -6.353939771652221680e-01 1.300000000000000000e+01
3.881510972976685014e+00 -5.697110295295715332e-01 -6.213576793670654297e-01 1.100000000000000000e+01
4.966825485229492188e+00 -7.307798862457275391e-01 -6.164151430130004883e-01 9.000000000000000000e+00
3.527967834472656250e+01 -5.190775871276854581e+00 5.647910118103027344e+00 1.300000000000000000e+01
6.605213642120361328e+00 -9.730172753334045410e-01 -5.841177701950073242e-01 6.000000000000000000e+00
3.426505661010742188e+01 -5.053712368011474609e+00 6.732504367828369141e+00 5.900000000000000000e+01
1.024469470977783025e+01 -1.512804865837096946e+00 -5.427238941192626953e-01 2.000000000000000000e+00
3.708094406127929688e+01 -5.482250690460205078e+00 8.653866767883300781e+00 1.100000000000000000e+01
2.050541114807128906e+01 -3.035290002822875977e+00 -3.618232905864716131e-01 3.000000000000000000e+00
3.480938720703125000e+01 -5.152619838714599609e+00 9.428777694702148438e+00 7.000000000000000000e+00
2.384468555450439009e+00 -3.563612401485443115e-01 -6.460123658180236816e-01 1.900000000000000000e+01
2.736672639846802202e+00 -4.099751412868499756e-01 -6.388610005378723145e-01 1.400000000000000000e+01
3.219069242477416992e+00 -4.828163981437683105e-01 -6.327226161956787109e-01 1.300000000000000000e+01
3.875591993331909180e+00 -5.826691985130310059e-01 -6.207319498062133789e-01 1.000000000000000000e+01
4.243372726440429688e+01 -6.387198925018311435e+00 5.268898963928222656e+00 3.100000000000000000e+01
4.974059104919433594e+00 -7.495919466018676758e-01 -6.176338195800781250e-01 1.000000000000000000e+01
6.611627578735351562e+00 -9.975540637969970703e-01 -5.849893689155578613e-01 5.000000000000000000e+00
3.417732238769531250e+01 -5.162732601165770596e+00 6.718766212463378906e+00 5.900000000000000000e+01
1.032229328155517933e+01 -1.561100125312804954e+00 -5.471200942993164062e-01 2.000000000000000000e+00
4.198436355590820312e+01 -6.364529132843017578e+00 1.137820243835449041e+01 1.100000000000000000e+01
2.394667863845825195e+00 -3.664356768131256104e-01 -6.491181850433349609e-01 2.100000000000000000e+01
3.764696884155272727e+01 -5.767520427703857422e+00 6.647970676422119141e-01 3.100000000000000000e+01
2.750634670257567915e+00 -4.218889176845551092e-01 -6.424602270126342773e-01 1.400000000000000000e+01
3.209602117538452148e+00 -4.928581714630126953e-01 -6.311961412429809570e-01 1.200000000000000000e+01
3.887201070785522017e+00 -5.982974767684936523e-01 -6.229220628738403320e-01 1.000000000000000000e+01
3.659991836547852273e+01 -5.639805316925048828e+00 4.546945095062255859e+00 1.900000000000000000e+01
4.963564872741699219e+00 -7.657394409179687500e-01 -6.166588664054870605e-01 1.000000000000000000e+01
3.526896286010742188e+01 -5.447318553924561435e+00 5.652289867401123047e+00 1.300000000000000000e+01
6.604166984558104581e+00 -1.020018696784972922e+00 -5.846407413482666016e-01 5.000000000000000000e+00
3.422893905639647727e+01 -5.292802810668945312e+00 6.732504367828369141e+00 5.900000000000000000e+01
1.029704380035400035e+01 -1.594066619873047097e+00 -5.460733771324157715e-01 2.000000000000000000e+00
4.221273422241210938e+01 -6.557510852813720703e+00 1.144653129577637074e+01 1.100000000000000000e+01
2.376261711120605025e+00 -3.716877698898314875e-01 -6.444594264030456543e-01 1.900000000000000000e+01
3.763158798217772727e+01 -5.892949104309082031e+00 6.648668646812438965e-01 3.100000000000000000e+01
2.751145601272583008e+00 -4.313098788261414129e-01 -6.429101228713989258e-01 1.500000000000000000e+01
3.219587326049805132e+00 -5.053253769874572754e-01 -6.334858536720275879e-01 1.200000000000000000e+01
3.877390146255493164e+00 -6.099566817283630371e-01 -6.216705441474914551e-01 1.000000000000000000e+01
4.970802307128906250e+00 -7.837408185005187988e-01 -6.178775429725646973e-01 9.000000000000000000e+00
3.564094924926757812e+01 -5.625843524932861328e+00 5.714863777160645419e+00 1.300000000000000000e+01
6.616492271423339844e+00 -1.044398427009582964e+00 -5.860351920127868652e-01 6.000000000000000000e+00
1.037061023712158025e+01 -1.640687942504883035e+00 -5.502602458000183105e-01 2.000000000000000000e+00
2.067057228088378906e+01 -3.277595281600952148e+00 -3.653137683868408203e-01 3.000000000000000000e+00
2.371134757995605025e+00 -3.793697953224182129e-01 -6.434241533279418945e-01 1.800000000000000000e+01
2.747699260711669922e+00 -4.406019747257233221e-01 -6.424602270126342773e-01 1.300000000000000000e+01
3.798092651367188211e+01 -6.097157955169677734e+00 2.015980958938599077e+00 2.200000000000000000e+01
3.219742059707642046e+00 -5.168719291687011719e-01 -6.338675022125244141e-01 1.100000000000000000e+01
3.879137992858887163e+00 -6.241151690483093262e-01 -6.222962737083435059e-01 1.100000000000000000e+01
3.844995880126953125e+01 -6.193105220794677734e+00 4.781909465789794922e+00 2.000000000000000000e+01
4.993513584136962891e+00 -8.051955699920654297e-01 -6.210461854934692383e-01 1.000000000000000000e+01
6.585269451141357422e+00 -1.063042759895324929e+00 -5.835948586463928223e-01 6.000000000000000000e+00
3.702563476562500000e+01 -5.983581542968750000e+00 7.290430068969726562e+00 6.200000000000000000e+01
1.032933044433593928e+01 -1.671136498451232910e+00 -5.483761429786682129e-01 2.000000000000000000e+00
3.488964080810546875e+01 -5.650888442993164062e+00 8.159874916076660156e+00 1.000000000000000000e+01
2.071427536010741832e+01 -3.358690738677978960e+00 -3.662911057472229004e-01 3.000000000000000000e+00
3.623771286010742188e+01 -5.875719547271729404e+00 9.836676597595214844e+00 7.000000000000000000e+00
2.383141517639160156e+00 -3.898273408412932794e-01 -6.470476388931274414e-01 1.600000000000000000e+01
5.994038009643554688e+01 -9.815613746643066406e+00 1.060198783874511941e+00 6.100000000000000000e+01
2.736529111862183061e+00 -4.486142694950103760e-01 -6.402106881141662598e-01 1.200000000000000000e+01
3.223730325698852983e+00 -5.290616154670715332e-01 -6.350123286247253418e-01 1.200000000000000000e+01
3.878885030746459961e+00 -6.379727125167846680e-01 -6.226091980934143066e-01 1.100000000000000000e+01
4.980879306793212891e+00 -8.210070133209228516e-01 -6.198275089263916016e-01 9.000000000000000000e+00
3.637756347656250000e+01 -5.996177196502686435e+00 5.839385509490966797e+00 1.300000000000000000e+01
6.611005783081054688e+00 -1.090888857841491921e+00 -5.862095355987548828e-01 6.000000000000000000e+00
1.035890293121338068e+01 -1.713047862052917036e+00 -5.502602458000183105e-01 2.000000000000000000e+00
3.419680023193358664e+01 -5.661243915557861328e+00 8.002408981323242188e+00 1.000000000000000000e+01
2.074582481384276988e+01 -3.438169240951538086e+00 -3.670590221881865900e-01 3.000000000000000000e+00
3.482951736450195312e+01 -5.772234916687011719e+00 9.459836006164550781e+00 7.000000000000000000e+00
2.397009611129761186e+00 -4.006917774677277166e-01 -6.511887311935424805e-01 1.600000000000000000e+01
2.733024597167969194e+00 -4.578418135643004816e-01 -6.397607922554016113e-01 1.400000000000000000e+01
3.785470581054688211e+01 -6.348289966583251953e+00 2.011584758758544922e+00 2.100000000000000000e+01
3.214118957519530806e+00 -5.390124917030334473e-01 -6.334858536720275879e-01 1.100000000000000000e+01
3.882478475570679155e+00 -6.524907946586608887e-01 -6.235477924346923828e-01 1.000000000000000000e+01
3.740937805175781250e+01 -6.293747901916503906e+00 4.657846450805664062e+00 4.000000000000000000e+01
4.970152854919433594e+00 -8.370697498321533203e-01 -6.188524961471557617e-01 9.000000000000000000e+00
3.538529205322266336e+01 -5.965918540954589844e+00 5.683577060699462891e+00 1.300000000000000000e+01
6.622874736785888672e+00 -1.116608858108520952e+00 -5.876040458679199219e-01 6.000000000000000000e+00
1.039224720001221058e+01 -1.755851507186890093e+00 -5.523536801338195801e-01 2.000000000000000000e+00
3.406538772583007812e+01 -5.761729240417479581e+00 7.976314544677734375e+00 1.000000000000000000e+01
3.479860305786132812e+01 -5.898238658905029297e+00 9.457247734069824219e+00 1.400000000000000000e+01
2.384312629699707031e+00 -4.062732458114624023e-01 -6.480829119682312012e-01 1.600000000000000000e+01
2.748861074447631836e+00 -4.693776667118073065e-01 -6.438099145889282227e-01 1.300000000000000000e+01
3.204668998718262163e+00 -5.477840900421142578e-01 -6.319593787193298340e-01 1.200000000000000000e+01
3.888197660446166992e+00 -6.660187840461730957e-01 -6.247992515563964844e-01 1.000000000000000000e+01
3.745790100097656250e+01 -6.422984123229979581e+00 4.666377067565917969e+00 2.000000000000000000e+01
4.965542316436767578e+00 -8.523439764976501465e-01 -6.186087727546691895e-01 1.000000000000000000e+01
6.609516143798828125e+00 -1.135722637176513894e+00 -5.867324471473693848e-01 6.000000000000000000e+00
1.036699676513672053e+01 -1.785101771354675071e+00 -5.513069629669189453e-01 2.000000000000000000e+00
3.407784652709960938e+01 -5.874016284942626953e+00 7.983512878417968750e+00 1.000000000000000000e+01
2.088415336608887074e+01 -3.603566169738769975e+00 -3.699212074279785156e-01 3.000000000000000000e+00
3.478285598754882812e+01 -6.001790523529052734e+00 9.457765579223632812e+00 7.000000000000000000e+00
2.377170085906981978e+00 -4.136001169681549072e-01 -6.465299725532531738e-01 1.700000000000000000e+01
5.964094543457031250e+01 -1.038755989074707031e+01 1.056708335876465066e+00 6.200000000000000000e+01
2.751045465469359907e+00 -4.796395301818848211e-01 -6.447097063064575195e-01 1.300000000000000000e+01
3.214341640472412109e+00 -5.609924197196960449e-01 -6.342490911483764648e-01 1.100000000000000000e+01
3.881957530975341797e+00 -6.789064407348632812e-01 -6.241735219955444336e-01 1.000000000000000000e+01
3.849505233764647727e+01 -6.739233970642089844e+00 4.798483371734619141e+00 2.000000000000000000e+01
4.984045028686523438e+00 -8.734410405158996582e-01 -6.212899088859558105e-01 9.000000000000000000e+00
6.638872623443604404e+00 -1.164639592170715110e+00 -5.896957516670227051e-01 8.000000000000000000e+00
1.040004444122313920e+01 -1.828194260597229004e+00 -5.534003973007202148e-01 2.000000000000000000e+00
3.439876174926757812e+01 -6.053049564361572266e+00 8.063595771789550781e+00 1.000000000000000000e+01
2.090689659118651988e+01 -3.682687759399414062e+00 -3.705494999885559082e-01 3.000000000000000000e+00
3.475027847290039062e+01 -6.121158123016357422e+00 9.454659461975097656e+00 7.000000000000000000e+00
2.379368543624877930e+00 -4.234016239643096924e-01 -6.475652456283569336e-01 1.800000000000000000e+01
2.747265100479125977e+00 -4.898571670055388849e-01 -6.442598104476928711e-01 1.200000000000000000e+01
3.217962026596068892e+00 -5.743653178215026855e-01 -6.353939771652221680e-01 1.200000000000000000e+01
3.881266593933105025e+00 -6.941547989845275879e-01 -6.244863867759704590e-01 1.100000000000000000e+01
5.013871669769287109e+00 -8.985247015953063965e-01 -6.254334449768066406e-01 1.000000000000000000e+01
3.726249694824218750e+01 -6.677728652954101562e+00 5.995820045471191406e+00 1.300000000000000000e+01
6.634351730346679688e+00 -1.190122485160828081e+00 -5.896957516670227051e-01 6.000000000000000000e+00
1.040867424011229936e+01 -1.870940685272217019e+00 -5.542377829551696777e-01 2.000000000000000000e+00
3.424484634399414062e+01 -6.161620140075683594e+00 8.033001899719238281e+00 1.000000000000000000e+01
2.080600929260253906e+01 -3.747340917587279829e+00 -3.690136671066284180e-01 1.000000000000000000e+01
3.532240295410156250e+01 -6.368233203887938565e+00 9.617197990417480469e+00 7.000000000000000000e+00
2.383578300476074219e+00 -4.327398538589478094e-01 -6.491181850433349609e-01 1.900000000000000000e+01
2.730200290679932085e+00 -4.966537356376647949e-01 -6.406605839729309082e-01 1.100000000000000000e+01
3.223663330078125000e+00 -5.870014429092407227e-01 -6.369204521179199219e-01 1.100000000000000000e+01
3.880763053894042969e+00 -7.080532908439636230e-01 -6.247992515563964844e-01 1.100000000000000000e+01
4.973602771759033203e+00 -9.092382192611694336e-01 -6.208024621009826660e-01 9.000000000000000000e+00
6.618398189544677734e+00 -1.211121559143065962e+00 -5.886498689651489258e-01 5.000000000000000000e+00
1.043351268768311080e+01 -1.913025617599487083e+00 -5.559125542640686035e-01 2.000000000000000000e+00
2.078100013732910156e+01 -3.817776679992675781e+00 -3.688042461872100830e-01 7.000000000000000000e+00
3.524295806884766336e+01 -6.481010437011718750e+00 9.601669311523437500e+00 7.000000000000000000e+00
2.387906074523925781e+00 -4.412791132926940918e-01 -6.506710648536682129e-01 2.000000000000000000e+01
2.730542659759521040e+00 -5.055832266807556152e-01 -6.411104798316955566e-01 1.300000000000000000e+01
3.208290815353393999e+00 -5.946215391159057617e-01 -6.342490911483764648e-01 1.200000000000000000e+01
3.890172481536864790e+00 -7.224055528640747070e-01 -6.266764402389526367e-01 1.300000000000000000e+01
4.974625110626220703e+00 -9.255849719047546387e-01 -6.212899088859558105e-01 9.000000000000000000e+00
6.663528442382813388e+00 -1.241027712821960005e+00 -5.930076837539672852e-01 5.000000000000000000e+00
1.045886516571044922e+01 -1.951655864715575950e+00 -5.575872659683227539e-01 2.000000000000000000e+00
3.318986892700195312e+01 -6.199324607849121094e+00 7.795003890991210938e+00 2.800000000000000000e+01
1.980181121826171875e+01 -3.702231407165526900e+00 -3.516310751438140869e-01 1.300000000000000000e+01
2.378757476806641069e+00 -4.481810331344603937e-01 -6.486005187034606934e-01 2.000000000000000000e+01
2.742165565490723100e+00 -5.176419019699096680e-01 -6.442598104476928711e-01 1.300000000000000000e+01
3.204266548156737837e+00 -6.054524183273315430e-01 -6.338675022125244141e-01 1.200000000000000000e+01
3.883745431900023970e+00 -7.352454662322998047e-01 -6.260507106781005859e-01 1.100000000000000000e+01
4.973314285278320312e+00 -9.433139562606811523e-01 -6.215336322784423828e-01 1.000000000000000000e+01
6.655240535736083984e+00 -1.263536930084228960e+00 -5.926590561866760254e-01 5.000000000000000000e+00
1.045198822021484020e+01 -1.988152265548706055e+00 -5.575872659683227539e-01 2.000000000000000000e+00
3.318908309936522727e+01 -6.319150447845458984e+00 7.799952983856201172e+00 1.900000000000000000e+01
1.976912498474121094e+01 -3.767586469650268999e+00 -3.512820303440093994e-01 1.000000000000000000e+01
3.535480499267578125e+01 -6.744289875030517578e+00 9.644115447998046875e+00 7.000000000000000000e+00
2.365795373916625977e+00 -4.542958438396453857e-01 -6.454946994781494141e-01 1.900000000000000000e+01
2.747996568679810014e+00 -5.286833643913269043e-01 -6.460594534873962402e-01 1.200000000000000000e+01
3.215628385543822798e+00 -6.192324161529541016e-01 -6.365388035774230957e-01 1.100000000000000000e+01
3.886974096298218218e+00 -7.499204277992248535e-01 -6.269893646240234375e-01 1.100000000000000000e+01
4.997277259826660156e+00 -9.659425616264343262e-01 -6.249459981918334961e-01 1.000000000000000000e+01
3.608591079711914062e+01 -6.975181579589843750e+00 5.821239471435546875e+00 1.300000000000000000e+01
6.639052867889404297e+00 -1.284489631652832031e+00 -5.916131734848022461e-01 6.000000000000000000e+00
1.046851444244384943e+01 -2.029185056686400923e+00 -5.588433146476745605e-01 2.000000000000000000e+00
3.331986999511718750e+01 -6.464657306671142578e+00 7.835945129394531250e+00 9.000000000000000000e+00
2.079429054260253906e+01 -4.038234233856201172e+00 -3.697466850280762274e-01 1.000000000000000000e+01
2.369882822036743164e+00 -4.636640548706055243e-01 -6.470476388931274414e-01 1.600000000000000000e+01
2.742309570312500000e+00 -5.375227332115173340e-01 -6.451596021652221680e-01 1.400000000000000000e+01
3.205741167068481001e+00 -6.289414167404174805e-01 -6.350123286247253418e-01 1.100000000000000000e+01
3.870764732360839844e+00 -7.608171105384826660e-01 -6.247992515563964844e-01 1.000000000000000000e+01
3.762870025634766336e+01 -7.402920246124267578e+00 4.708787918090820312e+00 2.000000000000000000e+01
4.997770786285400391e+00 -9.841474890708923340e-01 -6.254334449768066406e-01 1.000000000000000000e+01
3.772428131103516336e+01 -7.428563594818115234e+00 6.089680671691895419e+00 1.400000000000000000e+01
6.665805339813232422e+00 -1.313820958137511985e+00 -5.944021940231323242e-01 8.000000000000000000e+00
1.046920490264892933e+01 -2.067262411117554155e+00 -5.592620372772216797e-01 2.000000000000000000e+00
3.333533477783203125e+01 -6.588482856750488281e+00 7.844943046569824219e+00 9.000000000000000000e+00
2.039754104614258168e+01 -4.035122394561767578e+00 -3.629402518272399902e-01 6.000000000000000000e+00
3.664856338500977273e+01 -7.256610870361328125e+00 1.001060295104979936e+01 8.000000000000000000e+00
2.377805709838867188e+00 -4.734064042568206787e-01 -6.496357917785644531e-01 1.800000000000000000e+01
2.732867717742919922e+00 -5.450888872146606445e-01 -6.433600187301635742e-01 1.300000000000000000e+01
3.213264226913452148e+00 -6.414903402328491211e-01 -6.369204521179199219e-01 1.200000000000000000e+01
3.875968456268310991e+00 -7.751984596252441406e-01 -6.260507106781005859e-01 1.000000000000000000e+01
3.767401885986328125e+01 -7.541688442230224609e+00 4.717562198638916016e+00 2.000000000000000000e+01
4.996426105499267578e+00 -1.001105308532715066e+00 -6.256772279739379883e-01 1.000000000000000000e+01
6.677039623260498047e+00 -1.339052438735961914e+00 -5.957966446876525879e-01 5.000000000000000000e+00
1.047012424468993963e+01 -2.103541851043701172e+00 -5.596807003021240234e-01 2.000000000000000000e+00
3.367630004882813211e+01 -6.771985054016113281e+00 7.930424690246582031e+00 9.000000000000000000e+00
1.973320198059082031e+01 -3.971743583679199219e+00 -3.513518571853638250e-01 6.000000000000000000e+00
4.017469787597656250e+01 -8.086047172546386719e+00 1.098065662384033025e+01 1.000000000000000000e+01
2.383712053298950195e+00 -4.832389056682587225e-01 -6.517063379287719727e-01 2.000000000000000000e+01
2.734767913818358931e+00 -5.554007291793823242e-01 -6.442598104476928711e-01 1.400000000000000000e+01
3.207157611846923828e+00 -6.519206762313842773e-01 -6.361572146415710449e-01 1.200000000000000000e+01
3.880981445312500000e+00 -7.903000712394714355e-01 -6.273022294044494629e-01 1.100000000000000000e+01
3.756966018676757812e+01 -7.657291412353515625e+00 4.707812786102294922e+00 2.000000000000000000e+01
4.981230735778808594e+00 -1.016159296035767046e+00 -6.242147684097290039e-01 9.000000000000000000e+00
6.664516448974609375e+00 -1.360757231712341087e+00 -5.950993895530700684e-01 4.000000000000000000e+00
3.508462524414063211e+01 -7.169937610626220703e+00 6.960711956024169922e+00 6.000000000000000000e+01
1.047054481506348012e+01 -2.141677379608153853e+00 -5.600994229316711426e-01 2.000000000000000000e+00
3.381282424926757812e+01 -6.922327518463134766e+00 7.968216419219970703e+00 1.000000000000000000e+01
1.814418792724609020e+01 -3.717866897583007812e+00 -3.232883810997009277e-01 6.000000000000000000e+00
3.560667037963867188e+01 -7.302523612976074219e+00 9.739360809326171875e+00 7.000000000000000000e+00
2.370658874511719194e+00 -4.892140626907349188e-01 -6.486005187034606934e-01 1.900000000000000000e+01
2.736629247665404829e+00 -5.657325387001037598e-01 -6.451596021652221680e-01 1.400000000000000000e+01
3.204862356185913086e+00 -6.631117463111877441e-01 -6.361572146415710449e-01 1.300000000000000000e+01
3.885936260223389116e+00 -8.054460287094116211e-01 -6.285536885261535645e-01 1.000000000000000000e+01
3.716173553466796875e+01 -7.709354400634765625e+00 4.660039901733398438e+00 2.000000000000000000e+01
4.999033451080322266e+00 -1.037980079650878906e+00 -6.268959045410156250e-01 1.000000000000000000e+01
6.687036037445068359e+00 -1.389687895774841087e+00 -5.975397825241088867e-01 6.000000000000000000e+00
1.052948665618895951e+01 -2.192053794860839844e+00 -5.636582374572753906e-01 2.000000000000000000e+00
1.809586334228515980e+01 -3.773830652236938032e+00 -3.226600885391234796e-01 3.000000000000000000e+00
3.549904632568358664e+01 -7.403205871582031250e+00 9.716584205627441406e+00 7.000000000000000000e+00
2.374608516693114790e+00 -4.986773431301116943e-01 -6.501534581184387207e-01 2.100000000000000000e+01
2.734637737274169922e+00 -5.752816796302795410e-01 -6.451596021652221680e-01 1.400000000000000000e+01
3.210212707519530806e+00 -6.759127974510192871e-01 -6.376836895942687988e-01 1.200000000000000000e+01
3.883100986480712891e+00 -8.190056085586547852e-01 -6.285536885261535645e-01 1.000000000000000000e+01
4.991495132446289062e+00 -1.054602980613708052e+00 -6.264083981513977051e-01 1.000000000000000000e+01
6.670448780059813565e+00 -1.410548329353332964e+00 -5.964938998222351074e-01 6.000000000000000000e+00
1.052177047729492010e+01 -2.228795051574707031e+00 -5.636582374572753906e-01 2.000000000000000000e+00
1.797303581237792969e+01 -3.813729763031005859e+00 -3.207054138183593750e-01 3.000000000000000000e+00
3.555482101440429688e+01 -7.550924777984619141e+00 9.739360809326171875e+00 7.000000000000000000e+00
2.363319158554077148e+00 -5.053575634956359863e-01 -6.475652456283569336e-01 2.000000000000000000e+01
2.740133047103881836e+00 -5.869334340095520020e-01 -6.469592452049255371e-01 1.400000000000000000e+01
3.211553096771239790e+00 -6.884973049163818359e-01 -6.384469270706176758e-01 1.200000000000000000e+01
3.880073308944702148e+00 -8.332324028015136719e-01 -6.285536885261535645e-01 1.000000000000000000e+01
3.750929641723632812e+01 -8.061841011047363281e+00 4.710737705230712891e+00 2.000000000000000000e+01
4.995359420776367188e+00 -1.074560523033142090e+00 -6.273833513259887695e-01 1.000000000000000000e+01
3.623704910278320312e+01 -7.795014858245849609e+00 5.870672702789306641e+00 1.300000000000000000e+01
6.667181491851806641e+00 -1.435406684875488059e+00 -5.966682434082031250e-01 5.000000000000000000e+00
1.055648326873778942e+01 -2.276607513427733931e+00 -5.659610033035278320e-01 2.000000000000000000e+00
1.803712081909180043e+01 -3.896468400955200195e+00 -3.221016228199005127e-01 3.000000000000000000e+00
2.376642465591431108e+00 -5.168884396553039551e-01 -6.517063379287719727e-01 2.000000000000000000e+01
2.722834825515747070e+00 -5.931762456893920898e-01 -6.433600187301635742e-01 1.400000000000000000e+01
3.214884757995605025e+00 -7.009582519531250000e-01 -6.395917534828186035e-01 1.200000000000000000e+01
3.877140998840332031e+00 -8.467712998390197754e-01 -6.285536885261535645e-01 1.000000000000000000e+01
3.736844635009766336e+01 -8.168137550354003906e+00 4.696600914001464844e+00 2.000000000000000000e+01
4.997395515441895419e+00 -1.093263745307921919e+00 -6.281145811080932617e-01 9.000000000000000000e+00
6.691324710845947266e+00 -1.465062737464905007e+00 -5.992828607559204102e-01 5.000000000000000000e+00
1.050945472717284979e+01 -2.304885387420653853e+00 -5.638675689697265625e-01 2.000000000000000000e+00
3.626979064941406250e+01 -7.961159229278563565e+00 8.572884559631347656e+00 1.100000000000000000e+01
1.911715698242187855e+01 -4.199682235717773438e+00 -3.416483104228972834e-01 3.000000000000000000e+00
2.378596305847167969e+00 -5.260155797004699707e-01 -6.527416110038757324e-01 1.900000000000000000e+01
2.728358268737792969e+00 -6.043629050254821777e-01 -6.451596021652221680e-01 1.300000000000000000e+01
4.184129714965820312e+01 -9.275992393493652344e+00 2.246049880981444868e+00 2.900000000000000000e+01
3.200917959213256836e+00 -7.096264362335205078e-01 -6.373020410537719727e-01 1.200000000000000000e+01
3.879946947097777876e+00 -8.615845441818237305e-01 -6.294922828674316406e-01 1.000000000000000000e+01
3.666147232055664062e+01 -8.147794723510742188e+00 4.611292362213134766e+00 1.900000000000000000e+01
4.993548870086669922e+00 -1.110701203346251997e+00 -6.281145811080932617e-01 1.000000000000000000e+01
6.674501419067382812e+00 -1.485813379287719949e+00 -5.982370376586914062e-01 5.000000000000000000e+00
1.057931995391846058e+01 -2.358942747116088867e+00 -5.680544972419738770e-01 2.000000000000000000e+00
3.629883956909179688e+01 -8.100448608398437500e+00 8.586381912231445312e+00 1.100000000000000000e+01
2.371091127395629883e+00 -5.330440998077392578e-01 -6.511887311935424805e-01 2.100000000000000000e+01
4.580772399902343750e+01 -1.030641651153563920e+01 8.195649981498718262e-01 5.400000000000000000e+01
2.726232051849364790e+00 -6.138829588890075684e-01 -6.451596021652221680e-01 1.400000000000000000e+01
4.141898727416992188e+01 -9.334171295166015625e+00 2.225115537643433061e+00 2.900000000000000000e+01
3.202251911163330078e+00 -7.216586470603942871e-01 -6.380652785301208496e-01 1.200000000000000000e+01
3.896184682846068892e+00 -8.794723749160766602e-01 -6.326209902763366699e-01 1.100000000000000000e+01
4.987705230712890625e+00 -1.127687454223633035e+00 -6.278708577156066895e-01 1.000000000000000000e+01
3.615200805664063211e+01 -8.180363655090332031e+00 5.870672702789306641e+00 1.300000000000000000e+01
6.673160552978515625e+00 -1.509982109069823997e+00 -5.985856652259826660e-01 7.000000000000000000e+00
3.569130325317382812e+01 -8.082665443420410156e+00 7.113359451293945312e+00 6.100000000000000000e+01
1.060218715667724965e+01 -2.402920722961425781e+00 -5.697292089462280273e-01 2.000000000000000000e+00
1.878705978393555043e+01 -4.264867305755615234e+00 -3.362729549407958984e-01 3.000000000000000000e+00
2.365543603897095171e+00 -5.400440096855163574e-01 -6.501534581184387207e-01 2.200000000000000000e+01
2.737479209899901900e+00 -6.259608268737792969e-01 -6.483089327812194824e-01 1.500000000000000000e+01
3.201755046844481978e+00 -7.327116727828979492e-01 -6.384469270706176758e-01 1.200000000000000000e+01
3.889395952224731001e+00 -8.915050625801086426e-01 -6.319952607154846191e-01 1.200000000000000000e+01
5.005220413208007812e+00 -1.149107098579406960e+00 -6.305519938468933105e-01 1.000000000000000000e+01
3.605681991577147727e+01 -8.277985572814941406e+00 5.859409332275390625e+00 1.300000000000000000e+01
6.675883769989013672e+00 -1.533887386322021040e+00 -5.992828607559204102e-01 5.000000000000000000e+00
1.063698101043700994e+01 -2.447920083999633789e+00 -5.720319747924804688e-01 3.000000000000000000e+00
1.806937026977539062e+01 -4.164999485015869141e+00 -3.236723244190216064e-01 9.000000000000000000e+00
3.794911575317382812e+01 -8.747292518615722656e+00 1.043506622314452947e+01 8.000000000000000000e+00
2.363644123077393022e+00 -5.482980012893676758e-01 -6.501534581184387207e-01 2.100000000000000000e+01
2.733379364013671875e+00 -6.350715756416320801e-01 -6.478590369224548340e-01 1.400000000000000000e+01
3.203002452850341797e+00 -7.447727322578430176e-01 -6.392101049423217773e-01 1.200000000000000000e+01
3.870869159698485884e+00 -9.014917016029357910e-01 -6.294922828674316406e-01 1.100000000000000000e+01
4.997312545776367188e+00 -1.165669679641724077e+00 -6.300644874572753906e-01 9.000000000000000000e+00
3.593921279907227273e+01 -8.383155822753906250e+00 5.845017433166503906e+00 1.300000000000000000e+01
6.684070587158203125e+00 -1.560351729393004927e+00 -6.005030870437622070e-01 6.000000000000000000e+00
1.061281299591063920e+01 -2.481397390365601030e+00 -5.711946487426757812e-01 3.000000000000000000e+00
1.804693412780762074e+01 -4.226224422454833984e+00 -3.235327005386353094e-01 1.200000000000000000e+01
3.667691421508789062e+01 -8.588986396789550781e+00 1.009342479705811080e+01 8.000000000000000000e+00
2.374878168106079102e+00 -5.596470832824707031e-01 -6.537768840789794922e-01 2.000000000000000000e+01
2.721662759780883789e+00 -6.423707604408264160e-01 -6.456094980239868164e-01 1.500000000000000000e+01
3.208025693893433061e+00 -7.577539682388305664e-01 -6.407365798950195312e-01 1.200000000000000000e+01
3.881155014038085938e+00 -9.181814193725585938e-01 -6.316823959350585938e-01 1.000000000000000000e+01
4.247594070434570312e+01 -1.005654335021973012e+01 5.359570026397705078e+00 3.300000000000000000e+01
5.012529373168945312e+00 -1.187683224678039995e+00 -6.325019001960754395e-01 9.000000000000000000e+00
3.613505172729492188e+01 -8.568605422973632812e+00 5.881936073303222656e+00 1.300000000000000000e+01
6.715416908264160156e+00 -1.592408418655395952e+00 -6.038149595260620117e-01 5.000000000000000000e+00
1.061185932159424006e+01 -2.520273923873900923e+00 -5.716133117675781250e-01 3.000000000000000000e+00
3.781798934936522727e+01 -8.988593101501464844e+00 8.974197387695312500e+00 1.200000000000000000e+01
1.798148918151855113e+01 -4.277163028717041016e+00 -3.226251900196074884e-01 1.200000000000000000e+01
2.372910261154174805e+00 -5.679335594177246094e-01 -6.537768840789794922e-01 2.000000000000000000e+01
2.726984024047852007e+00 -6.536842584609985352e-01 -6.474091410636901855e-01 1.400000000000000000e+01
3.207270383834838867e+00 -7.694054841995239258e-01 -6.411182284355163574e-01 1.100000000000000000e+01
3.874084949493408203e+00 -9.308006763458251953e-01 -6.310566067695617676e-01 1.000000000000000000e+01
4.979403018951416016e+00 -1.198206663131714089e+00 -6.288458108901977539e-01 1.000000000000000000e+01
3.738011550903320312e+01 -9.001776695251464844e+00 6.089680671691895419e+00 1.400000000000000000e+01
6.692384719848632812e+00 -1.611641645431518999e+00 -6.022461652755737305e-01 5.000000000000000000e+00
1.064959526062012074e+01 -2.568539619445800781e+00 -5.741254687309265137e-01 3.000000000000000000e+00
3.775228500366210938e+01 -9.112317085266113281e+00 8.966098785400390625e+00 1.200000000000000000e+01
3.712902069091796875e+01 -8.975596427917480469e+00 1.023525810241699041e+01 8.000000000000000000e+00
2.365281820297241211e+00 -5.748444199562072754e-01 -6.522240042686462402e-01 1.900000000000000000e+01
4.232351684570313211e+01 -1.029388618469237926e+01 7.602966427803039551e-01 4.400000000000000000e+01
2.720898866653441939e+00 -6.622775197029113770e-01 -6.465093493461608887e-01 1.400000000000000000e+01
3.198842525482178178e+00 -7.792022824287414551e-01 -6.399733424186706543e-01 1.200000000000000000e+01
3.890003204345703125e+00 -9.489998817443847656e-01 -6.341853141784667969e-01 1.000000000000000000e+01
3.629150772094727273e+01 -8.860338211059570312e+00 4.586918354034423828e+00 1.900000000000000000e+01
5.000258922576904297e+00 -1.221705794334412065e+00 -6.320143938064575195e-01 9.000000000000000000e+00
6.694459438323974609e+00 -1.636885523796081987e+00 -6.029434204101562500e-01 5.000000000000000000e+00
1.064056491851806996e+01 -2.605698108673096147e+00 -5.741254687309265137e-01 3.000000000000000000e+00
3.771267318725585938e+01 -9.242186546325683594e+00 8.964299201965332031e+00 1.200000000000000000e+01
2.013221359252930043e+01 -4.937495231628417969e+00 -3.618232905864716131e-01 3.000000000000000000e+00
3.923797607421875000e+01 -9.623250007629394531e+00 1.082536506652832031e+01 9.000000000000000000e+00
2.350131511688231978e+00 -5.798578858375549316e-01 -6.486005187034606934e-01 2.000000000000000000e+01
2.729921340942382812e+00 -6.745760440826416016e-01 -6.492087244987487793e-01 1.400000000000000000e+01
3.198009014129639116e+00 -7.908349037170410156e-01 -6.403549909591674805e-01 1.100000000000000000e+01
3.882831811904906782e+00 -9.616229534149169922e-01 -6.335595846176147461e-01 1.000000000000000000e+01
5.003670692443847656e+00 -1.241064071655272993e+00 -6.329893469810485840e-01 1.000000000000000000e+01
6.675168991088867188e+00 -1.656883716583251953e+00 -6.017232537269592285e-01 3.000000000000000000e+00
1.066241645812987926e+01 -2.650533914566040039e+00 -5.758001804351806641e-01 3.000000000000000000e+00
3.597441101074218750e+01 -8.949423789978027344e+00 8.558487892150878906e+00 1.100000000000000000e+01
1.817827224731444957e+01 -4.525613307952880859e+00 -3.269882798194885254e-01 3.000000000000000000e+00
3.914790725708007812e+01 -9.746155738830566406e+00 1.080983638763427912e+01 9.000000000000000000e+00
2.355691909790039062e+00 -5.895239710807800293e-01 -6.506710648536682129e-01 1.700000000000000000e+01
2.723888874053955078e+00 -6.826775670051574707e-01 -6.483089327812194824e-01 1.400000000000000000e+01
4.234638214111328125e+01 -1.061310768127441051e+01 2.287918567657471147e+00 3.100000000000000000e+01
3.199177503585814986e+00 -8.023907542228698730e-01 -6.411182284355163574e-01 1.000000000000000000e+01
3.871958255767821822e+00 -9.725686907768249512e-01 -6.323081254959106445e-01 1.000000000000000000e+01
4.999527454376220703e+00 -1.257650017738342063e+00 -6.329893469810485840e-01 9.000000000000000000e+00
6.681230545043945312e+00 -1.681928634643554910e+00 -6.027691364288330078e-01 5.000000000000000000e+00
1.066518878936767933e+01 -2.688806772232056108e+00 -5.764282345771789551e-01 3.000000000000000000e+00
1.809336662292480113e+01 -4.568246841430664062e+00 -3.257317245006560724e-01 3.000000000000000000e+00
2.366726636886597124e+00 -6.010720133781433105e-01 -6.542945504188537598e-01 1.900000000000000000e+01
2.717712163925170898e+00 -6.912208795547485352e-01 -6.474091410636901855e-01 1.400000000000000000e+01
3.213480472564696822e+00 -8.179113864898681641e-01 -6.445527672767639160e-01 1.100000000000000000e+01
3.708377075195313211e+01 -9.445642471313476562e+00 3.348000764846802202e+00 4.900000000000000000e+01
3.889595746994018999e+00 -9.914454817771911621e-01 -6.357496380805969238e-01 1.100000000000000000e+01
5.000877380371093750e+00 -1.276566863059998003e+00 -6.337205767631530762e-01 1.000000000000000000e+01
6.679179668426513672e+00 -1.706226468086242898e+00 -6.031177639961242676e-01 5.000000000000000000e+00
1.069443702697754084e+01 -2.735918998718262163e+00 -5.785216689109802246e-01 3.000000000000000000e+00
3.574652862548828125e+01 -9.151552200317382812e+00 8.518896102905273438e+00 1.100000000000000000e+01
3.651893615722656250e+01 -9.362882614135742188e+00 1.010170745849609020e+01 8.000000000000000000e+00
2.364614009857178178e+00 -6.093297600746154785e-01 -6.542945504188537598e-01 1.900000000000000000e+01
4.217756271362304688e+01 -1.087645053863525035e+01 7.602966427803039551e-01 4.400000000000000000e+01
2.715282678604125977e+00 -7.007032632827758789e-01 -6.474091410636901855e-01 1.400000000000000000e+01
3.201101303100585938e+00 -8.266690969467163086e-01 -6.426447033882141113e-01 1.200000000000000000e+01
3.878461360931396040e+00 -1.003038287162780984e+00 -6.344981789588928223e-01 1.100000000000000000e+01
3.603905868530272727e+01 -9.327045440673828125e+00 4.570831775665283203e+00 1.900000000000000000e+01
4.994469165802001953e+00 -1.293517708778380904e+00 -6.334768533706665039e-01 9.000000000000000000e+00
6.715613842010498047e+00 -1.740527749061584029e+00 -6.069526076316833496e-01 6.000000000000000000e+00
1.068482112884520951e+01 -2.773232936859130859e+00 -5.785216689109802246e-01 3.000000000000000000e+00
3.567287063598632812e+01 -9.265498161315917969e+00 8.508998870849609375e+00 1.100000000000000000e+01
3.626332092285156250e+01 -9.425614356994628906e+00 1.003959083557129084e+01 8.000000000000000000e+00
2.364341735839844194e+00 -6.180686950683593750e-01 -6.548121571540832520e-01 1.900000000000000000e+01
2.726016759872436968e+00 -7.136317491531372070e-01 -6.505584716796875000e-01 1.500000000000000000e+01
3.190599679946898970e+00 -8.358478546142578125e-01 -6.411182284355163574e-01 1.200000000000000000e+01
3.886400699615478960e+00 -1.019578099250793013e+00 -6.363754272460937500e-01 1.100000000000000000e+01
3.594100189208983664e+01 -9.435649871826171875e+00 4.562544345855712891e+00 1.900000000000000000e+01
4.986083507537841797e+00 -1.309934973716736062e+00 -6.329893469810485840e-01 9.000000000000000000e+00
3.632540130615233664e+01 -9.550122261047363281e+00 5.948889732360839844e+00 1.300000000000000000e+01
6.697935581207275391e+00 -1.760919451713562012e+00 -6.059067249298095703e-01 5.000000000000000000e+00
1.069825363159180043e+01 -2.816615104675292969e+00 -5.797777175903320312e-01 3.000000000000000000e+00
4.236397552490233664e+01 -1.116141033172607067e+01 1.011424922943115057e+01 1.300000000000000000e+01
3.640579223632813211e+01 -9.598435401916503906e+00 1.008824920654297053e+01 8.000000000000000000e+00
2.352833271026610884e+00 -6.238424181938171387e-01 -6.522240042686462402e-01 1.900000000000000000e+01
2.727276086807250977e+00 -7.241431474685668945e-01 -6.514582633972167969e-01 1.500000000000000000e+01
3.187662601470946822e+00 -8.469800353050231934e-01 -6.411182284355163574e-01 1.200000000000000000e+01
3.882817983627318892e+00 -1.033138036727905051e+00 -6.363754272460937500e-01 1.000000000000000000e+01
3.606130599975585938e+01 -9.601911544799804688e+00 4.582043647766113281e+00 1.900000000000000000e+01
4.992990016937255859e+00 -1.330398321151732954e+00 -6.344518065452575684e-01 9.000000000000000000e+00
3.581633758544921875e+01 -9.543378829956054688e+00 5.870672702789306641e+00 1.300000000000000000e+01
6.684047698974609375e+00 -1.782235622406006081e+00 -6.052094697952270508e-01 5.000000000000000000e+00
1.068835639953612926e+01 -2.853941679000854048e+00 -5.797777175903320312e-01 3.000000000000000000e+00
2.601013374328612926e+01 -6.954799652099609375e+00 -4.699583947658538818e-01 4.000000000000000000e+00
3.609043884277343750e+01 -9.656902313232421875e+00 1.001060295104979936e+01 8.000000000000000000e+00
2.350641250610352007e+00 -6.320515871047973633e-01 -6.522240042686462402e-01 1.900000000000000000e+01
4.230466461181641336e+01 -1.138299560546875000e+01 7.646946310997009277e-01 4.500000000000000000e+01
2.724731683731079102e+00 -7.336587309837341309e-01 -6.514582633972167969e-01 1.500000000000000000e+01
3.194164752960205078e+00 -8.606557846069335938e-01 -6.430262923240661621e-01 1.200000000000000000e+01
3.863930702209473100e+00 -1.042568564414978027e+00 -6.338724493980407715e-01 1.100000000000000000e+01
5.003646373748779297e+00 -1.351961374282836914e+00 -6.364017128944396973e-01 9.000000000000000000e+00
6.698942184448242188e+00 -1.811276793479918990e+00 -6.071268916130065918e-01 5.000000000000000000e+00
1.071302986145020064e+01 -2.900629281997681108e+00 -5.816618204116821289e-01 3.000000000000000000e+00
2.359603643417357954e+00 -6.433017849922180176e-01 -6.553298234939575195e-01 2.100000000000000000e+01
2.714634418487548828e+00 -7.411124110221862793e-01 -6.496586203575134277e-01 1.500000000000000000e+01
3.194928884506226030e+00 -8.728350400924682617e-01 -6.437895298004150391e-01 1.300000000000000000e+01
3.860267877578734907e+00 -1.056049823760986106e+00 -6.338724493980407715e-01 1.100000000000000000e+01
3.641461563110352273e+01 -9.968743324279785156e+00 4.635665893554688388e+00 1.900000000000000000e+01
5.014213085174561435e+00 -1.373614907264709029e+00 -6.383516192436218262e-01 1.200000000000000000e+01
6.702186584472656250e+00 -1.837283134460448997e+00 -6.079984903335571289e-01 6.000000000000000000e+00
1.068357944488525035e+01 -2.932719945907593218e+00 -5.806151032447814941e-01 3.000000000000000000e+00
3.557509994506835938e+01 -9.785656929016113281e+00 9.886369705200195312e+00 7.000000000000000000e+00
2.366653919219971147e+00 -6.541076302528381348e-01 -6.579180359840393066e-01 1.800000000000000000e+01
2.712030887603760210e+00 -7.505837082862854004e-01 -6.496586203575134277e-01 1.500000000000000000e+01
3.191862583160399947e+00 -8.839820623397827148e-01 -6.437895298004150391e-01 1.200000000000000000e+01
3.604069519042968750e+01 -9.988195419311523438e+00 3.272000789642333984e+00 4.700000000000000000e+01
3.871786355972290039e+00 -1.073741436004638894e+00 -6.363754272460937500e-01 1.200000000000000000e+01
4.990260601043701172e+00 -1.385797858238219993e+00 -6.359142065048217773e-01 9.000000000000000000e+00
3.809362030029296875e+01 -1.057861709594726918e+01 6.261758804321289062e+00 1.400000000000000000e+01
6.728366374969482422e+00 -1.869735598564147949e+00 -6.109617352485656738e-01 6.000000000000000000e+00
1.075794029235840021e+01 -2.993553400039672852e+00 -5.852206349372863770e-01 3.000000000000000000e+00
3.553328323364257812e+01 -9.907701492309570312e+00 9.884299278259277344e+00 7.000000000000000000e+00
2.351564407348632812e+00 -6.578960418701171875e-01 -6.542945504188537598e-01 1.900000000000000000e+01
2.713412523269652876e+00 -7.601515054702758789e-01 -6.505584716796875000e-01 1.500000000000000000e+01
3.183398485183715820e+00 -8.924154043197631836e-01 -6.426447033882141113e-01 1.200000000000000000e+01
3.876001596450806108e+00 -1.088035106658935991e+00 -6.376268863677978516e-01 1.200000000000000000e+01
3.661907958984375000e+01 -1.028626346588134943e+01 4.670277118682861328e+00 2.000000000000000000e+01
5.001170635223388672e+00 -1.405765652656554954e+00 -6.378641724586486816e-01 9.000000000000000000e+00
6.697525978088378906e+00 -1.883850932121277078e+00 -6.086956858634948730e-01 5.000000000000000000e+00
1.073694801330566051e+01 -3.024086952209473100e+00 -5.845926403999328613e-01 3.000000000000000000e+00
3.808167648315429688e+01 -1.073296833038330078e+01 9.134362220764160156e+00 1.200000000000000000e+01
2.658666419982910156e+01 -7.498214721679688388e+00 -4.821750819683074951e-01 4.000000000000000000e+00
3.547397994995117188e+01 -1.000469684600830078e+01 9.876017570495605469e+00 7.000000000000000000e+00
2.345536470413208008e+00 -6.650465726852416992e-01 -6.532592773437500000e-01 1.900000000000000000e+01
2.712617158889770952e+00 -7.701506614685058594e-01 -6.510083675384521484e-01 1.400000000000000000e+01
3.185929536819458008e+00 -9.051316976547241211e-01 -6.437895298004150391e-01 1.200000000000000000e+01
3.874079942703247070e+00 -1.102098822593688965e+00 -6.379397511482238770e-01 1.200000000000000000e+01
3.693806838989257812e+01 -1.051511573791504084e+01 4.715612411499023438e+00 2.000000000000000000e+01
5.001960754394531250e+00 -1.424845933914185014e+00 -6.385953426361083984e-01 1.000000000000000000e+01
6.690908908843994141e+00 -1.907218217849731001e+00 -6.086956858634948730e-01 5.000000000000000000e+00
3.507065200805664062e+01 -1.000337409973145064e+01 7.088935852050781250e+00 6.100000000000000000e+01
1.080698966979979936e+01 -3.084570646286011186e+00 -5.889888405799865723e-01 3.000000000000000000e+00
2.352484464645386186e+00 -6.758973002433776855e-01 -6.558474898338317871e-01 1.900000000000000000e+01
4.627803421020507812e+01 -1.330498504638672053e+01 8.405078649520874023e-01 5.800000000000000000e+01
2.706166744232178178e+00 -7.785372138023376465e-01 -6.501085758209228516e-01 1.400000000000000000e+01
3.182750701904296875e+00 -9.162471890449523926e-01 -6.437895298004150391e-01 1.200000000000000000e+01
3.856922626495360884e+00 -1.111785173416137917e+00 -6.357496380805969238e-01 1.100000000000000000e+01
5.010307312011718750e+00 -1.446150898933411089e+00 -6.403015255928039551e-01 9.000000000000000000e+00
6.695695877075195312e+00 -1.933879375457763894e+00 -6.097415685653686523e-01 3.000000000000000000e+00
1.075778388977050959e+01 -3.111177921295166016e+00 -5.868954062461853027e-01 3.000000000000000000e+00
2.346400976181029829e+00 -6.830250024795532227e-01 -6.548121571540832520e-01 1.800000000000000000e+01
2.699690818786621094e+00 -7.868881225585937500e-01 -6.492087244987487793e-01 1.400000000000000000e+01
3.192726135253905806e+00 -9.311994314193725586e-01 -6.464608907699584961e-01 1.200000000000000000e+01
3.864395380020142046e+00 -1.128564119338989036e+00 -6.376268863677978516e-01 1.100000000000000000e+01
3.631119537353516336e+01 -1.061125755310058949e+01 4.644927978515625000e+00 1.900000000000000000e+01
4.997607231140136719e+00 -1.461402654647826926e+00 -6.393265724182128906e-01 9.000000000000000000e+00
6.704202175140380859e+00 -1.961716175079345925e+00 -6.111360788345336914e-01 3.000000000000000000e+00
3.530895996093750000e+01 -1.033844280242919922e+01 7.151521205902099609e+00 6.100000000000000000e+01
1.078519248962401988e+01 -3.159941911697388139e+00 -5.889888405799865723e-01 3.000000000000000000e+00
2.708233451843262074e+01 -7.945089817047119141e+00 -4.926465153694152832e-01 4.000000000000000000e+00
3.839429092407227273e+01 -1.127093505859375000e+01 1.072183799743651988e+01 9.000000000000000000e+00
2.355120420455933061e+00 -6.944897770881652832e-01 -6.579180359840393066e-01 2.000000000000000000e+01
2.706272602081298828e+00 -7.990662455558776855e-01 -6.514582633972167969e-01 1.500000000000000000e+01
3.180042266845703125e+00 -9.395570158958435059e-01 -6.445527672767639160e-01 1.200000000000000000e+01
3.860432386398314986e+00 -1.142046570777893066e+00 -6.376268863677978516e-01 1.100000000000000000e+01
3.625870513916016336e+01 -1.073343467712401988e+01 4.642978191375732422e+00 1.900000000000000000e+01
4.996282577514648438e+00 -1.479966282844543013e+00 -6.398140788078308105e-01 9.000000000000000000e+00
3.641462326049804688e+01 -1.078650283813476918e+01 6.015218257904052734e+00 1.300000000000000000e+01
6.716415882110595703e+00 -1.990768194198607954e+00 -6.128791570663452148e-01 3.000000000000000000e+00
1.077409648895264027e+01 -3.197570085525513139e+00 -5.889888405799865723e-01 3.000000000000000000e+00
3.884558486938477273e+01 -1.154346942901610973e+01 1.085849380493164062e+01 9.000000000000000000e+00
2.348979711532593218e+00 -7.016006708145141602e-01 -6.568827629089355469e-01 1.900000000000000000e+01
2.712801933288574219e+00 -8.112998604774475098e-01 -6.537077426910400391e-01 1.500000000000000000e+01
3.176743030548096147e+00 -9.506517052650451660e-01 -6.445527672767639160e-01 1.200000000000000000e+01
3.865883588790893999e+00 -1.158349871635437012e+00 -6.391912102699279785e-01 1.000000000000000000e+01
4.994888782501220703e+00 -1.498538374900818093e+00 -6.403015255928039551e-01 1.100000000000000000e+01
6.696068286895751953e+00 -2.010190725326538086e+00 -6.116589903831481934e-01 3.000000000000000000e+00
1.082025051116943004e+01 -3.252407073974608931e+00 -5.921289920806884766e-01 3.000000000000000000e+00
3.882151412963867188e+01 -1.169133949279784979e+01 1.086367034912109020e+01 9.000000000000000000e+00
2.337270736694335938e+00 -7.069992423057556152e-01 -6.542945504188537598e-01 1.900000000000000000e+01
2.711818695068358931e+00 -8.213292360305786133e-01 -6.541576385498046875e-01 1.400000000000000000e+01
3.184678554534912109e+00 -9.651513099670410156e-01 -6.468424797058105469e-01 1.200000000000000000e+01
3.861816644668579102e+00 -1.171837329864501953e+00 -6.391912102699279785e-01 1.000000000000000000e+01
5.004822254180908203e+00 -1.520581245422363059e+00 -6.422514319419860840e-01 9.000000000000000000e+00
6.668041706085205078e+00 -2.027177333831787109e+00 -6.097415685653686523e-01 3.000000000000000000e+00
1.075151062011718928e+01 -3.272708892822266069e+00 -5.889888405799865723e-01 3.000000000000000000e+00
3.904908370971679688e+01 -1.189380359649658025e+01 9.424099922180175781e+00 1.200000000000000000e+01
3.929256057739257812e+01 -1.197545623779297053e+01 1.100653839111327947e+01 1.000000000000000000e+01
