-1.021712779998779075e+00 -1.298831701278686968e+00 -3.815169930458068848e-01 5.000000000000000000e+01
-1.038737416267395020e+00 -1.319999814033508079e+00 8.802907913923263550e-02 4.800000000000000000e+01
-1.027122616767883079e+00 -1.305240035057068093e+00 -3.228488266468048096e-01 5.500000000000000000e+01
-1.043828845024109109e+00 -1.325993657112122026e+00 1.476418226957320889e-01 3.800000000000000000e+01
-9.984812736511230469e-01 -1.267932415008544922e+00 -2.556139230728148859e-01 5.200000000000000000e+01
-1.052751183509827104e+00 -1.336367607116698997e+00 2.088840603828429898e-01 2.700000000000000000e+01
-1.002608180046081987e+00 -1.272259116172790971e+00 -1.988907754421234131e-01 5.400000000000000000e+01
-1.100405693054198997e+00 -1.396359205245971902e+00 2.815820276737213135e-01 8.000000000000000000e+00
-1.007750034332274947e+00 -1.278324842453002930e+00 -1.424124836921691895e-01 8.000000000000000000e+01
-1.005712270736693892e+00 -1.274824380874634011e+00 -8.509826660156250000e-02 6.600000000000000000e+01
-1.025970935821532981e+00 -1.299570798873900923e+00 -2.890118584036827087e-02 5.600000000000000000e+01
-1.071602463722229004e+00 -1.356884002685547097e+00 4.632861018180847168e-01 5.900000000000000000e+01
-1.056470990180969016e+00 -1.334369301795959029e+00 -4.560391604900360107e-01 1.600000000000000000e+01
-1.026769518852234109e+00 -1.296390056610106978e+00 2.886627987027167927e-02 5.700000000000000000e+01
-1.037132024765015093e+00 -1.309004187583922896e+00 -3.855661153793334961e-01 5.000000000000000000e+01
-1.029465436935425027e+00 -1.299327969551085982e+00 8.687768876552581787e-02 5.400000000000000000e+01
-1.028014183044434038e+00 -1.297031044960021973e+00 -3.217039704322814941e-01 5.300000000000000000e+01
-1.057116031646728960e+00 -1.333270311355591042e+00 1.488620042800903043e-01 4.200000000000000000e+01
-1.010266423225403054e+00 -1.273725271224976030e+00 -2.574911415576934814e-01 5.500000000000000000e+01
-1.056175708770751953e+00 -1.331129670143126997e+00 2.086403220891953070e-01 3.500000000000000000e+01
-1.005808949470520020e+00 -1.267196774482727051e+00 -1.986470371484755915e-01 5.000000000000000000e+01
-1.092004299163817915e+00 -1.375299334526062012e+00 2.781404852867125910e-01 1.200000000000000000e+01
-1.017161846160888894e+00 -1.281040787696837935e+00 -1.431097239255904874e-01 8.100000000000000000e+01
-1.169796228408813032e+00 -1.472744584083556907e+00 3.655900359153748114e-01 1.000000000000000000e+00
-1.013883590698241965e+00 -1.275997161865233931e+00 -8.541227877140045166e-02 7.000000000000000000e+01
-1.020544528961182085e+00 -1.283460021018981934e+00 -2.862194739282130848e-02 5.300000000000000000e+01
-1.082345366477966087e+00 -1.360694527626038042e+00 4.658742845058441162e-01 5.500000000000000000e+01
-1.707082152366637962e+00 -2.139956474304199219e+00 -7.334931492805480957e-01 1.700000000000000000e+01
-1.031514048576354980e+00 -1.292618036270142046e+00 2.886627987027167927e-02 5.700000000000000000e+01
-1.046785950660706010e+00 -1.311286091804503950e+00 -3.873657286167144775e-01 4.300000000000000000e+01
-1.035466909408568892e+00 -1.297106981277466042e+00 8.698236197233200073e-02 5.600000000000000000e+01
-1.030310869216918945e+00 -1.290186285972594993e+00 -3.209407329559326172e-01 5.400000000000000000e+01
-1.054534196853637917e+00 -1.320046901702881081e+00 1.478161364793776911e-01 4.300000000000000000e+01
-1.021094083786010964e+00 -1.277729749679564986e+00 -2.590554654598236084e-01 5.400000000000000000e+01
-1.058568358421325906e+00 -1.324148654937743919e+00 2.081528455018996915e-01 3.300000000000000000e+01
-1.011686563491821067e+00 -1.265052080154418945e+00 -1.988907754421234131e-01 4.900000000000000000e+01
-1.065954804420470969e+00 -1.332911133766174094e+00 2.703187465667725164e-01 1.900000000000000000e+01
-1.016871690750122070e+00 -1.271080851554871050e+00 -1.424124836921691895e-01 8.100000000000000000e+01
-1.096676945686340110e+00 -1.370346426963805930e+00 3.411664962768555243e-01 6.000000000000000000e+00
-1.023546457290648970e+00 -1.278509140014647993e+00 -8.583097159862518311e-02 6.900000000000000000e+01
-1.018990278244018999e+00 -1.271907806396483931e+00 -2.844742313027381897e-02 5.600000000000000000e+01
-1.106655478477478027e+00 -1.380837917327881081e+00 4.741564989089965820e-01 7.200000000000000000e+01
-1.712121725082397017e+00 -2.130972623825072798e+00 -7.324578762054443359e-01 1.700000000000000000e+01
-1.031008958816528098e+00 -1.282774925231934038e+00 2.872666157782078136e-02 5.700000000000000000e+01
-1.055019974708556907e+00 -1.312180280685425027e+00 -3.887154161930084229e-01 1.500000000000000000e+01
-1.039988279342650923e+00 -1.293484568595886008e+00 8.698236197233200073e-02 5.600000000000000000e+01
-1.039729952812195046e+00 -1.292701244354248047e+00 -3.224672079086304266e-01 4.900000000000000000e+01
-1.046645879745482954e+00 -1.300834774971008079e+00 1.460730284452438077e-01 4.700000000000000000e+01
-1.024309396743773970e+00 -1.272618770599365012e+00 -2.587426006793975830e-01 4.900000000000000000e+01
-1.064428925514220969e+00 -1.321991682052612083e+00 2.083965837955475131e-01 4.000000000000000000e+01
-1.036019682884216087e+00 -1.286248445510864036e+00 -2.027905881404876987e-01 5.100000000000000000e+01
-1.068122744560241921e+00 -1.326105356216431108e+00 2.696930170059204102e-01 4.500000000000000000e+01
-1.021302342414855957e+00 -1.267523646354675071e+00 -1.424124836921691895e-01 7.700000000000000000e+01
-1.096525430679321067e+00 -1.360395789146422896e+00 3.396400213241577148e-01 1.900000000000000000e+01
-1.030510425567626953e+00 -1.278038144111633079e+00 -8.604031056165695190e-02 6.700000000000000000e+01
-1.227142453193664995e+00 -1.521357655525207964e+00 4.512518048286437988e-01 1.000000000000000000e+00
-1.025935411453247070e+00 -1.271455645561218040e+00 -2.851723134517670025e-02 5.800000000000000000e+01
-1.111468791961669922e+00 -1.376966476440429910e+00 4.741564989089965820e-01 6.800000000000000000e+01
-1.724410653114319070e+00 -2.130990266799927202e+00 -7.345284223556518555e-01 1.700000000000000000e+01
-1.029189467430114968e+00 -1.271396756172179954e+00 2.855213731527328144e-02 5.900000000000000000e+01
-2.028435707092285156e+00 -2.504909515380858931e+00 -7.441380620002746582e-01 2.400000000000000000e+01
-1.044497132301331010e+00 -1.289846420288085938e+00 8.698236197233200073e-02 5.700000000000000000e+01
-1.055358052253722922e+00 -1.302793741226196067e+00 -3.259017765522003174e-01 3.200000000000000000e+01
-1.048671483993530051e+00 -1.294077515602112038e+00 1.457244008779526034e-01 4.900000000000000000e+01
-1.032477259635925071e+00 -1.273639082908629927e+00 -2.596812248229979914e-01 4.300000000000000000e+01
-1.062785387039185014e+00 -1.310558795928955078e+00 2.071778774261474887e-01 4.700000000000000000e+01
-1.048006892204284890e+00 -1.291873931884766069e+00 -2.042530179023742953e-01 5.100000000000000000e+01
-1.071500778198241965e+00 -1.320834755897521973e+00 2.693801522254943848e-01 5.100000000000000000e+01
-1.025720715522765891e+00 -1.263950824737549050e+00 -1.424124836921691895e-01 7.600000000000000000e+01
-1.085181474685668945e+00 -1.336745023727416992e+00 3.346789777278900146e-01 4.100000000000000000e+01
-1.026151657104491965e+00 -1.263580322265625000e+00 -8.530760556459426880e-02 6.600000000000000000e+01
-1.148889899253844993e+00 -1.414212942123413086e+00 4.206584692001342773e-01 8.000000000000000000e+00
-1.034150838851928933e+00 -1.272522211074829102e+00 -2.862194739282130848e-02 6.100000000000000000e+01
-1.116028785705565962e+00 -1.373273134231566939e+00 4.741564989089965820e-01 3.600000000000000000e+01
-1.733059167861938032e+00 -2.126455545425415039e+00 -7.350460886955261230e-01 1.600000000000000000e+01
-1.041202783584594949e+00 -1.277095794677733931e+00 2.876156568527222027e-02 5.900000000000000000e+01
-2.032240390777587891e+00 -2.491772890090941939e+00 -7.423384785652160645e-01 2.400000000000000000e+01
-1.045206189155579057e+00 -1.281549334526062012e+00 8.666834235191345215e-02 5.400000000000000000e+01
-2.432555675506591797e+00 -2.981545209884643999e+00 -7.479712367057800293e-01 8.000000000000000000e+00
-1.053182244300842063e+00 -1.290409088134766069e+00 1.457244008779526034e-01 5.600000000000000000e+01
-1.054406881332397017e+00 -1.291449427604675071e+00 -2.640613913536071777e-01 4.400000000000000000e+01
-1.059819340705872026e+00 -1.297616243362426980e+00 2.057154476642608920e-01 4.900000000000000000e+01
-1.052510023117064986e+00 -1.288207888603210005e+00 -2.042530179023742953e-01 5.100000000000000000e+01
-1.076104760169982910e+00 -1.317086458206176980e+00 2.693801522254943848e-01 5.200000000000000000e+01
-1.035169839859009011e+00 -1.266533374786376953e+00 -1.431097239255904874e-01 7.100000000000000000e+01
-1.093569040298461914e+00 -1.337508559226989968e+00 3.358238339424132746e-01 5.500000000000000000e+01
-1.030556201934814009e+00 -1.259990692138672097e+00 -8.530760556459426880e-02 6.400000000000000000e+01
-1.126670718193053977e+00 -1.377012968063354048e+00 4.107606112957000732e-01 1.800000000000000000e+01
-1.042386174201965110e+00 -1.273546934127808061e+00 -2.872666157782078136e-02 5.700000000000000000e+01
-1.119830846786499023e+00 -1.367678761482238992e+00 4.736388623714447021e-01 4.000000000000000000e+01
-1.743777513504028098e+00 -2.125177145004272017e+00 -7.365990281105041504e-01 1.800000000000000000e+01
-1.045432090759276900e+00 -1.273635983467102051e+00 2.876156568527222027e-02 6.000000000000000000e+01
-2.040492296218872070e+00 -2.485020160675048828e+00 -7.423384785652160645e-01 2.800000000000000000e+01
-1.042066931724547896e+00 -1.268633008003235085e+00 8.604031056165695190e-02 5.400000000000000000e+01
-2.446167707443236861e+00 -2.978013515472412109e+00 -7.491161227226257324e-01 1.400000000000000000e+01
-1.059985399246216042e+00 -1.289988279342650923e+00 1.460730284452438077e-01 5.800000000000000000e+01
-1.062446832656859907e+00 -1.292523741722106934e+00 -2.649999856948853094e-01 5.100000000000000000e+01
-1.055290937423706055e+00 -1.283361673355102983e+00 2.040092796087265015e-01 5.000000000000000000e+01
-1.054253935813904031e+00 -1.281644344329833984e+00 -2.037655413150787076e-01 5.200000000000000000e+01
-1.075446963310241921e+00 -1.307408452033997026e+00 2.681286633014678955e-01 5.300000000000000000e+01
-1.041896104812622070e+00 -1.266170740127563032e+00 -1.434583514928818027e-01 6.600000000000000000e+01
-1.096750617027282937e+00 -1.332358956336975098e+00 3.354422152042388916e-01 5.700000000000000000e+01
-1.035998344421386941e+00 -1.258108139038085938e+00 -8.541227877140045166e-02 6.300000000000000000e+01
-1.116362571716309038e+00 -1.355219721794127974e+00 4.053618013858795166e-01 2.700000000000000000e+01
-1.038973450660706010e+00 -1.260823845863342063e+00 -2.851723134517670025e-02 5.600000000000000000e+01
-1.116750597953795943e+00 -1.355208754539489968e+00 4.705330133438109796e-01 4.200000000000000000e+01
-1.751185059547424094e+00 -2.119077205657958984e+00 -7.365990281105041504e-01 1.700000000000000000e+01
-1.044775009155272993e+00 -1.263813972473144975e+00 2.862194739282130848e-02 6.100000000000000000e+01
-2.051637887954711914e+00 -2.480885744094849077e+00 -7.432382702827453613e-01 2.800000000000000000e+01
-1.049035072326659934e+00 -1.268065571784972922e+00 8.624965697526931763e-02 5.300000000000000000e+01
-2.445285320281981978e+00 -2.955842256546020952e+00 -7.456815242767333984e-01 1.600000000000000000e+01
-1.065752148628235085e+00 -1.287815332412719949e+00 1.462473422288894931e-01 6.100000000000000000e+01
-1.071990847587585005e+00 -1.294893741607666016e+00 -2.662514448165894110e-01 5.100000000000000000e+01
-1.063562750816344993e+00 -1.284256815910338911e+00 2.047404944896697998e-01 4.900000000000000000e+01
-1.066319704055785911e+00 -1.287128448486327903e+00 -2.052279710769653043e-01 5.100000000000000000e+01
-1.073929190635680930e+00 -1.295853257179260032e+00 2.665643393993378241e-01 5.100000000000000000e+01
-1.051394820213318093e+00 -1.268662333488463911e+00 -1.441555917263031006e-01 6.300000000000000000e+01
-1.103900790214539018e+00 -1.331545352935791016e+00 3.362054526805878241e-01 5.500000000000000000e+01
-1.046758651733397993e+00 -1.262170910835265891e+00 -8.593563735485076904e-02 6.000000000000000000e+01
-1.117353558540344016e+00 -1.346815228462219016e+00 4.040120840072631836e-01 3.600000000000000000e+01
-1.044645309448241965e+00 -1.258728265762329102e+00 -2.855213731527328144e-02 5.400000000000000000e+01
-1.110604166984558105e+00 -1.337729215621948020e+00 4.658742845058441162e-01 4.400000000000000000e+01
-1.749051570892333984e+00 -2.100767612457274947e+00 -7.324578762054443359e-01 1.800000000000000000e+01
-1.049400091171265093e+00 -1.259976267814636008e+00 2.862194739282130848e-02 6.000000000000000000e+01
-2.061964511871337891e+00 -2.474846601486206055e+00 -7.436881661415100098e-01 2.600000000000000000e+01
-1.056233167648314986e+00 -1.267280697822571023e+00 8.645900338888168335e-02 5.400000000000000000e+01
-2.459873437881470171e+00 -2.951384305953979048e+00 -7.468264102935791016e-01 1.500000000000000000e+01
-1.060257911682128906e+00 -1.271658301353455034e+00 1.448528468608855924e-01 5.900000000000000000e+01
-1.076729655265808105e+00 -1.290956020355225053e+00 -2.662514448165894110e-01 1.600000000000000000e+01
-1.070806145668030007e+00 -1.283398509025573953e+00 2.052279710769653043e-01 5.200000000000000000e+01
-1.077390193939208984e+00 -1.290831565856934038e+00 -2.064466625452041904e-01 5.000000000000000000e+01
-1.082243323326111062e+00 -1.296646237373352051e+00 2.675029337406157892e-01 5.300000000000000000e+01
-1.050929903984070046e+00 -1.258682727813720925e+00 -1.434583514928818027e-01 6.300000000000000000e+01
-1.106256723403931108e+00 -1.324476718902587891e+00 3.354422152042388916e-01 5.500000000000000000e+01
-1.059061288833617942e+00 -1.267521977424622026e+00 -8.656366914510726929e-02 5.900000000000000000e+01
-1.114783883094788042e+00 -1.333739519119262917e+00 4.013126790523529053e-01 3.800000000000000000e+01
-1.054382562637329102e+00 -1.261027455329895020e+00 -2.869175560772418976e-02 5.400000000000000000e+01
-1.102875113487244096e+00 -1.319023847579956055e+00 4.606978893280028742e-01 3.800000000000000000e+01
-1.758856415748595969e+00 -2.097609996795653853e+00 -7.334931492805480957e-01 1.700000000000000000e+01
-1.049936532974242942e+00 -1.251709222793579102e+00 2.851723134517670025e-02 6.300000000000000000e+01
-2.068085432052611861e+00 -2.464648485183715820e+00 -7.427883744239807129e-01 2.600000000000000000e+01
-1.059366345405579057e+00 -1.262056231498718040e+00 8.635433018207550049e-02 5.600000000000000000e+01
-2.477734088897705078e+00 -2.951802015304564986e+00 -7.491161227226257324e-01 1.400000000000000000e+01
-1.064690470695496050e+00 -1.267949461936950906e+00 1.448528468608855924e-01 5.900000000000000000e+01
-3.106469869613647017e+00 -3.698212385177611861e+00 -7.649645209312438965e-01 1.200000000000000000e+01
-1.067617177963257058e+00 -1.270534157752990945e+00 2.037655413150787076e-01 5.400000000000000000e+01
-1.086998701095581055e+00 -1.293141126632689986e+00 -2.074216157197951993e-01 4.800000000000000000e+01
-1.088259816169738992e+00 -1.294182777404784934e+00 2.678157985210419256e-01 5.100000000000000000e+01
-1.060446262359618919e+00 -1.261106252670288086e+00 -1.441555917263031006e-01 6.600000000000000000e+01
-1.105818033218384011e+00 -1.314597606658935991e+00 3.339157402515410822e-01 5.200000000000000000e+01
-1.062193393707274947e+00 -1.262289166450500044e+00 -8.645900338888168335e-02 5.700000000000000000e+01
-1.121942639350890891e+00 -1.332821726799011008e+00 4.022124707698822021e-01 4.200000000000000000e+01
-1.065218210220336914e+00 -1.264987349510193093e+00 -2.886627987027167927e-02 5.600000000000000000e+01
-1.102723717689513938e+00 -1.309062719345092995e+00 4.586273431777954102e-01 4.800000000000000000e+01
-1.770421147346497026e+00 -2.097979784011840820e+00 -7.355637550354003906e-01 1.900000000000000000e+01
-1.057733416557312012e+00 -1.252988696098328081e+00 2.862194739282130848e-02 6.100000000000000000e+01
-2.073303699493408203e+00 -2.455161333084106001e+00 -7.418885827064514160e-01 1.900000000000000000e+01
-1.064614892005919966e+00 -1.260247588157654031e+00 8.645900338888168335e-02 5.400000000000000000e+01
-2.485728263854980025e+00 -2.942503690719604048e+00 -7.487344741821289062e-01 1.300000000000000000e+01
-1.075098514556884988e+00 -1.272207379341125044e+00 1.457244008779526034e-01 5.800000000000000000e+01
-3.102769374847412109e+00 -3.670332193374633789e+00 -7.612100839614868164e-01 1.100000000000000000e+01
-1.074167013168334961e+00 -1.270205378532409890e+00 2.042530179023742953e-01 6.900000000000000000e+01
-1.083363294601439986e+00 -1.280626654624938965e+00 -2.059591859579086026e-01 3.000000000000000000e+01
-1.095922470092772993e+00 -1.295472502708435059e+00 2.687544226646422785e-01 5.900000000000000000e+01
-1.073412299156188965e+00 -1.268414735794066939e+00 -1.453757733106612882e-01 5.600000000000000000e+01
-1.109942555427551047e+00 -1.311117053031920943e+00 3.339157402515410822e-01 5.200000000000000000e+01
-1.064862966537476030e+00 -1.257421851158142090e+00 -8.635433018207550049e-02 5.600000000000000000e+01
-1.123605012893676980e+00 -1.326316714286803977e+00 4.013126790523529053e-01 5.300000000000000000e+01
-1.074358463287353960e+00 -1.267736792564392090e+00 -2.900590002536774029e-02 5.700000000000000000e+01
-1.104104995727539062e+00 -1.302837610244750977e+00 4.575920701026917059e-01 4.900000000000000000e+01
-1.772729516029357910e+00 -2.085898876190185991e+00 -7.334931492805480957e-01 1.900000000000000000e+01
-1.063395977020263894e+00 -1.250812411308289018e+00 2.865685150027275085e-02 5.700000000000000000e+01
-2.073023557662963867e+00 -2.437517881393433061e+00 -7.387392520904541016e-01 1.900000000000000000e+01
-1.061242222785949929e+00 -1.247396469116210938e+00 8.583097159862518311e-02 5.400000000000000000e+01
-2.490895748138428178e+00 -2.927827596664429155e+00 -7.472079992294311523e-01 1.400000000000000000e+01
-1.082115411758423074e+00 -1.271481394767761008e+00 1.460730284452438077e-01 5.600000000000000000e+01
-3.132209300994873047e+00 -3.679032325744628906e+00 -7.652773857116699219e-01 1.300000000000000000e+01
-1.067010402679442915e+00 -1.252846717834473100e+00 2.020593732595444003e-01 7.200000000000000000e+01
-3.865969657897949219e+00 -4.537683010101318359e+00 -7.319473028182983398e-01 2.000000000000000000e+01
-1.101944565773010032e+00 -1.292950510978698953e+00 2.690672874450684149e-01 7.200000000000000000e+01
-1.093341827392577903e+00 -1.282856583595276101e+00 -1.474675238132477084e-01 5.600000000000000000e+01
-1.118333578109740989e+00 -1.311716556549072044e+00 3.350605964660645086e-01 6.300000000000000000e+01
-1.077022075653075950e+00 -1.262814879417418990e+00 -8.698236197233200073e-02 5.400000000000000000e+01
-1.116844415664673074e+00 -1.309044003486633079e+00 3.972635567188262939e-01 5.000000000000000000e+01
-1.077479004859924094e+00 -1.262457847595215066e+00 -2.897099405527114868e-02 5.300000000000000000e+01
-1.106363892555237038e+00 -1.295843601226807085e+00 4.565567970275878906e-01 4.800000000000000000e+01
-1.787901401519774947e+00 -2.088192224502563032e+00 -7.365990281105041504e-01 2.000000000000000000e+01
-1.071875810623168945e+00 -1.251462817192078081e+00 2.876156568527222027e-02 5.400000000000000000e+01
-2.089551210403441939e+00 -2.438782453536986861e+00 -7.414386868476867676e-01 1.900000000000000000e+01
-1.067106842994689941e+00 -1.245014905929564986e+00 8.593563735485076904e-02 5.700000000000000000e+01
-2.504165172576903853e+00 -2.921659708023070845e+00 -7.479712367057800293e-01 1.300000000000000000e+01
-1.082877755165100098e+00 -1.262969017028809038e+00 1.455500870943068903e-01 5.900000000000000000e+01
-3.146958589553833008e+00 -3.669026851654053178e+00 -7.655902504920959473e-01 1.200000000000000000e+01
-1.078058362007140891e+00 -1.256460189819335938e+00 2.032780647277832031e-01 7.700000000000000000e+01
-3.900675773620605025e+00 -4.544571399688720703e+00 -7.353596091270446777e-01 3.300000000000000000e+01
-1.092298746109009011e+00 -1.272607684135437012e+00 2.656257152557373047e-01 6.900000000000000000e+01
-1.096738457679748979e+00 -1.277329087257385032e+00 -1.472932100296021063e-01 4.600000000000000000e+01
-1.118016958236693892e+00 -1.301651716232300027e+00 3.335341215133666992e-01 6.400000000000000000e+01
-1.088151335716248003e+00 -1.266433358192444070e+00 -8.750572055578231812e-02 5.200000000000000000e+01
-1.116553783416748047e+00 -1.299030423164367898e+00 3.954639434814453125e-01 5.000000000000000000e+01
-1.084706306457519975e+00 -1.261532783508301003e+00 -2.904080413281917919e-02 5.100000000000000000e+01
-1.104583024978637917e+00 -1.284649729728698953e+00 4.539686143398284912e-01 5.000000000000000000e+01
-1.782564163208008035e+00 -2.067307949066162109e+00 -7.314226031303405762e-01 1.600000000000000000e+01
-1.077543735504149947e+00 -1.249227762222290039e+00 2.879646979272365917e-02 5.200000000000000000e+01
-2.104416847229003906e+00 -2.438850879669189009e+00 -7.436881661415100098e-01 2.000000000000000000e+01
-1.077971458435059038e+00 -1.248842000961303933e+00 8.645900338888168335e-02 5.400000000000000000e+01
-2.510499954223632812e+00 -2.908442258834838867e+00 -7.468264102935791016e-01 1.300000000000000000e+01
-1.075560569763184038e+00 -1.245609402656554954e+00 1.439812928438186923e-01 5.800000000000000000e+01
-3.157164335250854048e+00 -3.655029773712158203e+00 -7.649645209312438965e-01 1.200000000000000000e+01
-1.088927030563354048e+00 -1.260199546813965066e+00 2.044967561960220059e-01 7.900000000000000000e+01
-3.934689521789550781e+00 -4.551953315734863281e+00 -7.387719750404357910e-01 2.800000000000000000e+01
-1.103416085243225098e+00 -1.276066780090332031e+00 2.671900689601898193e-01 7.200000000000000000e+01
-1.107706427574157937e+00 -1.281028389930725098e+00 -1.481647640466690063e-01 4.200000000000000000e+01
-1.118700623512268066e+00 -1.293286681175231934e+00 3.323892652988433838e-01 6.600000000000000000e+01
-1.108248114585876021e+00 -1.280751109123229980e+00 -8.876178413629531860e-02 4.800000000000000000e+01
-1.123632192611693892e+00 -1.298071861267090066e+00 3.963637650012969971e-01 5.100000000000000000e+01
-1.089103221893310991e+00 -1.257738709449768066e+00 -2.904080413281917919e-02 5.100000000000000000e+01
-1.102959752082824929e+00 -1.273291587829590066e+00 4.513804018497467041e-01 4.800000000000000000e+01
-1.785969614982604980e+00 -2.056697130203247070e+00 -7.298697233200073242e-01 8.000000000000000000e+00
-1.085831999778748003e+00 -1.249987840652466042e+00 2.890118584036827087e-02 5.400000000000000000e+01
-2.110360860824584961e+00 -2.428548336029053178e+00 -7.427883744239807129e-01 2.300000000000000000e+01
-1.079703569412231001e+00 -1.242056846618651900e+00 8.624965697526931763e-02 5.800000000000000000e+01
-2.523213148117064986e+00 -2.902624607086182085e+00 -7.475896477699279785e-01 1.400000000000000000e+01
-1.081209421157836914e+00 -1.243350863456726074e+00 1.441555917263031006e-01 5.900000000000000000e+01
-3.158235073089600053e+00 -3.630573511123656782e+00 -7.621487379074096680e-01 1.200000000000000000e+01
-1.082894325256348100e+00 -1.244410872459412065e+00 2.025468498468399048e-01 8.200000000000000000e+01
-3.984442949295043945e+00 -4.577119350433349609e+00 -7.451091408729553223e-01 3.900000000000000000e+01
-1.107641577720642090e+00 -1.272400736808777078e+00 2.671900689601898193e-01 7.800000000000000000e+01
-4.775794029235839844e+00 -5.484249591827392578e+00 -6.362369060516357422e-01 9.000000000000000000e+00
-1.112891674041748047e+00 -1.277531027793884055e+00 3.293363153934478760e-01 6.600000000000000000e+01
-1.114024162292480025e+00 -1.278380513191222922e+00 -8.886645734310150146e-02 4.500000000000000000e+01
-1.128156423568726030e+00 -1.294141650199889915e+00 3.963637650012969971e-01 5.200000000000000000e+01
-1.110572695732116921e+00 -1.273522019386291948e+00 -2.949456684291363109e-02 5.200000000000000000e+01
-1.103366971015929954e+00 -1.265259027481079102e+00 4.498274922370911200e-01 5.000000000000000000e+01
-1.205599188804626021e+00 -1.378600597381592019e+00 -4.907208979129791260e-01 7.000000000000000000e+00
-1.095455288887023926e+00 -1.252210140228271040e+00 2.904080413281917919e-02 5.300000000000000000e+01
-2.108558177947998047e+00 -2.409435033798218218e+00 -7.391891479492187500e-01 1.900000000000000000e+01
-1.085348129272460938e+00 -1.239783167839050071e+00 8.635433018207550049e-02 5.700000000000000000e+01
-2.538502454757689986e+00 -2.899708032608031782e+00 -7.491161227226257324e-01 1.400000000000000000e+01
-1.090793490409851074e+00 -1.245564579963684082e+00 1.448528468608855924e-01 6.100000000000000000e+01
-3.176095724105834961e+00 -3.625470638275146040e+00 -7.634001970291137695e-01 1.200000000000000000e+01
-1.083306550979614036e+00 -1.236144542694092019e+00 2.018156349658966064e-01 7.700000000000000000e+01
-3.992544174194335938e+00 -4.554227352142333984e+00 -7.436467409133911133e-01 3.700000000000000000e+01
-1.114680767059325950e+00 -1.271497368812561035e+00 2.678157985210419256e-01 8.000000000000000000e+01
-4.814613819122313565e+00 -5.490015029907226562e+00 -6.388515830039978027e-01 1.200000000000000000e+01
-1.116049647331238015e+00 -1.272162675857543945e+00 3.289546966552733820e-01 7.600000000000000000e+01
-1.119797229766845925e+00 -1.275985240936279075e+00 -8.897112309932708740e-02 4.200000000000000000e+01
-1.128810048103332964e+00 -1.285802364349365012e+00 3.950140476226807196e-01 5.300000000000000000e+01
-1.121609091758728027e+00 -1.277150273323059082e+00 -2.966909110546112061e-02 5.000000000000000000e+01
-1.105227351188659890e+00 -1.258496761322021040e+00 4.487922191619873047e-01 5.000000000000000000e+01
-1.226759195327759011e+00 -1.393445014953613059e+00 -4.974502027034760077e-01 4.400000000000000000e+01
-1.104888319969177024e+00 -1.254573345184325950e+00 2.918042428791522980e-02 5.300000000000000000e+01
-2.107519149780272993e+00 -2.392194032669066939e+00 -7.360398769378662109e-01 7.000000000000000000e+00
-1.084171295166016069e+00 -1.230183601379394975e+00 8.593563735485076904e-02 5.700000000000000000e+01
-2.544209957122803178e+00 -2.886855363845825195e+00 -7.479712367057800293e-01 1.300000000000000000e+01
-1.102823495864867942e+00 -1.250907659530640093e+00 1.458987146615982056e-01 6.100000000000000000e+01
-3.186794042587279829e+00 -3.613436698913574219e+00 -7.630873322486877441e-01 1.100000000000000000e+01
-1.090026378631592019e+00 -1.235522508621216042e+00 2.023031115531921109e-01 7.700000000000000000e+01
-3.995802640914916992e+00 -4.527567386627197266e+00 -7.414531111717224121e-01 2.200000000000000000e+01
-1.116497516632080078e+00 -1.264636993408202903e+00 2.671900689601898193e-01 7.800000000000000000e+01
-4.845979213714599609e+00 -5.488954544067382812e+00 -6.405947208404541016e-01 1.300000000000000000e+01
-1.117662906646728960e+00 -1.265511751174926980e+00 3.281914591789246161e-01 7.600000000000000000e+01
-1.146502852439879927e+00 -1.297710180282592995e+00 -9.075054526329040527e-02 2.000000000000000000e+01
-1.118872046470642090e+00 -1.265989899635314941e+00 3.900651335716248114e-01 5.000000000000000000e+01
-1.125838041305541992e+00 -1.273423910140990989e+00 -2.966909110546112061e-02 4.800000000000000000e+01
-1.106835365295409934e+00 -1.251930117607116921e+00 4.477569460868834894e-01 5.600000000000000000e+01
-1.230334162712096946e+00 -1.387708902359009011e+00 -4.969325661659240723e-01 5.800000000000000000e+01
-1.122529506683350053e+00 -1.265669584274291992e+00 2.952947095036507000e-02 5.200000000000000000e+01
-1.262271404266356978e+00 -1.422730565071105957e+00 -4.391044676303864081e-01 1.000000000000000000e+00
-1.089784502983093040e+00 -1.227885484695435014e+00 8.604031056165695190e-02 5.400000000000000000e+01
-2.549058675765991211e+00 -2.872083425521851030e+00 -7.464447617530822754e-01 1.300000000000000000e+01
-1.099246382713318093e+00 -1.238111019134521040e+00 1.448528468608855924e-01 6.100000000000000000e+01
-3.202011346817017046e+00 -3.605244636535644975e+00 -7.637130618095397949e-01 1.100000000000000000e+01
-1.100924849510193093e+00 -1.239130020141602007e+00 2.035218030214309970e-01 8.200000000000000000e+01
-3.999713897705078125e+00 -4.500237941741943359e+00 -7.392594218254089355e-01 1.600000000000000000e+01
-1.115655064582824929e+00 -1.254826903343200906e+00 2.659385800361632746e-01 7.200000000000000000e+01
-4.870405197143554688e+00 -5.477961540222167969e+00 -6.412919759750366211e-01 1.000000000000000000e+01
-1.127292513847351074e+00 -1.267470598220824973e+00 3.297179341316223145e-01 7.400000000000000000e+01
-1.196164011955261008e+00 -1.344433546066283958e+00 -9.430938959121704102e-02 1.000000000000000000e+00
-1.121988773345947044e+00 -1.260620951652527078e+00 3.896152377128601074e-01 5.600000000000000000e+01
-1.130276322364806907e+00 -1.269486188888550027e+00 -2.966909110546112061e-02 4.700000000000000000e+01
-1.106276988983154075e+00 -1.242094516754149947e+00 4.456863999366760254e-01 7.200000000000000000e+01
-1.230264544486999956e+00 -1.377426862716675027e+00 -4.948620200157166082e-01 6.100000000000000000e+01
-1.124496221542357954e+00 -1.258564472198486106e+00 2.945966273546218872e-02 5.200000000000000000e+01
-1.250595092773437944e+00 -1.399205923080443892e+00 -4.332557320594788153e-01 2.000000000000000000e+01
-1.110252499580383079e+00 -1.241749882698059082e+00 8.729637414216995239e-02 5.800000000000000000e+01
-2.570036888122559038e+00 -2.874429941177368164e+00 -7.494977116584777832e-01 1.000000000000000000e+00
-1.097135663032531960e+00 -1.226648569107056108e+00 1.439812928438186923e-01 6.400000000000000000e+01
-3.223106861114501953e+00 -3.602317333221435991e+00 -7.655902504920959473e-01 1.000000000000000000e+00
-1.105459094047545943e+00 -1.235086679458617942e+00 2.035218030214309970e-01 7.900000000000000000e+01
-4.069147586822509766e+00 -4.544704437255859375e+00 -7.490090131759643555e-01 1.600000000000000000e+01
-1.116292834281920943e+00 -1.246315002441406028e+00 2.649999856948853094e-01 6.900000000000000000e+01
-4.932987213134765625e+00 -5.507565498352050781e+00 -6.468698978424072266e-01 7.000000000000000000e+00
-1.129310250282288042e+00 -1.260405898094177024e+00 3.289546966552733820e-01 7.400000000000000000e+01
-1.125300765037537065e+00 -1.255049228668212891e+00 3.891653120517731268e-01 5.600000000000000000e+01
-1.142932772636414018e+00 -1.274266839027405007e+00 -2.987851947546004902e-02 4.700000000000000000e+01
-1.105446338653564009e+00 -1.232472777366637962e+00 4.436158537864685059e-01 7.300000000000000000e+01
-1.222146034240723100e+00 -1.358760833740233931e+00 -4.896856248378754217e-01 4.900000000000000000e+01
-1.124869942665100098e+00 -1.250171899795532005e+00 2.935494855046271931e-02 5.200000000000000000e+01
-1.251560568809509055e+00 -1.390486717224121094e+00 -4.319060146808624268e-01 4.100000000000000000e+01
-1.110571026802062988e+00 -1.233414053916930930e+00 8.698236197233200073e-02 5.600000000000000000e+01
-1.100077390670775923e+00 -1.221331000328063965e+00 1.438069790601730069e-01 6.500000000000000000e+01
-1.103118300437927024e+00 -1.223847746849060059e+00 2.023031115531921109e-01 7.400000000000000000e+01
-4.130183696746826172e+00 -4.580598354339599609e+00 -7.572960853576660156e-01 9.000000000000000000e+00
-1.123282670974731001e+00 -1.245344519615172896e+00 2.656257152557373047e-01 6.600000000000000000e+01
-4.956185817718505859e+00 -5.494750976562500000e+00 -6.473928689956665039e-01 2.000000000000000000e+00
-1.119235754013061968e+00 -1.240422606468200906e+00 3.247569203376770020e-01 7.600000000000000000e+01
-1.134898781776428001e+00 -1.256898999214171919e+00 3.909649252891541082e-01 6.100000000000000000e+01
-1.168820142745971902e+00 -1.294012784957885964e+00 -3.043699637055397034e-02 1.400000000000000000e+01
-1.109741806983947976e+00 -1.228606581687927024e+00 4.436158537864685059e-01 7.200000000000000000e+01
-1.234425187110901101e+00 -1.363292694091797097e+00 -4.927914738655089777e-01 5.000000000000000000e+01
-1.139749169349669966e+00 -1.258291602134705034e+00 2.963418699800968170e-02 4.900000000000000000e+01
-1.243079662322998047e+00 -1.371887922286987083e+00 -4.274069964885712225e-01 4.600000000000000000e+01
-1.115781426429748979e+00 -1.231399059295654075e+00 8.708702772855758667e-02 5.800000000000000000e+01
-1.230164766311645952e+00 -1.357158541679382102e+00 -3.560495972633361816e-01 9.000000000000000000e+00
-1.117504715919495073e+00 -1.232435941696166992e+00 1.455500870943068903e-01 6.500000000000000000e+01
-1.267434477806091087e+00 -1.397295355796813965e+00 -2.987898290157318115e-01 1.000000000000000000e+00
-1.103168845176696999e+00 -1.215772628784179910e+00 2.015718966722488126e-01 7.200000000000000000e+01
-1.125861763954163042e+00 -1.240346789360045943e+00 2.653128504753112793e-01 6.000000000000000000e+01
-1.127303123474121094e+00 -1.241063952445984109e+00 3.259017765522003174e-01 7.700000000000000000e+01
-1.128574371337891069e+00 -1.241592407226562944e+00 3.873657286167144775e-01 6.000000000000000000e+01
-1.245751142501831055e+00 -1.370023131370543990e+00 -3.232185542583466270e-02 1.000000000000000000e+00
-1.113809943199157937e+00 -1.224919795989990012e+00 4.436158537864685059e-01 7.300000000000000000e+01
-1.235271453857422097e+00 -1.354692935943603960e+00 -4.912385344505310059e-01 4.900000000000000000e+01
-1.148177385330199973e+00 -1.258737564086914062e+00 2.973890118300915111e-02 4.900000000000000000e+01
-1.229471325874329057e+00 -1.347387075424193892e+00 -4.211083650588989258e-01 3.400000000000000000e+01
-1.112208247184752974e+00 -1.218450546264647993e+00 8.645900338888168335e-02 5.300000000000000000e+01
-1.237541794776916948e+00 -1.355756282806396040e+00 -3.568128347396851141e-01 2.900000000000000000e+01
-1.121799945831299050e+00 -1.228527665138245073e+00 1.455500870943068903e-01 6.500000000000000000e+01
-1.244326949119568093e+00 -1.362234234809875044e+00 -2.922195792198181152e-01 2.400000000000000000e+01
-1.110084176063538042e+00 -1.214845299720763938e+00 2.020593732595444003e-01 8.200000000000000000e+01
-1.121069192886352983e+00 -1.226007461547852007e+00 2.631227672100067139e-01 5.200000000000000000e+01
-1.128978133201598899e+00 -1.234224081039428933e+00 3.251385390758513849e-01 7.700000000000000000e+01
-1.126322507858275923e+00 -1.230458140373229980e+00 3.851162195205687921e-01 7.100000000000000000e+01
-1.120901703834533913e+00 -1.223678350448607954e+00 4.446511268615723211e-01 7.300000000000000000e+01
-1.229773283004760964e+00 -1.338774681091309038e+00 -4.870974421501160223e-01 4.900000000000000000e+01
-1.169019579887389915e+00 -1.272190213203429954e+00 3.015775792300701141e-02 4.600000000000000000e+01
-1.237039089202881081e+00 -1.345741271972656028e+00 -4.220081865787506104e-01 4.000000000000000000e+01
-1.123212933540344016e+00 -1.221912741661071999e+00 8.698236197233200073e-02 5.100000000000000000e+01
-1.239844799041748047e+00 -1.348321080207824929e+00 -3.560495972633361816e-01 4.100000000000000000e+01
-1.120899677276611106e+00 -1.218542337417602983e+00 1.448528468608855924e-01 6.500000000000000000e+01
-1.246636152267456055e+00 -1.354757308959960938e+00 -2.915938496589661200e-01 4.500000000000000000e+01
-1.118562579154968040e+00 -1.215150117874145952e+00 2.027905881404876987e-01 7.700000000000000000e+01
-1.284170389175415039e+00 -1.394569516181946023e+00 -2.327704429626465121e-01 1.000000000000000000e+00
-1.112171649932861106e+00 -1.207361221313477007e+00 2.599940896034240723e-01 6.100000000000000000e+01
-1.138815879821776900e+00 -1.235852956771851030e+00 3.266650140285491943e-01 7.700000000000000000e+01
-1.130824804306030051e+00 -1.226321697235106978e+00 3.851162195205687921e-01 7.100000000000000000e+01
-1.117307186126708984e+00 -1.211238384246825950e+00 4.415452778339385986e-01 7.500000000000000000e+01
-1.226567983627318892e+00 -1.325964927673340066e+00 -4.839916229248046875e-01 4.900000000000000000e+01
-1.233786225318908913e+00 -1.332834482192992942e+00 -4.193087518215178888e-01 5.100000000000000000e+01
-1.136968612670897993e+00 -1.228244423866271973e+00 8.771505951881408691e-02 5.300000000000000000e+01
-1.236540198326111062e+00 -1.335341930389404075e+00 -3.537598848342896063e-01 4.500000000000000000e+01
-1.122438430786133035e+00 -1.211699008941649947e+00 1.445042192935943881e-01 6.500000000000000000e+01
-1.247329592704772949e+00 -1.346050620079040971e+00 -2.906552255153656006e-01 5.000000000000000000e+01
-1.129544973373413086e+00 -1.218517184257507102e+00 2.040092796087265015e-01 8.500000000000000000e+01
-1.244488120079040971e+00 -1.342044353485106978e+00 -2.247270643711090088e-01 1.200000000000000000e+01
-1.112349152565001997e+00 -1.199127078056335005e+00 2.590554654598236084e-01 7.700000000000000000e+01
-1.239812970161437988e+00 -1.336534738540648970e+00 -1.594950109720230103e-01 6.000000000000000000e+00
-1.133774876594543013e+00 -1.221796512603759988e+00 3.239936828613281250e-01 7.600000000000000000e+01
-1.250104904174804910e+00 -1.346686482429503950e+00 -9.629815816879272461e-02 1.700000000000000000e+01
-1.137750625610352007e+00 -1.225222945213318093e+00 3.860160112380980890e-01 7.200000000000000000e+01
-1.273876070976257102e+00 -1.371333837509155051e+00 -3.267090395092964172e-02 1.000000000000000000e+00
-1.122843265533447044e+00 -1.208746194839477983e+00 4.420629143714904785e-01 7.700000000000000000e+01
-1.223059177398682085e+00 -1.313407540321350098e+00 -4.808857738971710205e-01 5.100000000000000000e+01
-1.260796308517456055e+00 -1.353458642959594949e+00 3.228695318102837303e-02 1.000000000000000000e+00
-1.226242423057555930e+00 -1.315904617309570090e+00 -4.152596592903137207e-01 5.100000000000000000e+01
-1.148058533668518066e+00 -1.231572866439818892e+00 8.823842555284500122e-02 5.100000000000000000e+01
-1.230252146720886008e+00 -1.319745540618896040e+00 -3.507069349288939875e-01 5.100000000000000000e+01
-1.129168033599853960e+00 -1.210884451866149902e+00 1.448528468608855924e-01 6.700000000000000000e+01
-1.238311886787414995e+00 -1.327462315559386985e+00 -2.875265479087830145e-01 5.100000000000000000e+01
-1.122744917869568093e+00 -1.203154206275939941e+00 2.020593732595444003e-01 7.200000000000000000e+01
-1.258413791656493919e+00 -1.348067760467529075e+00 -2.264332473278045932e-01 3.800000000000000000e+01
-1.124198555946350098e+00 -1.204290509223937988e+00 2.609326839447020929e-01 6.200000000000000000e+01
-1.227920413017272949e+00 -1.314941763877869096e+00 -1.574032753705978116e-01 4.300000000000000000e+01
-1.135139822959899902e+00 -1.215160727500915971e+00 3.232304453849791925e-01 8.000000000000000000e+01
-1.246381878852844016e+00 -1.333777904510498047e+00 -9.567012637853622437e-02 3.600000000000000000e+01
-1.148461222648621050e+00 -1.228561162948607954e+00 3.882655203342437744e-01 7.700000000000000000e+01
-1.248368263244628906e+00 -1.334969162940979004e+00 -3.190299868583679199e-02 1.600000000000000000e+01
-1.134974122047424094e+00 -1.213284134864806907e+00 4.451687633991240900e-01 8.800000000000000000e+01
-1.232922196388245073e+00 -1.314766883850098100e+00 -4.829563498497009277e-01 4.900000000000000000e+01
-1.243623137474060059e+00 -1.325714468955994096e+00 3.172847628593444824e-02 2.200000000000000000e+01
-1.222827315330504927e+00 -1.303089976310729980e+00 -4.125602245330811102e-01 5.000000000000000000e+01
-1.161703228950500044e+00 -1.237953901290893999e+00 8.897112309932708740e-02 5.300000000000000000e+01
-1.238882422447205034e+00 -1.319737315177917036e+00 -3.518517911434174139e-01 5.300000000000000000e+01
-1.132024049758910911e+00 -1.205483198165893999e+00 1.446785330772399902e-01 6.700000000000000000e+01
-1.241585493087768999e+00 -1.321691989898682085e+00 -2.872136831283568781e-01 5.300000000000000000e+01
-1.116062641143799050e+00 -1.187654972076416016e+00 2.001094669103621881e-01 7.000000000000000000e+01
-1.252234578132628950e+00 -1.332095980644226074e+00 -2.244833260774611872e-01 4.600000000000000000e+01
-1.131311416625977007e+00 -1.203040122985840066e+00 2.615584135055541992e-01 9.200000000000000000e+01
-1.236597657203674094e+00 -1.315001726150512917e+00 -1.579262018203735074e-01 5.200000000000000000e+01
-1.132648706436157005e+00 -1.204041004180907981e+00 3.213223516941071112e-01 8.500000000000000000e+01
-1.237342596054076926e+00 -1.314874053001404031e+00 -9.462340921163558960e-02 4.700000000000000000e+01
-1.144728302955626997e+00 -1.216031193733215110e+00 3.855661153793334961e-01 8.000000000000000000e+01
-1.248907804489135964e+00 -1.326236009597778098e+00 -3.179828450083733299e-02 4.800000000000000000e+01
-1.136553049087523970e+00 -1.206502676010132058e+00 4.441334903240203857e-01 8.800000000000000000e+01
-1.244135856628417969e+00 -1.317478060722351074e+00 -4.855445325374603271e-01 4.600000000000000000e+01
-1.238630771636962891e+00 -1.311189770698546919e+00 3.148414194583892822e-02 3.100000000000000000e+01
-1.226029992103577104e+00 -1.297397255897521973e+00 -4.121103286743164062e-01 5.200000000000000000e+01
-1.181107044219970925e+00 -1.249859213829040971e+00 9.012251347303390503e-02 5.200000000000000000e+01
-1.240784287452697976e+00 -1.312551379203795943e+00 -3.510885536670684814e-01 5.900000000000000000e+01
-1.141700863838196023e+00 -1.207314848899841087e+00 1.453757733106612882e-01 6.200000000000000000e+01
-1.243476510047913042e+00 -1.314479947090148926e+00 -2.865879535675048828e-01 5.300000000000000000e+01
-1.129752635955810991e+00 -1.193844795227051003e+00 2.018156349658966064e-01 9.300000000000000000e+01
-1.236406564712523970e+00 -1.306092739105225053e+00 -2.208272516727448065e-01 5.100000000000000000e+01
-1.135294675827025923e+00 -1.199281930923461914e+00 2.615584135055541992e-01 8.600000000000000000e+01
-1.243920207023621050e+00 -1.313570618629456010e+00 -1.582748293876647949e-01 5.600000000000000000e+01
-1.139545083045959029e+00 -1.202930569648742898e+00 3.220855891704558771e-01 8.600000000000000000e+01
-1.229560494422913042e+00 -1.297499418258666992e+00 -9.368136525154113770e-02 4.900000000000000000e+01
-1.148966073989867942e+00 -1.212027907371520996e+00 3.855661153793334961e-01 8.100000000000000000e+01
-1.238393783569335938e+00 -1.305907368659972922e+00 -3.141433000564575195e-02 4.900000000000000000e+01
-1.146075844764709029e+00 -1.208134174346924050e+00 4.462040364742279053e-01 8.400000000000000000e+01
-1.231420755386352983e+00 -1.294928193092345969e+00 -4.788152277469635010e-01 4.500000000000000000e+01
-1.237686991691588911e+00 -1.301062822341918945e+00 3.134452179074286721e-02 4.100000000000000000e+01
-1.226521134376526101e+00 -1.288874626159667969e+00 -4.107606112957000732e-01 5.600000000000000000e+01
-1.222637414932250977e+00 -1.284793496131896973e+00 9.294866025447845459e-02 4.500000000000000000e+01
-1.227760910987854004e+00 -1.289726614952086958e+00 -3.461275100708007812e-01 5.800000000000000000e+01
-1.145908236503601074e+00 -1.203322172164916992e+00 1.453757733106612882e-01 6.400000000000000000e+01
-1.239882349967956987e+00 -1.301549673080443892e+00 -2.847107350826262873e-01 5.500000000000000000e+01
-1.139390826225280984e+00 -1.195642232894897017e+00 2.027905881404876987e-01 9.900000000000000000e+01
-1.243697524070739968e+00 -1.304642558097838911e+00 -2.213147282600403110e-01 5.200000000000000000e+01
-1.138110995292664018e+00 -1.193881988525391069e+00 2.612455487251281738e-01 7.900000000000000000e+01
-1.244372844696044922e+00 -1.304894804954529031e+00 -1.577518880367279053e-01 5.700000000000000000e+01
-1.143737077713012917e+00 -1.198945522308350053e+00 3.220855891704558771e-01 8.600000000000000000e+01
-1.238218784332274947e+00 -1.297534227371216042e+00 -9.399537742137908936e-02 5.200000000000000000e+01
-1.153189778327941895e+00 -1.208009958267211914e+00 3.855661153793334961e-01 8.000000000000000000e+01
-1.238801479339600053e+00 -1.297237992286681907e+00 -3.130961582064629295e-02 4.900000000000000000e+01
-1.144948244094849077e+00 -1.198538661003113015e+00 4.441334903240203857e-01 8.400000000000000000e+01
-1.222794771194458008e+00 -1.276455760002136008e+00 -4.736388623714447021e-01 4.100000000000000000e+01
-1.220310211181641069e+00 -1.273417234420775923e+00 3.078604489564895977e-02 4.700000000000000000e+01
-1.237979650497436968e+00 -1.291404366493225098e+00 -4.130101501941680908e-01 6.100000000000000000e+01
-1.223191738128662109e+00 -1.275978326797484907e+00 9.263464063405990601e-02 4.800000000000000000e+01
-1.237915158271789995e+00 -1.290886044502258079e+00 -3.476539850234984796e-01 5.800000000000000000e+01
-1.146173119544982910e+00 -1.194800734519958052e+00 1.448528468608855924e-01 6.500000000000000000e+01
-1.240541219711303933e+00 -1.292720794677733931e+00 -2.837721109390258789e-01 5.600000000000000000e+01
-1.135517120361327903e+00 -1.182865977287292036e+00 2.013281583786011020e-01 9.100000000000000000e+01
-1.252595901489258035e+00 -1.304370760917664018e+00 -2.220459431409836093e-01 5.800000000000000000e+01
-1.143847346305846946e+00 -1.191127300262450950e+00 2.615584135055541992e-01 7.400000000000000000e+01
-1.238104939460753950e+00 -1.288830637931823953e+00 -1.563574075698853094e-01 5.700000000000000000e+01
-1.145403146743773970e+00 -1.191914319992064986e+00 3.213223516941071112e-01 7.600000000000000000e+01
-1.241582036018372026e+00 -1.291547417640686035e+00 -9.389070421457290649e-02 5.400000000000000000e+01
-1.160311222076416016e+00 -1.206584453582763894e+00 3.864659070968627930e-01 7.600000000000000000e+01
-1.240775108337401900e+00 -1.289806604385375977e+00 -3.123980760574341167e-02 4.900000000000000000e+01
-1.149124979972838911e+00 -1.194534778594970925e+00 4.441334903240203857e-01 9.000000000000000000e+01
-1.227242946624756081e+00 -1.272179603576659934e+00 -4.736388623714447021e-01 4.700000000000000000e+01
-1.215027570724487083e+00 -1.259077072143554910e+00 3.054171055555343975e-02 5.200000000000000000e+01
-1.235712647438049094e+00 -1.280064821243285911e+00 -4.107606112957000732e-01 5.400000000000000000e+01
-1.216541051864624023e+00 -1.260205268859863059e+00 9.179726988077163696e-02 4.800000000000000000e+01
-1.246505022048949973e+00 -1.290793776512145996e+00 -3.487988412380219061e-01 5.600000000000000000e+01
-1.150336742401123047e+00 -1.190792560577393022e+00 1.448528468608855924e-01 6.600000000000000000e+01
-1.235437035560607910e+00 -1.278439164161681907e+00 -2.815820276737213135e-01 5.400000000000000000e+01
-1.138259530067444070e+00 -1.177467823028564009e+00 2.010844200849533081e-01 8.600000000000000000e+01
-1.254381418228148970e+00 -1.297136545181273970e+00 -2.215584665536879938e-01 5.300000000000000000e+01
-1.143878579139709029e+00 -1.182867288589477983e+00 2.606198191642761230e-01 5.900000000000000000e+01
-1.237055182456969993e+00 -1.278772950172424094e+00 -1.556601524353027066e-01 5.800000000000000000e+01
-1.142730355262755904e+00 -1.180854678153991921e+00 3.194142580032349188e-01 7.200000000000000000e+01
-1.240526080131530984e+00 -1.281465530395508035e+00 -9.347201883792877197e-02 5.600000000000000000e+01
-1.163160204887389915e+00 -1.201126933097838911e+00 3.860160112380980890e-01 7.200000000000000000e+01
-1.243878483772278054e+00 -1.284031391143799050e+00 -3.120490349829196930e-02 5.000000000000000000e+01
-1.152150988578795943e+00 -1.188927650451659934e+00 4.436158537864685059e-01 9.500000000000000000e+01
-1.236838340759276900e+00 -1.273646593093872070e+00 -4.757094085216522217e-01 5.600000000000000000e+01
-1.223376274108886941e+00 -1.259343981742859109e+00 3.064642660319805145e-02 5.200000000000000000e+01
-1.231801986694335938e+00 -1.267574787139893022e+00 -4.080612063407897949e-01 5.400000000000000000e+01
-1.215363860130310059e+00 -1.250222563743591087e+00 9.137857705354690552e-02 5.200000000000000000e+01
-1.248041629791259988e+00 -1.283837676048279031e+00 -3.480356037616729736e-01 5.500000000000000000e+01
-1.165391445159912109e+00 -1.198398351669311968e+00 1.462473422288894931e-01 6.100000000000000000e+01
-1.234160065650939941e+00 -1.268671631813049094e+00 -2.803305685520172119e-01 5.300000000000000000e+01
-1.143542289733886941e+00 -1.175109386444092019e+00 2.013281583786011020e-01 9.000000000000000000e+01
-1.253137230873107910e+00 -1.287280082702636941e+00 -2.205835133790970126e-01 5.200000000000000000e+01
