-5.808793544769287109e+00 -2.440598964691162109e+00 -7.736265659332275391e-01 9.000000000000000000e+00
-8.854242324829101562e+00 -3.718344449996947798e+00 -8.401813507080078125e-01 1.000000000000000000e+00
-1.306345748901367010e+01 -5.480643749237061435e+00 -7.424378991127014160e-01 2.100000000000000000e+01
-2.461945772171020952e+00 -1.027835249900818093e+00 -7.148581743240356445e-01 1.400000000000000000e+01
-2.886710405349731001e+00 -1.203986763954163042e+00 -7.220928668975830078e-01 1.200000000000000000e+01
-3.448428630828856978e+00 -1.437561154365539995e+00 -7.262190580368041992e-01 1.200000000000000000e+01
-4.320002555847167969e+00 -1.799128293991089089e+00 -7.411864995956420898e-01 1.100000000000000000e+01
-5.826441287994384766e+00 -2.424120426177978960e+00 -7.748453021049499512e-01 1.100000000000000000e+01
-8.914999008178710938e+00 -3.707305431365966797e+00 -8.447134494781494141e-01 1.000000000000000000e+00
-1.313046455383300959e+01 -5.454932689666748047e+00 -7.451593279838562012e-01 2.500000000000000000e+01
-5.142136764526367188e+01 -2.133097839355469105e+01 1.491677665710449041e+01 1.900000000000000000e+01
-2.474445104598999023e+00 -1.022925376892090066e+00 -7.174463868141174316e-01 1.200000000000000000e+01
-2.878287315368651900e+00 -1.188695907592772993e+00 -7.189435958862304688e-01 1.200000000000000000e+01
-3.464313983917235884e+00 -1.430009722709655984e+00 -7.285087704658508301e-01 1.200000000000000000e+01
-4.331735134124755859e+00 -1.786296963691710982e+00 -7.421250939369201660e-01 1.200000000000000000e+01
-5.825690269470214844e+00 -2.399986982345581055e+00 -7.736265659332275391e-01 9.000000000000000000e+00
-8.913146972656250000e+00 -3.670094966888428178e+00 -8.433189392089843750e-01 1.000000000000000000e+00
-1.311063671112061080e+01 -5.393109798431395596e+00 -7.429612278938293457e-01 1.700000000000000000e+01
-5.134540557861328125e+01 -2.108969879150390980e+01 1.487329483032226918e+01 1.900000000000000000e+01
-2.488372087478638139e+00 -1.019541263580322044e+00 -7.205522060394287109e-01 1.400000000000000000e+01
-2.887418031692504883e+00 -1.181862235069274902e+00 -7.202932834625244141e-01 1.400000000000000000e+01
-3.457886934280395952e+00 -1.414658904075623003e+00 -7.262190580368041992e-01 1.200000000000000000e+01
-4.337325572967529297e+00 -1.772679567337035911e+00 -7.421250939369201660e-01 1.200000000000000000e+01
-5.812985420227050781e+00 -2.373419046401977983e+00 -7.709454894065856934e-01 1.100000000000000000e+01
-5.204069900512695312e+01 -2.124801254272460938e+01 8.902997970581054688e+00 2.800000000000000000e+01
-8.913564682006835938e+00 -3.637558460235596147e+00 -8.422731161117553711e-01 1.000000000000000000e+00
-1.321259021759033025e+01 -5.386579036712645596e+00 -7.477761507034301758e-01 1.200000000000000000e+01
-2.491915941238402876e+00 -1.010848999023437944e+00 -7.205522060394287109e-01 1.200000000000000000e+01
-2.895138025283813032e+00 -1.173239946365356001e+00 -7.211930751800537109e-01 1.200000000000000000e+01
-3.457345008850098100e+00 -1.400368928909301980e+00 -7.250741720199584961e-01 1.100000000000000000e+01
-4.343486785888671875e+00 -1.757528662681580034e+00 -7.421250939369201660e-01 1.200000000000000000e+01
-5.832277297973632812e+00 -2.357577085494995117e+00 -7.724078893661499023e-01 1.100000000000000000e+01
-8.915123939514160156e+00 -3.601943969726562944e+00 -8.412272334098815918e-01 1.000000000000000000e+00
-1.314611625671387074e+01 -5.306038856506347656e+00 -7.429612278938293457e-01 1.200000000000000000e+01
-5.095377349853516336e+01 -2.053495407104491832e+01 1.472007465362549006e+01 1.900000000000000000e+01
-2.486639976501464844e+00 -9.981107711791992188e-01 -7.179640531539916992e-01 1.100000000000000000e+01
-2.908462524414062944e+00 -1.166247248649596946e+00 -7.234426140785217285e-01 1.200000000000000000e+01
-3.471566200256348100e+00 -1.391339540481566939e+00 -7.269822955131530762e-01 1.200000000000000000e+01
-4.349899291992188388e+00 -1.741597175598144975e+00 -7.421250939369201660e-01 1.200000000000000000e+01
-5.829820632934570312e+00 -2.331761837005614790e+00 -7.709454894065856934e-01 1.100000000000000000e+01
-5.219141387939453125e+01 -2.087507629394530895e+01 8.902997970581054688e+00 2.800000000000000000e+01
-8.883865356445312500e+00 -3.551494121551514116e+00 -8.370437622070312500e-01 1.000000000000000000e+00
-1.337135982513427912e+01 -5.340043067932128906e+00 -7.545798420906066895e-01 8.000000000000000000e+00
-5.110050201416016336e+01 -2.038703346252441051e+01 1.474181556701659979e+01 1.900000000000000000e+01
-2.490108966827393022e+00 -9.894247055053710938e-01 -7.179640531539916992e-01 1.100000000000000000e+01
-2.899837017059326172e+00 -1.151054978370666948e+00 -7.202932834625244141e-01 1.200000000000000000e+01
-3.469102144241333008e+00 -1.376317024230957031e+00 -7.254558205604553223e-01 1.200000000000000000e+01
-4.344933986663818359e+00 -1.722035646438599077e+00 -7.402479052543640137e-01 1.200000000000000000e+01
-5.845306873321533203e+00 -2.314320802688599077e+00 -7.719204425811767578e-01 1.100000000000000000e+01
-8.922144889831542969e+00 -3.530725717544556108e+00 -8.394840955734252930e-01 1.000000000000000000e+00
-1.340106296539306996e+01 -5.297741413116455078e+00 -7.552078366279602051e-01 4.000000000000000000e+00
-4.845441436767578125e+01 -1.913556289672851918e+01 -9.093402028083801270e-01 1.400000000000000000e+01
-2.500738620758057085e+00 -9.835548996925354004e-01 -7.200345993041992188e-01 1.200000000000000000e+01
-2.898395776748656782e+00 -1.138787746429442915e+00 -7.189435958862304688e-01 1.200000000000000000e+01
-3.470230340957642046e+00 -1.362764000892638938e+00 -7.246925830841064453e-01 1.200000000000000000e+01
-4.352757453918457031e+00 -1.707579970359802024e+00 -7.405607700347900391e-01 1.200000000000000000e+01
-5.845956802368164062e+00 -2.291005373001099077e+00 -7.709454894065856934e-01 1.100000000000000000e+01
-8.919573783874511719e+00 -3.493746995925902876e+00 -8.380896449089050293e-01 1.000000000000000000e+00
-1.363522720336914062e+01 -5.335352897644042969e+00 -7.673497796058654785e-01 8.000000000000000000e+00
-4.852091217041016336e+01 -1.896630859375000000e+01 -9.093402028083801270e-01 1.400000000000000000e+01
-5.118041229248046875e+01 -2.000587844848633168e+01 1.472421550750732067e+01 1.900000000000000000e+01
-2.523959398269652876e+00 -9.825285673141479492e-01 -7.257286310195922852e-01 1.300000000000000000e+01
-2.904169559478760210e+00 -1.129369735717772993e+00 -7.193934917449951172e-01 1.200000000000000000e+01
-3.474966287612915039e+00 -1.350642323493957964e+00 -7.246925830841064453e-01 1.100000000000000000e+01
-4.362374305725097656e+00 -1.693805575370789018e+00 -7.411864995956420898e-01 1.200000000000000000e+01
-5.850216865539550781e+00 -2.269149541854857954e+00 -7.704579830169677734e-01 1.100000000000000000e+01
-8.939145088195800781e+00 -3.465471267700194868e+00 -8.387868404388427734e-01 1.000000000000000000e+00
-1.370032978057860973e+01 -5.305756568908691406e+00 -7.699666023254394531e-01 1.700000000000000000e+01
-4.877332305908203125e+01 -1.886897468566894887e+01 -9.128306508064270020e-01 1.400000000000000000e+01
-5.150564956665039062e+01 -1.991569900512694957e+01 1.479668521881104049e+01 1.900000000000000000e+01
-2.507544279098511186e+00 -9.660726189613342285e-01 -7.200345993041992188e-01 1.300000000000000000e+01
-2.908094167709351030e+00 -1.119225502014159934e+00 -7.193934917449951172e-01 1.100000000000000000e+01
-3.466833114624022993e+00 -1.333570241928101030e+00 -7.220212221145629883e-01 1.100000000000000000e+01
-4.366416454315186435e+00 -1.677859187126159890e+00 -7.408736348152160645e-01 1.200000000000000000e+01
-5.850688934326171875e+00 -2.245869159698485884e+00 -7.694830298423767090e-01 1.100000000000000000e+01
-8.936305999755859375e+00 -3.428537130355834961e+00 -8.373923897743225098e-01 3.000000000000000000e+00
-1.377098655700683949e+01 -5.277915000915527344e+00 -7.728974223136901855e-01 1.700000000000000000e+01
-5.436631011962891336e+01 -2.082573509216308949e+01 1.344082546234131037e+01 1.900000000000000000e+01
-4.886503601074218750e+01 -1.870862007141112926e+01 -9.133193492889404297e-01 1.400000000000000000e+01
-5.151728439331054688e+01 -1.972406768798828125e+01 1.478115558624267933e+01 1.900000000000000000e+01
-2.509096145629882812e+00 -9.566255807876586914e-01 -7.195169329643249512e-01 1.800000000000000000e+01
-2.917446613311768022e+00 -1.111148357391356978e+00 -7.207431793212890625e-01 1.300000000000000000e+01
-3.478806257247924805e+00 -1.324254393577575906e+00 -7.235476970672607422e-01 1.100000000000000000e+01
-4.372246265411376953e+00 -1.662607312202454057e+00 -7.408736348152160645e-01 1.200000000000000000e+01
-5.858492851257324219e+00 -2.225432634353638139e+00 -7.694830298423767090e-01 1.100000000000000000e+01
-8.944494247436523438e+00 -3.395908355712891069e+00 -8.370437622070312500e-01 1.000000000000000000e+00
-1.383974742889403942e+01 -5.248936176300048828e+00 -7.757235169410705566e-01 2.100000000000000000e+01
-5.450427246093750000e+01 -2.066069984436035156e+01 1.345702171325683949e+01 1.900000000000000000e+01
-4.897866058349608664e+01 -1.855635452270508168e+01 -9.142268300056457520e-01 1.400000000000000000e+01
-2.508474349975585938e+00 -9.473732113838195801e-01 -7.184816598892211914e-01 2.600000000000000000e+01
-2.915453195571898970e+00 -1.099913716316222922e+00 -7.193934917449951172e-01 1.100000000000000000e+01
-3.481112241744995117e+00 -1.312626242637634055e+00 -7.231661081314086914e-01 1.200000000000000000e+01
-4.368205070495604581e+00 -1.645381689071655051e+00 -7.393093109130859375e-01 1.200000000000000000e+01
-5.872887134552001953e+00 -2.209813117980957031e+00 -7.704579830169677734e-01 1.100000000000000000e+01
-8.929010391235351562e+00 -3.357973098754882812e+00 -8.346033692359924316e-01 1.000000000000000000e+00
-1.384682083129882990e+01 -5.201919555664063388e+00 -7.752001881599426270e-01 1.700000000000000000e+01
-4.930631256103516336e+01 -1.850356674194335938e+01 -9.192531704902648926e-01 1.400000000000000000e+01
-5.119841384887695312e+01 -1.921362876892089844e+01 1.465278148651123047e+01 1.800000000000000000e+01
-2.506337165832519975e+00 -9.365825653076171875e-01 -7.169287800788879395e-01 1.500000000000000000e+01
-2.901017904281616211e+00 -1.082915186882019043e+00 -7.148944735527038574e-01 1.300000000000000000e+01
-3.487512588500977007e+00 -1.301153063774109109e+00 -7.235476970672607422e-01 1.100000000000000000e+01
-4.379475116729736328e+00 -1.632193446159363015e+00 -7.402479052543640137e-01 1.200000000000000000e+01
-5.858241081237792969e+00 -2.180988311767578125e+00 -7.675331234931945801e-01 1.100000000000000000e+01
-8.966819763183593750e+00 -3.336512088775635210e+00 -8.370437622070312500e-01 1.000000000000000000e+00
-1.387612724304199041e+01 -5.157728672027587891e+00 -7.758282423019409180e-01 1.300000000000000000e+01
-5.135904693603516336e+01 -1.905945396423339844e+01 1.467866325378417969e+01 1.800000000000000000e+01
-2.511727094650268999e+00 -9.276213049888610840e-01 -7.174463868141174316e-01 1.300000000000000000e+01
-2.916124343872069868e+00 -1.075815081596374956e+00 -7.175938487052917480e-01 1.100000000000000000e+01
-3.492482900619506836e+00 -1.287752509117126021e+00 -7.235476970672607422e-01 1.100000000000000000e+01
-4.376441955566406250e+00 -1.611951708793639915e+00 -7.386835217475891113e-01 1.100000000000000000e+01
-5.847942352294921875e+00 -2.151623725891112837e+00 -7.650957107543945312e-01 1.100000000000000000e+01
-8.953385353088378906e+00 -3.292430400848389116e+00 -8.346033692359924316e-01 1.000000000000000000e+00
-1.399144268035889027e+01 -5.139532566070556641e+00 -7.811664938926696777e-01 1.300000000000000000e+01
-5.155551147460938211e+01 -1.891767120361328125e+01 1.471489810943604049e+01 1.900000000000000000e+01
-2.500433683395386186e+00 -9.135444760322570801e-01 -7.133052945137023926e-01 1.800000000000000000e+01
-2.923523187637329102e+00 -1.066965579986572044e+00 -7.184936404228210449e-01 1.300000000000000000e+01
-3.491423368453979048e+00 -1.273535251617432085e+00 -7.224028706550598145e-01 1.000000000000000000e+01
-4.408026218414306641e+00 -1.606132984161376953e+00 -7.430636882781982422e-01 1.200000000000000000e+01
-5.866609573364257812e+00 -2.135271072387694868e+00 -7.665581703186035156e-01 1.100000000000000000e+01
-8.964823722839355469e+00 -3.261157274246215820e+00 -8.346033692359924316e-01 1.000000000000000000e+00
-1.415571689605713068e+01 -5.143867492675781250e+00 -7.893308997154235840e-01 9.000000000000000000e+00
-2.496339797973632812e+00 -9.021843075752258301e-01 -7.112347483634948730e-01 1.900000000000000000e+01
-2.927229642868041992e+00 -1.056753993034363015e+00 -7.184936404228210449e-01 1.400000000000000000e+01
-3.490307569503784180e+00 -1.259341239929198997e+00 -7.212579846382141113e-01 1.100000000000000000e+01
-4.400597095489501953e+00 -1.586047887802124023e+00 -7.408736348152160645e-01 1.200000000000000000e+01
-5.888968944549561435e+00 -2.120159387588500977e+00 -7.685080766677856445e-01 1.100000000000000000e+01
-8.893665313720703125e+00 -3.200163125991820845e+00 -8.269336819648742676e-01 1.000000000000000000e+00
-1.425252628326416016e+01 -5.122797012329101562e+00 -7.937270998954772949e-01 9.000000000000000000e+00
-5.259179306030272727e+01 -1.888238334655762074e+01 1.497268199920653942e+01 1.900000000000000000e+01
-2.504931211471558061e+00 -8.954157829284667969e-01 -7.127876281738281250e-01 2.400000000000000000e+01
-2.929065465927124023e+00 -1.045874357223510964e+00 -7.180437445640563965e-01 1.200000000000000000e+01
-3.503927469253540039e+00 -1.250449419021606001e+00 -7.231661081314086914e-01 1.200000000000000000e+01
-4.396803379058837891e+00 -1.567360758781433105e+00 -7.393093109130859375e-01 1.200000000000000000e+01
-5.900074005126953125e+00 -2.100921869277954102e+00 -7.689955830574035645e-01 1.100000000000000000e+01
-8.893519401550292969e+00 -3.165090799331665039e+00 -8.258877992630004883e-01 1.000000000000000000e+00
-1.458271408081055043e+01 -5.184068679809570312e+00 -8.111026287078857422e-01 1.300000000000000000e+01
-5.257728576660156250e+01 -1.867024421691894887e+01 1.494990539550781072e+01 1.900000000000000000e+01
-2.515016555786132812e+00 -8.901200890541076660e-01 -7.148581743240356445e-01 2.400000000000000000e+01
-2.923150062561035156e+00 -1.033419609069823997e+00 -7.157942652702331543e-01 1.400000000000000000e+01
-3.504136323928833008e+00 -1.238127231597899947e+00 -7.224028706550598145e-01 1.100000000000000000e+01
-4.396117210388183594e+00 -1.551567792892456055e+00 -7.383706569671630859e-01 1.200000000000000000e+01
-5.895411968231201172e+00 -2.078415632247924805e+00 -7.675331234931945801e-01 1.100000000000000000e+01
-8.918452262878417969e+00 -3.142432451248168945e+00 -8.272823095321655273e-01 1.000000000000000000e+00
-1.460269641876221058e+01 -5.139556407928466797e+00 -8.113120198249816895e-01 1.300000000000000000e+01
-5.216605377197266336e+01 -1.835010337829589844e+01 1.276687240600585938e+01 1.800000000000000000e+01
-2.518108367919921875e+00 -8.813356161117553711e-01 -7.148581743240356445e-01 2.200000000000000000e+01
-2.934097766876221147e+00 -1.025782108306884988e+00 -7.175938487052917480e-01 1.300000000000000000e+01
-3.502876758575439009e+00 -1.223945260047913042e+00 -7.212579846382141113e-01 1.100000000000000000e+01
-4.401506423950195312e+00 -1.536213040351867898e+00 -7.383706569671630859e-01 1.200000000000000000e+01
-5.887635707855224609e+00 -2.052596330642700195e+00 -7.655832171440124512e-01 1.100000000000000000e+01
-4.972372055053710938e+01 -1.732536315917969105e+01 8.339834213256835938e+00 2.200000000000000000e+01
-8.914315223693847656e+00 -3.106037616729735884e+00 -8.258877992630004883e-01 1.000000000000000000e+00
-1.471674823760985973e+01 -5.122034072875976562e+00 -8.166502714157104492e-01 1.300000000000000000e+01
-5.420681762695313211e+01 -1.883438873291015980e+01 1.537643909454346058e+01 2.000000000000000000e+01
-2.515844345092772993e+00 -8.702058792114257812e-01 -7.133052945137023926e-01 2.300000000000000000e+01
-2.941521644592285156e+00 -1.016293883323668990e+00 -7.184936404228210449e-01 1.200000000000000000e+01
-3.503627538681029829e+00 -1.209816813468933105e+00 -7.204947471618652344e-01 1.100000000000000000e+01
-4.403372287750244141e+00 -1.518782138824462891e+00 -7.377449274063110352e-01 1.200000000000000000e+01
-5.887611865997313565e+00 -2.028416872024536133e+00 -7.646082639694213867e-01 1.100000000000000000e+01
-8.903033256530761719e+00 -3.065560340881348100e+00 -8.237960934638977051e-01 1.000000000000000000e+00
-1.481096935272216975e+01 -5.094043254852294922e+00 -8.208371400833129883e-01 1.300000000000000000e+01
-2.509727239608765093e+00 -8.582929968833923340e-01 -7.107170820236206055e-01 2.400000000000000000e+01
-2.941363096237183061e+00 -1.004760026931762917e+00 -7.175938487052917480e-01 1.100000000000000000e+01
-3.502255439758300781e+00 -1.195676565170288086e+00 -7.193499207496643066e-01 1.200000000000000000e+01
-4.417995452880859375e+00 -1.506590127944946067e+00 -7.393093109130859375e-01 1.100000000000000000e+01
-5.898414611816406250e+00 -2.009133100509643999e+00 -7.650957107543945312e-01 1.100000000000000000e+01
-8.936312675476074219e+00 -3.042169094085692915e+00 -8.258877992630004883e-01 1.000000000000000000e+00
-1.490240669250487926e+01 -5.067389011383056641e+00 -8.249193429946899414e-01 1.300000000000000000e+01
-5.323945236206054688e+01 -1.808272171020508168e+01 1.506585693359375000e+01 1.900000000000000000e+01
-2.516219377517700195e+00 -8.512038588523864746e-01 -7.117523550987243652e-01 2.200000000000000000e+01
-2.939140081405640093e+00 -9.931291341781616211e-01 -7.162441611289978027e-01 1.300000000000000000e+01
-3.513641357421875000e+00 -1.186568617820739968e+00 -7.208763957023620605e-01 1.000000000000000000e+01
-4.400506019592285156e+00 -1.484354853630065918e+00 -7.355548739433288574e-01 1.100000000000000000e+01
-5.905045032501220703e+00 -1.989562153816222922e+00 -7.650957107543945312e-01 1.100000000000000000e+01
-8.923693656921386719e+00 -3.004888772964477983e+00 -8.237960934638977051e-01 1.000000000000000000e+00
-1.503649806976318004e+01 -5.057419300079345703e+00 -8.314089775085449219e-01 9.000000000000000000e+00
-5.223246002197266336e+01 -1.755786895751953125e+01 1.272188186645507990e+01 1.700000000000000000e+01
-2.524671792984008789e+00 -8.442534208297729492e-01 -7.133052945137023926e-01 2.000000000000000000e+01
-2.937043905258179155e+00 -9.810114502906799316e-01 -7.148944735527038574e-01 1.400000000000000000e+01
-3.519624233245850053e+00 -1.174918174743651900e+00 -7.212579846382141113e-01 1.100000000000000000e+01
-4.411282539367675781e+00 -1.470859646797179954e+00 -7.364934682846069336e-01 1.200000000000000000e+01
-5.896886825561523438e+00 -1.963919520378113015e+00 -7.631458044052124023e-01 1.100000000000000000e+01
-8.926567077636718750e+00 -2.971204042434691939e+00 -8.230988383293151855e-01 3.000000000000000000e+00
-1.505405998229979936e+01 -5.004901409149169922e+00 -8.314089775085449219e-01 9.000000000000000000e+00
-5.359541702270507812e+01 -1.778727531433105113e+01 1.513107872009276988e+01 2.000000000000000000e+01
-2.531271934509276900e+00 -8.366480469703674316e-01 -7.143405675888061523e-01 1.900000000000000000e+01
-2.936749219894409180e+00 -9.695314168930053711e-01 -7.139946222305297852e-01 1.400000000000000000e+01
-3.519975185394287109e+00 -1.161394953727721946e+00 -7.204947471618652344e-01 1.100000000000000000e+01
-4.416389942169188565e+00 -1.455452442169189009e+00 -7.364934682846069336e-01 1.200000000000000000e+01
-5.898049354553222656e+00 -1.941461563110352007e+00 -7.624146342277526855e-01 1.100000000000000000e+01
-8.936883926391601562e+00 -2.940026283264160156e+00 -8.230988383293151855e-01 1.000000000000000000e+00
-1.525359344482422053e+01 -5.012176513671875000e+00 -8.414574861526489258e-01 1.400000000000000000e+01
-2.524995088577270952e+00 -8.248078823089599609e-01 -7.117523550987243652e-01 1.900000000000000000e+01
-2.943820953369141069e+00 -9.604832530021667480e-01 -7.148944735527038574e-01 1.400000000000000000e+01
-3.520274639129639116e+00 -1.147883534431457964e+00 -7.197315096855163574e-01 1.100000000000000000e+01
-4.428956508636474609e+00 -1.442474365234375000e+00 -7.377449274063110352e-01 1.200000000000000000e+01
-5.908565998077392578e+00 -1.922089934349060059e+00 -7.629020810127258301e-01 9.000000000000000000e+00
-8.947092056274414062e+00 -2.908812761306763139e+00 -8.230988383293151855e-01 1.000000000000000000e+00
-1.536597728729248047e+01 -4.989743709564208984e+00 -8.466910719871520996e-01 1.400000000000000000e+01
-2.524324178695679155e+00 -8.143615126609802246e-01 -7.107170820236206055e-01 2.100000000000000000e+01
-2.958450555801392046e+00 -9.532731175422668457e-01 -7.175938487052917480e-01 1.200000000000000000e+01
-3.522589445114136186e+00 -1.134371638298034890e+00 -7.193499207496643066e-01 1.000000000000000000e+01
-4.426691532135009766e+00 -1.423812389373779075e+00 -7.364934682846069336e-01 1.200000000000000000e+01
-5.425578308105468750e+01 -1.744051933288573863e+01 6.997493743896484375e+00 6.100000000000000000e+01
-5.908010959625244141e+00 -1.897992372512816939e+00 -7.619271278381347656e-01 9.000000000000000000e+00
-8.946310997009277344e+00 -2.872346162796020952e+00 -8.220529556274414062e-01 1.000000000000000000e+00
-1.539937686920166016e+01 -4.938270092010498047e+00 -8.475284576416015625e-01 9.000000000000000000e+00
-2.521629571914672852e+00 -8.037849068641662598e-01 -7.091642022132873535e-01 1.800000000000000000e+01
-2.965473890304564986e+00 -9.441227912902832031e-01 -7.184936404228210449e-01 1.200000000000000000e+01
-3.522786140441894975e+00 -1.120878100395203081e+00 -7.185866832733154297e-01 1.200000000000000000e+01
-4.416574001312255859e+00 -1.403565406799315962e+00 -7.339904904365539551e-01 1.200000000000000000e+01
-5.908924102783203125e+00 -1.875556349754333052e+00 -7.611958980560302734e-01 7.000000000000000000e+00
-5.282693862915039062e+01 -1.675769233703612926e+01 8.777851104736328125e+00 2.600000000000000000e+01
-8.948686599731445312e+00 -2.838690519332886186e+00 -8.213557004928588867e-01 3.000000000000000000e+00
-1.533274650573729936e+01 -4.857943534851074219e+00 -8.429229259490966797e-01 4.000000000000000000e+00
-2.527966260910034180e+00 -7.965796589851379395e-01 -7.101994752883911133e-01 1.800000000000000000e+01
-2.946282148361206055e+00 -9.272634387016296387e-01 -7.130948305130004883e-01 1.300000000000000000e+01
-3.535847663879394975e+00 -1.112135171890259011e+00 -7.204947471618652344e-01 1.200000000000000000e+01
-4.428742408752441406e+00 -1.391279935836791992e+00 -7.352420091629028320e-01 1.300000000000000000e+01
-5.913217067718505859e+00 -1.855357050895690918e+00 -7.609521746635437012e-01 9.000000000000000000e+00
-8.950446128845214844e+00 -2.806615352630614790e+00 -8.206584453582763672e-01 1.000000000000000000e+00
-1.528968620300292969e+01 -4.788566589355468750e+00 -8.396781086921691895e-01 1.400000000000000000e+01
-3.236820983886718750e+01 -1.012497234344482067e+01 -5.919856429100036621e-01 6.000000000000000000e+00
-2.530731439590454102e+00 -7.877505421638488770e-01 -7.101994752883911133e-01 1.800000000000000000e+01
-2.945779085159302202e+00 -9.158162474632263184e-01 -7.121950387954711914e-01 1.300000000000000000e+01
-3.532208919525146040e+00 -1.097455978393554910e+00 -7.189682722091674805e-01 1.100000000000000000e+01
-4.429798603057861328e+00 -1.374641418457031028e+00 -7.346162199974060059e-01 1.200000000000000000e+01
-5.912073135375976562e+00 -1.832354068756103960e+00 -7.599772214889526367e-01 9.000000000000000000e+00
-8.986832618713378906e+00 -2.783608436584473100e+00 -8.230988383293151855e-01 1.000000000000000000e+00
-1.586918067932129084e+01 -4.909296989440917969e+00 -8.705562949180603027e-01 1.000000000000000000e+01
-3.240335464477539062e+01 -1.001192474365234020e+01 -5.919856429100036621e-01 6.000000000000000000e+00
-2.537295103073120117e+00 -7.796044945716857910e-01 -7.112347483634948730e-01 1.900000000000000000e+01
-2.956568002700806108e+00 -9.073001146316528320e-01 -7.139946222305297852e-01 1.300000000000000000e+01
-3.524945735931396040e+00 -1.081048607826232910e+00 -7.166785597801208496e-01 1.100000000000000000e+01
-4.446139812469482422e+00 -1.361867308616637962e+00 -7.364934682846069336e-01 1.200000000000000000e+01
-5.922545909881591797e+00 -1.811834335327147993e+00 -7.604647278785705566e-01 9.000000000000000000e+00
-8.947436332702636719e+00 -2.735505819320679155e+00 -8.185667395591735840e-01 3.000000000000000000e+00
-1.604370307922362926e+01 -4.898929119110107422e+00 -8.791393637657165527e-01 1.000000000000000000e+01
-3.249338912963867188e+01 -9.909425735473632812e+00 -5.929629802703857422e-01 1.300000000000000000e+01
-2.532606363296508789e+00 -7.684991359710693359e-01 -7.091642022132873535e-01 2.000000000000000000e+01
-2.967176914215087891e+00 -8.992350697517395020e-01 -7.157942652702331543e-01 1.400000000000000000e+01
-3.530576705932617188e+00 -1.069306731224060059e+00 -7.170602083206176758e-01 1.200000000000000000e+01
-4.439521789550781250e+00 -1.342907547950745073e+00 -7.346162199974060059e-01 1.200000000000000000e+01
-5.942136287689208984e+00 -1.795168399810791016e+00 -7.621708512306213379e-01 9.000000000000000000e+00
-5.305296707153320312e+01 -1.602774047851562855e+01 8.777851104736328125e+00 2.600000000000000000e+01
-8.964560508728027344e+00 -2.706560373306273970e+00 -8.192639946937561035e-01 1.000000000000000000e+00
-1.634753799438476918e+01 -4.929387092590332031e+00 -8.948401808738708496e-01 5.000000000000000000e+00
-3.256990432739257812e+01 -9.808628082275390625e+00 -5.937308669090270996e-01 6.000000000000000000e+00
-2.531440019607543945e+00 -7.589868307113647461e-01 -7.081289291381835938e-01 1.900000000000000000e+01
-2.966408967971802202e+00 -8.882725834846496582e-01 -7.148944735527038574e-01 1.300000000000000000e+01
-3.539745807647705078e+00 -1.059281587600708008e+00 -7.182050347328186035e-01 1.200000000000000000e+01
-4.432594776153563565e+00 -1.324784159660338911e+00 -7.327390313148498535e-01 1.200000000000000000e+01
-5.944252014160156250e+00 -1.774318099021912065e+00 -7.616834044456481934e-01 7.000000000000000000e+00
-8.939119338989257812e+00 -2.666566133499145952e+00 -8.161263465881347656e-01 1.000000000000000000e+00
-1.656286239624023082e+01 -4.934456348419188565e+00 -9.057260751724243164e-01 5.000000000000000000e+00
-2.545188188552856001e+00 -7.534359693527221680e-01 -7.112347483634948730e-01 2.000000000000000000e+01
-2.960147619247436968e+00 -8.751500248908996582e-01 -7.126449346542358398e-01 1.500000000000000000e+01
-3.550952911376953125e+00 -1.049144148826598899e+00 -7.197315096855163574e-01 1.100000000000000000e+01
-4.429613590240479404e+00 -1.307067275047302024e+00 -7.314875721931457520e-01 1.200000000000000000e+01
-5.931368350982666016e+00 -1.747946619987488015e+00 -7.592459917068481445e-01 7.000000000000000000e+00
-8.986598014831542969e+00 -2.646604061126708984e+00 -8.196126222610473633e-01 1.000000000000000000e+00
-1.666046333312987926e+01 -4.900281429290770596e+00 -9.101222753524780273e-01 5.000000000000000000e+00
-2.547802686691284180e+00 -7.445470094680786133e-01 -7.112347483634948730e-01 2.000000000000000000e+01
-2.963184356689453125e+00 -8.648118376731872559e-01 -7.126449346542358398e-01 1.500000000000000000e+01
-3.539515733718872070e+00 -1.032345056533813032e+00 -7.166785597801208496e-01 1.100000000000000000e+01
-4.434149265289306641e+00 -1.291597008705138938e+00 -7.314875721931457520e-01 1.200000000000000000e+01
-5.927903175354003906e+00 -1.724459171295166016e+00 -7.580273151397705078e-01 7.000000000000000000e+00
-8.991954803466796875e+00 -2.614106416702270952e+00 -8.192639946937561035e-01 1.000000000000000000e+00
-1.660074424743651988e+01 -4.819820404052734375e+00 -9.059354066848754883e-01 5.000000000000000000e+00
-2.546673774719237837e+00 -7.345781326293945312e-01 -7.101994752883911133e-01 1.900000000000000000e+01
-2.968057632446289062e+00 -8.550025224685668945e-01 -7.130948305130004883e-01 1.400000000000000000e+01
-3.531777858734130859e+00 -1.016724824905395952e+00 -7.143889069557189941e-01 1.100000000000000000e+01
-4.438630580902099609e+00 -1.276111125946044922e+00 -7.314875721931457520e-01 1.200000000000000000e+01
-5.933886528015136719e+00 -1.703756451606750044e+00 -7.580273151397705078e-01 5.000000000000000000e+00
-8.951231956481933594e+00 -2.568415403366088867e+00 -8.147318959236145020e-01 1.000000000000000000e+00
-1.662130737304687855e+01 -4.762943744659423828e+00 -9.061447381973266602e-01 1.100000000000000000e+01
-2.537948131561278853e+00 -7.229535579681396484e-01 -7.070936560630798340e-01 2.000000000000000000e+01
-2.980248451232910156e+00 -8.478215336799621582e-01 -7.153443694114685059e-01 1.500000000000000000e+01
-3.544572114944458008e+00 -1.007691740989685059e+00 -7.162969708442687988e-01 1.200000000000000000e+01
-4.437137126922607422e+00 -1.259766459465027078e+00 -7.305489778518676758e-01 1.200000000000000000e+01
-5.931864261627197266e+00 -1.681903600692749023e+00 -7.570523619651794434e-01 5.000000000000000000e+00
-8.932863235473632812e+00 -2.531113624572753906e+00 -8.122915029525756836e-01 1.000000000000000000e+00
-1.680997276306151988e+01 -4.756742954254150391e+00 -9.155651926994323730e-01 1.100000000000000000e+01
-2.542315959930419922e+00 -7.146127820014953613e-01 -7.076112627983093262e-01 2.100000000000000000e+01
-2.977561235427856001e+00 -8.358333110809326172e-01 -7.139946222305297852e-01 1.400000000000000000e+01
-3.546177864074707031e+00 -9.947824478149414062e-01 -7.159153223037719727e-01 1.100000000000000000e+01
-4.428192615509033203e+00 -1.240540146827697976e+00 -7.283588647842407227e-01 1.100000000000000000e+01
-5.943434238433837891e+00 -1.662791728973388894e+00 -7.577835917472839355e-01 7.000000000000000000e+00
-8.964670181274414062e+00 -2.506354331970214844e+00 -8.143832683563232422e-01 1.000000000000000000e+00
-1.679954338073730113e+01 -4.690516471862792969e+00 -9.140998125076293945e-01 1.100000000000000000e+01
-2.557950019836425781e+00 -7.089015245437622070e-01 -7.112347483634948730e-01 2.000000000000000000e+01
-2.971213817596435991e+00 -8.223153948783874512e-01 -7.117451429367065430e-01 1.500000000000000000e+01
-3.561153411865233931e+00 -9.849184155464172363e-01 -7.182050347328186035e-01 1.100000000000000000e+01
-4.438421726226806641e+00 -1.225879430770874023e+00 -7.292974591255187988e-01 1.200000000000000000e+01
-5.939920902252197266e+00 -1.638357639312743919e+00 -7.565648555755615234e-01 7.000000000000000000e+00
-8.943063735961914062e+00 -2.465009450912476030e+00 -8.115942478179931641e-01 1.000000000000000000e+00
-1.696297073364258168e+01 -4.669195175170898438e+00 -9.220548868179321289e-01 5.000000000000000000e+00
-2.552954912185668945e+00 -6.979305744171142578e-01 -7.091642022132873535e-01 2.000000000000000000e+01
-4.515608215332031250e+01 -1.233636474609375000e+01 8.170867562294006348e-01 5.400000000000000000e+01
-2.974066257476807085e+00 -8.119389414787292480e-01 -7.117451429367065430e-01 1.600000000000000000e+01
-4.516316604614257812e+01 -1.232136154174805043e+01 2.453404903411864790e+00 3.900000000000000000e+01
-3.545629262924193892e+00 -9.673143625259399414e-01 -7.143889069557189941e-01 1.200000000000000000e+01
-4.433144569396972656e+00 -1.207782745361327903e+00 -7.277331352233886719e-01 1.100000000000000000e+01
-5.928364276885986328e+00 -1.612923264503479004e+00 -7.543712258338928223e-01 7.000000000000000000e+00
-8.974684715270996094e+00 -2.440049886703491211e+00 -8.136860132217407227e-01 1.000000000000000000e+00
-1.694447135925292969e+01 -4.600535392761229581e+00 -9.201707839965820312e-01 1.100000000000000000e+01
-2.555375576019287109e+00 -6.890148520469665527e-01 -7.091642022132873535e-01 1.900000000000000000e+01
-4.515638732910156250e+01 -1.216722011566161932e+01 8.163188695907592773e-01 5.400000000000000000e+01
-2.976882219314575195e+00 -8.015525341033935547e-01 -7.117451429367065430e-01 1.500000000000000000e+01
-4.517118453979492188e+01 -1.215429687500000000e+01 2.451520919799805132e+00 3.900000000000000000e+01
-3.545192718505858931e+00 -9.539116621017456055e-01 -7.136256694793701172e-01 1.200000000000000000e+01
-4.444964408874511719e+00 -1.194351196289062944e+00 -7.289845943450927734e-01 1.100000000000000000e+01
-5.941627502441406250e+00 -1.594277381896973100e+00 -7.553461790084838867e-01 7.000000000000000000e+00
-8.952357292175292969e+00 -2.400451660156250000e+00 -8.108970522880554199e-01 1.000000000000000000e+00
-1.700672912597655895e+01 -4.553758144378662109e+00 -9.226828813552856445e-01 5.000000000000000000e+00
-4.511591339111328125e+01 -1.206345748901367010e+01 -8.151670098304748535e-01 1.200000000000000000e+01
-2.546563386917113814e+00 -6.771122217178344727e-01 -7.060583829879760742e-01 2.200000000000000000e+01
-4.514833831787108664e+01 -1.199617004394531072e+01 8.154113292694091797e-01 5.400000000000000000e+01
-2.985312461853026900e+00 -7.926567196846008301e-01 -7.130948305130004883e-01 1.400000000000000000e+01
-4.517472839355468750e+01 -1.198630142211914062e+01 2.449427366256713867e+00 3.800000000000000000e+01
-3.550398349761962891e+00 -9.420343637466430664e-01 -7.140072584152221680e-01 1.200000000000000000e+01
-4.441468238830566406e+00 -1.176804304122925027e+00 -7.277331352233886719e-01 1.200000000000000000e+01
-5.950994491577148438e+00 -1.574542999267577903e+00 -7.558336853981018066e-01 7.000000000000000000e+00
-8.979943275451660156e+00 -2.374280214309691939e+00 -8.126401305198669434e-01 1.000000000000000000e+00
-1.759412193298339844e+01 -4.645282745361328125e+00 -9.536657929420471191e-01 6.000000000000000000e+00
-2.545173883438109907e+00 -6.672391295433044434e-01 -7.050230503082275391e-01 2.200000000000000000e+01
-4.513190460205078125e+01 -1.182329654693604049e+01 8.143641948699951172e-01 5.300000000000000000e+01
-2.986176013946533203e+00 -7.817376852035522461e-01 -7.126449346542358398e-01 1.500000000000000000e+01
-4.520470046997070312e+01 -1.182550621032715021e+01 2.448799371719359907e+00 3.800000000000000000e+01
-3.557463884353638139e+00 -9.306291341781616211e-01 -7.147704958915710449e-01 1.200000000000000000e+01
-4.434081554412841797e+00 -1.158297896385193093e+00 -7.258559465408325195e-01 1.100000000000000000e+01
-5.956454277038574219e+00 -1.553760647773742898e+00 -7.558336853981018066e-01 9.000000000000000000e+00
-8.980464935302734375e+00 -2.340909719467163086e+00 -8.119428753852844238e-01 1.000000000000000000e+00
-1.778225517272948863e+01 -4.628616333007813388e+00 -9.629815816879272461e-01 2.500000000000000000e+01
-3.371057510375977273e+01 -8.762101173400878906e+00 -6.079720258712768555e-01 6.000000000000000000e+00
-2.553098678588867188e+00 -6.598008275032043457e-01 -7.065759897232055664e-01 1.900000000000000000e+01
-4.513805007934570312e+01 -1.165668487548827947e+01 8.137359023094177246e-01 5.300000000000000000e+01
-2.977565050125122070e+00 -7.683876156806945801e-01 -7.099454998970031738e-01 1.600000000000000000e+01
-4.517994689941406250e+01 -1.165068340301514027e+01 2.445240497589110884e+00 3.800000000000000000e+01
-3.568294763565063032e+00 -9.201664924621582031e-01 -7.162969708442687988e-01 1.200000000000000000e+01
-4.441923618316650391e+00 -1.143798232078552024e+00 -7.264816761016845703e-01 1.100000000000000000e+01
-5.957996368408203125e+00 -1.531970500946044922e+00 -7.553461790084838867e-01 7.000000000000000000e+00
-8.977003097534179688e+00 -2.306572675704956055e+00 -8.108970522880554199e-01 1.000000000000000000e+00
-1.784279823303223012e+01 -4.577932834625244141e+00 -9.653890728950500488e-01 1.300000000000000000e+01
-3.389205169677733664e+01 -8.683086395263671875e+00 -6.106945872306823730e-01 7.000000000000000000e+00
-2.559130430221558061e+00 -6.518385410308837891e-01 -7.076112627983093262e-01 2.000000000000000000e+01
-4.515520858764647727e+01 -1.149313354492188033e+01 8.133170604705810547e-01 5.300000000000000000e+01
-2.978340625762939009e+00 -7.575089335441589355e-01 -7.094956040382385254e-01 1.400000000000000000e+01
-4.520098495483397727e+01 -1.148798561096191051e+01 2.444193840026855025e+00 3.800000000000000000e+01
-3.550554752349853960e+00 -9.023857116699218750e-01 -7.120991945266723633e-01 1.100000000000000000e+01
-4.438230514526367188e+00 -1.126342415809630904e+00 -7.252301573753356934e-01 1.200000000000000000e+01
-5.940216541290283203e+00 -1.505312323570251021e+00 -7.524213194847106934e-01 7.000000000000000000e+00
-8.973411560058593750e+00 -2.272288560867310014e+00 -8.098511695861816406e-01 1.000000000000000000e+00
-1.795548629760741832e+01 -4.540102005004882812e+00 -9.706226587295532227e-01 1.300000000000000000e+01
-2.555768966674805132e+00 -6.414906382560729980e-01 -7.060583829879760742e-01 2.200000000000000000e+01
-4.516789627075195312e+01 -1.132863140106200994e+01 8.128283619880676270e-01 5.300000000000000000e+01
-2.986637353897095171e+00 -7.485291957855224609e-01 -7.108453512191772461e-01 1.500000000000000000e+01
-4.513231277465820312e+01 -1.130296325683593928e+01 2.438332319259643999e+00 3.800000000000000000e+01
-3.563205242156981978e+00 -8.923712372779846191e-01 -7.140072584152221680e-01 1.200000000000000000e+01
-4.449800491333007812e+00 -1.112760186195373979e+00 -7.264816761016845703e-01 1.100000000000000000e+01
-5.937731266021729404e+00 -1.482644319534301980e+00 -7.514463663101196289e-01 7.000000000000000000e+00
-8.954224586486816406e+00 -2.234199047088623047e+00 -8.074107766151428223e-01 3.000000000000000000e+00
-1.812239074707030895e+01 -4.515059947967529297e+00 -9.787870645523071289e-01 6.000000000000000000e+00
-2.546630620956420898e+00 -6.302273273468017578e-01 -7.029525041580200195e-01 2.100000000000000000e+01
-4.516250991821289062e+01 -1.116822624206542969e+01 8.120604753494262695e-01 5.300000000000000000e+01
-2.994778633117675781e+00 -7.400234937667846680e-01 -7.121950387954711914e-01 1.400000000000000000e+01
-4.515208816528320312e+01 -1.115728759765625000e+01 2.437494754791260210e+00 3.800000000000000000e+01
-3.571862936019897017e+00 -8.819621801376342773e-01 -7.151521444320678711e-01 1.200000000000000000e+01
-4.445794582366943359e+00 -1.096106529235840066e+00 -7.252301573753356934e-01 1.100000000000000000e+01
-5.950325012207031250e+00 -1.464843988418579102e+00 -7.524213194847106934e-01 7.000000000000000000e+00
-8.938367843627929688e+00 -2.198782205581665039e+00 -8.053190708160400391e-01 2.000000000000000000e+00
-1.844759941101073863e+01 -4.531165122985839844e+00 -9.955345392227172852e-01 6.000000000000000000e+00
-2.552568674087523970e+00 -6.222491860389709473e-01 -7.039877772331237793e-01 1.900000000000000000e+01
-4.514681625366210938e+01 -1.099726009368895951e+01 8.110831379890441895e-01 5.300000000000000000e+01
-2.997343540191649947e+00 -7.295652627944946289e-01 -7.121950387954711914e-01 1.300000000000000000e+01
-4.518103408813477273e+01 -1.098888969421387074e+01 2.436866760253905806e+00 3.800000000000000000e+01
-3.565381526947021040e+00 -8.671687841415405273e-01 -7.132440209388732910e-01 1.200000000000000000e+01
-4.449593544006347656e+00 -1.080581068992614968e+00 -7.252301573753356934e-01 1.100000000000000000e+01
-5.955402374267578125e+00 -1.444064617156981978e+00 -7.524213194847106934e-01 7.000000000000000000e+00
-8.942115783691406250e+00 -2.166629791259766069e+00 -8.049704432487487793e-01 1.000000000000000000e+00
-1.764021110534667969e+01 -4.267616271972656250e+00 -9.511536955833435059e-01 6.000000000000000000e+00
-3.407075119018554688e+01 -8.229993820190429688e+00 -6.118115782737731934e-01 7.000000000000000000e+00
-2.560360670089722124e+00 -6.146882176399230957e-01 -7.055407166481018066e-01 1.900000000000000000e+01
-4.515381622314453125e+01 -1.083213806152343928e+01 8.105246424674987793e-01 5.300000000000000000e+01
-2.984711647033690962e+00 -7.154640555381774902e-01 -7.085958123207092285e-01 1.400000000000000000e+01
-4.519003295898438211e+01 -1.083248519897460938e+01 2.435401439666748047e+00 3.800000000000000000e+01
-3.579842329025268999e+00 -8.574618697166442871e-01 -7.155337333679199219e-01 1.200000000000000000e+01
-4.445653438568115234e+00 -1.063204646110534890e+00 -7.239786982536315918e-01 1.100000000000000000e+01
-5.948822021484375000e+00 -1.420501232147217019e+00 -7.509589195251464844e-01 7.000000000000000000e+00
-8.949624061584472656e+00 -2.135402917861938032e+00 -8.049704432487487793e-01 2.000000000000000000e+00
-1.783374595642089844e+01 -4.248597621917724609e+00 -9.607834815979003906e-01 6.000000000000000000e+00
-3.400588989257813211e+01 -8.088803291320800781e+00 -6.101361513137817383e-01 7.000000000000000000e+00
-2.562490701675415039e+00 -6.057471632957458496e-01 -7.055407166481018066e-01 2.000000000000000000e+01
-4.515243148803710938e+01 -1.066526126861572088e+01 8.098265528678894043e-01 5.300000000000000000e+01
-2.985294103622436968e+00 -7.045934200286865234e-01 -7.081459164619445801e-01 1.500000000000000000e+01
-4.516147994995117188e+01 -1.065907764434813920e+01 2.431842565536499023e+00 3.800000000000000000e+01
-3.557972669601439986e+00 -8.391023278236389160e-01 -7.105727195739746094e-01 1.100000000000000000e+01
-4.445492267608642578e+00 -1.046774387359618919e+00 -7.233529686927795410e-01 1.100000000000000000e+01
-5.934420108795166016e+00 -1.395184278488158958e+00 -7.485215067863464355e-01 9.000000000000000000e+00
-8.976419448852539062e+00 -2.108706235885620117e+00 -8.067135810852050781e-01 1.000000000000000000e+00
-1.797874832153319957e+01 -4.216877460479736328e+00 -9.677965044975280762e-01 1.900000000000000000e+01
-3.418968200683593750e+01 -8.006526947021484375e+00 -6.129285097122192383e-01 7.000000000000000000e+00
-2.553300142288208008e+00 -5.941715240478515625e-01 -7.024348974227905273e-01 2.000000000000000000e+01
-4.518938446044921875e+01 -1.050758552551270064e+01 8.098265528678894043e-01 5.300000000000000000e+01
-2.991531848907471147e+00 -6.950505971908569336e-01 -7.090457081794738770e-01 1.500000000000000000e+01
-4.518857192993164062e+01 -1.049077129364014027e+01 2.431214570999145952e+00 3.800000000000000000e+01
-3.562792539596558061e+00 -8.271214962005615234e-01 -7.109543085098266602e-01 1.200000000000000000e+01
-4.460665225982666016e+00 -1.033926606178283913e+00 -7.252301573753356934e-01 1.100000000000000000e+01
-5.939253807067871094e+00 -1.374460697174072044e+00 -7.485215067863464355e-01 7.000000000000000000e+00
-8.964313507080078125e+00 -2.072871208190917969e+00 -8.049704432487487793e-01 1.000000000000000000e+00
-1.825607681274414062e+01 -4.214747428894042969e+00 -9.819272160530090332e-01 1.300000000000000000e+01
-3.427198028564453125e+01 -7.899710655212402344e+00 -6.139058470726013184e-01 1.400000000000000000e+01
-2.544059991836547852e+00 -5.826675295829772949e-01 -6.993290781974792480e-01 2.000000000000000000e+01
-4.515951156616210938e+01 -1.033461380004882990e+01 8.086398243904113770e-01 5.300000000000000000e+01
-2.995839595794678178e+00 -6.850383281707763672e-01 -7.094956040382385254e-01 1.400000000000000000e+01
-4.518417358398438211e+01 -1.033195877075194957e+01 2.429121017456055132e+00 3.800000000000000000e+01
-3.567571878433227983e+00 -8.151172995567321777e-01 -7.113359570503234863e-01 1.200000000000000000e+01
-4.448839664459229404e+00 -1.014835119247436968e+00 -7.227272391319274902e-01 1.100000000000000000e+01
-5.951757431030273438e+00 -1.355483770370482954e+00 -7.494964599609375000e-01 7.000000000000000000e+00
-8.940411567687988281e+00 -2.034493684768677202e+00 -8.021814823150634766e-01 1.000000000000000000e+00
-1.842259407043457031e+01 -4.185510635375976562e+00 -9.900916218757629395e-01 2.000000000000000000e+01
-3.427594375610352273e+01 -7.774722576141357422e+00 -6.134870052337646484e-01 7.000000000000000000e+00
-2.555501461029053178e+00 -5.759071111679077148e-01 -7.019172310829162598e-01 2.100000000000000000e+01
-4.515239334106445312e+01 -1.016725063323974965e+01 8.078718781471252441e-01 5.200000000000000000e+01
-3.007718563079833984e+00 -6.767155528068542480e-01 -7.117451429367065430e-01 1.500000000000000000e+01
-4.518099212646483664e+01 -1.016540527343750000e+01 2.427027702331542969e+00 3.700000000000000000e+01
-3.585719108581542969e+00 -8.061040639877319336e-01 -7.143889069557189941e-01 1.100000000000000000e+01
-4.452354907989501953e+00 -9.992995858192443848e-01 -7.227272391319274902e-01 1.100000000000000000e+01
-5.971949577331542969e+00 -1.338172316551208052e+00 -7.514463663101196289e-01 7.000000000000000000e+00
-8.924127578735351562e+00 -1.998049855232238992e+00 -8.000897169113159180e-01 1.000000000000000000e+00
-1.851115989685058949e+01 -4.137734413146972656e+00 -9.940691590309143066e-01 1.300000000000000000e+01
-3.431068038940429688e+01 -7.656772136688232422e+00 -6.136265993118286133e-01 7.000000000000000000e+00
-2.563154220581055132e+00 -5.682376027107238770e-01 -7.034701704978942871e-01 1.800000000000000000e+01
-4.514075088500977273e+01 -9.999197959899902344e+00 8.070341944694519043e-01 5.200000000000000000e+01
-2.994840860366820845e+00 -6.628435254096984863e-01 -7.081459164619445801e-01 1.500000000000000000e+01
-4.520449829101563211e+01 -1.000504302978515980e+01 2.426399707794189009e+00 3.700000000000000000e+01
-3.596178770065308061e+00 -7.952783703804016113e-01 -7.159153223037719727e-01 1.200000000000000000e+01
-4.444242477416992188e+00 -9.811967015266418457e-01 -7.208499908447265625e-01 1.100000000000000000e+01
-5.957198619842529297e+00 -1.313045382499695046e+00 -7.490090131759643555e-01 7.000000000000000000e+00
-8.954397201538085938e+00 -1.972028851509094016e+00 -8.021814823150634766e-01 1.000000000000000000e+00
-1.864253044128417969e+01 -4.098825931549072266e+00 -1.000349521636962891e+00 1.400000000000000000e+01
-3.429813766479492188e+01 -7.528384208679199219e+00 -6.129285097122192383e-01 7.000000000000000000e+00
-2.563234567642211914e+00 -5.588755607604980469e-01 -7.029525041580200195e-01 1.600000000000000000e+01
-4.517147064208983664e+01 -9.840715408325195312e+00 8.069643974304199219e-01 5.200000000000000000e+01
-2.991423845291138139e+00 -6.511421203613281250e-01 -7.067962288856506348e-01 1.400000000000000000e+01
-4.519231033325195312e+01 -9.836993217468261719e+00 2.423887491226195845e+00 3.700000000000000000e+01
-3.583585500717163086e+00 -7.793827056884765625e-01 -7.128624320030212402e-01 1.200000000000000000e+01
-4.447640419006347656e+00 -9.656774401664733887e-01 -7.208499908447265625e-01 1.100000000000000000e+01
-5.944285392761229581e+00 -1.288458228111267090e+00 -7.468153238296508789e-01 9.000000000000000000e+00
-8.957331657409667969e+00 -1.939916729927062988e+00 -8.018328547477722168e-01 1.000000000000000000e+00
-1.917599678039551137e+01 -4.145997047424316406e+00 -1.028192162513732910e+00 7.000000000000000000e+00
-3.414437484741210938e+01 -7.369800567626953125e+00 -6.097172498703002930e-01 7.000000000000000000e+00
-2.561392068862915039e+00 -5.491148829460144043e-01 -7.019172310829162598e-01 1.900000000000000000e+01
-4.515861892700195312e+01 -9.672924995422363281e+00 8.061266541481018066e-01 5.200000000000000000e+01
-3.001301050186156782e+00 -6.423274278640747070e-01 -7.085958123207092285e-01 1.300000000000000000e+01
-4.519512557983397727e+01 -9.672494888305664062e+00 2.422212839126586914e+00 3.700000000000000000e+01
-3.567085742950439009e+00 -7.627636194229125977e-01 -7.090462446212768555e-01 1.200000000000000000e+01
-4.462575435638427734e+00 -9.526207447052001953e-01 -7.227272391319274902e-01 1.100000000000000000e+01
-5.944863319396972656e+00 -1.266873478889465110e+00 -7.463278770446777344e-01 9.000000000000000000e+00
-8.967946052551269531e+00 -1.909467816352844016e+00 -8.021814823150634766e-01 2.000000000000000000e+00
-3.434985733032227273e+01 -7.288756370544433594e+00 -6.129285097122192383e-01 7.000000000000000000e+00
-2.555731773376464844e+00 -5.385771989822387695e-01 -6.998466849327087402e-01 1.900000000000000000e+01
-4.518428039550781250e+01 -9.513585090637207031e+00 8.059870600700378418e-01 5.200000000000000000e+01
-3.005431890487670898e+00 -6.322482228279113770e-01 -7.090457081794738770e-01 1.500000000000000000e+01
-4.519509124755858664e+01 -9.499386787414550781e+00 2.420328617095946822e+00 3.700000000000000000e+01
-3.567805290222167969e+00 -7.499036788940429688e-01 -7.086645960807800293e-01 1.200000000000000000e+01
