-5.889745712280273438e+00 -4.593959748744965155e-01 -7.253663539886474609e-01 9.000000000000000000e+00
-8.704331398010253906e+00 -6.774032115936279297e-01 -7.638329267501831055e-01 2.000000000000000000e+00
-3.478339767456054688e+01 -2.682543516159058061e+00 -6.089493632316589355e-01 1.300000000000000000e+01
-2.569768428802489790e+00 -1.941239684820174893e-01 -6.905292272567749023e-01 1.600000000000000000e+01
-2.992612123489379883e+00 -2.250156402587890903e-01 -6.928492188453674316e-01 1.500000000000000000e+01
-4.492594528198242188e+01 -3.370113611221313032e+00 2.361084222793579102e+00 3.500000000000000000e+01
-3.568984985351562944e+00 -2.677269279956818182e-01 -6.956896185874938965e-01 1.200000000000000000e+01
-4.482891464233397727e+01 -3.354966878890991211e+00 3.932990074157714844e+00 5.400000000000000000e+01
-4.459838867187500000e+00 -3.329887092113494873e-01 -7.083352804183959961e-01 1.000000000000000000e+01
-5.885450839996337891e+00 -4.373645484447479248e-01 -7.246351242065429688e-01 1.100000000000000000e+01
-8.674964904785156250e+00 -6.431388258934020996e-01 -7.610439658164978027e-01 2.000000000000000000e+00
-3.477504730224608664e+01 -2.553719997406005859e+00 -6.086352467536926270e-01 2.000000000000000000e+01
-2.566576480865478960e+00 -1.848750263452529907e-01 -6.894939541816711426e-01 1.900000000000000000e+01
-2.999210596084595171e+00 -2.149861007928847989e-01 -6.941989660263061523e-01 1.400000000000000000e+01
-3.558148384094237837e+00 -2.544270455837249756e-01 -6.933999061584472656e-01 1.200000000000000000e+01
-4.478470611572266336e+01 -3.194494962692261186e+00 3.928109407424927202e+00 5.400000000000000000e+01
-4.476737499237061435e+00 -3.185405433177947998e-01 -7.108381986618041992e-01 8.000000000000000000e+00
-5.894862174987792969e+00 -4.173786342144011896e-01 -7.256100773811340332e-01 1.100000000000000000e+01
-8.649332046508789062e+00 -6.108884215354919434e-01 -7.586035728454589844e-01 2.000000000000000000e+00
-3.474983978271483664e+01 -2.429945468902587891e+00 -6.080418229103088379e-01 2.000000000000000000e+01
-2.561393499374390093e+00 -1.759657263755798062e-01 -6.879410147666931152e-01 1.800000000000000000e+01
-2.994074583053588867e+00 -2.046405225992203036e-01 -6.928492188453674316e-01 1.500000000000000000e+01
-3.560931205749512163e+00 -2.427599281072617132e-01 -6.937814950942993164e-01 1.100000000000000000e+01
-4.483083343505858664e+01 -3.048398971557617188e+00 3.931246995925902876e+00 5.400000000000000000e+01
-4.454118728637695312e+00 -3.020893931388854980e-01 -7.070837616920471191e-01 8.000000000000000000e+00
-5.896214008331298828e+00 -3.978282809257506769e-01 -7.256100773811340332e-01 1.100000000000000000e+01
-8.635407447814941406e+00 -5.811326503753662109e-01 -7.572091221809387207e-01 2.000000000000000000e+00
-1.738318061828612926e+01 -1.163731932640075906e+00 -9.130530953407287598e-01 5.000000000000000000e+00
-3.478963088989257812e+01 -2.316823482513428178e+00 -6.086003184318542480e-01 1.300000000000000000e+01
-2.569703340530395952e+00 -1.675264239311217984e-01 -6.900115609169006348e-01 1.900000000000000000e+01
-2.988936662673950195e+00 -1.938097178936004916e-01 -6.914995312690734863e-01 1.400000000000000000e+01
-3.559797763824462891e+00 -2.302017956972121915e-01 -6.933999061584472656e-01 1.200000000000000000e+01
-4.479348373413085938e+01 -2.888814210891724077e+00 3.927063465118408203e+00 5.400000000000000000e+01
-4.459088802337645596e+00 -2.867933511734008789e-01 -7.077094912528991699e-01 1.000000000000000000e+01
-5.889642715454101562e+00 -3.767373561859130859e-01 -7.246351242065429688e-01 1.100000000000000000e+01
-8.645337104797363281e+00 -5.514932274818420410e-01 -7.579063177108764648e-01 2.000000000000000000e+00
-3.477355575561522727e+01 -2.193859815597534180e+00 -6.081814765930175781e-01 2.000000000000000000e+01
-2.572200536727904829e+00 -1.586744040250777921e-01 -6.905292272567749023e-01 2.100000000000000000e+01
-2.983759641647338867e+00 -1.830172836780548096e-01 -6.901498436927795410e-01 1.500000000000000000e+01
-3.560579538345336914e+00 -2.177743762731552124e-01 -6.933999061584472656e-01 1.200000000000000000e+01
-4.477943038940429688e+01 -2.730982780456542969e+00 3.924971818923950195e+00 5.400000000000000000e+01
-4.462034225463867188e+00 -2.713463902473450262e-01 -7.080224156379699707e-01 1.000000000000000000e+01
-5.871107101440429688e+00 -3.549783229827880859e-01 -7.221977114677429199e-01 1.100000000000000000e+01
-8.655164718627929688e+00 -5.217916369438171387e-01 -7.586035728454589844e-01 2.000000000000000000e+00
-3.473708724975585938e+01 -2.069847345352172852e+00 -6.074135303497314453e-01 1.300000000000000000e+01
-2.563095808029174805e+00 -1.491337120532990057e-01 -6.879410147666931152e-01 2.000000000000000000e+01
-2.988271236419678178e+00 -1.728259325027466098e-01 -6.910496354103088379e-01 1.500000000000000000e+01
-3.555438041687012163e+00 -2.050052732229233066e-01 -6.922550201416015625e-01 1.300000000000000000e+01
-4.478869247436522727e+01 -2.574656724929810014e+00 3.924971818923950195e+00 5.400000000000000000e+01
-4.453093528747558594e+00 -2.552042007446289062e-01 -7.064580321311950684e-01 8.000000000000000000e+00
-5.862401008605957031e+00 -3.339177370071411133e-01 -7.209790349006652832e-01 1.100000000000000000e+01
-8.633062362670898438e+00 -4.902208447456359863e-01 -7.565118670463562012e-01 2.000000000000000000e+00
-1.719500541687012074e+01 -9.703817367553710938e-01 -9.025859236717224121e-01 5.000000000000000000e+00
-3.473212051391602273e+01 -1.947907924652100053e+00 -6.072041392326354980e-01 2.000000000000000000e+01
-2.553956031799315962e+00 -1.396585255861282071e-01 -6.853528022766113281e-01 2.200000000000000000e+01
-2.998585700988769975e+00 -1.629224866628647128e-01 -6.932991743087768555e-01 2.300000000000000000e+01
-4.498582077026367188e+01 -2.444219589233397993e+00 2.361084222793579102e+00 3.500000000000000000e+01
-3.565933942794799805e+00 -1.931240707635880072e-01 -6.941631436347961426e-01 1.300000000000000000e+01
-4.480934143066406250e+01 -2.418943643569945845e+00 3.926017522811890093e+00 5.400000000000000000e+01
-4.446067333221436435e+00 -2.392339110374450961e-01 -7.052065730094909668e-01 8.000000000000000000e+00
-5.845690250396729404e+00 -3.124983906745911200e-01 -7.187854051589965820e-01 1.100000000000000000e+01
-8.614826202392578125e+00 -4.590227305889130194e-01 -7.547687292098999023e-01 2.000000000000000000e+00
-1.719828796386719105e+01 -9.103540778160095215e-01 -9.025859236717224121e-01 5.000000000000000000e+00
-3.474270248413085938e+01 -1.826868295669556108e+00 -6.072739362716674805e-01 1.300000000000000000e+01
-2.558286428451538086e+00 -1.309401988983154019e-01 -6.863881349563598633e-01 2.100000000000000000e+01
-2.993297576904296875e+00 -1.521576792001723966e-01 -6.919494271278381348e-01 2.200000000000000000e+01
-4.499407958984375000e+01 -2.287174940109252930e+00 2.361084222793579102e+00 3.500000000000000000e+01
-3.556782722473144975e+00 -1.801788359880447110e-01 -6.922550201416015625e-01 1.300000000000000000e+01
-4.479761505126953125e+01 -2.261510610580443892e+00 3.924274444580078125e+00 5.400000000000000000e+01
-4.442929744720458984e+00 -2.235142737627028864e-01 -7.045808434486389160e-01 1.000000000000000000e+01
-5.862606525421142578e+00 -2.928836047649384100e-01 -7.207353115081787109e-01 1.100000000000000000e+01
-8.596476554870605469e+00 -4.279579520225524902e-01 -7.530255913734436035e-01 2.000000000000000000e+00
-1.720136070251464844e+01 -8.503152728080749512e-01 -9.025859236717224121e-01 5.000000000000000000e+00
-3.476284790039063211e+01 -1.706268787384032981e+00 -6.075182557106018066e-01 2.000000000000000000e+01
-2.570306062698363814e+00 -1.225613877177238048e-01 -6.894939541816711426e-01 2.100000000000000000e+01
-2.982131004333496094e+00 -1.411553770303725919e-01 -6.892500519752502441e-01 2.200000000000000000e+01
-4.495826721191406250e+01 -2.120178222656250000e+00 2.358781576156616211e+00 3.400000000000000000e+01
-3.565234184265137163e+00 -1.681321710348128995e-01 -6.937814950942993164e-01 2.000000000000000000e+01
-4.482513809204102273e+01 -2.106059074401855025e+00 3.926017522811890093e+00 5.400000000000000000e+01
-4.453548908233642578e+00 -2.084660232067107877e-01 -7.061451673507690430e-01 1.000000000000000000e+01
-5.855661392211914062e+00 -2.720490097999572754e-01 -7.197603583335876465e-01 1.100000000000000000e+01
-8.609859466552734375e+00 -3.985007405281066895e-01 -7.540714740753173828e-01 2.000000000000000000e+00
-1.710446739196776988e+01 -7.856838107109069824e-01 -8.973522782325744629e-01 5.000000000000000000e+00
-3.471465682983397727e+01 -1.582454800605773926e+00 -6.065758466720581055e-01 1.300000000000000000e+01
-2.576508045196533203e+00 -1.138444319367409030e-01 -6.910468339920043945e-01 1.900000000000000000e+01
-4.481179046630858664e+01 -1.972197294235229048e+00 7.829498648643493652e-01 4.800000000000000000e+01
-2.978711843490601030e+00 -1.305742412805556973e-01 -6.883502006530761719e-01 2.100000000000000000e+01
-4.495706939697266336e+01 -1.970729589462280051e+00 2.358362913131713867e+00 3.400000000000000000e+01
-3.557953834533690962e+00 -1.553436219692229947e-01 -6.922550201416015625e-01 1.900000000000000000e+01
-4.483221817016602273e+01 -1.949577331542968972e+00 3.926017522811890093e+00 5.400000000000000000e+01
-4.442408084869384766e+00 -1.924061030149460116e-01 -7.042679786682128906e-01 1.000000000000000000e+01
-5.836742877960205078e+00 -2.507552206516265869e-01 -7.173229455947875977e-01 1.100000000000000000e+01
-8.587310791015625000e+00 -3.674222528934478760e-01 -7.519797682762145996e-01 3.000000000000000000e+00
-3.472796249389647727e+01 -1.461604714393615945e+00 -6.067154407501220703e-01 1.300000000000000000e+01
-2.563377857208251953e+00 -1.043002679944037975e-01 -6.874234080314636230e-01 1.900000000000000000e+01
-4.473048782348632812e+01 -1.812201261520385964e+00 7.814140319824218750e-01 4.800000000000000000e+01
-2.986938238143920898e+00 -1.204899922013283053e-01 -6.901498436927795410e-01 2.500000000000000000e+01
-3.550627708435059038e+00 -1.426079422235488892e-01 -6.907285451889038086e-01 1.900000000000000000e+01
-4.479893112182617188e+01 -1.791479587554932085e+00 3.922531366348267046e+00 5.400000000000000000e+01
-4.431210041046142578e+00 -1.764265149831772128e-01 -7.023907303810119629e-01 1.200000000000000000e+01
-5.849483966827392578e+00 -2.308493554592133123e-01 -7.187854051589965820e-01 1.100000000000000000e+01
-8.598495483398437500e+00 -3.378358185291289728e-01 -7.528513073921203613e-01 3.000000000000000000e+00
-1.708159446716308949e+01 -6.651659607887268066e-01 -8.958868980407714844e-01 5.000000000000000000e+00
-3.470487594604492188e+01 -1.339293003082274947e+00 -6.062268018722534180e-01 1.300000000000000000e+01
-2.563726425170897993e+00 -9.535177797079086304e-02 -6.874234080314636230e-01 2.100000000000000000e+01
-4.472454833984375000e+01 -1.655607819557189941e+00 7.812046408653259277e-01 4.800000000000000000e+01
-2.989287853240966797e+00 -1.101346462965012013e-01 -6.905997395515441895e-01 2.000000000000000000e+01
-3.549141883850098100e+00 -1.301411241292952936e-01 -6.903469562530517578e-01 1.800000000000000000e+01
-4.480491256713867188e+01 -1.635091185569762962e+00 3.922531366348267046e+00 5.400000000000000000e+01
-4.423902511596679688e+00 -1.606708467006683072e-01 -7.011392712593078613e-01 1.600000000000000000e+01
-5.834383487701416016e+00 -2.098585814237594882e-01 -7.168354988098144531e-01 1.100000000000000000e+01
-8.585684776306152344e+00 -3.073205053806304932e-01 -7.516311407089233398e-01 2.000000000000000000e+00
-3.464938735961914062e+01 -1.216038107872009055e+00 -6.051796674728393555e-01 1.300000000000000000e+01
-2.550543308258057085e+00 -8.550153672695159912e-02 -6.837999224662780762e-01 1.900000000000000000e+01
-4.472232437133789062e+01 -1.491406440734863059e+00 7.810649871826171875e-01 4.800000000000000000e+01
-2.993566751480102983e+00 -9.930684417486190796e-02 -6.914995312690734863e-01 2.300000000000000000e+01
-3.553519487380981001e+00 -1.172614991664886058e-01 -6.911101937294006348e-01 2.000000000000000000e+01
-4.483848190307617188e+01 -1.471777081489562988e+00 3.924971818923950195e+00 5.400000000000000000e+01
-4.422487258911132812e+00 -1.443908959627150934e-01 -7.008264064788818359e-01 1.700000000000000000e+01
-5.849001884460449219e+00 -1.889216899871825894e-01 -7.185416221618652344e-01 1.500000000000000000e+01
-8.550909042358398438e+00 -2.746988236904143732e-01 -7.484934926033020020e-01 3.000000000000000000e+00
-1.701405143737792969e+01 -5.406330823898315430e-01 -8.921186923980712891e-01 5.000000000000000000e+00
-3.466560363769531250e+01 -1.089410424232482910e+00 -6.053890585899353027e-01 1.300000000000000000e+01
-2.566274166107178178e+00 -7.706183195114135742e-02 -6.879410147666931152e-01 1.900000000000000000e+01
-4.470326995849608664e+01 -1.334571242332458052e+00 7.806461453437805176e-01 4.800000000000000000e+01
-2.978312253952025923e+00 -8.839423954486846924e-02 -6.879003047943115234e-01 2.300000000000000000e+01
-3.561756610870360884e+00 -1.050882861018180986e-01 -6.926366686820983887e-01 2.000000000000000000e+01
-4.484334945678710938e+01 -1.315252542495727983e+00 3.924971818923950195e+00 5.400000000000000000e+01
-4.422964572906494141e+00 -1.289526522159576138e-01 -7.008264064788818359e-01 1.800000000000000000e+01
-5.821846008300781250e+00 -1.677034944295882901e-01 -7.151293158531188965e-01 1.300000000000000000e+01
-8.555798530578613281e+00 -2.449629455804825107e-01 -7.488421201705932617e-01 2.000000000000000000e+00
-3.468918228149414062e+01 -9.689566493034362793e-01 -6.057381033897399902e-01 1.300000000000000000e+01
-2.560709953308105025e+00 -6.884352117776870728e-02 -6.863881349563598633e-01 2.200000000000000000e+01
-4.471524047851563211e+01 -1.194338917732238992e+00 7.807857394218444824e-01 4.800000000000000000e+01
-2.976627111434936968e+00 -7.898548245429992676e-02 -6.874504089355468750e-01 2.400000000000000000e+01
-3.552256345748900923e+00 -9.363952279090881348e-02 -6.907285451889038086e-01 1.900000000000000000e+01
-4.485124206542968750e+01 -1.174471139907836914e+00 3.925320386886597124e+00 5.400000000000000000e+01
-4.433221340179443359e+00 -1.153137087821960033e-01 -7.023907303810119629e-01 1.600000000000000000e+01
-5.822343826293945312e+00 -1.494128257036209106e-01 -7.151293158531188965e-01 1.300000000000000000e+01
-8.552542686462402344e+00 -2.179814279079436978e-01 -7.484934926033020020e-01 3.000000000000000000e+00
-3.465207672119141336e+01 -8.589816689491271973e-01 -6.050400137901306152e-01 1.300000000000000000e+01
-2.557072162628173828e+00 -5.981420353055000305e-02 -6.853528022766113281e-01 2.100000000000000000e+01
-4.474312591552733664e+01 -1.038803339004517046e+00 7.812046408653259277e-01 4.800000000000000000e+01
-2.980781078338623047e+00 -6.868442147970199585e-02 -6.883502006530761719e-01 2.200000000000000000e+01
-3.544710636138916016e+00 -8.105973154306411743e-02 -6.892020702362060547e-01 2.000000000000000000e+01
-4.482320022583007812e+01 -1.017180681228637917e+00 3.922531366348267046e+00 5.400000000000000000e+01
-4.435571670532226562e+00 -9.988264739513397217e-02 -7.027035951614379883e-01 1.800000000000000000e+01
-5.818861007690429688e+00 -1.290001422166824063e-01 -7.146418094635009766e-01 1.300000000000000000e+01
-8.555243492126464844e+00 -1.881699562072753906e-01 -7.486678361892700195e-01 4.000000000000000000e+00
-3.464086914062500000e+01 -7.377200722694396973e-01 -6.047956943511962891e-01 2.000000000000000000e+01
-2.536019086837768999e+00 -5.046520754694938660e-02 -6.796588301658630371e-01 2.000000000000000000e+01
-4.471448898315429688e+01 -8.819833993911743164e-01 7.806461453437805176e-01 4.800000000000000000e+01
-2.988796234130858931e+00 -5.843149870634078979e-02 -6.901498436927795410e-01 2.100000000000000000e+01
-3.550860643386840820e+00 -6.879997998476028442e-02 -6.903469562530517578e-01 2.000000000000000000e+01
-4.482647705078125000e+01 -8.607122898101806641e-01 3.922531366348267046e+00 5.400000000000000000e+01
-4.422068119049072266e+00 -8.413596451282501221e-02 -7.005135416984558105e-01 1.600000000000000000e+01
-5.813321590423583984e+00 -1.085765361785888949e-01 -7.139106392860412598e-01 1.500000000000000000e+01
-8.529951095581054688e+00 -1.578262895345687866e-01 -7.464017868041992188e-01 3.000000000000000000e+00
-1.672029495239258168e+01 -3.035305142402648926e-01 -8.764179348945617676e-01 5.000000000000000000e+00
-3.464522933959960938e+01 -6.168319582939147949e-01 -6.048306226730346680e-01 2.000000000000000000e+01
-2.547769308090209961e+00 -4.180269688367844322e-02 -6.827646493911743164e-01 1.900000000000000000e+01
-4.472929382324218750e+01 -7.260900735855102539e-01 7.808555960655212402e-01 4.800000000000000000e+01
-2.973394155502318892e+00 -4.774798080325127342e-02 -6.865506172180175781e-01 1.500000000000000000e+01
-3.545190095901488814e+00 -5.631120502948760986e-02 -6.892020702362060547e-01 1.200000000000000000e+01
-4.482920837402343750e+01 -7.042334675788879395e-01 3.922531366348267046e+00 5.400000000000000000e+01
-4.408508777618408203e+00 -6.848477572202682495e-02 -6.983234286308288574e-01 1.100000000000000000e+01
-5.815649986267089844e+00 -8.831373602151870728e-02 -7.141543626785278320e-01 1.300000000000000000e+01
-8.502559661865234375e+00 -1.276315748691559115e-01 -7.439613938331604004e-01 3.000000000000000000e+00
-1.666134262084960938e+01 -2.442855238914490024e-01 -8.732777833938598633e-01 5.000000000000000000e+00
-3.463117599487304688e+01 -4.956648647785186768e-01 -6.045513749122619629e-01 1.300000000000000000e+01
-2.544036388397216797e+00 -3.285916894674301147e-02 -6.817293763160705566e-01 2.000000000000000000e+01
-4.471155929565429688e+01 -5.696964859962463379e-01 7.805064916610717773e-01 4.800000000000000000e+01
-2.967696905136107954e+00 -3.729514032602310181e-02 -6.852009296417236328e-01 1.400000000000000000e+01
-4.504871368408203125e+01 -5.582649111747741699e-01 2.361084222793579102e+00 3.500000000000000000e+01
-3.543401956558227983e+00 -4.391150921583175659e-02 -6.888204813003540039e-01 1.200000000000000000e+01
-4.483139419555664062e+01 -5.477460622787475586e-01 3.922531366348267046e+00 5.400000000000000000e+01
-4.406745910644531250e+00 -5.307200178503990173e-02 -6.980105638504028320e-01 1.000000000000000000e+01
-5.813937664031982422e+00 -6.798958033323287964e-02 -7.139106392860412598e-01 1.100000000000000000e+01
-8.498969078063964844e+00 -9.790542721748352051e-02 -7.436128258705139160e-01 2.000000000000000000e+00
-3.462669754028320312e+01 -3.747115433216094971e-01 -6.044466495513916016e-01 2.000000000000000000e+01
-2.567316770553588867e+00 -2.419710718095302929e-02 -6.879410147666931152e-01 2.600000000000000000e+01
-4.475326919555664062e+01 -4.139904975891112726e-01 7.812046408653259277e-01 4.800000000000000000e+01
-2.965860366821289062e+00 -2.691803313791751862e-02 -6.847510337829589844e-01 1.300000000000000000e+01
-4.505038833618164062e+01 -4.010121822357177734e-01 2.361084222793579102e+00 3.500000000000000000e+01
-3.539607286453247070e+00 -3.150751069188117981e-02 -6.880572438240051270e-01 1.200000000000000000e+01
-4.486491012573242188e+01 -3.915301263332366943e-01 3.925320386886597124e+00 5.400000000000000000e+01
-4.412830352783203125e+00 -3.773994371294975281e-02 -6.989492177963256836e-01 1.100000000000000000e+01
-5.788334369659423828e+00 -4.748304560780525208e-02 -7.107419967651367188e-01 9.000000000000000000e+00
-8.507228851318359375e+00 -6.830187886953353882e-02 -7.443100214004516602e-01 2.000000000000000000e+00
-3.461379623413085938e+01 -2.537369430065155029e-01 -6.042023301124572754e-01 1.300000000000000000e+01
-2.544206380844116211e+00 -1.465373951941728939e-02 -6.817293763160705566e-01 2.600000000000000000e+01
-4.475448608398438211e+01 -2.499587982892990112e-01 7.812046408653259277e-01 4.800000000000000000e+01
-2.971785306930541992e+00 -1.607906259596348156e-02 -6.861007213592529297e-01 1.300000000000000000e+01
-4.499962615966796875e+01 -2.356196492910385132e-01 2.358362913131713867e+00 3.400000000000000000e+01
-3.529882907867432085e+00 -1.848259195685387005e-02 -6.861491203308105469e-01 1.100000000000000000e+01
-4.483416366577147727e+01 -2.269280403852463046e-01 3.922531366348267046e+00 5.400000000000000000e+01
-4.426766395568847656e+00 -2.163343317806721081e-02 -7.011392712593078613e-01 1.000000000000000000e+01
-5.780529499053955078e+00 -2.623138949275017132e-02 -7.097670435905456543e-01 9.000000000000000000e+00
-8.469566345214843750e+00 -3.695569187402725220e-02 -7.409981489181518555e-01 3.000000000000000000e+00
-1.662305259704589844e+01 -6.672956794500350952e-02 -8.711843490600585938e-01 5.000000000000000000e+00
-3.457849884033203125e+01 -1.267373859882355014e-01 -6.035740375518798828e-01 2.000000000000000000e+01
-2.536514759063721147e+00 -5.755179096013307571e-03 -6.796588301658630371e-01 3.400000000000000000e+01
-4.473908615112304688e+01 -9.370145946741104126e-02 7.809253931045532227e-01 4.800000000000000000e+01
-2.969874382019042969e+00 -5.701756570488213625e-03 -6.856508255004882812e-01 1.300000000000000000e+01
-4.493227005004882812e+01 -7.842168211936950684e-02 2.354804039001464844e+00 3.400000000000000000e+01
-3.537779092788695845e+00 -6.174595560878515244e-03 -6.876755952835083008e-01 1.200000000000000000e+01
-4.479483413696289062e+01 -7.036361843347549438e-02 3.919045209884643999e+00 5.400000000000000000e+01
-4.418913364410400391e+00 -6.169971078634262085e-03 -6.998878121376037598e-01 1.000000000000000000e+01
-5.782570838928222656e+00 -6.055496167391538620e-03 -7.100107669830322266e-01 1.100000000000000000e+01
-8.439758300781250000e+00 -7.365080527961254120e-03 -7.383834719657897949e-01 2.000000000000000000e+00
-1.662318420410155895e+01 -8.703880012035369873e-03 -8.711843490600585938e-01 5.000000000000000000e+00
-3.457873153686522727e+01 -6.035127211362122622e-03 -6.035740375518798828e-01 2.000000000000000000e+01
-2.538451671600341797e+00 2.658261451870203018e-03 -6.801764369010925293e-01 3.300000000000000000e+01
-4.475514984130858664e+01 5.467875674366950989e-02 7.812046408653259277e-01 4.800000000000000000e+01
-2.958184719085692915e+00 4.130407702177762985e-03 -6.829513907432556152e-01 1.300000000000000000e+01
-4.499219894409179688e+01 7.067363709211349487e-02 2.357944250106811968e+00 3.400000000000000000e+01
-3.539743185043334961e+00 5.560220219194889069e-03 -6.880572438240051270e-01 1.200000000000000000e+01
-4.483467102050781250e+01 7.825133949518203735e-02 3.922531366348267046e+00 5.400000000000000000e+01
-4.414958953857421875e+00 8.476122282445430756e-03 -6.992620825767517090e-01 1.000000000000000000e+01
-5.798439502716063565e+00 1.315626502037047993e-02 -7.119607329368591309e-01 1.100000000000000000e+01
-8.431766510009765625e+00 2.060273475944995880e-02 -7.376862168312072754e-01 3.000000000000000000e+00
-3.455656433105468750e+01 1.085630059242248951e-01 -6.031900644302368164e-01 2.000000000000000000e+01
-2.550017833709716797e+00 1.157169416546821941e-02 -6.832822561264038086e-01 4.000000000000000000e+01
-4.475468444824218750e+01 2.109030485153197965e-01 7.812046408653259277e-01 4.800000000000000000e+01
-2.954254865646361861e+00 1.443732716143131083e-02 -6.820515990257263184e-01 1.500000000000000000e+01
-4.499966812133789062e+01 2.277657240629195889e-01 2.358362913131713867e+00 3.400000000000000000e+01
-3.535775899887084961e+00 1.789632253348827015e-02 -6.872940063476562500e-01 1.200000000000000000e+01
-4.483412551879882812e+01 2.347530722618103027e-01 3.922531366348267046e+00 5.400000000000000000e+01
-4.414902210235595703e+00 2.388715371489524841e-02 -6.992620825767517090e-01 1.000000000000000000e+01
-5.774537563323974609e+00 3.325931727886199951e-02 -7.090358138084411621e-01 1.100000000000000000e+01
-8.431643486022949219e+00 5.003496631979942322e-02 -7.376862168312072754e-01 3.000000000000000000e+00
-3.457397460937500000e+01 2.293066382408142090e-01 -6.035042405128479004e-01 2.000000000000000000e+01
-2.548033714294434038e+00 2.001262083649634968e-02 -6.827646493911743164e-01 3.500000000000000000e+01
-4.475373840332031250e+01 3.593137860298156738e-01 7.812046408653259277e-01 4.800000000000000000e+01
-2.958087921142578125e+00 2.426587976515293121e-02 -6.829513907432556152e-01 1.300000000000000000e+01
-4.497469711303710938e+01 3.767879605293273926e-01 2.357106685638428178e+00 3.400000000000000000e+01
-3.523917913436890093e+00 2.952259592711925854e-02 -6.850042939186096191e-01 1.200000000000000000e+01
-4.485302352905272727e+01 3.835974931716918945e-01 3.924274444580078125e+00 5.400000000000000000e+01
-4.406897544860839844e+00 3.845841065049170754e-02 -6.980105638504028320e-01 1.000000000000000000e+01
-5.778365612030029297e+00 5.244422331452369690e-02 -7.095233201980590820e-01 1.100000000000000000e+01
-8.431430816650390625e+00 7.799503207206726074e-02 -7.376862168312072754e-01 2.000000000000000000e+00
-3.452503204345703125e+01 3.434793651103972834e-01 -6.026664972305297852e-01 1.300000000000000000e+01
-2.542153120040893999e+00 2.884105034172534943e-02 -6.812117099761962891e-01 3.100000000000000000e+01
-4.477620697021483664e+01 5.158076882362365723e-01 7.816234827041625977e-01 4.800000000000000000e+01
-2.959933757781981978e+00 3.461417555809020996e-02 -6.834012866020202637e-01 1.300000000000000000e+01
-4.500106811523438211e+01 5.341085195541381836e-01 2.358572244644165039e+00 3.400000000000000000e+01
-3.513977766036986861e+00 4.170668497681617737e-02 -6.830962300300598145e-01 1.100000000000000000e+01
-4.483148574829102273e+01 5.399214625358581543e-01 3.922531366348267046e+00 5.400000000000000000e+01
-4.388959407806395596e+00 5.362392216920852661e-02 -6.951947808265686035e-01 1.000000000000000000e+01
-5.772192478179931641e+00 7.253932952880859375e-02 -7.087920904159545898e-01 1.100000000000000000e+01
-8.427123069763183594e+00 1.073749735951424061e-01 -7.373375892639160156e-01 3.000000000000000000e+00
-3.448363113403320312e+01 4.634546637535095215e-01 -6.019684076309204102e-01 2.000000000000000000e+01
-2.536242008209228960e+00 3.762866929173470237e-02 -6.796588301658630371e-01 2.500000000000000000e+01
-4.471815109252929688e+01 6.712623238563537598e-01 7.806461453437805176e-01 4.800000000000000000e+01
-2.961743593215941939e+00 4.497564956545829773e-02 -6.838511824607849121e-01 1.300000000000000000e+01
-4.494501113891602273e+01 6.903600692749023438e-01 2.355746030807495117e+00 3.400000000000000000e+01
-3.521662950515747070e+00 5.409311130642890930e-02 -6.846227049827575684e-01 1.100000000000000000e+01
-4.485721969604492188e+01 6.968425512313842773e-01 3.924971818923950195e+00 5.400000000000000000e+01
-4.382820129394531250e+00 6.885083764791488647e-02 -6.942561268806457520e-01 9.000000000000000000e+00
-5.765949726104736328e+00 9.259197860956192017e-02 -7.080608606338500977e-01 1.100000000000000000e+01
-8.400799751281738281e+00 1.363700777292251864e-01 -7.350715398788452148e-01 3.000000000000000000e+00
-3.449380111694335938e+01 5.840252637863159180e-01 -6.021778583526611328e-01 2.000000000000000000e+01
-2.536095380783081055e+00 4.648157581686974266e-02 -6.796588301658630371e-01 2.400000000000000000e+01
-4.475952148437500000e+01 8.281675577163696289e-01 7.814140319824218750e-01 4.800000000000000000e+01
-2.955723285675048828e+00 5.520461872220038674e-02 -6.825014948844909668e-01 1.400000000000000000e+01
-4.499025344848632812e+01 8.481467366218566895e-01 2.358258247375487837e+00 3.400000000000000000e+01
-3.525378465652465820e+00 6.645969301462173462e-02 -6.853858828544616699e-01 1.100000000000000000e+01
-4.482662582397460938e+01 8.528885841369628906e-01 3.922531366348267046e+00 5.400000000000000000e+01
-4.370702743530273438e+00 8.392178267240524292e-02 -6.923789381980895996e-01 9.000000000000000000e+00
-5.777499675750732422e+00 1.129511445760727067e-01 -7.095233201980590820e-01 1.100000000000000000e+01
-8.410232543945312500e+00 1.658899635076523105e-01 -7.359430789947509766e-01 3.000000000000000000e+00
-3.451754379272460938e+01 7.049583792686462402e-01 -6.026315689086914062e-01 2.000000000000000000e+01
-2.537848949432373047e+00 5.537606030702590942e-02 -6.801764369010925293e-01 2.300000000000000000e+01
-4.473636245727539062e+01 9.839626550674438477e-01 7.810649871826171875e-01 4.800000000000000000e+01
-2.939926385879517046e+00 6.517615169286727905e-02 -6.789022684097290039e-01 1.400000000000000000e+01
-4.499917221069335938e+01 9.976007342338562012e-01 2.358886241912841797e+00 3.400000000000000000e+01
-3.521199464797974077e+00 7.867743819952011108e-02 -6.846227049827575684e-01 1.100000000000000000e+01
-4.482337570190429688e+01 1.009357571601867898e+00 3.922531366348267046e+00 5.400000000000000000e+01
-4.374333381652832031e+00 9.926750510931015015e-02 -6.930046677589416504e-01 9.000000000000000000e+00
-5.751270771026611328e+00 1.325232088565826138e-01 -7.063547372817993164e-01 1.100000000000000000e+01
-8.405617713928222656e+00 1.951536536216736117e-01 -7.355944514274597168e-01 2.000000000000000000e+00
-1.621923255920410156e+01 3.822273910045623779e-01 -8.502499461174011230e-01 4.000000000000000000e+00
-3.451487350463867188e+01 8.254427909851074219e-01 -6.026315689086914062e-01 2.000000000000000000e+01
-2.547296285629272017e+00 6.447889655828475952e-02 -6.827646493911743164e-01 2.400000000000000000e+01
-4.475264739990233664e+01 1.140625238418579102e+00 7.814140319824218750e-01 4.800000000000000000e+01
-2.955265760421752930e+00 7.583794742822647095e-02 -6.825014948844909668e-01 1.400000000000000000e+01
-4.498722839355468750e+01 1.162317872047424094e+00 2.358467578887939009e+00 3.400000000000000000e+01
-3.520903348922729048e+00 9.096824377775192261e-02 -6.846227049827575684e-01 1.200000000000000000e+01
-4.485144805908203125e+01 1.166643023490905984e+00 3.925320386886597124e+00 5.400000000000000000e+01
-4.370010375976563388e+00 1.144327521324157992e-01 -6.923789381980895996e-01 9.000000000000000000e+00
-5.744820117950438565e+00 1.524401158094406128e-01 -7.056235074996948242e-01 1.100000000000000000e+01
-8.392935752868652344e+00 2.241743654012680054e-01 -7.345486283302307129e-01 2.000000000000000000e+00
-3.447779846191406250e+01 9.449857473373413086e-01 -6.020382046699523926e-01 2.000000000000000000e+01
-2.548986911773682085e+00 7.342585176229476929e-02 -6.832822561264038086e-01 1.800000000000000000e+01
-4.476438522338867188e+01 1.297297596931457964e+00 7.816932797431945801e-01 4.800000000000000000e+01
-2.947191476821898970e+00 8.592612296342849731e-02 -6.807019114494323730e-01 1.300000000000000000e+01
-4.503104019165039062e+01 1.312891483306884988e+00 2.360979557037353960e+00 3.500000000000000000e+01
-3.508790016174315962e+00 1.029125899076461931e-01 -6.823329925537109375e-01 1.100000000000000000e+01
-4.481523513793945312e+01 1.322256565093993919e+00 3.922531366348267046e+00 5.400000000000000000e+01
-4.373533725738525391e+00 1.298034489154815951e-01 -6.930046677589416504e-01 9.000000000000000000e+00
-5.740284442901611328e+00 1.723731905221939087e-01 -7.051360011100769043e-01 1.100000000000000000e+01
-8.400068283081054688e+00 2.537103891372681219e-01 -7.352458238601684570e-01 2.000000000000000000e+00
-1.621616935729980113e+01 4.954487681388854980e-01 -8.502499461174011230e-01 4.000000000000000000e+00
-3.452225875854492188e+01 1.066812396049499956e+00 -6.028759479522705078e-01 1.300000000000000000e+01
-2.535199165344237837e+00 8.188646286725997925e-02 -6.796588301658630371e-01 1.900000000000000000e+01
-4.475558471679688211e+01 1.453416705131530984e+00 7.816234827041625977e-01 4.800000000000000000e+01
-2.962455272674560991e+00 9.672193974256515503e-02 -6.843010783195495605e-01 1.300000000000000000e+01
-4.502618408203125000e+01 1.470071196556091087e+00 2.360979557037353960e+00 3.500000000000000000e+01
-3.508409261703491211e+00 1.151599213480948986e-01 -6.823329925537109375e-01 1.100000000000000000e+01
-4.483822631835938211e+01 1.479602813720702903e+00 3.924971818923950195e+00 5.400000000000000000e+01
-4.371079444885253906e+00 1.450036466121673862e-01 -6.926918029785156250e-01 1.000000000000000000e+01
-5.743615627288818359e+00 1.925424933433532992e-01 -7.056235074996948242e-01 1.100000000000000000e+01
-8.387183189392089844e+00 2.826279699802399237e-01 -7.342000007629394531e-01 2.000000000000000000e+00
-3.445837020874022727e+01 1.185248732566833052e+00 -6.018287539482116699e-01 1.300000000000000000e+01
-2.536828517913817915e+00 9.080456942319869995e-02 -6.801764369010925293e-01 1.600000000000000000e+01
-4.473825073242188211e+01 1.609202742576598899e+00 7.814140319824218750e-01 4.800000000000000000e+01
-2.946519851684569868e+00 1.064991354942322055e-01 -6.807019114494323730e-01 1.400000000000000000e+01
-4.502049255371093750e+01 1.635090470314026101e+00 2.360979557037353960e+00 3.500000000000000000e+01
-3.509948015213013139e+00 1.274771094322204867e-01 -6.827145814895629883e-01 1.200000000000000000e+01
-4.480491256713867188e+01 1.635091185569762962e+00 3.922531366348267046e+00 5.400000000000000000e+01
-4.356728553771972656e+00 1.597539782524108887e-01 -6.905017495155334473e-01 1.000000000000000000e+01
-5.758778572082520419e+00 2.131777405738831122e-01 -7.075734138488769531e-01 1.100000000000000000e+01
-8.342343330383300781e+00 3.102738559246063232e-01 -7.303650975227355957e-01 3.000000000000000000e+00
-3.446001815795897727e+01 1.305750846862792969e+00 -6.019334793090820312e-01 2.000000000000000000e+01
-2.548078298568726030e+00 1.001142635941505016e-01 -6.832822561264038086e-01 1.700000000000000000e+01
-4.474434661865233664e+01 1.765831708908081055e+00 7.816234827041625977e-01 4.800000000000000000e+01
-2.934446811676024947e+00 1.163206398487091064e-01 -6.780024766921997070e-01 1.200000000000000000e+01
-4.501482391357421875e+01 1.784374833106995073e+00 2.360979557037353960e+00 3.500000000000000000e+01
-3.511443138122559038e+00 1.398064494132995883e-01 -6.830962300300598145e-01 1.200000000000000000e+01
-4.483874893188477273e+01 1.793071746826172097e+00 3.926017522811890093e+00 5.400000000000000000e+01
-4.358118057250976562e+00 1.750400960445404053e-01 -6.908146142959594727e-01 1.000000000000000000e+01
-5.730230808258056641e+00 2.321533262729645053e-01 -7.041610479354858398e-01 1.100000000000000000e+01
-8.357135772705078125e+00 3.400401771068572998e-01 -7.317596077919006348e-01 3.000000000000000000e+00
-1.601053237915039062e+01 6.570442914962768555e-01 -8.397827744483947754e-01 4.000000000000000000e+00
-3.445325088500977273e+01 1.425948143005371094e+00 -6.018986105918884277e-01 1.300000000000000000e+01
-2.551573276519774947e+00 1.091732680797577043e-01 -6.843175292015075684e-01 1.500000000000000000e+01
-4.474989700317382812e+01 1.922522902488708052e+00 7.818328738212585449e-01 4.800000000000000000e+01
-2.935969829559326172e+00 1.266470402479172030e-01 -6.784523725509643555e-01 1.300000000000000000e+01
-4.500831985473632812e+01 1.941495060920715110e+00 2.360979557037353960e+00 3.500000000000000000e+01
-3.501126766204833984e+00 1.516380608081817905e-01 -6.811881065368652344e-01 1.200000000000000000e+01
-4.484415817260742188e+01 1.950096607208251953e+00 3.927063465118408203e+00 5.400000000000000000e+01
-4.357480525970458984e+00 1.902517080307007113e-01 -6.908146142959594727e-01 1.000000000000000000e+01
-5.717486381530761719e+00 2.516304552555084229e-01 -7.026986479759216309e-01 1.100000000000000000e+01
-8.335993766784667969e+00 3.683304786682128906e-01 -7.300165295600891113e-01 3.000000000000000000e+00
-1.600814247131348012e+01 7.129274606704711914e-01 -8.397827744483947754e-01 4.000000000000000000e+00
-3.441609954833983664e+01 1.544769048690795898e+00 -6.013401150703430176e-01 2.000000000000000000e+01
-2.545387268066405806e+00 1.178112998604774059e-01 -6.827646493911743164e-01 2.200000000000000000e+01
-4.477088165283203125e+01 2.080016613006591797e+00 7.823215723037719727e-01 4.800000000000000000e+01
-2.945242881774901900e+00 1.373486220836639127e-01 -6.807019114494323730e-01 1.200000000000000000e+01
-4.500127029418945312e+01 2.098591566085814986e+00 2.360979557037353960e+00 3.500000000000000000e+01
-3.502537250518798828e+00 1.639501452445983887e-01 -6.815697550773620605e-01 1.100000000000000000e+01
-4.482115936279296875e+01 2.105872154235839844e+00 3.925668954849243164e+00 5.400000000000000000e+01
-4.354816436767578125e+00 2.053679376840590876e-01 -6.905017495155334473e-01 9.000000000000000000e+00
-5.720539093017578125e+00 2.717750966548920233e-01 -7.031860947608947754e-01 1.100000000000000000e+01
-8.314755439758300781e+00 3.964773118495941162e-01 -7.282733917236328125e-01 2.000000000000000000e+00
-3.437454605102539062e+01 1.663154721260071023e+00 -6.007118225097656250e-01 1.300000000000000000e+01
-2.539172172546387163e+00 1.264074891805649081e-01 -6.812117099761962891e-01 2.300000000000000000e+01
-4.474737167358397727e+01 2.235485315322875977e+00 7.820423245429992676e-01 4.800000000000000000e+01
-2.952530860900878906e+00 1.480188965797424039e-01 -6.825014948844909668e-01 1.300000000000000000e+01
-3.499982833862305132e+00 1.760766357183455866e-01 -6.811881065368652344e-01 1.200000000000000000e+01
-4.481751251220703125e+01 2.262515068054199219e+00 3.926017522811890093e+00 5.400000000000000000e+01
-4.352100372314453125e+00 2.204678952693938931e-01 -6.901888847351074219e-01 1.000000000000000000e+01
-5.715590476989746094e+00 2.915396094322205145e-01 -7.026986479759216309e-01 1.100000000000000000e+01
-8.297402381896972656e+00 4.246840476989746094e-01 -7.268788814544677734e-01 3.000000000000000000e+00
-3.434257125854492188e+01 1.781787276268004927e+00 -6.002580523490905762e-01 1.900000000000000000e+01
-2.552219390869141069e+00 1.359896063804625910e-01 -6.848351955413818359e-01 2.400000000000000000e+01
-4.473929214477539062e+01 2.391669273376464844e+00 7.820423245429992676e-01 4.800000000000000000e+01
-2.942266464233397993e+00 1.578024178743361872e-01 -6.802520155906677246e-01 1.300000000000000000e+01
-3.497386455535889116e+00 1.881873011589050015e-01 -6.808065176010131836e-01 1.100000000000000000e+01
-4.485311126708983664e+01 2.421306371688843218e+00 3.929852485656737837e+00 5.400000000000000000e+01
-4.323689460754395419e+00 2.341626435518265048e-01 -6.858087182044982910e-01 1.000000000000000000e+01
-5.710573673248291016e+00 3.112728595733643133e-01 -7.022111415863037109e-01 1.100000000000000000e+01
-8.279953956604003906e+00 4.527745246887207031e-01 -7.254844307899475098e-01 3.000000000000000000e+00
-1.580436325073242010e+01 8.697667121887207031e-01 -8.295249342918395996e-01 4.000000000000000000e+00
-3.433614349365233664e+01 1.901654362678528054e+00 -6.002580523490905762e-01 1.900000000000000000e+01
-2.555586576461791992e+00 1.451167166233063022e-01 -6.858704686164855957e-01 2.500000000000000000e+01
-4.473865890502929688e+01 2.548278808593750000e+00 7.821819782257080078e-01 4.800000000000000000e+01
-2.928078651428223100e+00 1.672937721014023105e-01 -6.771026849746704102e-01 1.200000000000000000e+01
-3.500628232955933061e+00 2.006189674139023105e-01 -6.815697550773620605e-01 1.100000000000000000e+01
-4.482847213745117188e+01 2.576943635940552202e+00 3.928457975387572798e+00 5.400000000000000000e+01
-4.330734252929688388e+00 2.497085630893706998e-01 -6.870601773262023926e-01 1.000000000000000000e+01
-5.717379570007324219e+00 3.316644430160521906e-01 -7.031860947608947754e-01 1.100000000000000000e+01
-8.266388893127441406e+00 4.809798002243041992e-01 -7.244385480880737305e-01 2.000000000000000000e+00
-3.433728027343750000e+01 2.021968364715576172e+00 -6.003977060317993164e-01 1.900000000000000000e+01
-2.562777757644652876e+00 1.545015126466751099e-01 -6.879410147666931152e-01 2.200000000000000000e+01
-4.475344467163085938e+01 2.705878496170043945e+00 7.826008200645446777e-01 4.800000000000000000e+01
-2.925531625747681108e+00 1.773957014083862027e-01 -6.766527891159057617e-01 1.300000000000000000e+01
-3.484229564666748047e+00 2.118838578462600986e-01 -6.785168051719665527e-01 1.100000000000000000e+01
-4.489079666137695312e+01 2.737774610519409180e+00 3.934733152389525923e+00 5.400000000000000000e+01
-4.333779335021972656e+00 2.650653123855590820e-01 -6.876859068870544434e-01 1.000000000000000000e+01
-5.680522441864013672e+00 3.494260013103485107e-01 -6.987988352775573730e-01 1.000000000000000000e+01
-8.272614479064941406e+00 5.103226304054260254e-01 -7.251358032226562500e-01 2.000000000000000000e+00
-3.433001327514647727e+01 2.141815662384033203e+00 -6.003977060317993164e-01 1.900000000000000000e+01
-2.539087772369385210e+00 1.619705259799956998e-01 -6.817293763160705566e-01 1.900000000000000000e+01
-4.474372482299804688e+01 2.862080812454224077e+00 7.826008200645446777e-01 4.800000000000000000e+01
-2.932673692703247070e+00 1.881055831909179965e-01 -6.784523725509643555e-01 1.200000000000000000e+01
-3.491305589675902876e+00 2.245488464832305908e-01 -6.800432801246643066e-01 1.100000000000000000e+01
-4.487301635742188211e+01 2.893943309783935991e+00 3.934036016464232954e+00 5.400000000000000000e+01
-4.332828044891357422e+00 2.801913917064666748e-01 -6.876859068870544434e-01 1.000000000000000000e+01
-5.675306320190429688e+00 3.689949810504912775e-01 -6.983113288879394531e-01 1.000000000000000000e+01
-8.250901222229003906e+00 5.379002094268798828e-01 -7.233926653861999512e-01 2.000000000000000000e+00
-3.430436706542968750e+01 2.260453224182128906e+00 -6.000835299491882324e-01 1.900000000000000000e+01
-2.523087024688721147e+00 1.697949022054671964e-01 -6.775882840156555176e-01 1.400000000000000000e+01
-4.473346328735352273e+01 3.018248081207274947e+00 7.826008200645446777e-01 4.800000000000000000e+01
-2.939776420593262163e+00 1.988674849271774014e-01 -6.802520155906677246e-01 1.200000000000000000e+01
-3.496376752853393999e+00 2.371329516172409058e-01 -6.811881065368652344e-01 1.200000000000000000e+01
-4.487059020996093750e+01 3.051102399826049805e+00 3.934733152389525923e+00 5.400000000000000000e+01
-4.321969509124755859e+00 2.946422994136809748e-01 -6.861215829849243164e-01 9.000000000000000000e+00
-5.670022964477539062e+00 3.885318338871002197e-01 -6.978238821029663086e-01 1.000000000000000000e+01
-8.229096412658691406e+00 5.653324127197265625e-01 -7.216495275497436523e-01 2.000000000000000000e+00
-1.569105339050292969e+01 1.083466172218322976e+00 -8.242912888526916504e-01 4.000000000000000000e+00
-3.432419586181641336e+01 2.382122278213500977e+00 -6.005722284317016602e-01 1.300000000000000000e+01
-2.524468183517456055e+00 1.778563261032103937e-01 -6.781058907508850098e-01 1.400000000000000000e+01
-4.473173904418945312e+01 3.159330844879149947e+00 7.827404141426086426e-01 4.800000000000000000e+01
-2.931361675262451172e+00 2.075515389442444125e-01 -6.784523725509643555e-01 1.200000000000000000e+01
-3.485822916030883789e+00 2.474209517240524014e-01 -6.792800426483154297e-01 1.100000000000000000e+01
-4.484091186523438211e+01 3.190638065338135210e+00 3.932990074157714844e+00 5.400000000000000000e+01
-4.299348354339599609e+00 3.066726922988892157e-01 -6.826800107955932617e-01 1.000000000000000000e+01
-5.684614658355712891e+00 4.074782431125640869e-01 -6.997737884521484375e-01 1.000000000000000000e+01
-8.207406997680664062e+00 5.897540450096130371e-01 -7.199064493179321289e-01 3.000000000000000000e+00
-1.558796787261963068e+01 1.125563502311706987e+00 -8.190577030181884766e-01 4.000000000000000000e+00
-3.432452392578125000e+01 2.490521907806396040e+00 -6.007118225097656250e-01 1.900000000000000000e+01
-2.527685165405272993e+00 1.869522780179976862e-01 -6.791411638259887695e-01 1.500000000000000000e+01
-4.474436950683593750e+01 3.317228555679320845e+00 7.831593155860900879e-01 4.800000000000000000e+01
-2.911185503005981001e+00 2.163384407758713046e-01 -6.739533543586730957e-01 1.300000000000000000e+01
-3.500600576400756836e+00 2.607539296150208075e-01 -6.823329925537109375e-01 1.100000000000000000e+01
-4.486128997802733664e+01 3.349516153335570845e+00 3.935779094696044922e+00 5.400000000000000000e+01
-4.308101177215576172e+00 3.224154710769652765e-01 -6.842443346977233887e-01 1.000000000000000000e+01
-5.663362503051757812e+00 4.258303642272949219e-01 -6.973363757133483887e-01 1.000000000000000000e+01
-8.209271430969238281e+00 6.186991333961486816e-01 -7.202550768852233887e-01 2.000000000000000000e+00
-3.433555984497070312e+01 2.611838579177856001e+00 -6.010608673095703125e-01 2.000000000000000000e+01
-2.534721374511719194e+00 1.963712722063065130e-01 -6.812117099761962891e-01 1.300000000000000000e+01
-4.476042938232421875e+01 3.475562572479248047e+00 7.836479544639587402e-01 4.800000000000000000e+01
-2.910412549972534180e+00 2.264990657567977905e-01 -6.739533543586730957e-01 1.400000000000000000e+01
-4.495358276367188211e+01 3.506347417831420898e+00 2.363073110580443892e+00 3.500000000000000000e+01
-3.480096101760863814e+00 2.714450061321259100e-01 -6.785168051719665527e-01 1.100000000000000000e+01
-4.483740615844727273e+01 3.505159139633179155e+00 3.934733152389525923e+00 5.400000000000000000e+01
-4.308918476104736328e+00 3.376058936119080145e-01 -6.845571994781494141e-01 1.000000000000000000e+01
-4.495496749877929688e+01 3.530138015747069868e+00 5.536767959594726562e+00 3.800000000000000000e+01
-5.653925418853759766e+00 4.449735879898070734e-01 -6.963614225387573242e-01 1.000000000000000000e+01
-8.195144653320312500e+00 6.464110612869262695e-01 -7.192091941833496094e-01 2.000000000000000000e+00
-3.432025146484375000e+01 2.731200218200684038e+00 -6.009561419486999512e-01 2.000000000000000000e+01
-2.522467374801636186e+00 2.042822688817977905e-01 -6.781058907508850098e-01 1.400000000000000000e+01
-4.471613311767578125e+01 3.629196405410767046e+00 7.830894589424133301e-01 9.700000000000000000e+01
-2.925142765045166016e+00 2.379207760095596036e-01 -6.775525808334350586e-01 1.400000000000000000e+01
-3.467386722564696822e+00 2.826341688632965088e-01 -6.762270927429199219e-01 1.100000000000000000e+01
-4.486064147949218750e+01 3.664569377899169922e+00 3.937870740890502930e+00 5.400000000000000000e+01
-4.305745124816895419e+00 3.524835705757141113e-01 -6.842443346977233887e-01 9.000000000000000000e+00
-4.488697433471679688e+01 3.682493925094604048e+00 5.529943466186523438e+00 3.800000000000000000e+01
-5.644424438476563388e+00 4.640561640262603760e-01 -6.953864693641662598e-01 1.000000000000000000e+01
-8.204751968383789062e+00 6.759951114654541016e-01 -7.202550768852233887e-01 3.000000000000000000e+00
-3.433641815185546875e+01 2.853136301040648970e+00 -6.014099121093750000e-01 2.000000000000000000e+01
-2.515963792800902876e+00 2.125980854034424106e-01 -6.765530109405517578e-01 1.400000000000000000e+01
-4.472311782836914062e+01 3.786949872970581055e+00 7.834385037422180176e-01 4.800000000000000000e+01
-2.924294471740723100e+00 2.481299787759780884e-01 -6.775525808334350586e-01 1.400000000000000000e+01
-3.482028722763061968e+00 2.960665225982666016e-01 -6.792800426483154297e-01 1.100000000000000000e+01
-4.484757614135742188e+01 3.821140050888061968e+00 3.937870740890502930e+00 5.400000000000000000e+01
-4.294647216796875000e+00 3.666710853576660156e-01 -6.826800107955932617e-01 1.000000000000000000e+01
-4.486791229248046875e+01 3.838648557662963867e+00 5.529211997985839844e+00 3.800000000000000000e+01
-5.654636859893798828e+00 4.847733974456787109e-01 -6.968489289283752441e-01 1.000000000000000000e+01
-8.170580863952636719e+00 7.019024491310119629e-01 -7.174660563468933105e-01 2.000000000000000000e+00
-3.427644348144531250e+01 2.968661546707152876e+00 -6.005373001098632812e-01 1.900000000000000000e+01
-2.519055128097534180e+00 2.217179089784621915e-01 -6.775882840156555176e-01 1.400000000000000000e+01
-4.471361160278320312e+01 3.943390846252440962e+00 7.835083603858947754e-01 4.800000000000000000e+01
-2.919528245925902876e+00 2.579930722713469904e-01 -6.766527891159057617e-01 1.400000000000000000e+01
-3.475107192993164062e+00 3.076997995376586914e-01 -6.781351566314697266e-01 1.000000000000000000e+01
-4.485778045654296875e+01 3.979776859283446822e+00 3.939962625503540039e+00 5.400000000000000000e+01
-4.277600288391113281e+00 3.802606463432312012e-01 -6.801770329475402832e-01 1.000000000000000000e+01
-4.488191986083983664e+01 3.997709035873413086e+00 5.532624244689941406e+00 3.800000000000000000e+01
