-2.388880014419556108e+00 -1.251531958580017090e+00 -7.226227521896362305e-01 1.700000000000000000e+01
-2.786583185195922852e+00 -1.458648800849914995e+00 -7.261419892311096191e-01 1.200000000000000000e+01
-3.339888811111450195e+00 -1.747536420822143999e+00 -7.327065467834472656e-01 1.200000000000000000e+01
-4.194403648376464844e+00 -2.192781209945679155e+00 -7.496339678764343262e-01 1.200000000000000000e+01
-5.665644168853759766e+00 -2.959409475326538086e+00 -7.848385572433471680e-01 8.000000000000000000e+00
-8.523419380187988281e+00 -4.450254917144775391e+00 -8.412272334098815918e-01 9.000000000000000000e+00
-1.117011165618895951e+01 -5.827187061309813565e+00 -6.602704524993896484e-01 2.300000000000000000e+01
-4.659793090820313211e+01 -2.428836631774901988e+01 -9.172286987304687500e-01 1.400000000000000000e+01
-2.393234252929687944e+00 -1.243185639381408913e+00 -7.226227521896362305e-01 1.700000000000000000e+01
-2.796846628189086914e+00 -1.451606035232543945e+00 -7.274917364120483398e-01 1.200000000000000000e+01
-3.342483043670653853e+00 -1.734059214591979980e+00 -7.319433093070983887e-01 1.100000000000000000e+01
-4.205540180206298828e+00 -2.179944992065430132e+00 -7.502596974372863770e-01 1.200000000000000000e+01
-5.663600921630859375e+00 -2.933224201202393022e+00 -7.831323742866516113e-01 7.000000000000000000e+00
-8.577827453613281250e+00 -4.440626621246337891e+00 -8.450620770454406738e-01 8.000000000000000000e+00
-1.121876811981200994e+01 -5.802842140197753906e+00 -6.619451642036437988e-01 2.300000000000000000e+01
-2.387254476547241211e+00 -1.229516863822937012e+00 -7.195169329643249512e-01 2.000000000000000000e+01
-2.798431158065795898e+00 -1.440051078796386941e+00 -7.265918850898742676e-01 1.100000000000000000e+01
-3.343278169631958008e+00 -1.719687223434448020e+00 -7.307984232902526855e-01 1.200000000000000000e+01
-4.211366653442382812e+00 -2.164348602294921875e+00 -7.499468326568603516e-01 1.100000000000000000e+01
-5.673805236816406250e+00 -2.913436651229857954e+00 -7.831323742866516113e-01 8.000000000000000000e+00
-8.626954078674316406e+00 -4.427943706512451172e+00 -8.483740091323852539e-01 9.000000000000000000e+00
-1.129404830932617010e+01 -5.791898727416992188e+00 -6.651899814605712891e-01 1.500000000000000000e+01
-4.658483123779296875e+01 -2.386944961547851918e+01 -9.136683940887451172e-01 1.400000000000000000e+01
-2.389811277389525923e+00 -1.220297694206238015e+00 -7.189993262290954590e-01 1.900000000000000000e+01
-2.806912660598754883e+00 -1.432045221328734907e+00 -7.274917364120483398e-01 1.100000000000000000e+01
-3.358005523681641069e+00 -1.712466001510619895e+00 -7.327065467834472656e-01 1.200000000000000000e+01
-4.213615894317626953e+00 -2.146944522857666016e+00 -7.490082383155822754e-01 1.200000000000000000e+01
-5.691016674041748047e+00 -2.897216081619263139e+00 -7.841073274612426758e-01 8.000000000000000000e+00
-8.697404861450195312e+00 -4.425814151763916016e+00 -8.537776470184326172e-01 8.000000000000000000e+00
-1.146374702453612926e+01 -5.828475475311279297e+00 -6.739824414253234863e-01 7.000000000000000000e+00
-4.669282531738281250e+01 -2.371937179565430043e+01 -9.141570329666137695e-01 1.400000000000000000e+01
-2.397503376007080078e+00 -1.213693380355834961e+00 -7.200345993041992188e-01 1.900000000000000000e+01
-2.801460504531859907e+00 -1.416961193084717019e+00 -7.247923016548156738e-01 1.200000000000000000e+01
-3.370970964431763139e+00 -1.704277157783508079e+00 -7.342330217361450195e-01 1.100000000000000000e+01
-4.224610805511474609e+00 -2.134004592895507812e+00 -7.496339678764343262e-01 1.200000000000000000e+01
-5.692234516143798828e+00 -2.872860908508300781e+00 -7.828886508941650391e-01 8.000000000000000000e+00
-8.728810310363769531e+00 -4.403504371643066406e+00 -8.553464412689208984e-01 5.000000000000000000e+00
-1.159281730651854936e+01 -5.843260765075683594e+00 -6.803674101829528809e-01 1.200000000000000000e+01
-4.673604583740233664e+01 -2.353645133972167969e+01 -9.133891463279724121e-01 1.400000000000000000e+01
-2.413811683654785156e+00 -1.211382746696471946e+00 -7.236580252647399902e-01 1.800000000000000000e+01
-2.804647684097290039e+00 -1.406300187110901101e+00 -7.243424057960510254e-01 1.200000000000000000e+01
-3.357592821121215820e+00 -1.682823419570923074e+00 -7.300352454185485840e-01 1.100000000000000000e+01
-4.223202705383300781e+00 -2.114822387695312944e+00 -7.480695843696594238e-01 1.100000000000000000e+01
-5.682699680328369141e+00 -2.843203306198120117e+00 -7.802075147628784180e-01 8.000000000000000000e+00
-8.781549453735351562e+00 -4.391723155975341797e+00 -8.590070009231567383e-01 5.000000000000000000e+00
-1.157919692993164062e+01 -5.785796642303466797e+00 -6.783786416053771973e-01 7.000000000000000000e+00
-4.678929519653320312e+01 -2.335887718200683949e+01 -9.128306508064270020e-01 1.400000000000000000e+01
-2.409377336502075195e+00 -1.198647141456604004e+00 -7.210698723793029785e-01 1.900000000000000000e+01
-2.821754693984984907e+00 -1.402573227882385032e+00 -7.274917364120483398e-01 1.100000000000000000e+01
-3.363446474075316939e+00 -1.671092987060547097e+00 -7.300352454185485840e-01 1.000000000000000000e+01
-4.234097957611083984e+00 -2.101824522018433061e+00 -7.486953735351562500e-01 1.100000000000000000e+01
-5.708594799041748047e+00 -2.831287860870360884e+00 -7.824012041091918945e-01 8.000000000000000000e+00
-8.750413894653320312e+00 -4.338034152984619141e+00 -8.544749021530151367e-01 5.000000000000000000e+00
-1.162974834442139027e+01 -5.760412693023681641e+00 -6.801580786705017090e-01 1.200000000000000000e+01
-4.687054443359375000e+01 -2.319540977478026988e+01 -9.128306508064270020e-01 1.400000000000000000e+01
-2.406616210937500000e+00 -1.186811804771422896e+00 -7.189993262290954590e-01 2.200000000000000000e+01
-2.830129623413085938e+00 -1.394437551498413086e+00 -7.283915281295776367e-01 1.200000000000000000e+01
-3.378065586090087891e+00 -1.663679242134094016e+00 -7.319433093070983887e-01 1.100000000000000000e+01
-4.230774402618408203e+00 -2.081799030303955078e+00 -7.468181252479553223e-01 1.100000000000000000e+01
-5.700628757476806641e+00 -2.802585840225220171e+00 -7.799637913703918457e-01 9.000000000000000000e+00
-8.772656440734863281e+00 -4.310977935791015625e+00 -8.551721572875976562e-01 3.000000000000000000e+00
-1.175735473632813033e+01 -5.772596836090087891e+00 -6.864383816719055176e-01 1.200000000000000000e+01
-4.686146163940429688e+01 -2.298762702941894887e+01 -9.110854268074035645e-01 1.400000000000000000e+01
-2.419422388076781782e+00 -1.182645797729491965e+00 -7.215874791145324707e-01 1.900000000000000000e+01
-2.819220304489136186e+00 -1.376853346824645996e+00 -7.243424057960510254e-01 1.100000000000000000e+01
-3.385616540908813032e+00 -1.652738690376281960e+00 -7.323248982429504395e-01 1.000000000000000000e+01
-4.238015174865722656e+00 -2.067018270492554155e+00 -7.468181252479553223e-01 1.100000000000000000e+01
-5.713945865631104404e+00 -2.784409046173096147e+00 -7.804512977600097656e-01 8.000000000000000000e+00
-8.769739151000976562e+00 -4.271604537963867188e+00 -8.534290194511413574e-01 1.000000000000000000e+00
-1.192828750610351918e+01 -5.804934501647949219e+00 -6.952308416366577148e-01 1.200000000000000000e+01
-4.695940017700195312e+01 -2.283265304565430043e+01 -9.114344716072082520e-01 1.400000000000000000e+01
-2.413104534149169922e+00 -1.169139385223388894e+00 -7.184816598892211914e-01 2.000000000000000000e+01
-2.816992998123168945e+00 -1.363607764244080034e+00 -7.225427627563476562e-01 1.200000000000000000e+01
-3.396666765213013139e+00 -1.643475890159606934e+00 -7.334697842597961426e-01 1.100000000000000000e+01
-4.250540256500244141e+00 -2.054791450500487837e+00 -7.477567195892333984e-01 1.200000000000000000e+01
-5.732568264007568359e+00 -2.768763542175292969e+00 -7.816699743270874023e-01 8.000000000000000000e+00
-8.798950195312500000e+00 -4.247896194458007812e+00 -8.548235297203063965e-01 3.000000000000000000e+00
-1.198445606231688920e+01 -5.780615806579589844e+00 -6.973242759704589844e-01 1.600000000000000000e+01
-4.697396469116210938e+01 -2.263734245300292969e+01 -9.101778864860534668e-01 1.400000000000000000e+01
-2.427619695663452148e+00 -1.165726423263550027e+00 -7.215874791145324707e-01 1.800000000000000000e+01
-2.827006816864014116e+00 -1.356295108795166016e+00 -7.238925099372863770e-01 1.300000000000000000e+01
-3.395302057266234907e+00 -1.628213644027709961e+00 -7.319433093070983887e-01 1.200000000000000000e+01
-4.252342700958251953e+00 -2.037381172180175781e+00 -7.468181252479553223e-01 1.100000000000000000e+01
-5.724292755126953125e+00 -2.740165233612060991e+00 -7.792325615882873535e-01 9.000000000000000000e+00
-8.828102111816406250e+00 -4.224035739898681641e+00 -8.562180399894714355e-01 1.000000000000000000e+00
-1.201897716522216975e+01 -5.745638370513916016e+00 -6.981616616249084473e-01 1.600000000000000000e+01
-4.704547882080078125e+01 -2.246978759765625000e+01 -9.100382924079895020e-01 1.400000000000000000e+01
-2.421207666397095171e+00 -1.152264356613158958e+00 -7.184816598892211914e-01 2.000000000000000000e+01
-2.833483695983887163e+00 -1.347255587577820046e+00 -7.243424057960510254e-01 1.100000000000000000e+01
-3.390325784683227983e+00 -1.611295461654663086e+00 -7.296535968780517578e-01 1.200000000000000000e+01
-4.259428501129150391e+00 -2.022525310516356978e+00 -7.468181252479553223e-01 1.100000000000000000e+01
-5.739203453063964844e+00 -2.722719430923461914e+00 -7.799637913703918457e-01 9.000000000000000000e+00
-8.813988685607910156e+00 -4.179535865783691406e+00 -8.534290194511413574e-01 1.000000000000000000e+00
-1.211115741729735973e+01 -5.737854003906250000e+00 -7.023485302925109863e-01 1.200000000000000000e+01
-4.704048538208007812e+01 -2.226607704162598012e+01 -9.084326624870300293e-01 1.400000000000000000e+01
-2.416478872299193892e+00 -1.139685392379760964e+00 -7.158935070037841797e-01 2.100000000000000000e+01
-2.845220804214477983e+00 -1.340679287910460982e+00 -7.261419892311096191e-01 1.200000000000000000e+01
-3.394153356552124023e+00 -1.598614692687988059e+00 -7.292720079421997070e-01 1.200000000000000000e+01
-4.266462326049804688e+00 -2.007644891738892046e+00 -7.468181252479553223e-01 1.100000000000000000e+01
-5.748672485351563388e+00 -2.702669382095336914e+00 -7.799637913703918457e-01 9.000000000000000000e+00
-8.814099311828613281e+00 -4.141964435577392578e+00 -8.520345687866210938e-01 1.000000000000000000e+00
-1.224139595031737926e+01 -5.747320652008056641e+00 -7.087334990501403809e-01 1.600000000000000000e+01
-4.702740097045897727e+01 -2.205927848815917969e+01 -9.066874384880065918e-01 1.400000000000000000e+01
-2.427442789077758789e+00 -1.134515166282654031e+00 -7.179640531539916992e-01 2.100000000000000000e+01
-2.848117589950561968e+00 -1.329914927482604980e+00 -7.256920933723449707e-01 1.200000000000000000e+01
-3.410387039184569868e+00 -1.591739177703856978e+00 -7.315616607666015625e-01 1.200000000000000000e+01
-4.260912418365479404e+00 -1.986896038055419922e+00 -7.446280717849731445e-01 1.200000000000000000e+01
-5.765269279479979581e+00 -2.685939550399779829e+00 -7.809387445449829102e-01 8.000000000000000000e+00
-8.842952728271484375e+00 -4.117900848388671875e+00 -8.534290194511413574e-01 1.000000000000000000e+00
-1.231027603149414062e+01 -5.727302551269531250e+00 -7.115596532821655273e-01 1.200000000000000000e+01
-4.706059646606445312e+01 -2.187475776672362926e+01 -9.058496952056884766e-01 1.400000000000000000e+01
-2.433141231536864790e+00 -1.126846790313720925e+00 -7.184816598892211914e-01 2.000000000000000000e+01
-2.847436666488647017e+00 -1.317510128021240012e+00 -7.243424057960510254e-01 1.200000000000000000e+01
-3.408794879913330078e+00 -1.576528549194335938e+00 -7.300352454185485840e-01 1.200000000000000000e+01
-4.262442111968994141e+00 -1.969524860382080078e+00 -7.436894178390502930e-01 1.100000000000000000e+01
-5.749377250671386719e+00 -2.654150247573852983e+00 -7.775264382362365723e-01 9.000000000000000000e+00
-8.831946372985839844e+00 -4.075321674346923828e+00 -8.509886860847473145e-01 1.000000000000000000e+00
-1.242995262145995916e+01 -5.730286598205566406e+00 -7.173166275024414062e-01 8.000000000000000000e+00
-4.710760498046875000e+01 -2.169696807861328125e+01 -9.052911996841430664e-01 1.400000000000000000e+01
-2.440571546554564986e+00 -1.119958162307739036e+00 -7.195169329643249512e-01 1.900000000000000000e+01
-4.848847961425781250e+01 -2.224071884155273082e+01 9.311556816101074219e-01 6.300000000000000000e+01
-2.852018117904663086e+00 -1.307562708854675071e+00 -7.243424057960510254e-01 1.100000000000000000e+01
-3.408922910690308061e+00 -1.562166333198546919e+00 -7.288903594017028809e-01 1.300000000000000000e+01
-4.272883415222167969e+00 -1.956278800964355025e+00 -7.443152070045471191e-01 1.100000000000000000e+01
-5.754996776580811435e+00 -2.632413625717163086e+00 -7.770389318466186523e-01 9.000000000000000000e+00
-8.853365898132324219e+00 -4.047781467437744141e+00 -8.516859412193298340e-01 1.000000000000000000e+00
-1.252981376647949041e+01 -5.723375797271729404e+00 -7.219221591949462891e-01 1.200000000000000000e+01
-4.703023910522460938e+01 -2.146266174316405895e+01 -9.023592472076416016e-01 1.400000000000000000e+01
-2.439190149307250977e+00 -1.109033346176147017e+00 -7.179640531539916992e-01 2.200000000000000000e+01
-4.856581878662108664e+01 -2.207132720947265980e+01 9.311556816101074219e-01 6.300000000000000000e+01
-2.851242303848267046e+00 -1.295181393623352051e+00 -7.229927182197570801e-01 1.200000000000000000e+01
-3.408992290496826172e+00 -1.547822475433350053e+00 -7.277455329895019531e-01 1.200000000000000000e+01
-4.279685974121093750e+00 -1.941351652145385964e+00 -7.443152070045471191e-01 1.100000000000000000e+01
-5.769574642181395596e+00 -2.614767074584960938e+00 -7.777701616287231445e-01 1.100000000000000000e+01
-8.838402748107910156e+00 -4.003698825836181641e+00 -8.488969206809997559e-01 1.000000000000000000e+00
-1.260794258117675959e+01 -5.705955028533936435e+00 -7.252717018127441406e-01 8.000000000000000000e+00
-4.701376724243164062e+01 -2.125717163085937855e+01 -9.006139636039733887e-01 1.400000000000000000e+01
-2.437762498855590820e+00 -1.098131895065308061e+00 -7.164111137390136719e-01 2.000000000000000000e+01
-2.859300136566162109e+00 -1.286820292472838911e+00 -7.238925099372863770e-01 1.200000000000000000e+01
-3.419745683670043945e+00 -1.538329720497130904e+00 -7.288903594017028809e-01 1.100000000000000000e+01
-4.293643474578857422e+00 -1.929639935493469016e+00 -7.455666661262512207e-01 1.100000000000000000e+01
-5.776855945587158203e+00 -2.593798398971558061e+00 -7.775264382362365723e-01 9.000000000000000000e+00
-8.859595298767089844e+00 -3.976085662841796875e+00 -8.495941758155822754e-01 1.000000000000000000e+00
-1.262960624694824041e+01 -5.662727832794188565e+00 -7.253763675689697266e-01 1.200000000000000000e+01
-4.717893218994141336e+01 -2.113380813598633168e+01 -9.023592472076416016e-01 1.400000000000000000e+01
-2.441200256347655806e+00 -1.090468049049376997e+00 -7.164111137390136719e-01 1.900000000000000000e+01
-2.868667364120482954e+00 -1.280213832855225053e+00 -7.252421975135803223e-01 1.100000000000000000e+01
-3.429940462112427202e+00 -1.529978036880492942e+00 -7.300352454185485840e-01 1.200000000000000000e+01
-4.281641483306884766e+00 -1.908100724220276101e+00 -7.424379587173461914e-01 1.200000000000000000e+01
-5.788602828979492188e+00 -2.577251911163330078e+00 -7.780138850212097168e-01 9.000000000000000000e+00
-8.839278221130371094e+00 -3.933651685714722124e+00 -8.464565873146057129e-01 1.000000000000000000e+00
-1.272215938568115057e+01 -5.656290054321289062e+00 -7.296679019927978516e-01 8.000000000000000000e+00
-5.138544082641602273e+01 -2.282456207275390980e+01 1.506585693359375000e+01 1.900000000000000000e+01
-2.444991827011107954e+00 -1.081940054893494096e+00 -7.164111137390136719e-01 2.000000000000000000e+01
-2.858860015869141069e+00 -1.263888835906981978e+00 -7.216429710388183594e-01 1.200000000000000000e+01
-3.435260295867919922e+00 -1.517995953559875044e+00 -7.300352454185485840e-01 1.200000000000000000e+01
-4.291890144348145419e+00 -1.894738912582397017e+00 -7.430636882781982422e-01 1.100000000000000000e+01
-5.768503189086914062e+00 -2.544213056564331055e+00 -7.741140723228454590e-01 9.000000000000000000e+00
-8.860247611999511719e+00 -3.905987739562987837e+00 -8.471538424491882324e-01 1.000000000000000000e+00
-1.277838230133056996e+01 -5.627947807312011719e+00 -7.317613363265991211e-01 8.000000000000000000e+00
-4.718260955810546875e+01 -2.076084518432616832e+01 -8.997762799263000488e-01 1.400000000000000000e+01
-5.158192825317382812e+01 -2.268584632873535156e+01 1.509898567199707031e+01 1.900000000000000000e+01
-2.456018686294556108e+00 -1.076072454452515093e+00 -7.184816598892211914e-01 1.900000000000000000e+01
-2.867043495178223100e+00 -1.254964947700500044e+00 -7.225427627563476562e-01 1.100000000000000000e+01
-3.431807756423950195e+00 -1.501460313796997070e+00 -7.281271219253540039e-01 1.100000000000000000e+01
-4.293375968933104581e+00 -1.876622200012207031e+00 -7.421250939369201660e-01 1.200000000000000000e+01
-5.779608726501464844e+00 -2.523847818374633789e+00 -7.743577957153320312e-01 1.100000000000000000e+01
-8.878156661987304688e+00 -3.875081062316894975e+00 -8.475024700164794922e-01 1.000000000000000000e+00
-1.286116981506348012e+01 -5.608217716217041016e+00 -7.353202104568481445e-01 1.200000000000000000e+01
-2.457987785339355025e+00 -1.066723704338073953e+00 -7.179640531539916992e-01 1.900000000000000000e+01
-2.873194694519042969e+00 -1.245724558830261008e+00 -7.229927182197570801e-01 1.200000000000000000e+01
-3.431623697280883789e+00 -1.487129926681518999e+00 -7.269822955131530762e-01 1.200000000000000000e+01
-4.298087596893311435e+00 -1.860839247703552024e+00 -7.418122291564941406e-01 1.100000000000000000e+01
-5.781095504760742188e+00 -2.500505685806273970e+00 -7.733828425407409668e-01 1.100000000000000000e+01
-8.880656242370605469e+00 -3.839323282241820845e+00 -8.464565873146057129e-01 1.000000000000000000e+00
-1.294484233856200994e+01 -5.591007232666015625e+00 -7.389836907386779785e-01 1.200000000000000000e+01
-5.255598831176757812e+01 -2.268857383728026988e+01 1.321587467193604049e+01 1.900000000000000000e+01
-4.728222656250000000e+01 -2.040208625793457031e+01 -8.988687396049499512e-01 1.400000000000000000e+01
-2.454781293869018999e+00 -1.054657220840454102e+00 -7.158935070037841797e-01 2.100000000000000000e+01
-2.874159812927246094e+00 -1.233648180961609109e+00 -7.220928668975830078e-01 1.200000000000000000e+01
-3.442463874816894975e+00 -1.476864576339721902e+00 -7.281271219253540039e-01 1.200000000000000000e+01
-4.313957214355468750e+00 -1.848964333534240945e+00 -7.433765530586242676e-01 1.200000000000000000e+01
-5.799345970153808594e+00 -2.483206987380981001e+00 -7.746015191078186035e-01 1.100000000000000000e+01
-8.894668579101562500e+00 -3.806748151779174805e+00 -8.464565873146057129e-01 1.000000000000000000e+00
-1.295973777770995916e+01 -5.541168689727783203e+00 -7.386696934700012207e-01 1.200000000000000000e+01
-5.281798553466796875e+01 -2.257237625122069957e+01 1.326086425781250000e+01 1.900000000000000000e+01
-4.735668563842772727e+01 -2.022865104675292969e+01 -8.988687396049499512e-01 1.400000000000000000e+01
-5.081854248046875000e+01 -2.170740318298339844e+01 1.480703735351563033e+01 1.900000000000000000e+01
-2.460225343704224077e+00 -1.046838402748107910e+00 -7.164111137390136719e-01 1.800000000000000000e+01
-2.891002416610718218e+00 -1.228944540023803933e+00 -7.252421975135803223e-01 1.100000000000000000e+01
-3.442177534103393999e+00 -1.462535858154297097e+00 -7.269822955131530762e-01 1.200000000000000000e+01
-4.309474945068359375e+00 -1.829263567924499956e+00 -7.414993643760681152e-01 1.200000000000000000e+01
-5.806150913238525391e+00 -2.462173223495482954e+00 -7.743577957153320312e-01 1.100000000000000000e+01
-8.874882698059082031e+00 -3.761681318283081055e+00 -8.433189392089843750e-01 1.000000000000000000e+00
-1.301210689544677912e+01 -5.509915351867675781e+00 -7.405537962913513184e-01 1.700000000000000000e+01
-4.540115737915039062e+01 -1.920622062683105113e+01 -8.604734539985656738e-01 1.300000000000000000e+01
-2.463683128356934038e+00 -1.038674235343933105e+00 -7.164111137390136719e-01 1.500000000000000000e+01
-2.869918584823607954e+00 -1.208760976791382058e+00 -7.189435958862304688e-01 1.200000000000000000e+01
-3.447008371353148970e+00 -1.451113224029541016e+00 -7.269822955131530762e-01 1.200000000000000000e+01
-4.324621677398681641e+00 -1.818791747093200906e+00 -7.430636882781982422e-01 1.100000000000000000e+01
-5.795982837677001953e+00 -2.435216426849364790e+00 -7.719204425811767578e-01 1.100000000000000000e+01
-8.887308120727539062e+00 -3.732230424880981001e+00 -8.433189392089843750e-01 1.000000000000000000e+00
-1.305240726470947088e+01 -5.476007461547851562e+00 -7.418098449707031250e-01 2.500000000000000000e+01
-2.479773044586182085e+00 -1.035277962684630904e+00 -7.200345993041992188e-01 1.400000000000000000e+01
-2.875919103622436968e+00 -1.199485898017883079e+00 -7.193934917449951172e-01 1.300000000000000000e+01
-3.455677032470703125e+00 -1.440582871437072976e+00 -7.277455329895019531e-01 1.200000000000000000e+01
-4.323649883270263672e+00 -1.800647139549254927e+00 -7.418122291564941406e-01 1.100000000000000000e+01
-5.802615165710449219e+00 -2.414207458496094194e+00 -7.716766595840454102e-01 9.000000000000000000e+00
-8.911319732666015625e+00 -3.705775260925292969e+00 -8.443648219108581543e-01 1.000000000000000000e+00
-1.311939811706542969e+01 -5.450335025787354404e+00 -7.445313334465026855e-01 2.500000000000000000e+01
-5.142834854125977273e+01 -2.134439659118651988e+01 1.491988277435302912e+01 1.900000000000000000e+01
-2.476051568984984907e+00 -1.024095654487610085e+00 -7.179640531539916992e-01 1.300000000000000000e+01
-2.888886213302611861e+00 -1.193663358688354048e+00 -7.216429710388183594e-01 1.200000000000000000e+01
-3.454991340637207031e+00 -1.426867246627808061e+00 -7.266006469726562500e-01 1.100000000000000000e+01
-4.333249568939208984e+00 -1.787806272506714089e+00 -7.424379587173461914e-01 1.100000000000000000e+01
-5.810588836669921875e+00 -2.394952058792113814e+00 -7.716766595840454102e-01 9.000000000000000000e+00
-8.871978759765625000e+00 -3.654954195022583008e+00 -8.394840955734252930e-01 1.000000000000000000e+00
-1.313185882568359020e+01 -5.404519557952880859e+00 -7.442172765731811523e-01 1.200000000000000000e+01
-5.139879226684570312e+01 -2.113259696960448863e+01 1.489089488983153942e+01 1.900000000000000000e+01
-2.467097043991088867e+00 -1.010321497917175071e+00 -7.143405675888061523e-01 1.300000000000000000e+01
-2.900249719619750977e+00 -1.186523556709289995e+00 -7.234426140785217285e-01 1.200000000000000000e+01
-3.454499483108520952e+00 -1.412569284439086914e+00 -7.254558205604553223e-01 1.200000000000000000e+01
-4.332149028778076172e+00 -1.769681453704833984e+00 -7.411864995956420898e-01 1.200000000000000000e+01
-5.820751667022705078e+00 -2.375404596328734907e+00 -7.719204425811767578e-01 1.100000000000000000e+01
-5.204811096191406250e+01 -2.122984504699707031e+01 8.902997970581054688e+00 2.800000000000000000e+01
-8.884682655334472656e+00 -3.623962879180908203e+00 -8.394840955734252930e-01 1.000000000000000000e+00
-1.321722984313965021e+01 -5.385779857635498047e+00 -7.479854822158813477e-01 1.200000000000000000e+01
-2.485106945037841797e+00 -1.007076859474181907e+00 -7.184816598892211914e-01 1.200000000000000000e+01
-2.893741130828856978e+00 -1.171497941017151101e+00 -7.207431793212890625e-01 1.100000000000000000e+01
-3.456013679504394975e+00 -1.398425579071044922e+00 -7.246925830841064453e-01 1.000000000000000000e+01
-4.333111763000488281e+00 -1.751570582389831987e+00 -7.402479052543640137e-01 1.200000000000000000e+01
-5.833099842071533203e+00 -2.355541229248046875e+00 -7.724078893661499023e-01 1.100000000000000000e+01
-8.916380882263183594e+00 -3.598831892013549805e+00 -8.412272334098815918e-01 1.000000000000000000e+00
-1.311277294158936080e+01 -5.287258625030517578e+00 -7.409724593162536621e-01 8.000000000000000000e+00
-5.096094131469727273e+01 -2.052750396728515980e+01 1.472110939025879084e+01 1.900000000000000000e+01
-2.485021114349364790e+00 -9.969574809074401855e-01 -7.174463868141174316e-01 1.100000000000000000e+01
-2.890577316284180132e+00 -1.158489942550658958e+00 -7.189435958862304688e-01 1.200000000000000000e+01
-3.464519023895264116e+00 -1.387813448905945046e+00 -7.254558205604553223e-01 1.200000000000000000e+01
-4.335531711578369141e+00 -1.734966754913330078e+00 -7.396221756935119629e-01 1.200000000000000000e+01
-5.837600231170654297e+00 -2.333691835403441939e+00 -7.719204425811767578e-01 1.100000000000000000e+01
-5.219869613647460938e+01 -2.085685539245605113e+01 8.902997970581054688e+00 2.800000000000000000e+01
-8.928889274597167969e+00 -3.567685842514038086e+00 -8.412272334098815918e-01 1.000000000000000000e+00
-1.338713169097900035e+01 -5.343632698059082031e+00 -7.554171681404113770e-01 8.000000000000000000e+00
-5.115071868896483664e+01 -2.039671897888183949e+01 1.475527381896973012e+01 1.900000000000000000e+01
-2.499258756637572798e+00 -9.925553202629089355e-01 -7.205522060394287109e-01 1.200000000000000000e+01
-2.898226261138916016e+00 -1.149830222129821999e+00 -7.198433876037597656e-01 1.100000000000000000e+01
-3.462042331695557085e+00 -1.372816801071166992e+00 -7.239293456077575684e-01 1.200000000000000000e+01
-4.352580547332763672e+00 -1.724187374114990012e+00 -7.414993643760681152e-01 1.200000000000000000e+01
-5.830944538116455078e+00 -2.307456970214844194e+00 -7.699705362319946289e-01 1.100000000000000000e+01
-8.919054985046386719e+00 -3.527702808380126953e+00 -8.391354680061340332e-01 3.000000000000000000e+00
-1.343542289733887074e+01 -5.308613300323486328e+00 -7.570919394493103027e-01 4.000000000000000000e+00
-4.845775222778320312e+01 -1.912710571289062855e+01 -9.093402028083801270e-01 1.400000000000000000e+01
-2.499112367630004883e+00 -9.824116826057434082e-01 -7.195169329643249512e-01 1.200000000000000000e+01
-2.904036283493041992e+00 -1.140418767929076926e+00 -7.202932834625244141e-01 1.200000000000000000e+01
-3.468640565872191939e+00 -1.361441016197205034e+00 -7.243109345436096191e-01 1.100000000000000000e+01
-4.358572483062744141e+00 -1.708983540534972922e+00 -7.414993643760681152e-01 1.200000000000000000e+01
-5.842659950256347656e+00 -2.288537263870238814e+00 -7.704579830169677734e-01 1.100000000000000000e+01
-8.953577995300292969e+00 -3.505264043807982954e+00 -8.412272334098815918e-01 1.000000000000000000e+00
-1.362499809265137074e+01 -5.328608512878417969e+00 -7.667217850685119629e-01 8.000000000000000000e+00
-4.852422332763671875e+01 -1.895783996582030895e+01 -9.093402028083801270e-01 1.400000000000000000e+01
-5.118738937377929688e+01 -1.998801231384276988e+01 1.472421550750732067e+01 1.900000000000000000e+01
-2.504326820373535156e+00 -9.743826389312744141e-01 -7.200345993041992188e-01 1.400000000000000000e+01
-2.909815788269042969e+00 -1.130980849266052024e+00 -7.207431793212890625e-01 1.100000000000000000e+01
-3.473371982574462891e+00 -1.349324822425842063e+00 -7.243109345436096191e-01 1.100000000000000000e+01
-4.360828399658203125e+00 -1.692329525947571023e+00 -7.408736348152160645e-01 1.200000000000000000e+01
-5.858016490936279297e+00 -2.270998716354370117e+00 -7.714329361915588379e-01 1.100000000000000000e+01
-8.928603172302246094e+00 -3.459591865539550781e+00 -8.377410173416137695e-01 1.000000000000000000e+00
-1.371056842803955078e+01 -5.306970119476318359e+00 -7.704899311065673828e-01 2.100000000000000000e+01
-4.877661514282227273e+01 -1.886046218872069957e+01 -9.128306508064270020e-01 1.400000000000000000e+01
-5.163526153564453125e+01 -1.995545768737792969e+01 1.483291912078857067e+01 1.900000000000000000e+01
-2.509515523910522017e+00 -9.663291573524475098e-01 -7.205522060394287109e-01 1.300000000000000000e+01
-2.915564775466918945e+00 -1.121516466140747070e+00 -7.211930751800537109e-01 1.200000000000000000e+01
-3.478060722351074219e+00 -1.337192296981811968e+00 -7.243109345436096191e-01 1.100000000000000000e+01
-4.361176967620849609e+00 -1.674972295761107954e+00 -7.399350404739379883e-01 1.200000000000000000e+01
-5.858494281768798828e+00 -2.247692346572875977e+00 -7.704579830169677734e-01 1.100000000000000000e+01
-8.933183670043945312e+00 -3.425550699234008789e+00 -8.370437622070312500e-01 1.000000000000000000e+00
-1.378869342803955078e+01 -5.281941413879395419e+00 -7.738394737243652344e-01 2.100000000000000000e+01
-4.886829757690429688e+01 -1.870009040832519887e+01 -9.133193492889404297e-01 1.400000000000000000e+01
-5.154942703247070312e+01 -1.971574592590332031e+01 1.478840255737305043e+01 1.900000000000000000e+01
-2.512873411178588867e+00 -9.575634598731994629e-01 -7.205522060394287109e-01 1.800000000000000000e+01
-2.901249170303345171e+00 -1.104399561882019043e+00 -7.166940569877624512e-01 1.200000000000000000e+01
-3.484542131423950195e+00 -1.325741529464721902e+00 -7.246925830841064453e-01 1.000000000000000000e+01
-4.366997241973876953e+00 -1.659738779067992942e+00 -7.399350404739379883e-01 1.200000000000000000e+01
-5.858881473541259766e+00 -2.224410295486450195e+00 -7.694830298423767090e-01 1.100000000000000000e+01
-8.945086479187011719e+00 -3.394347190856934038e+00 -8.370437622070312500e-01 1.000000000000000000e+00
-1.383692836761474965e+01 -5.245104789733886719e+00 -7.755141854286193848e-01 2.100000000000000000e+01
-5.450787734985352273e+01 -2.065118789672851918e+01 1.345702171325683949e+01 1.900000000000000000e+01
-4.900060272216796875e+01 -1.855488777160644887e+01 -9.145759344100952148e-01 1.400000000000000000e+01
-2.521623373031616211e+00 -9.508308768272399902e-01 -7.221051454544067383e-01 2.400000000000000000e+01
-2.906910419464110884e+00 -1.094952464103698953e+00 -7.171439528465270996e-01 1.200000000000000000e+01
-3.483636617660522017e+00 -1.311495065689086914e+00 -7.235476970672607422e-01 1.100000000000000000e+01
-4.378310680389404297e+00 -1.646571040153502974e+00 -7.408736348152160645e-01 1.200000000000000000e+01
-5.855460643768311435e+00 -2.199756622314453125e+00 -7.680206298828125000e-01 1.100000000000000000e+01
-8.971802711486816406e+00 -3.368705272674560991e+00 -8.384382724761962891e-01 1.000000000000000000e+00
-1.384019184112549006e+01 -5.191161632537841797e+00 -7.746767997741699219e-01 2.100000000000000000e+01
-4.934595489501953125e+01 -1.848897361755371094e+01 -9.198116064071655273e-01 1.400000000000000000e+01
-5.130227279663085938e+01 -1.921175575256348012e+01 1.467866325378417969e+01 1.800000000000000000e+01
-2.505017280578612837e+00 -9.345948100090026855e-01 -7.164111137390136719e-01 1.600000000000000000e+01
-2.916192770004272017e+00 -1.086840510368346946e+00 -7.184936404228210449e-01 1.200000000000000000e+01
-3.482673883438109907e+00 -1.297271013259887917e+00 -7.224028706550598145e-01 1.100000000000000000e+01
-4.385883331298828125e+00 -1.631966710090636985e+00 -7.411864995956420898e-01 1.100000000000000000e+01
-5.870546340942382812e+00 -2.182070493698120117e+00 -7.689955830574035645e-01 1.100000000000000000e+01
-8.931212425231933594e+00 -3.317939758300780806e+00 -8.335575461387634277e-01 1.000000000000000000e+00
-1.386010074615479049e+01 -5.143513679504395419e+00 -7.747815251350402832e-01 1.300000000000000000e+01
-5.131860351562500000e+01 -1.902406692504883168e+01 1.466520500183104936e+01 1.800000000000000000e+01
-2.499202728271483931e+00 -9.225001335144042969e-01 -7.138229012489318848e-01 1.400000000000000000e+01
-2.921797275543212891e+00 -1.077328562736511008e+00 -7.189435958862304688e-01 1.100000000000000000e+01
-3.487181186676024947e+00 -1.285106301307678001e+00 -7.224028706550598145e-01 1.000000000000000000e+01
-4.385991573333740234e+00 -1.614599943161010964e+00 -7.402479052543640137e-01 1.200000000000000000e+01
-5.866948604583740234e+00 -2.157454252243041992e+00 -7.675331234931945801e-01 1.100000000000000000e+01
-8.942739486694335938e+00 -3.286743879318236861e+00 -8.335575461387634277e-01 1.000000000000000000e+00
-1.400733852386474965e+01 -5.142597198486328125e+00 -7.820038795471191406e-01 1.300000000000000000e+01
-5.152583694458007812e+01 -1.888637542724609020e+01 1.470454502105713068e+01 1.900000000000000000e+01
-2.491519689559936968e+00 -9.097948670387268066e-01 -7.107170820236206055e-01 1.600000000000000000e+01
-2.925539970397949219e+00 -1.067123055458069070e+00 -7.189435958862304688e-01 1.300000000000000000e+01
-3.499023675918579102e+00 -1.275615692138672097e+00 -7.239293456077575684e-01 1.000000000000000000e+01
-4.376751899719238281e+00 -1.593872666358947976e+00 -7.377449274063110352e-01 1.200000000000000000e+01
-5.872578620910645419e+00 -2.136283159255981001e+00 -7.672894001007080078e-01 9.000000000000000000e+00
-8.935433387756347656e+00 -3.248699903488159180e+00 -8.318144083023071289e-01 1.000000000000000000e+00
-1.416412353515625000e+01 -5.144123554229736328e+00 -7.897495627403259277e-01 9.000000000000000000e+00
-2.501948118209838867e+00 -9.037175178527832031e-01 -7.127876281738281250e-01 1.900000000000000000e+01
-2.920081853866577148e+00 -1.053597569465636985e+00 -7.166940569877624512e-01 1.400000000000000000e+01
-3.508995771408081055e+00 -1.265392065048217995e+00 -7.250741720199584961e-01 1.200000000000000000e+01
-4.386005878448486328e+00 -1.579924106597899947e+00 -7.383706569671630859e-01 1.200000000000000000e+01
-5.874396324157714844e+00 -2.113754749298096147e+00 -7.665581703186035156e-01 1.100000000000000000e+01
-8.931720733642578125e+00 -3.212095737457274947e+00 -8.304198980331420898e-01 1.000000000000000000e+00
-1.429853153228759943e+01 -5.136515140533447266e+00 -7.962392568588256836e-01 9.000000000000000000e+00
-5.262747955322266336e+01 -1.887446022033691051e+01 1.498096370697020951e+01 1.900000000000000000e+01
-2.516002893447875977e+00 -8.988782763481140137e-01 -7.158935070037841797e-01 2.300000000000000000e+01
-2.923741817474364790e+00 -1.043398141860961914e+00 -7.166940569877624512e-01 1.300000000000000000e+01
-3.496748924255371094e+00 -1.247199773788451926e+00 -7.216396331787109375e-01 1.100000000000000000e+01
-4.398937225341796875e+00 -1.567256331443787065e+00 -7.396221756935119629e-01 1.200000000000000000e+01
-5.874258041381835938e+00 -2.090574026107788086e+00 -7.655832171440124512e-01 1.100000000000000000e+01
-8.935369491577148438e+00 -3.178227901458739790e+00 -8.297226428985595703e-01 1.000000000000000000e+00
-1.452151298522949041e+01 -5.159457683563232422e+00 -8.076484799385070801e-01 1.300000000000000000e+01
-5.260239028930664062e+01 -1.866882133483887074e+01 1.495611763000487926e+01 1.900000000000000000e+01
-2.513660669326781782e+00 -8.881595134735107422e-01 -7.143405675888061523e-01 2.500000000000000000e+01
-2.923690795898437944e+00 -1.031888842582703081e+00 -7.157942652702331543e-01 1.300000000000000000e+01
-3.506635427474976030e+00 -1.236945390701293945e+00 -7.227844595909118652e-01 1.100000000000000000e+01
-4.402518272399902344e+00 -1.551235198974608931e+00 -7.393093109130859375e-01 1.100000000000000000e+01
-5.877774715423583984e+00 -2.068738222122191939e+00 -7.650957107543945312e-01 1.100000000000000000e+01
-8.920096397399902344e+00 -3.137762308120727983e+00 -8.272823095321655273e-01 1.000000000000000000e+00
-1.463553428649901988e+01 -5.142503261566162109e+00 -8.129867315292358398e-01 9.000000000000000000e+00
-5.217565536499022727e+01 -1.832278633117676137e+01 1.276687240600585938e+01 1.800000000000000000e+01
-2.502155780792235884e+00 -8.742819428443908691e-01 -7.101994752883911133e-01 2.500000000000000000e+01
-2.938314437866210938e+00 -1.025529980659485085e+00 -7.184936404228210449e-01 1.300000000000000000e+01
-3.499809503555297852e+00 -1.220817804336548074e+00 -7.204947471618652344e-01 1.100000000000000000e+01
-4.406040668487548828e+00 -1.535208106040955034e+00 -7.389963865280151367e-01 1.200000000000000000e+01
-5.899958610534667969e+00 -2.053428411483765093e+00 -7.670456767082214355e-01 1.100000000000000000e+01
-8.915940284729003906e+00 -3.101369619369506836e+00 -8.258877992630004883e-01 1.000000000000000000e+00
-1.472886085510254084e+01 -5.117605209350585938e+00 -8.171736001968383789e-01 1.300000000000000000e+01
-5.187111663818358664e+01 -1.801269340515137074e+01 1.267689132690430043e+01 1.700000000000000000e+01
-2.510670185089110884e+00 -8.674350380897521973e-01 -7.117523550987243652e-01 2.300000000000000000e+01
-2.940034151077270952e+00 -1.014631390571594016e+00 -7.180437445640563965e-01 1.300000000000000000e+01
-3.507761716842650923e+00 -1.209874033927917036e+00 -7.212579846382141113e-01 1.100000000000000000e+01
-4.405769824981688565e+00 -1.517888426780700906e+00 -7.380577921867370605e-01 1.100000000000000000e+01
-5.899581909179688388e+00 -2.030237436294556108e+00 -7.660706639289855957e-01 1.100000000000000000e+01
-8.915407180786132812e+00 -3.066340446472167969e+00 -8.248419761657714844e-01 1.000000000000000000e+00
-1.482974624633789062e+01 -5.094713211059570312e+00 -8.217791914939880371e-01 1.300000000000000000e+01
-2.511854648590087891e+00 -8.580414056777954102e-01 -7.112347483634948730e-01 2.100000000000000000e+01
-2.934336185455321822e+00 -1.001216053962707964e+00 -7.157942652702331543e-01 1.400000000000000000e+01
-3.515679836273192915e+00 -1.198889613151550071e+00 -7.220212221145629883e-01 1.100000000000000000e+01
-4.405431747436523438e+00 -1.500589370727539062e+00 -7.371191978454589844e-01 1.200000000000000000e+01
-5.899115562438964844e+00 -2.007073879241942915e+00 -7.650957107543945312e-01 1.100000000000000000e+01
-8.960010528564453125e+00 -3.046746730804442915e+00 -8.279795646667480469e-01 1.000000000000000000e+00
-1.489282798767090021e+01 -5.058332920074462891e+00 -8.242912888526916504e-01 1.300000000000000000e+01
-5.324576187133789062e+01 -1.806413650512694957e+01 1.506585693359375000e+01 1.900000000000000000e+01
-2.522155761718750000e+00 -8.517405390739440918e-01 -7.133052945137023926e-01 2.100000000000000000e+01
-2.937813282012939009e+00 -9.909672141075134277e-01 -7.157942652702331543e-01 1.400000000000000000e+01
-3.512401819229125977e+00 -1.184101581573486106e+00 -7.204947471618652344e-01 1.100000000000000000e+01
-4.414387226104736328e+00 -1.486463189125061035e+00 -7.377449274063110352e-01 1.200000000000000000e+01
-5.891033649444580078e+00 -1.981407284736633079e+00 -7.631458044052124023e-01 1.100000000000000000e+01
-8.929042816162109375e+00 -3.001485586166381836e+00 -8.241447210311889648e-01 1.000000000000000000e+00
-1.505807781219482067e+01 -5.055902481079101562e+00 -8.324556946754455566e-01 9.000000000000000000e+00
-5.228968048095703125e+01 -1.754663658142089844e+01 1.273357963562012074e+01 1.800000000000000000e+01
-2.515657901763916016e+00 -8.407510519027709961e-01 -7.107170820236206055e-01 2.000000000000000000e+01
-2.933518171310424805e+00 -9.792646765708923340e-01 -7.139946222305297852e-01 1.400000000000000000e+01
-3.501205682754517046e+00 -1.168090581893920898e+00 -7.174417972564697266e-01 1.200000000000000000e+01
-4.422783374786376953e+00 -1.473836779594420943e+00 -7.383706569671630859e-01 1.300000000000000000e+01
-5.893462181091308594e+00 -1.961636424064636008e+00 -7.626583576202392578e-01 1.100000000000000000e+01
-8.900617599487304688e+00 -2.960841417312622070e+00 -8.206584453582763672e-01 1.000000000000000000e+00
-1.505493354797362926e+01 -5.002273559570313388e+00 -8.314089775085449219e-01 1.300000000000000000e+01
-5.362475204467772727e+01 -1.779701042175292969e+01 1.513936138153075994e+01 2.000000000000000000e+01
-2.511240005493164062e+00 -8.295408487319946289e-01 -7.086465358734130859e-01 2.000000000000000000e+01
-2.951723337173461914e+00 -9.739035964012145996e-01 -7.175938487052917480e-01 1.300000000000000000e+01
-3.508990764617919922e+00 -1.157091617584228960e+00 -7.182050347328186035e-01 1.100000000000000000e+01
-4.424148559570313388e+00 -1.457153439521789995e+00 -7.377449274063110352e-01 1.200000000000000000e+01
-5.911587715148925781e+00 -1.944774508476257102e+00 -7.641207575798034668e-01 1.100000000000000000e+01
-8.944967269897460938e+00 -2.940955638885498047e+00 -8.237960934638977051e-01 1.000000000000000000e+00
-1.526964855194091975e+01 -5.014499664306640625e+00 -8.422948718070983887e-01 1.400000000000000000e+01
-5.416324234008789062e+01 -1.775560760498046875e+01 1.527291202545166016e+01 2.000000000000000000e+01
-2.521753311157227007e+00 -8.222878575325012207e-01 -7.107170820236206055e-01 1.900000000000000000e+01
-2.955440998077393022e+00 -9.625626802444458008e-01 -7.175938487052917480e-01 1.300000000000000000e+01
-3.513407945632935014e+00 -1.143609523773192915e+00 -7.182050347328186035e-01 1.100000000000000000e+01
-4.418439865112304688e+00 -1.436490654945373979e+00 -7.358677387237548828e-01 1.200000000000000000e+01
-5.905795574188232422e+00 -1.917769789695739968e+00 -7.624146342277526855e-01 1.100000000000000000e+01
-8.918292045593261719e+00 -2.894287347793579102e+00 -8.203098773956298828e-01 1.000000000000000000e+00
-1.535908794403075994e+01 -4.978618144989013672e+00 -8.461677432060241699e-01 1.400000000000000000e+01
-2.522769451141356978e+00 -8.128878474235534668e-01 -7.101994752883911133e-01 1.900000000000000000e+01
-2.943942785263061968e+00 -9.474642276763916016e-01 -7.139946222305297852e-01 1.300000000000000000e+01
-3.524854183197021040e+00 -1.133743047714232954e+00 -7.197315096855163574e-01 1.100000000000000000e+01
-4.419665813446044922e+00 -1.419850349426269975e+00 -7.352420091629028320e-01 1.200000000000000000e+01
-5.908673286437988281e+00 -1.895929932594299094e+00 -7.619271278381347656e-01 1.100000000000000000e+01
-8.958696365356445312e+00 -2.872873544692993164e+00 -8.230988383293151855e-01 3.000000000000000000e+00
-1.535545063018799006e+01 -4.918272972106933594e+00 -8.450163602828979492e-01 9.000000000000000000e+00
-2.530973434448242188e+00 -8.062766790390014648e-01 -7.117523550987243652e-01 1.700000000000000000e+01
-2.943354606628417969e+00 -9.365148544311523438e-01 -7.130948305130004883e-01 1.100000000000000000e+01
-3.521110773086547852e+00 -1.119668245315551980e+00 -7.182050347328186035e-01 1.200000000000000000e+01
-4.428114891052246094e+00 -1.406382322311400923e+00 -7.358677387237548828e-01 1.200000000000000000e+01
-5.899790763854979581e+00 -1.871523857116698997e+00 -7.599772214889526367e-01 9.000000000000000000e+00
-5.282693862915039062e+01 -1.675769233703612926e+01 8.777851104736328125e+00 2.600000000000000000e+01
-8.956778526306152344e+00 -2.839537143707274947e+00 -8.220529556274414062e-01 1.000000000000000000e+00
-1.531074428558349965e+01 -4.848032474517822266e+00 -8.416668772697448730e-01 4.000000000000000000e+00
-2.522716045379639116e+00 -7.939573526382446289e-01 -7.086465358734130859e-01 1.800000000000000000e+01
-2.955900907516479048e+00 -9.291567802429199219e-01 -7.153443694114685059e-01 1.300000000000000000e+01
-3.524997711181641069e+00 -1.107370495796204057e+00 -7.182050347328186035e-01 1.200000000000000000e+01
-4.432997226715087891e+00 -1.390916705131530984e+00 -7.358677387237548828e-01 1.200000000000000000e+01
-5.925230026245117188e+00 -1.856854557991028054e+00 -7.624146342277526855e-01 9.000000000000000000e+00
-8.959030151367187500e+00 -2.805872917175292969e+00 -8.213557004928588867e-01 1.000000000000000000e+00
-1.528373241424561080e+01 -4.780844211578369141e+00 -8.392593860626220703e-01 1.400000000000000000e+01
-3.230302810668945312e+01 -1.009220504760742010e+01 -5.907290577888488770e-01 6.000000000000000000e+00
-2.523490190505981001e+00 -7.850134968757629395e-01 -7.081289291381835938e-01 1.900000000000000000e+01
-2.962687730789185014e+00 -9.205060005187988281e-01 -7.162441611289978027e-01 1.200000000000000000e+01
-3.532400369644165039e+00 -1.096839427947998047e+00 -7.189682722091674805e-01 1.200000000000000000e+01
-4.430038452148438388e+00 -1.373868227005005105e+00 -7.346162199974060059e-01 1.200000000000000000e+01
-5.919977664947509766e+00 -1.833671569824218972e+00 -7.609521746635437012e-01 9.000000000000000000e+00
-8.945446014404296875e+00 -2.769078254699707031e+00 -8.192639946937561035e-01 3.000000000000000000e+00
-1.587385368347167969e+01 -4.907707214355468750e+00 -8.707656264305114746e-01 1.000000000000000000e+01
-3.237453079223632812e+01 -9.996829032897949219e+00 -5.914271473884582520e-01 6.000000000000000000e+00
-2.528061866760253906e+00 -7.767674922943115234e-01 -7.086465358734130859e-01 1.900000000000000000e+01
-2.956568002700806108e+00 -9.073001146316528320e-01 -7.139946222305297852e-01 1.300000000000000000e+01
-3.539961338043212891e+00 -1.085653662681580034e+00 -7.197315096855163574e-01 1.100000000000000000e+01
-4.427252292633056641e+00 -1.356081962585448997e+00 -7.333647608757019043e-01 1.300000000000000000e+01
-5.937731742858886719e+00 -1.816480040550231934e+00 -7.624146342277526855e-01 9.000000000000000000e+00
-8.966489791870117188e+00 -2.741331100463867188e+00 -8.203098773956298828e-01 1.000000000000000000e+00
-1.602078056335448863e+01 -4.891930103302001953e+00 -8.778833150863647461e-01 1.000000000000000000e+01
-3.252016448974608664e+01 -9.917592048645019531e+00 -5.934516191482543945e-01 1.300000000000000000e+01
-2.534589290618896040e+00 -7.686176896095275879e-01 -7.096818089485168457e-01 2.000000000000000000e+01
-2.952413320541381836e+00 -8.941981792449951172e-01 -7.121950387954711914e-01 1.400000000000000000e+01
-3.532642364501953125e+00 -1.069259285926819070e+00 -7.174417972564697266e-01 1.100000000000000000e+01
-4.439756393432617188e+00 -1.342132687568664995e+00 -7.346162199974060059e-01 1.200000000000000000e+01
-5.925345897674561435e+00 -1.788967490196228027e+00 -7.599772214889526367e-01 9.000000000000000000e+00
-5.305576324462891336e+01 -1.601848030090332031e+01 8.777851104736328125e+00 2.600000000000000000e+01
-8.991736412048339844e+00 -2.713052988052368164e+00 -8.217043280601501465e-01 1.000000000000000000e+00
-1.634074974060058949e+01 -4.924228668212890625e+00 -8.944215178489685059e-01 5.000000000000000000e+00
-2.540958166122436968e+00 -7.608739733695983887e-01 -7.107170820236206055e-01 1.900000000000000000e+01
-2.962984800338745117e+00 -8.861203193664550781e-01 -7.139946222305297852e-01 1.300000000000000000e+01
-3.536353349685668945e+00 -1.056921482086182085e+00 -7.174417972564697266e-01 1.100000000000000000e+01
-4.433056831359863281e+00 -1.323236823081969993e+00 -7.327390313148498535e-01 1.200000000000000000e+01
-5.933456897735595703e+00 -1.768840312957763894e+00 -7.602209448814392090e-01 7.000000000000000000e+00
-5.330343246459960938e+01 -1.588031387329101918e+01 8.809137344360351562e+00 2.700000000000000000e+01
-8.970601081848144531e+00 -2.672547578811645952e+00 -8.189153671264648438e-01 1.000000000000000000e+00
-1.654927062988280895e+01 -4.924118041992188388e+00 -9.048886895179748535e-01 1.100000000000000000e+01
-2.536188125610352007e+00 -7.498089075088500977e-01 -7.086465358734130859e-01 1.900000000000000000e+01
-2.966059684753417969e+00 -8.757721781730651855e-01 -7.139946222305297852e-01 1.400000000000000000e+01
-3.540020942687987837e+00 -1.044570922851562944e+00 -7.174417972564697266e-01 1.100000000000000000e+01
-4.433859348297119141e+00 -1.306637644767761008e+00 -7.321133017539978027e-01 1.200000000000000000e+01
-5.931977748870849609e+00 -1.745876073837280051e+00 -7.592459917068481445e-01 7.000000000000000000e+00
-8.956937789916992188e+00 -2.634471654891968218e+00 -8.168236017227172852e-01 3.000000000000000000e+00
-1.667366981506348012e+01 -4.897842884063720703e+00 -9.107503294944763184e-01 1.100000000000000000e+01
-2.527663230895996094e+00 -7.377039790153503418e-01 -7.055407166481018066e-01 2.000000000000000000e+01
-2.976582288742064986e+00 -8.675945997238159180e-01 -7.157942652702331543e-01 1.400000000000000000e+01
-3.543645620346068892e+00 -1.032207489013672097e+00 -7.174417972564697266e-01 1.200000000000000000e+01
-4.438393115997313565e+00 -1.291152715682982954e+00 -7.321133017539978027e-01 1.200000000000000000e+01
-5.938035964965820312e+00 -1.725158929824829102e+00 -7.592459917068481445e-01 7.000000000000000000e+00
-8.973732948303222656e+00 -2.605412244796752930e+00 -8.175208568572998047e-01 1.000000000000000000e+00
