-4.485574340820313211e+01 4.587921142578125000e+00 3.944843292236328125e+00 5.400000000000000000e+01
-4.264243602752686435e+00 4.369060397148131769e-01 -6.789255738258361816e-01 1.000000000000000000e+01
-4.485573959350585938e+01 4.603742599487304688e+00 5.536524295806884766e+00 3.800000000000000000e+01
-5.621923923492431641e+00 5.779944062232971191e-01 -6.939240694046020508e-01 1.000000000000000000e+01
-8.100052833557128906e+00 8.342014551162719727e-01 -7.124110460281372070e-01 2.000000000000000000e+00
-1.514842891693115057e+01 1.565437912940979004e+00 -7.981233596801757812e-01 4.000000000000000000e+00
-3.426702117919921875e+01 3.553241968154906782e+00 -6.013401150703430176e-01 6.000000000000000000e+00
-2.509176969528197798e+00 2.637251317501068115e-01 -6.760353446006774902e-01 1.400000000000000000e+01
-4.477170181274414062e+01 4.713595867156982422e+00 7.858120799064636230e-01 4.900000000000000000e+01
-2.905052185058594194e+00 3.063586056232451837e-01 -6.744032502174377441e-01 1.400000000000000000e+01
-3.455733299255371094e+00 3.650417327880858820e-01 -6.754638552665710449e-01 1.100000000000000000e+01
-4.493455886840820312e+01 4.754531860351563388e+00 3.953210115432738814e+00 5.400000000000000000e+01
-4.274478912353515625e+00 4.530375599861145020e-01 -6.808027625083923340e-01 1.000000000000000000e+01
-4.483150100708007812e+01 4.759451866149902344e+00 5.535549163818359375e+00 7.600000000000000000e+01
-5.596184253692626953e+00 5.950961112976074219e-01 -6.909991502761840820e-01 1.000000000000000000e+01
-8.091148376464843750e+00 8.618378043174743652e-01 -7.118881344795227051e-01 3.000000000000000000e+00
-3.424645614624022727e+01 3.671981811523437944e+00 -6.012005209922790527e-01 1.300000000000000000e+01
-2.512082338333129883e+00 2.728994786739348810e-01 -6.770706176757812500e-01 1.400000000000000000e+01
-4.479075622558593750e+01 4.873743057250976562e+00 7.864403128623962402e-01 4.900000000000000000e+01
-2.900090694427489790e+00 3.160749673843383789e-01 -6.735034584999084473e-01 1.400000000000000000e+01
-3.454437971115111861e+00 3.771022558212280273e-01 -6.754638552665710449e-01 1.100000000000000000e+01
-4.486619567871093750e+01 4.905723094940186435e+00 3.948678016662598100e+00 5.400000000000000000e+01
-4.276798725128173828e+00 4.683856070041655939e-01 -6.814285516738891602e-01 1.000000000000000000e+01
-4.490143585205078125e+01 4.925437927246093750e+00 5.546273708343505859e+00 7.700000000000000000e+01
-5.598019599914550781e+00 6.150604486465454102e-01 -6.914866566658020020e-01 1.000000000000000000e+01
-8.078187942504882812e+00 8.889861702919006348e-01 -7.110165357589721680e-01 2.000000000000000000e+00
-1.503787136077881037e+01 1.660196423530579057e+00 -7.928897142410278320e-01 4.000000000000000000e+00
-3.419765472412108664e+01 3.787539482116699219e+00 -6.005722284317016602e-01 1.300000000000000000e+01
-2.491916179656981978e+00 2.795131802558898926e-01 -6.718942523002624512e-01 1.400000000000000000e+01
-4.476155090332031250e+01 5.028723239898681641e+00 7.862309217453002930e-01 4.900000000000000000e+01
-2.910588741302489790e+00 3.275036513805388849e-01 -6.762028932571411133e-01 1.400000000000000000e+01
-3.447247982025146040e+00 3.884986042976378839e-01 -6.743189692497253418e-01 1.200000000000000000e+01
-4.488839340209960938e+01 5.066774845123291016e+00 3.952164411544799805e+00 5.400000000000000000e+01
-4.265323162078857422e+00 4.822020530700684149e-01 -6.798641681671142578e-01 9.000000000000000000e+00
-4.486819076538085938e+01 5.080356597900390625e+00 5.544323921203613281e+00 7.600000000000000000e+01
-5.595838546752929688e+00 6.345974206924438477e-01 -6.914866566658020020e-01 1.000000000000000000e+01
-8.071076393127441406e+00 9.167292118072509766e-01 -7.106679081916809082e-01 3.000000000000000000e+00
-1.493276309967041016e+01 1.701373457908629927e+00 -7.876561284065246582e-01 4.000000000000000000e+00
-3.417627716064453125e+01 3.905980110168457031e+00 -6.004325747489929199e-01 1.300000000000000000e+01
-2.502439737319945845e+00 2.895421385765076239e-01 -6.750000715255737305e-01 1.500000000000000000e+01
-4.475564193725585938e+01 5.186320304870604581e+00 7.864403128623962402e-01 4.900000000000000000e+01
-2.907492160797119141e+00 3.374368548393250067e-01 -6.757529377937316895e-01 1.300000000000000000e+01
-3.443920850753784180e+00 4.003027081489562988e-01 -6.739373803138732910e-01 1.100000000000000000e+01
-4.485064315795897727e+01 5.221129894256591797e+00 3.950421094894409180e+00 5.400000000000000000e+01
-4.255765438079833984e+00 4.961728453636168878e-01 -6.786127090454101562e-01 1.000000000000000000e+01
-4.488370132446289062e+01 5.240858554840087891e+00 5.548467636108398438e+00 7.700000000000000000e+01
-5.593589305877686435e+00 6.541267037391662598e-01 -6.914866566658020020e-01 1.000000000000000000e+01
-8.026270866394042969e+00 9.400299191474914551e-01 -7.070074081420898438e-01 2.000000000000000000e+00
-3.416044998168945312e+01 4.025019645690917969e+00 -6.003977060317993164e-01 1.900000000000000000e+01
-2.507116317749022993e+00 2.993993163108826239e-01 -6.765530109405517578e-01 1.400000000000000000e+01
-4.476412963867188211e+01 5.353647708892822266e+00 7.869290113449096680e-01 4.900000000000000000e+01
-2.898496150970458984e+00 3.471640646457672119e-01 -6.739533543586730957e-01 1.200000000000000000e+01
-3.454126119613647017e+00 4.143255352973937988e-01 -6.762270927429199219e-01 1.100000000000000000e+01
-4.487076950073242188e+01 5.390233516693115234e+00 3.953907489776610884e+00 5.400000000000000000e+01
-4.255879878997802734e+00 5.120036005973815918e-01 -6.789255738258361816e-01 1.000000000000000000e+01
-4.486024856567382812e+01 5.404855728149414062e+00 5.547979831695556641e+00 7.700000000000000000e+01
-5.591154098510742188e+00 6.746238470077514648e-01 -6.914866566658020020e-01 1.000000000000000000e+01
-8.050463676452636719e+00 9.727875590324401855e-01 -7.094477415084838867e-01 3.000000000000000000e+00
-3.415539169311522727e+01 4.151403427124023438e+00 -6.005722284317016602e-01 1.900000000000000000e+01
-2.513725519180297852e+00 3.090920448303223211e-01 -6.786235570907592773e-01 1.400000000000000000e+01
-4.476501464843750000e+01 5.512315273284912109e+00 7.872780561447143555e-01 4.900000000000000000e+01
-2.885662078857421875e+00 3.558485507965087891e-01 -6.712539196014404297e-01 1.300000000000000000e+01
-3.433174371719359907e+00 4.239739477634429932e-01 -6.724109053611755371e-01 1.100000000000000000e+01
-4.486354446411132812e+01 5.548295974731445312e+00 3.954953193664550781e+00 5.400000000000000000e+01
-4.256027221679688388e+00 5.270990729331970215e-01 -6.792384386062622070e-01 1.000000000000000000e+01
-4.486278152465820312e+01 5.564101696014404297e+00 5.550661087036132812e+00 7.700000000000000000e+01
-5.563155651092529297e+00 6.909557580947875977e-01 -6.883180737495422363e-01 1.000000000000000000e+01
-8.054927825927734375e+00 1.001866698265075906e+00 -7.101449966430664062e-01 2.000000000000000000e+00
-3.414863204956054688e+01 4.271595478057861328e+00 -6.007118225097656250e-01 1.300000000000000000e+01
-2.493520498275756836e+00 3.150049149990081787e-01 -6.734471321105957031e-01 1.600000000000000000e+01
-4.481394195556641336e+01 5.669263839721679688e+00 7.884648442268371582e-01 4.900000000000000000e+01
-2.890266180038452148e+00 3.661505579948424738e-01 -6.726036667823791504e-01 1.400000000000000000e+01
-3.420063495635985884e+00 4.338739514350891113e-01 -6.701211929321289062e-01 1.200000000000000000e+01
-4.487257003784179688e+01 5.700553417205811435e+00 3.957393646240233931e+00 5.400000000000000000e+01
-4.254255771636962891e+00 5.412096977233886719e-01 -6.792384386062622070e-01 9.000000000000000000e+00
-4.485195922851563211e+01 5.713844776153563565e+00 5.551636219024658203e+00 7.700000000000000000e+01
-5.566741466522216797e+00 7.101536393165588379e-01 -6.890492439270019531e-01 1.000000000000000000e+01
-8.017963409423828125e+00 1.024280190467834029e+00 -7.071816921234130859e-01 2.000000000000000000e+00
-1.470944595336914062e+01 1.884323477745055930e+00 -7.771889567375183105e-01 4.000000000000000000e+00
-3.408667755126953125e+01 4.378698348999023438e+00 -5.998741388320922852e-01 1.300000000000000000e+01
-2.492405891418457031e+00 3.237069845199584961e-01 -6.734471321105957031e-01 1.500000000000000000e+01
-4.480577850341796875e+01 5.827206611633300781e+00 7.886742353439331055e-01 4.900000000000000000e+01
-2.902497291564940962e+00 3.779988884925841730e-01 -6.757529377937316895e-01 1.300000000000000000e+01
-3.424368619918822798e+00 4.465712010860443115e-01 -6.712660193443298340e-01 1.200000000000000000e+01
-4.485239791870117188e+01 5.857153415679931641e+00 3.957393646240233931e+00 5.400000000000000000e+01
-4.240588188171386719e+00 5.545197129249572754e-01 -6.773612499237060547e-01 9.000000000000000000e+00
-4.487701034545897727e+01 5.876300334930419922e+00 5.557241916656494141e+00 7.700000000000000000e+01
-5.560292243957520419e+00 7.290647029876708984e-01 -6.885617971420288086e-01 1.000000000000000000e+01
-8.004462242126464844e+00 1.050965070724487083e+00 -7.063101530075073242e-01 2.000000000000000000e+00
-1.480178737640381037e+01 1.948692321777343972e+00 -7.824225425720214844e-01 4.000000000000000000e+00
-3.402360534667968750e+01 4.491375446319580078e+00 -5.990363955497741699e-01 1.900000000000000000e+01
-2.489345788955688032e+00 3.321496546268463135e-01 -6.729295253753662109e-01 1.500000000000000000e+01
-4.479705810546875000e+01 5.985161304473876953e+00 7.888836860656738281e-01 4.900000000000000000e+01
-2.893434047698975053e+00 3.870945572853087824e-01 -6.739533543586730957e-01 1.200000000000000000e+01
-3.436409950256348100e+00 4.603464603424072266e-01 -6.739373803138732910e-01 1.100000000000000000e+01
-4.486327362060546875e+01 6.017920017242431641e+00 3.960182666778564009e+00 5.400000000000000000e+01
-4.246458053588867188e+00 5.703706145286560059e-01 -6.786127090454101562e-01 9.000000000000000000e+00
-4.486409378051757812e+01 6.033973217010498047e+00 5.558217048645020419e+00 7.700000000000000000e+01
-5.557713031768798828e+00 7.484692931175231934e-01 -6.885617971420288086e-01 1.200000000000000000e+01
-8.020489692687988281e+00 1.081562042236327903e+00 -7.080532312393188477e-01 2.000000000000000000e+00
-1.469593238830566051e+01 1.986968040466309038e+00 -7.771889567375183105e-01 4.000000000000000000e+00
-3.401366424560546875e+01 4.610918521881104404e+00 -5.991411209106445312e-01 1.900000000000000000e+01
-2.495827198028564009e+00 3.418857753276824951e-01 -6.750000715255737305e-01 1.400000000000000000e+01
-4.477589035034179688e+01 6.141495704650878906e+00 7.888836860656738281e-01 4.900000000000000000e+01
-2.872759103775023970e+00 3.945406973361968994e-01 -6.694543361663818359e-01 1.200000000000000000e+01
-4.497749710083007812e+01 6.177146434783936435e+00 2.379297256469727007e+00 3.500000000000000000e+01
-3.438672065734862837e+00 4.728738665580750067e-01 -6.747006177902221680e-01 1.200000000000000000e+01
-4.487357711791992188e+01 6.178833961486816406e+00 3.962971687316894975e+00 5.400000000000000000e+01
-4.238570690155029297e+00 5.843806862831115723e-01 -6.776741147041320801e-01 7.000000000000000000e+00
-4.487028884887695312e+01 6.194341659545898438e+00 5.561629295349121094e+00 7.700000000000000000e+01
-5.553100109100341797e+00 7.675929665565490723e-01 -6.883180737495422363e-01 1.200000000000000000e+01
-7.989035606384277344e+00 1.105728030204772949e+00 -7.056128978729248047e-01 1.000000000000000000e+00
-3.397359466552733664e+01 4.726313591003417969e+00 -5.987222790718078613e-01 1.900000000000000000e+01
-2.492705345153809038e+00 3.503268957138062079e-01 -6.744824051856994629e-01 1.500000000000000000e+01
-4.477794265747070312e+01 6.301099300384520596e+00 7.893025279045104980e-01 4.900000000000000000e+01
-2.877153396606444868e+00 4.053817391395568848e-01 -6.708040237426757812e-01 1.200000000000000000e+01
-4.481721878051757812e+01 6.314603328704833984e+00 2.371970176696776900e+00 3.500000000000000000e+01
-3.429224491119385210e+00 4.837771952152252197e-01 -6.731741428375244141e-01 1.300000000000000000e+01
-4.487146377563477273e+01 6.338220596313476562e+00 3.964714765548706055e+00 5.400000000000000000e+01
-4.240417003631591797e+00 5.997257232666015625e-01 -6.782998442649841309e-01 7.000000000000000000e+00
-4.488180923461914062e+01 6.355662345886229581e+00 5.565773010253906250e+00 7.800000000000000000e+01
-5.526802062988281250e+00 7.836281657218933105e-01 -6.853932142257690430e-01 1.200000000000000000e+01
-7.973291873931884766e+00 1.131927967071532981e+00 -7.045670151710510254e-01 1.000000000000000000e+00
-1.448396968841552912e+01 2.061374187469481978e+00 -7.667217850685119629e-01 4.000000000000000000e+00
-3.399252319335938211e+01 4.849958896636962891e+00 -5.993505716323852539e-01 1.900000000000000000e+01
-2.489555358886719194e+00 3.587504029273986816e-01 -6.739647984504699707e-01 1.400000000000000000e+01
-4.478338623046875000e+01 6.461362838745117188e+00 7.897912263870239258e-01 4.900000000000000000e+01
-2.887293100357056108e+00 4.170941412448883057e-01 -6.735034584999084473e-01 1.300000000000000000e+01
-4.482257843017578125e+01 6.475004196166992188e+00 2.373435497283935991e+00 3.500000000000000000e+01
-3.413913488388061968e+00 4.937772452831267755e-01 -6.705027818679809570e-01 1.200000000000000000e+01
-4.488455581665039062e+01 6.499952793121337891e+00 3.967852354049683061e+00 5.400000000000000000e+01
-4.226567745208740234e+00 6.128231883049011230e-01 -6.764226555824279785e-01 7.000000000000000000e+00
-4.488488769531250000e+01 6.515997886657714844e+00 5.568941593170166016e+00 3.900000000000000000e+01
-5.529926300048828125e+00 8.037721514701843262e-01 -6.861243844032287598e-01 1.200000000000000000e+01
-7.969292163848876953e+00 1.159753084182739036e+00 -7.045670151710510254e-01 1.000000000000000000e+00
-3.398527908325195312e+01 4.970032215118408203e+00 -5.995250940322875977e-01 1.300000000000000000e+01
-2.478732109069824219e+00 3.660273253917694092e-01 -6.713765859603881836e-01 1.600000000000000000e+01
-4.478033828735352273e+01 6.620571613311767578e+00 7.901402711868286133e-01 4.900000000000000000e+01
-2.883891820907593218e+00 4.268847703933715820e-01 -6.730535626411437988e-01 1.300000000000000000e+01
-4.484201049804688211e+01 6.645685195922851562e+00 2.375738382339477983e+00 3.500000000000000000e+01
-3.412169218063354048e+00 5.056909918785095215e-01 -6.705027818679809570e-01 1.200000000000000000e+01
-4.486553573608397727e+01 6.657174110412597656e+00 3.968200922012329102e+00 5.400000000000000000e+01
-4.226356983184813565e+00 6.278631687164306641e-01 -6.767355203628540039e-01 9.000000000000000000e+00
-4.488935852050781250e+01 6.676723957061767578e+00 5.572353839874267578e+00 7.800000000000000000e+01
-5.517269611358642578e+00 8.216083645820617676e-01 -6.849057078361511230e-01 1.200000000000000000e+01
-7.941547870635986328e+00 1.184038400650023970e+00 -7.024753093719482422e-01 2.000000000000000000e+00
-1.446922588348389027e+01 2.162440299987792969e+00 -7.667217850685119629e-01 4.000000000000000000e+00
-3.395783615112304688e+01 5.087151527404785156e+00 -5.993505716323852539e-01 1.900000000000000000e+01
-2.483169794082642046e+00 3.755441308021544855e-01 -6.729295253753662109e-01 1.400000000000000000e+01
-4.475695800781250000e+01 6.776843547821044922e+00 7.901402711868286133e-01 4.900000000000000000e+01
-2.876604080200194868e+00 4.360725879669188898e-01 -6.717038750648498535e-01 1.300000000000000000e+01
-4.483828735351563211e+01 6.805169582366943359e+00 2.376785039901732954e+00 3.500000000000000000e+01
-3.412324190139770952e+00 5.178931951522827148e-01 -6.708844304084777832e-01 1.100000000000000000e+01
-4.487747955322266336e+01 6.819131374359130859e+00 3.971338510513306108e+00 5.400000000000000000e+01
-4.220233917236328125e+00 6.420179009437561035e-01 -6.761097311973571777e-01 9.000000000000000000e+00
-4.488932800292968750e+01 6.836963176727294922e+00 5.575278759002686435e+00 7.800000000000000000e+01
-5.518292903900145596e+00 8.414607048034667969e-01 -6.853932142257690430e-01 1.200000000000000000e+01
-7.941305637359619141e+00 1.212353706359863059e+00 -7.028239369392395020e-01 1.000000000000000000e+00
-1.446158885955811080e+01 2.212934017181396040e+00 -7.667217850685119629e-01 4.000000000000000000e+00
-3.392603683471679688e+01 5.203533172607421875e+00 -5.991061925888061523e-01 1.900000000000000000e+01
-2.487571239471435991e+00 3.850963711738585871e-01 -6.744824051856994629e-01 1.500000000000000000e+01
-4.480812072753906250e+01 6.944671630859375000e+00 7.914666533470153809e-01 5.000000000000000000e+01
-2.857733011245727983e+00 4.434219598770142157e-01 -6.676547527313232422e-01 1.300000000000000000e+01
-4.481425857543945312e+01 6.961642742156982422e+00 2.376785039901732954e+00 3.500000000000000000e+01
-3.418255567550659180e+00 5.310067534446716309e-01 -6.724109053611755371e-01 1.200000000000000000e+01
-4.489278030395507812e+01 6.981864929199218750e+00 3.974824905395507812e+00 5.400000000000000000e+01
-4.204303741455078125e+00 6.546180248260498047e-01 -6.739196777343750000e-01 1.000000000000000000e+01
-4.488087844848632812e+01 6.996060371398925781e+00 5.577228546142578125e+00 7.800000000000000000e+01
-5.513360500335693359e+00 8.604118824005126953e-01 -6.851494312286376953e-01 1.000000000000000000e+01
-7.948836326599121094e+00 1.241912007331847922e+00 -7.038697600364685059e-01 1.000000000000000000e+00
-1.435511589050292969e+01 2.247951269149779829e+00 -7.614881396293640137e-01 4.000000000000000000e+00
-3.393927383422852273e+01 5.326886653900145596e+00 -5.996646881103515625e-01 1.300000000000000000e+01
-2.493844032287598100e+00 3.949860930442810059e-01 -6.765530109405517578e-01 1.600000000000000000e+01
-4.480730438232421875e+01 7.104796886444091797e+00 7.918854951858520508e-01 5.000000000000000000e+01
-2.865791082382202148e+00 4.549221992492675781e-01 -6.699042320251464844e-01 1.200000000000000000e+01
-4.481335449218750000e+01 7.121793270111083984e+00 2.378041267395019975e+00 3.500000000000000000e+01
-3.406686544418334961e+00 5.413947701454162598e-01 -6.705027818679809570e-01 1.200000000000000000e+01
-4.489961624145507812e+01 7.143536090850830078e+00 3.977613687515258789e+00 5.400000000000000000e+01
-4.209796428680419922e+00 6.705326437950134277e-01 -6.751711368560791016e-01 1.000000000000000000e+01
-4.488558959960938211e+01 7.157370090484619141e+00 5.580884933471679688e+00 7.800000000000000000e+01
-5.494641304016113281e+00 8.771484494209289551e-01 -6.831995248794555664e-01 1.200000000000000000e+01
-7.920843601226806641e+00 1.265877962112426980e+00 -7.017780542373657227e-01 1.000000000000000000e+00
-3.388098526000977273e+01 5.438985347747802734e+00 -5.989665985107421875e-01 1.300000000000000000e+01
-2.477194070816040039e+00 4.012178778648375910e-01 -6.724118590354919434e-01 1.600000000000000000e+01
-4.483355331420897727e+01 7.269481658935546875e+00 7.927930355072021484e-01 5.000000000000000000e+01
-2.864185571670531782e+00 4.649229049682617188e-01 -6.699042320251464844e-01 1.300000000000000000e+01
-4.478822326660156250e+01 7.278177261352539062e+00 2.378041267395019975e+00 3.500000000000000000e+01
-3.391211271286011186e+00 5.510787367820739746e-01 -6.678314805030822754e-01 1.100000000000000000e+01
-4.490587234497070312e+01 7.305340290069580078e+00 3.980402708053588867e+00 5.400000000000000000e+01
-4.211329460144042969e+00 6.858585476875305176e-01 -6.757968664169311523e-01 1.000000000000000000e+01
-4.489755630493164062e+01 7.320075988769531250e+00 5.585515975952148438e+00 7.900000000000000000e+01
-5.479791164398193359e+00 8.944042921066284180e-01 -6.817371249198913574e-01 1.000000000000000000e+01
-7.898679733276367188e+00 1.290627479553223100e+00 -7.002092599868774414e-01 2.000000000000000000e+00
-1.433907222747802912e+01 2.348113059997559038e+00 -7.614881396293640137e-01 4.000000000000000000e+00
-3.384600448608397727e+01 5.554627895355224609e+00 -5.986873507499694824e-01 1.300000000000000000e+01
-2.471966743469237837e+00 4.092314243316649836e-01 -6.713765859603881836e-01 1.500000000000000000e+01
-4.479212188720703125e+01 7.423320293426513672e+00 7.925137877464294434e-01 5.000000000000000000e+01
-2.866390228271483931e+00 4.755558669567108154e-01 -6.708040237426757812e-01 1.200000000000000000e+01
-4.484923553466796875e+01 7.448871612548828125e+00 2.382646799087523970e+00 3.500000000000000000e+01
-3.400887250900268999e+00 5.648428797721862793e-01 -6.701211929321289062e-01 1.100000000000000000e+01
-4.485651397705078125e+01 7.458125114440917969e+00 3.978311061859130859e+00 5.400000000000000000e+01
-4.199166774749755859e+00 6.989330053329467773e-01 -6.742325425148010254e-01 1.000000000000000000e+01
-4.488739776611328125e+01 7.479362964630126953e+00 5.587465763092041016e+00 7.900000000000000000e+01
-5.486425876617431641e+00 9.151599407196044922e-01 -6.829558014869689941e-01 1.200000000000000000e+01
-7.882335662841796875e+00 1.316222310066222922e+00 -6.991633772850036621e-01 2.000000000000000000e+00
-3.379091262817382812e+01 5.666785717010498047e+00 -5.980590581893920898e-01 1.300000000000000000e+01
-2.466713428497314009e+00 4.172133505344390869e-01 -6.703413128852844238e-01 1.600000000000000000e+01
-4.477382659912108664e+01 7.580964088439941406e+00 7.926533818244934082e-01 5.000000000000000000e+01
-2.868555307388306108e+00 4.862098395824431818e-01 -6.717038750648498535e-01 1.300000000000000000e+01
-4.483083724975585938e+01 7.606715679168701172e+00 2.383065462112427202e+00 3.600000000000000000e+01
-3.396959304809569868e+00 5.763823390007019043e-01 -6.697395443916320801e-01 1.200000000000000000e+01
-4.487342071533203125e+01 7.621998310089111328e+00 3.982145786285399947e+00 5.400000000000000000e+01
-4.186964511871337891e+00 7.119309306144714355e-01 -6.726682186126708984e-01 1.000000000000000000e+01
-4.490015411376953125e+01 7.642665863037109375e+00 5.592340469360351562e+00 7.900000000000000000e+01
-5.502767086029052734e+00 9.376400113105773926e-01 -6.853932142257690430e-01 1.200000000000000000e+01
-7.852160930633544922e+00 1.339373588562011941e+00 -6.968973278999328613e-01 1.000000000000000000e+00
-3.383005523681641336e+01 5.794831752777099609e+00 -5.991061925888061523e-01 1.300000000000000000e+01
-2.472856760025023970e+00 4.271365404129027765e-01 -6.724118590354919434e-01 1.600000000000000000e+01
-4.479043960571289062e+01 7.744703292846679688e+00 7.934213280677795410e-01 5.000000000000000000e+01
-2.851479291915893999e+00 4.935610890388488770e-01 -6.681046485900878906e-01 1.300000000000000000e+01
-4.483549880981445312e+01 7.768613815307617188e+00 2.384740114212036133e+00 3.600000000000000000e+01
-3.391057729721068892e+00 5.875660777091979980e-01 -6.689763665199279785e-01 1.200000000000000000e+01
-4.488580322265625000e+01 7.785399436950683594e+00 3.985632181167602983e+00 5.400000000000000000e+01
-4.192238807678222656e+00 7.278935313224792480e-01 -6.739196777343750000e-01 1.000000000000000000e+01
-4.488689422607421875e+01 7.801729679107666016e+00 5.594046592712402344e+00 7.900000000000000000e+01
-5.468169212341308594e+00 9.513981938362121582e-01 -6.814933419227600098e-01 1.200000000000000000e+01
-7.867065906524658203e+00 1.370193243026732954e+00 -6.986404061317443848e-01 1.000000000000000000e+00
-3.384113693237304688e+01 5.918397426605224609e+00 -5.996646881103515625e-01 1.300000000000000000e+01
-2.484668254852294922e+00 4.381140470504760742e-01 -6.760353446006774902e-01 1.400000000000000000e+01
-4.480251693725585938e+01 7.907955646514892578e+00 7.941194176673889160e-01 5.000000000000000000e+01
-2.849739074707030806e+00 5.035116076469421387e-01 -6.681046485900878906e-01 1.400000000000000000e+01
-4.482777786254882812e+01 7.928550243377686435e+00 2.385787010192871094e+00 3.600000000000000000e+01
-3.390919446945189986e+00 5.997413992881774902e-01 -6.693579554557800293e-01 1.100000000000000000e+01
-4.493290328979492188e+01 7.955231666564941406e+00 3.992255926132202148e+00 5.400000000000000000e+01
-4.179947376251220703e+00 7.407991886138916016e-01 -6.723553538322448730e-01 9.000000000000000000e+00
-4.488870620727539062e+01 7.963567733764648438e+00 5.597702503204345703e+00 7.900000000000000000e+01
-5.460905551910400391e+00 9.697856903076171875e-01 -6.810058951377868652e-01 1.200000000000000000e+01
-7.826925754547119141e+00 1.391369223594665971e+00 -6.955028176307678223e-01 1.000000000000000000e+00
-1.410825920104979936e+01 2.513063669204711914e+00 -7.510209679603576660e-01 4.000000000000000000e+00
-3.367459869384766336e+01 6.010487556457520419e+00 -5.970817208290100098e-01 1.300000000000000000e+01
-2.467913150787353960e+00 4.440476894378662109e-01 -6.718942523002624512e-01 1.400000000000000000e+01
-4.480612945556641336e+01 8.069969177246093750e+00 7.946778535842895508e-01 5.000000000000000000e+01
-2.855635404586791992e+00 5.148390531539916992e-01 -6.699042320251464844e-01 1.300000000000000000e+01
-4.481555175781250000e+01 8.087818145751953125e+00 2.386624336242675781e+00 3.600000000000000000e+01
-3.377213001251221147e+00 6.094822287559509277e-01 -6.670682430267333984e-01 1.100000000000000000e+01
-4.483819961547852273e+01 8.099986076354980469e+00 3.986329317092895952e+00 5.400000000000000000e+01
-4.181223392486572266e+00 7.560883760452270508e-01 -6.729810833930969238e-01 1.000000000000000000e+01
-4.488798141479492188e+01 8.125160217285156250e+00 5.601115226745604581e+00 7.900000000000000000e+01
-5.463346958160400391e+00 9.899036288261413574e-01 -6.817371249198913574e-01 1.200000000000000000e+01
-7.818100452423095703e+00 1.417970657348633035e+00 -6.951541900634765625e-01 1.000000000000000000e+00
-1.400114727020264027e+01 2.544439792633057085e+00 -7.457873821258544922e-01 4.000000000000000000e+00
-3.375177764892578125e+01 6.145909309387207031e+00 -5.988269448280334473e-01 1.300000000000000000e+01
-2.460805416107178178e+00 4.507544338703156073e-01 -6.703413128852844238e-01 1.400000000000000000e+01
-4.481989288330078125e+01 8.217904090881347656e+00 7.953759431838989258e-01 5.000000000000000000e+01
-2.859754085540771040e+00 5.248630642890930176e-01 -6.712539196014404297e-01 1.200000000000000000e+01
-4.483706665039063211e+01 8.237231254577636719e+00 2.389136314392089844e+00 3.600000000000000000e+01
-3.367557764053345171e+00 6.186701059341430664e-01 -6.655417680740356445e-01 1.100000000000000000e+01
-4.487915420532227273e+01 8.253060340881347656e+00 3.992255926132202148e+00 5.400000000000000000e+01
-4.171056747436523438e+00 7.677899003028869629e-01 -6.717295646667480469e-01 9.000000000000000000e+00
-4.489347076416016336e+01 8.271895408630371094e+00 5.605014801025390625e+00 8.000000000000000000e+01
-5.456305980682373047e+00 1.006342291831969993e+00 -6.812496185302734375e-01 1.000000000000000000e+01
-7.809688568115234375e+00 1.441801548004149947e+00 -6.948055624961853027e-01 1.000000000000000000e+00
-1.399308490753174006e+01 2.588413000106811968e+00 -7.457873821258544922e-01 4.000000000000000000e+00
-3.372443771362304688e+01 6.250455379486083984e+00 -5.986873507499694824e-01 1.300000000000000000e+01
-2.461115837097167969e+00 4.596962034702301025e-01 -6.708589792251586914e-01 1.500000000000000000e+01
-4.481845474243164062e+01 8.379449844360351562e+00 7.958646416664123535e-01 5.000000000000000000e+01
-2.846411466598511186e+00 5.326914191246032715e-01 -6.685545444488525391e-01 1.200000000000000000e+01
-4.484730148315429688e+01 8.401045799255371094e+00 2.391229867935181108e+00 3.600000000000000000e+01
-3.376955747604370117e+00 6.325901746749877930e-01 -6.678314805030822754e-01 1.200000000000000000e+01
-4.488140487670897727e+01 8.415542602539062500e+00 3.995044946670531782e+00 5.400000000000000000e+01
-4.152819156646729404e+00 7.794297933578491211e-01 -6.692266464233398438e-01 9.000000000000000000e+00
-4.488773345947266336e+01 8.432950019836425781e+00 5.607939720153808594e+00 8.000000000000000000e+01
-5.448858261108398438e+00 1.024648427963257058e+00 -6.807621717453002930e-01 1.000000000000000000e+01
-7.781112194061279297e+00 1.464630961418152078e+00 -6.927138566970825195e-01 1.000000000000000000e+00
-3.377315139770507812e+01 6.381503582000732422e+00 -5.999439358711242676e-01 1.300000000000000000e+01
-2.461394071578979048e+00 4.686456322669982910e-01 -6.713765859603881836e-01 1.600000000000000000e+01
-4.481643295288085938e+01 8.541085243225097656e+00 7.963532805442810059e-01 5.000000000000000000e+01
-2.834963560104370117e+00 5.407982468605041504e-01 -6.663050055503845215e-01 1.300000000000000000e+01
-4.484909439086914062e+01 8.563534736633300781e+00 2.392904520034790039e+00 3.600000000000000000e+01
-3.382440805435181108e+00 6.458469629287719727e-01 -6.693579554557800293e-01 1.100000000000000000e+01
-4.488306808471679688e+01 8.578141212463378906e+00 3.997833967208861861e+00 5.400000000000000000e+01
-4.146193027496337891e+00 7.931787967681884766e-01 -6.686009168624877930e-01 1.000000000000000000e+01
-4.488921737670897727e+01 8.595560073852539062e+00 5.611839294433593750e+00 8.000000000000000000e+01
-5.441349029541015625e+00 1.042914867401123047e+00 -6.802746653556823730e-01 1.000000000000000000e+01
-7.760298728942871094e+00 1.488780140876770020e+00 -6.913193464279174805e-01 1.000000000000000000e+00
-3.368783569335938211e+01 6.487254619598388672e+00 -5.988269448280334473e-01 1.300000000000000000e+01
-2.461639642715454102e+00 4.776026010513306219e-01 -6.718942523002624512e-01 1.400000000000000000e+01
-4.479027175903320312e+01 8.698234558105468750e+00 7.964231371879577637e-01 5.000000000000000000e+01
-2.833058595657349077e+00 5.506908297538757324e-01 -6.663050055503845215e-01 1.400000000000000000e+01
-4.486205673217772727e+01 8.728426933288574219e+00 2.395207405090332031e+00 3.600000000000000000e+01
-3.374384403228760210e+00 6.565250754356384277e-01 -6.682131290435791016e-01 1.200000000000000000e+01
-4.485285186767578125e+01 8.734760284423828125e+00 3.997833967208861861e+00 5.400000000000000000e+01
-4.155032157897949219e+00 8.099144697189331055e-01 -6.704781055450439453e-01 1.000000000000000000e+01
-4.491349411010742188e+01 8.762844085693359375e+00 5.618664264678955078e+00 8.000000000000000000e+01
-5.429882049560546875e+00 1.060380578041077104e+00 -6.792997121810913086e-01 1.000000000000000000e+01
-7.758965492248535156e+00 1.516623973846435991e+00 -6.916679739952087402e-01 1.000000000000000000e+00
-3.357472229003906250e+01 6.587098121643066406e+00 -5.972213745117187500e-01 1.300000000000000000e+01
-2.454102516174315962e+00 4.859253764152526855e-01 -6.703413128852844238e-01 1.600000000000000000e+01
-4.479577255249022727e+01 8.877926826477050781e+00 7.971212267875671387e-01 5.100000000000000000e+01
-2.830923318862915039e+00 5.615648627281188965e-01 -6.663050055503845215e-01 1.200000000000000000e+01
-4.482584762573242188e+01 8.892018318176269531e+00 2.394998073577880859e+00 3.600000000000000000e+01
-3.356433391571044922e+00 6.664181947708129883e-01 -6.651601791381835938e-01 1.200000000000000000e+01
-4.490496444702147727e+01 8.924005508422851562e+00 4.005503654479979581e+00 5.400000000000000000e+01
-4.155766487121582031e+00 8.266333937644958496e-01 -6.711038351058959961e-01 9.000000000000000000e+00
-4.489898681640625000e+01 8.939109802246093750e+00 5.621101379394531250e+00 8.000000000000000000e+01
-5.417983531951904297e+00 1.079670071601867898e+00 -6.783247590065002441e-01 1.000000000000000000e+01
-7.737453460693359375e+00 1.543287277221679910e+00 -6.902734637260437012e-01 2.000000000000000000e+00
-1.385668087005615057e+01 2.768838167190552202e+00 -7.405537962913513184e-01 4.000000000000000000e+00
-3.370604324340820312e+01 6.747368335723876953e+00 -6.000137329101562500e-01 6.000000000000000000e+00
-2.446710109710692915e+00 4.933432936668395996e-01 -6.687884330749511719e-01 1.400000000000000000e+01
-4.478803253173828125e+01 9.038986206054687500e+00 7.975400686264038086e-01 5.100000000000000000e+01
-2.846137285232543945e+00 5.749158859252929688e-01 -6.703541278839111328e-01 1.300000000000000000e+01
-4.481253051757813211e+01 9.060212135314941406e+00 2.396044731140137163e+00 3.600000000000000000e+01
-3.354086637496947798e+00 6.781302690505981445e-01 -6.651601791381835938e-01 1.200000000000000000e+01
-4.492040634155272727e+01 9.090183258056640625e+00 4.009686946868895596e+00 5.400000000000000000e+01
-4.141239643096923828e+00 8.387818932533264160e-01 -6.692266464233398438e-01 1.000000000000000000e+01
-4.489474487304688211e+01 9.101304054260253906e+00 5.624514102935791016e+00 8.100000000000000000e+01
-5.420018196105957031e+00 1.099760055541991965e+00 -6.790559887886047363e-01 1.200000000000000000e+01
-7.720304012298583984e+00 1.567907333374022993e+00 -6.892276406288146973e-01 2.000000000000000000e+00
-3.369012451171875000e+01 6.866580963134765625e+00 -6.001533269882202148e-01 1.300000000000000000e+01
-2.439296007156372070e+00 5.007155537605285645e-01 -6.672354936599731445e-01 1.500000000000000000e+01
-4.478754806518554688e+01 9.201709747314453125e+00 7.980985641479492188e-01 5.100000000000000000e+01
-2.842204332351685014e+00 5.844547152519226074e-01 -6.699042320251464844e-01 1.300000000000000000e+01
-4.486049270629882812e+01 9.224857330322265625e+00 2.400231599807738814e+00 3.600000000000000000e+01
-3.349776268005371094e+00 6.894383430480957031e-01 -6.647785305976867676e-01 1.100000000000000000e+01
-4.488840484619141336e+01 9.246929168701171875e+00 4.009686946868895596e+00 5.400000000000000000e+01
-4.124743461608886719e+00 8.504401445388793945e-01 -6.670365333557128906e-01 1.000000000000000000e+01
-4.490158462524414062e+01 9.265984535217285156e+00 5.629388809204101562e+00 4.000000000000000000e+01
-5.420034408569335938e+00 1.119475841522217019e+00 -6.795434355735778809e-01 1.200000000000000000e+01
-7.703077316284179688e+00 1.592426657676696999e+00 -6.881817579269409180e-01 2.000000000000000000e+00
-1.373922538757324041e+01 2.845256805419921875e+00 -7.353202104568481445e-01 4.000000000000000000e+00
-3.365028381347656250e+01 6.980889797210693359e+00 -5.998741388320922852e-01 1.300000000000000000e+01
-2.448879480361938032e+00 5.115975737571716309e-01 -6.703413128852844238e-01 1.400000000000000000e+01
-4.479821777343750000e+01 9.366995811462402344e+00 7.988664507865905762e-01 5.100000000000000000e+01
-2.822979927062987837e+00 5.907797217369079590e-01 -6.658551096916198730e-01 1.200000000000000000e+01
-3.366564750671387163e+00 7.051518559455871582e-01 -6.685947179794311523e-01 1.200000000000000000e+01
-4.117883205413818359e+00 8.640217185020446777e-01 -6.664108037948608398e-01 1.000000000000000000e+01
-5.392781734466552734e+00 1.133488655090332031e+00 -6.766185760498046875e-01 1.200000000000000000e+01
-7.699421405792236328e+00 1.619715809822082964e+00 -6.883560419082641602e-01 2.000000000000000000e+00
-1.372920989990234020e+01 2.893198251724243164e+00 -7.353202104568481445e-01 4.000000000000000000e+00
-3.364919281005858664e+01 7.103265285491943359e+00 -6.002929806709289551e-01 1.300000000000000000e+01
-2.448968410491942915e+00 5.205442905426025391e-01 -6.708589792251586914e-01 1.700000000000000000e+01
-2.818994522094727007e+00 6.002243757247924805e-01 -6.654052138328552246e-01 1.400000000000000000e+01
-3.346801519393920898e+00 7.132163643836975098e-01 -6.651601791381835938e-01 1.200000000000000000e+01
-4.122569561004638672e+00 8.800401091575622559e-01 -6.676623225212097168e-01 1.000000000000000000e+01
-5.388792037963867188e+00 1.152306079864501953e+00 -6.766185760498046875e-01 1.200000000000000000e+01
-7.664496421813964844e+00 1.640327572822571023e+00 -6.857413649559020996e-01 1.000000000000000000e+00
-3.360464096069335938e+01 7.216480731964111328e+00 -5.999439358711242676e-01 1.900000000000000000e+01
-2.443359851837158203e+00 5.282731056213378906e-01 -6.698237061500549316e-01 1.600000000000000000e+01
-2.828309774398804155e+00 6.125357151031494141e-01 -6.681046485900878906e-01 1.300000000000000000e+01
-3.342372894287108931e+00 7.244786620140075684e-01 -6.647785305976867676e-01 1.200000000000000000e+01
-4.131054878234863281e+00 8.969399929046630859e-01 -6.695395112037658691e-01 1.000000000000000000e+01
-5.384737014770507812e+00 1.171109437942505105e+00 -6.766185760498046875e-01 1.200000000000000000e+01
-7.666511535644531250e+00 1.668766617774962935e+00 -6.864386200904846191e-01 1.000000000000000000e+00
-3.363785552978516336e+01 7.346539497375488281e+00 -6.009910702705383301e-01 1.300000000000000000e+01
-2.430273532867432085e+00 5.338856577873229980e-01 -6.667178869247436523e-01 1.600000000000000000e+01
-2.828166246414185014e+00 6.223301291465759277e-01 -6.685545444488525391e-01 1.300000000000000000e+01
-3.339951992034912109e+00 7.355583906173706055e-01 -6.647785305976867676e-01 1.200000000000000000e+01
-4.116484165191650391e+00 9.080809354782104492e-01 -6.676623225212097168e-01 1.100000000000000000e+01
-5.375009059906005859e+00 1.187674522399901900e+00 -6.758874058723449707e-01 1.200000000000000000e+01
-7.633699893951416016e+00 1.688157558441162109e+00 -6.839982867240905762e-01 1.000000000000000000e+00
-1.360119056701659979e+01 3.012820959091186968e+00 -7.300865650177001953e-01 4.000000000000000000e+00
-3.366016006469727273e+01 7.468441963195800781e+00 -6.018287539482116699e-01 1.300000000000000000e+01
-2.428395032882689986e+00 5.423656105995178223e-01 -6.667178869247436523e-01 1.500000000000000000e+01
-2.818369626998900923e+00 6.304967403411865234e-01 -6.667549014091491699e-01 1.300000000000000000e+01
-3.341195821762084961e+00 7.480704188346862793e-01 -6.655417680740356445e-01 1.200000000000000000e+01
-4.092086315155029297e+00 9.176897406578063965e-01 -6.642207503318786621e-01 1.000000000000000000e+01
-5.368893623352050781e+00 1.205994486808777078e+00 -6.756436228752136230e-01 1.200000000000000000e+01
-7.619985103607177734e+00 1.713045835494994895e+00 -6.833010315895080566e-01 1.000000000000000000e+00
-3.368850708007813211e+01 7.598211288452148438e+00 -6.028060913085937500e-01 1.300000000000000000e+01
-2.432138919830321822e+00 5.521219968795776367e-01 -6.682707667350769043e-01 1.600000000000000000e+01
-2.808550834655762163e+00 6.386025547981262207e-01 -6.649553179740905762e-01 1.300000000000000000e+01
-3.330906867980957031e+00 7.579863071441650391e-01 -6.640152931213378906e-01 1.300000000000000000e+01
-4.098488330841063565e+00 9.341631531715393066e-01 -6.657850742340087891e-01 1.000000000000000000e+01
-5.353039264678955078e+00 1.222077131271362083e+00 -6.741812229156494141e-01 1.200000000000000000e+01
-7.621728420257568359e+00 1.741409301757812944e+00 -6.839982867240905762e-01 1.000000000000000000e+00
-3.356431961059570312e+01 7.693421363830566406e+00 -6.010608673095703125e-01 1.300000000000000000e+01
-2.432079076766968218e+00 5.610426664352416992e-01 -6.687884330749511719e-01 1.800000000000000000e+01
-2.810101985931396040e+00 6.492797732353210449e-01 -6.658551096916198730e-01 1.300000000000000000e+01
-3.332066297531127930e+00 7.704933285713195801e-01 -6.647785305976867676e-01 1.300000000000000000e+01
-4.106749057769775391e+00 9.511380791664123535e-01 -6.676623225212097168e-01 1.000000000000000000e+01
-5.329403400421142578e+00 1.236269593238831010e+00 -6.717438101768493652e-01 1.200000000000000000e+01
-7.592314243316650391e+00 1.762596726417541948e+00 -6.819065213203430176e-01 1.000000000000000000e+00
-3.353726196289063211e+01 7.810535430908203125e+00 -6.010608673095703125e-01 2.000000000000000000e+01
-2.428324460983275923e+00 5.686641335487365723e-01 -6.682707667350769043e-01 2.100000000000000000e+01
-2.809830665588378906e+00 6.590397953987121582e-01 -6.663050055503845215e-01 1.400000000000000000e+01
-3.316113710403441939e+00 7.783980965614318848e-01 -6.621072292327880859e-01 1.200000000000000000e+01
-4.103572368621826172e+00 9.647513031959533691e-01 -6.676623225212097168e-01 1.000000000000000000e+01
-5.340732574462890625e+00 1.257575631141663042e+00 -6.736937165260314941e-01 1.200000000000000000e+01
-7.586427211761474609e+00 1.787764072418212891e+00 -6.819065213203430176e-01 1.000000000000000000e+00
-3.358901977539063211e+01 7.940107345581054688e+00 -6.024570465087890625e-01 1.300000000000000000e+01
-2.415048122406005859e+00 5.744548439979553223e-01 -6.651649475097656250e-01 2.100000000000000000e+01
-2.803721666336060014e+00 6.679407358169555664e-01 -6.654052138328552246e-01 1.400000000000000000e+01
-3.317195892333983931e+00 7.908793687820434570e-01 -6.628704667091369629e-01 1.200000000000000000e+01
-4.092494487762451172e+00 9.772343635559082031e-01 -6.664108037948608398e-01 1.000000000000000000e+01
-5.313142299652099609e+00 1.270669817924499956e+00 -6.707688570022583008e-01 1.200000000000000000e+01
-7.525886058807373047e+00 1.801249384880065918e+00 -6.770257949829101562e-01 1.000000000000000000e+00
-3.361554336547852273e+01 8.070377349853515625e+00 -6.034343838691711426e-01 1.300000000000000000e+01
-2.412926435470581055e+00 5.833025574684143066e-01 -6.651649475097656250e-01 1.900000000000000000e+01
-2.806936740875244141e+00 6.795880794525146484e-01 -6.667549014091491699e-01 1.200000000000000000e+01
-3.319998979568481001e+00 8.044191002845764160e-01 -6.640152931213378906e-01 1.300000000000000000e+01
-4.069688320159912109e+00 9.875692129135131836e-01 -6.632821559906005859e-01 1.000000000000000000e+01
-5.320023059844970703e+00 1.292947769165039062e+00 -6.722313165664672852e-01 1.200000000000000000e+01
-7.557952404022216797e+00 1.838238239288330078e+00 -6.805120110511779785e-01 0.000000000000000000e+00
-3.358185195922852273e+01 8.192582130432128906e+00 -6.033645868301391602e-01 1.300000000000000000e+01
-2.416504144668579102e+00 5.931031703948974609e-01 -6.667178869247436523e-01 1.900000000000000000e+01
-2.791300535202025923e+00 6.861257553100585938e-01 -6.636056303977966309e-01 1.300000000000000000e+01
-3.313358068466186968e+00 8.150652647018432617e-01 -6.632520556449890137e-01 1.200000000000000000e+01
-4.068134307861328125e+00 1.002241611480712891e+00 -6.635950207710266113e-01 9.000000000000000000e+00
-5.307768344879150391e+00 1.309608101844788042e+00 -6.712563633918762207e-01 1.200000000000000000e+01
-7.532146930694580078e+00 1.859833121299744096e+00 -6.787689328193664551e-01 1.000000000000000000e+00
-1.313574981689452947e+01 3.248336315155028853e+00 -7.091522216796875000e-01 4.000000000000000000e+00
-3.363457489013671875e+01 8.329945564270019531e+00 -6.048306226730346680e-01 6.000000000000000000e+00
-2.416398525238037109e+00 6.015800237655639648e-01 -6.672354936599731445e-01 2.100000000000000000e+01
-2.787119150161743164e+00 6.949068307876586914e-01 -6.631557345390319824e-01 1.300000000000000000e+01
-3.303017616271973100e+00 8.241471052169799805e-01 -6.617255806922912598e-01 1.200000000000000000e+01
-4.072454452514648438e+00 1.017642021179198997e+00 -6.648464798927307129e-01 1.000000000000000000e+01
-5.280287742614746094e+00 1.321419119834899902e+00 -6.683315038681030273e-01 1.100000000000000000e+01
-7.512409210205078125e+00 1.881412148475646973e+00 -6.775487661361694336e-01 2.000000000000000000e+00
-1.312490558624267933e+01 3.291878223419189009e+00 -7.091522216796875000e-01 4.000000000000000000e+00
-3.366882705688477273e+01 8.457024574279785156e+00 -6.059475541114807129e-01 1.300000000000000000e+01
-2.406791925430297852e+00 6.081181764602661133e-01 -6.651649475097656250e-01 1.900000000000000000e+01
-2.790343999862670898e+00 7.060655951499938965e-01 -6.645054221153259277e-01 1.300000000000000000e+01
-3.292507886886597124e+00 8.337440490722656250e-01 -6.601991057395935059e-01 1.400000000000000000e+01
-4.080365657806395596e+00 1.034764885902405007e+00 -6.667236685752868652e-01 1.000000000000000000e+01
-5.264099121093750000e+00 1.336910843849181907e+00 -6.668690443038940430e-01 1.100000000000000000e+01
-7.488417148590087891e+00 1.903206944465636985e+00 -6.759799122810363770e-01 1.000000000000000000e+00
-1.301655769348145064e+01 3.313040494918822798e+00 -7.039186358451843262e-01 4.000000000000000000e+00
-3.368173217773438211e+01 8.585366249084472656e+00 -6.067154407501220703e-01 6.000000000000000000e+00
-2.406633615493773970e+00 6.165754795074462891e-01 -6.656825542449951172e-01 1.900000000000000000e+01
-2.791762590408325195e+00 7.162834405899047852e-01 -6.654052138328552246e-01 1.400000000000000000e+01
-3.297331333160399947e+00 8.466107845306396484e-01 -6.617255806922912598e-01 1.200000000000000000e+01
-4.057780742645263672e+00 1.043370962142943892e+00 -6.635950207710266113e-01 9.000000000000000000e+00
-5.263481616973876953e+00 1.355349898338318093e+00 -6.673565506935119629e-01 1.300000000000000000e+01
-7.470488548278808594e+00 1.925045967102051003e+00 -6.749340891838073730e-01 1.000000000000000000e+00
-1.305578041076659979e+01 3.369162321090697798e+00 -7.066400647163391113e-01 4.000000000000000000e+00
-3.374600982666016336e+01 8.721028327941894531e+00 -6.083908677101135254e-01 1.300000000000000000e+01
-2.404466629028319868e+00 6.249724626541137695e-01 -6.656825542449951172e-01 1.800000000000000000e+01
-2.791131019592285156e+00 7.265149950981140137e-01 -6.658551096916198730e-01 1.500000000000000000e+01
-3.292456150054932085e+00 8.576205968856811523e-01 -6.613439917564392090e-01 1.300000000000000000e+01
-4.042645454406738281e+00 1.054537296295166016e+00 -6.617177724838256836e-01 1.000000000000000000e+01
-6.090250015258789062e+01 1.589796924591063920e+01 7.728466510772705078e+00 6.300000000000000000e+01
-5.274083614349365234e+00 1.377728462219238059e+00 -6.693064570426940918e-01 1.100000000000000000e+01
-7.459867954254150391e+00 1.950103282928467019e+00 -6.745854616165161133e-01 1.000000000000000000e+00
-1.299370479583740057e+01 3.401563882827758789e+00 -7.039186358451843262e-01 4.000000000000000000e+00
-3.377339172363281250e+01 8.853982925415039062e+00 -6.094380617141723633e-01 1.400000000000000000e+01
-2.398534536361693892e+00 6.323767900466918945e-01 -6.646472811698913574e-01 1.800000000000000000e+01
-2.769736289978026900e+00 7.312787771224975586e-01 -6.613560914993286133e-01 1.300000000000000000e+01
-3.289442300796508789e+00 8.691081404685974121e-01 -6.613439917564392090e-01 1.300000000000000000e+01
-4.033210754394531250e+00 1.067126512527466042e+00 -6.607791781425476074e-01 1.000000000000000000e+01
-6.088501358032227273e+01 1.612062454223633168e+01 7.733341217041015625e+00 6.300000000000000000e+01
-5.257729053497313565e+00 1.393079519271851030e+00 -6.678439974784851074e-01 1.100000000000000000e+01
-7.468422412872313565e+00 1.980216264724731001e+00 -6.759799122810363770e-01 1.000000000000000000e+00
-1.288523292541504084e+01 3.421272039413452148e+00 -6.986849904060363770e-01 4.000000000000000000e+00
-3.373068237304688211e+01 8.968737602233886719e+00 -6.092286109924316406e-01 1.300000000000000000e+01
-2.403777599334716797e+00 6.427415013313293457e-01 -6.667178869247436523e-01 1.800000000000000000e+01
-2.774696588516234907e+00 7.429586648941040039e-01 -6.631557345390319824e-01 1.500000000000000000e+01
-3.284492254257202148e+00 8.800770640373229980e-01 -6.609623432159423828e-01 1.400000000000000000e+01
-4.044723987579345703e+00 1.085294008255005105e+00 -6.632821559906005859e-01 1.000000000000000000e+01
-5.224077701568604404e+00 1.403697133064270020e+00 -6.641879081726074219e-01 9.000000000000000000e+00
-7.430679798126220703e+00 1.997996330261230025e+00 -6.731909513473510742e-01 1.000000000000000000e+00
-1.296964073181151988e+01 3.492193460464477983e+00 -7.039186358451843262e-01 4.000000000000000000e+00
-3.374551010131835938e+01 9.098918914794921875e+00 -6.100662946701049805e-01 1.400000000000000000e+01
-2.399654865264893022e+00 6.506227850914001465e-01 -6.662002205848693848e-01 1.900000000000000000e+01
-2.777728080749512163e+00 7.541714906692504883e-01 -6.645054221153259277e-01 1.300000000000000000e+01
-3.277611017227172852e+00 8.905072212219238281e-01 -6.601991057395935059e-01 1.400000000000000000e+01
-6.093672561645507812e+01 1.656756210327148082e+01 5.524802684783936435e+00 5.300000000000000000e+01
-4.039005279541015625e+00 1.098887443542480025e+00 -6.629692912101745605e-01 9.000000000000000000e+00
-5.228722572326660156e+00 1.424533009529113992e+00 -6.654066443443298340e-01 1.100000000000000000e+01
-7.450571537017822266e+00 2.031258821487427202e+00 -6.756313443183898926e-01 1.000000000000000000e+00
-1.286103439331055043e+01 3.511143922805786133e+00 -6.986849904060363770e-01 4.000000000000000000e+00
