4.932142734527587891e+00 -2.067207098007202148e+00 -6.566320061683654785e-01 1.100000000000000000e+01
6.691750526428222656e+00 -2.806083917617797852e+00 -6.348424553871154785e-01 3.000000000000000000e+00
1.008646774291992010e+01 -4.233747482299804688e+00 -5.732880830764770508e-01 6.000000000000000000e+00
4.339654541015625000e+01 -1.822440528869628906e+01 1.086648559570313033e+01 1.300000000000000000e+01
3.372462081909179688e+01 -1.416960048675536932e+01 -6.385137438774108887e-01 2.300000000000000000e+01
2.278215408325194868e+00 -9.614188671112060547e-01 -6.625767350196838379e-01 1.900000000000000000e+01
2.644257307052611861e+00 -1.116978049278259055e+00 -6.627057790756225586e-01 1.500000000000000000e+01
3.095960140228271040e+00 -1.308421611785888894e+00 -6.533300280570983887e-01 1.200000000000000000e+01
3.780475139617919922e+00 -1.599268436431884988e+00 -6.501416563987731934e-01 9.000000000000000000e+00
4.061486053466796875e+01 -1.718981361389160156e+01 5.415142536163330078e+00 3.500000000000000000e+01
4.937328815460205078e+00 -2.090688705444335938e+00 -6.583381891250610352e-01 9.000000000000000000e+00
6.652068138122558594e+00 -2.818156242370605025e+00 -6.320534348487854004e-01 3.000000000000000000e+00
1.024188709259033025e+01 -4.343204498291015625e+00 -5.830225348472595215e-01 9.000000000000000000e+00
4.445247650146483664e+01 -1.885980033874512074e+01 1.114812469482422053e+01 1.400000000000000000e+01
3.370007324218750000e+01 -1.430483150482177912e+01 -6.390373110771179199e-01 1.500000000000000000e+01
2.281954526901245117e+00 -9.723947644233703613e-01 -6.646472811698913574e-01 1.900000000000000000e+01
2.636757373809814009e+00 -1.124672293663024902e+00 -6.618059873580932617e-01 1.500000000000000000e+01
3.094985485076903853e+00 -1.320761680603026900e+00 -6.540932655334472656e-01 1.100000000000000000e+01
3.774869680404663086e+00 -1.612455010414123979e+00 -6.501416563987731934e-01 9.000000000000000000e+00
4.939126968383789062e+00 -2.111812591552733931e+00 -6.595568656921386719e-01 9.000000000000000000e+00
6.669667720794677734e+00 -2.853113174438477007e+00 -6.346681118011474609e-01 3.000000000000000000e+00
1.009630680084229049e+01 -4.323111534118652344e+00 -5.755908489227294922e-01 9.000000000000000000e+00
4.423590469360352273e+01 -1.895039367675780895e+01 1.111033248901367010e+01 1.400000000000000000e+01
3.372896575927733664e+01 -1.445625400543213068e+01 -6.405382156372070312e-01 2.300000000000000000e+01
2.274997234344481978e+00 -9.788272976875305176e-01 -6.636120080947875977e-01 1.900000000000000000e+01
2.620286703109741211e+00 -1.128473758697509988e+00 -6.586567163467407227e-01 1.400000000000000000e+01
3.101174354553223100e+00 -1.336218357086182085e+00 -6.563829183578491211e-01 1.100000000000000000e+01
3.774659633636475053e+00 -1.627968788146973100e+00 -6.510802507400512695e-01 1.100000000000000000e+01
4.897097587585449219e+00 -2.114091396331787109e+00 -6.549258232116699219e-01 9.000000000000000000e+00
6.683445930480957031e+00 -2.886647224426269975e+00 -6.369341611862182617e-01 3.000000000000000000e+00
9.399177551269531250e+00 -4.063492774963378906e+00 -5.366529226303100586e-01 2.000000000000000000e+00
3.372968673706054688e+01 -1.459613895416259943e+01 -6.415155529975891113e-01 2.300000000000000000e+01
2.276882171630858931e+00 -9.890716671943664551e-01 -6.651649475097656250e-01 1.800000000000000000e+01
2.612757444381713867e+00 -1.136059284210205078e+00 -6.577568650245666504e-01 1.400000000000000000e+01
3.094690799713135210e+00 -1.346252202987670898e+00 -6.560013294219970703e-01 1.000000000000000000e+01
3.768954038619995117e+00 -1.641134977340698020e+00 -6.510802507400512695e-01 1.000000000000000000e+01
4.724090099334716797e+00 -2.058996677398682085e+00 -6.327456235885620117e-01 7.000000000000000000e+00
6.669676303863525391e+00 -2.908366441726685014e+00 -6.365855336189270020e-01 3.000000000000000000e+00
9.450834274291992188e+00 -4.125040054321289062e+00 -5.404210686683654785e-01 2.000000000000000000e+00
3.374999618530272727e+01 -1.474501132965088068e+01 -6.428768634796142578e-01 1.500000000000000000e+01
2.268455266952515093e+00 -9.938940405845642090e-01 -6.636120080947875977e-01 1.900000000000000000e+01
2.621668100357056108e+00 -1.149740576744080034e+00 -6.609061956405639648e-01 1.500000000000000000e+01
3.085052728652954102e+00 -1.353601336479187012e+00 -6.548564434051513672e-01 1.100000000000000000e+01
3.771014213562012163e+00 -1.656144618988037109e+00 -6.523317098617553711e-01 1.100000000000000000e+01
4.810278415679931641e+00 -2.114569425582886186e+00 -6.451762914657592773e-01 1.100000000000000000e+01
6.671449184417724609e+00 -2.934118032455443892e+00 -6.376314163208007812e-01 3.000000000000000000e+00
1.013977050781250000e+01 -4.463718414306640625e+00 -5.806151032447814941e-01 3.000000000000000000e+00
3.379500198364257812e+01 -1.489128303527832031e+01 -6.446220874786376953e-01 1.600000000000000000e+01
2.257905244827270952e+00 -9.986805915832519531e-01 -6.615414619445800781e-01 1.900000000000000000e+01
2.626548290252685991e+00 -1.162829279899596946e+00 -6.631557345390319824e-01 1.400000000000000000e+01
3.076718807220458984e+00 -1.362771749496459961e+00 -6.540932655334472656e-01 9.000000000000000000e+00
3.776045322418212891e+00 -1.674101471900939941e+00 -6.542089581489562988e-01 1.000000000000000000e+01
4.813754558563232422e+00 -2.136178731918334961e+00 -6.466387510299682617e-01 9.000000000000000000e+00
4.253609085083007812e+01 -1.888493919372558949e+01 7.371191978454589844e+00 1.500000000000000000e+01
6.657524585723876953e+00 -2.955770969390869141e+00 -6.372827887535095215e-01 2.000000000000000000e+00
9.386765480041503906e+00 -4.171407222747802734e+00 -5.383276343345642090e-01 2.000000000000000000e+00
3.381590270996093750e+01 -1.504166698455811080e+01 -6.460182666778564453e-01 8.000000000000000000e+00
2.263225555419921875e+00 -1.010494112968445046e+00 -6.641296744346618652e-01 1.800000000000000000e+01
2.624252557754517046e+00 -1.172785758972167969e+00 -6.636056303977966309e-01 1.300000000000000000e+01
3.089865922927856001e+00 -1.381516695022583008e+00 -6.579093933105468750e-01 9.000000000000000000e+00
3.759360313415526900e+00 -1.682430624961853027e+00 -6.523317098617553711e-01 1.000000000000000000e+01
4.597930908203125000e+00 -2.059643745422362837e+00 -6.186087727546691895e-01 1.200000000000000000e+01
4.238309478759766336e+01 -1.898551177978515980e+01 7.355548381805419922e+00 1.500000000000000000e+01
6.679893016815186435e+00 -2.993659019470214844e+00 -6.404203772544860840e-01 3.000000000000000000e+00
9.342989921569824219e+00 -4.191068649291992188e+00 -5.366529226303100586e-01 2.000000000000000000e+00
3.388359069824218750e+01 -1.521367454528808949e+01 -6.483219861984252930e-01 8.000000000000000000e+00
2.259684324264525923e+00 -1.018388032913208008e+00 -6.641296744346618652e-01 1.900000000000000000e+01
2.607708215713500977e+00 -1.176329731941222922e+00 -6.604562997817993164e-01 1.400000000000000000e+01
3.088603496551514116e+00 -1.393909096717834029e+00 -6.586726307868957520e-01 1.100000000000000000e+01
3.749864339828491211e+00 -1.693916559219359907e+00 -6.517059803009033203e-01 1.000000000000000000e+01
4.701049327850341797e+00 -2.125569343566894975e+00 -6.334768533706665039e-01 9.000000000000000000e+00
6.680294513702392578e+00 -3.021884918212891069e+00 -6.414662599563598633e-01 3.000000000000000000e+00
9.359233856201171875e+00 -4.237660884857177734e+00 -5.384323000907897949e-01 7.000000000000000000e+00
3.377563858032227273e+01 -1.530709457397460938e+01 -6.472748517990112305e-01 8.000000000000000000e+00
2.266666650772095171e+00 -1.031069040298461914e+00 -6.672354936599731445e-01 1.800000000000000000e+01
2.603586196899414062e+00 -1.185425162315369096e+00 -6.604562997817993164e-01 1.400000000000000000e+01
3.081932544708251953e+00 -1.403867959976196067e+00 -6.582910418510437012e-01 1.100000000000000000e+01
3.752915382385253906e+00 -1.711093187332153098e+00 -6.532703042030334473e-01 9.000000000000000000e+00
4.791121482849121094e+00 -2.186470031738280806e+00 -6.466387510299682617e-01 6.000000000000000000e+00
6.687829494476318359e+00 -3.053459882736206055e+00 -6.432093977928161621e-01 2.000000000000000000e+00
9.551472663879394531e+00 -4.364942550659179688e+00 -5.503649115562438965e-01 1.000000000000000000e+01
3.361288833618164062e+01 -1.537499237060547053e+01 -6.451805830001831055e-01 8.000000000000000000e+00
2.259542465209960938e+00 -1.037362813949584961e+00 -6.662002205848693848e-01 1.800000000000000000e+01
2.602973699569702148e+00 -1.196133494377136008e+00 -6.613560914993286133e-01 1.400000000000000000e+01
3.069878101348876953e+00 -1.411337137222290039e+00 -6.567645668983459473e-01 1.000000000000000000e+01
3.757686614990233931e+00 -1.729137420654297097e+00 -6.551475524902343750e-01 9.000000000000000000e+00
4.258216476440429688e+01 -1.960361862182616832e+01 5.755888938903808594e+00 4.300000000000000000e+01
4.650034904479979581e+00 -2.141727685928345171e+00 -6.286020874977111816e-01 9.000000000000000000e+00
6.673511028289794922e+00 -3.075118541717528853e+00 -6.428607702255249023e-01 3.000000000000000000e+00
9.362067222595214844e+00 -4.317953586578369141e+00 -5.403164029121398926e-01 1.000000000000000000e+01
3.339561462402343750e+01 -1.541679668426514027e+01 -6.420391201972961426e-01 7.000000000000000000e+00
2.252401828765869141e+00 -1.043619394302367942e+00 -6.651649475097656250e-01 1.800000000000000000e+01
2.611157894134521040e+00 -1.210951447486876997e+00 -6.645054221153259277e-01 1.200000000000000000e+01
3.072056531906127930e+00 -1.425349593162537065e+00 -6.582910418510437012e-01 1.100000000000000000e+01
3.737295150756835938e+00 -1.735587477684020996e+00 -6.526445746421813965e-01 9.000000000000000000e+00
4.251347732543945312e+01 -1.975213813781737926e+01 5.755888938903808594e+00 4.300000000000000000e+01
4.908949851989746094e+00 -2.281783580780028853e+00 -6.646754145622253418e-01 9.000000000000000000e+00
6.671769142150878906e+00 -3.102595329284667969e+00 -6.437323093414306641e-01 4.000000000000000000e+00
9.504470825195312500e+00 -4.423932075500488281e+00 -5.494228601455688477e-01 5.000000000000000000e+00
3.332709503173828125e+01 -1.552651977539063033e+01 -6.417598724365234375e-01 7.000000000000000000e+00
2.245245218276977983e+00 -1.049838900566101074e+00 -6.641296744346618652e-01 1.800000000000000000e+01
2.603384971618651900e+00 -1.218406558036803977e+00 -6.636056303977966309e-01 1.300000000000000000e+01
3.058172464370727983e+00 -1.431901812553405984e+00 -6.563829183578491211e-01 1.000000000000000000e+01
3.731214046478271040e+00 -1.748622536659240945e+00 -6.526445746421813965e-01 9.000000000000000000e+00
4.262400436401367188e+01 -1.998468780517578125e+01 5.780262947082520419e+00 4.400000000000000000e+01
4.909940719604492188e+00 -2.303120136260985884e+00 -6.658940911293029785e-01 8.000000000000000000e+00
6.655487537384033203e+00 -3.123326063156127930e+00 -6.432093977928161621e-01 3.000000000000000000e+00
9.087646484375000000e+00 -4.268575191497802734e+00 -5.261856913566589355e-01 2.000000000000000000e+00
3.331250762939453125e+01 -1.566147518157958984e+01 -6.425278186798095703e-01 7.000000000000000000e+00
2.248555421829224077e+00 -1.060967326164246050e+00 -6.662002205848693848e-01 1.700000000000000000e+01
2.583256959915161133e+00 -1.219996929168700950e+00 -6.595565080642700195e-01 1.400000000000000000e+01
3.063806056976317915e+00 -1.447600364685059038e+00 -6.586726307868957520e-01 1.000000000000000000e+01
3.739373445510863814e+00 -1.768392324447632058e+00 -6.551475524902343750e-01 9.000000000000000000e+00
4.858809471130371094e+00 -2.299862146377563032e+00 -6.600443720817565918e-01 9.000000000000000000e+00
6.671555042266845703e+00 -3.159329891204833984e+00 -6.458240747451782227e-01 3.000000000000000000e+00
2.253559350967406782e+00 -1.072962164878844993e+00 -6.687884330749511719e-01 1.900000000000000000e+01
2.586019515991210938e+00 -1.232360124588012917e+00 -6.613560914993286133e-01 1.300000000000000000e+01
3.058734416961669922e+00 -1.458286166191101074e+00 -6.586726307868957520e-01 9.000000000000000000e+00
3.747440338134766069e+00 -1.788240194320678933e+00 -6.576504707336425781e-01 9.000000000000000000e+00
4.798805236816406250e+00 -2.291997671127318892e+00 -6.529759168624877930e-01 9.000000000000000000e+00
6.665879249572753906e+00 -3.185175657272338867e+00 -6.463469862937927246e-01 2.000000000000000000e+00
1.007023334503174006e+01 -4.816205978393554688e+00 -5.850113034248352051e-01 6.000000000000000000e+00
3.293180465698242188e+01 -1.576414585113525035e+01 -6.372920870780944824e-01 7.000000000000000000e+00
2.241093635559082031e+00 -1.076639294624329057e+00 -6.662002205848693848e-01 1.800000000000000000e+01
2.592239618301392046e+00 -1.246446371078490989e+00 -6.640555262565612793e-01 1.300000000000000000e+01
3.037702560424805132e+00 -1.461294651031493919e+00 -6.552380919456481934e-01 9.000000000000000000e+00
3.725157022476195845e+00 -1.793597817420959029e+00 -6.548346877098083496e-01 8.000000000000000000e+00
4.860517978668212891e+00 -2.342344522476195845e+00 -6.624817252159118652e-01 9.000000000000000000e+00
6.676256656646729404e+00 -3.218807697296143022e+00 -6.484387516975402832e-01 3.000000000000000000e+00
2.230368375778197798e+00 -1.081085085868835005e+00 -6.641296744346618652e-01 1.700000000000000000e+01
2.598392724990845171e+00 -1.260591030120850053e+00 -6.667549014091491699e-01 1.400000000000000000e+01
3.057310104370117188e+00 -1.483890652656554954e+00 -6.605807542800903320e-01 1.000000000000000000e+01
3.731311082839965820e+00 -1.812632203102112038e+00 -6.570247411727905273e-01 9.000000000000000000e+00
4.893373012542724609e+00 -2.379261255264281782e+00 -6.680877208709716797e-01 9.000000000000000000e+00
6.659605503082275391e+00 -3.239478111267089844e+00 -6.479157805442810059e-01 3.000000000000000000e+00
9.501235961914062500e+00 -4.625854015350341797e+00 -5.538190603256225586e-01 1.300000000000000000e+01
2.229861497879027876e+00 -1.090950489044189009e+00 -6.651649475097656250e-01 1.700000000000000000e+01
2.581503629684447798e+00 -1.264106988906859907e+00 -6.636056303977966309e-01 1.300000000000000000e+01
3.050087928771973100e+00 -1.494222640991210938e+00 -6.601991057395935059e-01 9.000000000000000000e+00
3.721095085144042969e+00 -1.824556589126586914e+00 -6.563990116119384766e-01 9.000000000000000000e+00
4.902440071105957031e+00 -2.405925989151000977e+00 -6.705251336097717285e-01 1.000000000000000000e+01
6.640533447265625000e+00 -3.260352611541748047e+00 -6.472185254096984863e-01 3.000000000000000000e+00
9.365911483764648438e+00 -4.602509975433349609e+00 -5.469107627868652344e-01 1.300000000000000000e+01
2.232969045639038086e+00 -1.102147698402405007e+00 -6.672354936599731445e-01 1.800000000000000000e+01
2.577075481414794922e+00 -1.273110389709473100e+00 -6.636056303977966309e-01 1.500000000000000000e+01
3.048373460769652876e+00 -1.506600022315979004e+00 -6.609623432159423828e-01 9.000000000000000000e+00
3.707621335983275923e+00 -1.834031224250793013e+00 -6.551475524902343750e-01 9.000000000000000000e+00
4.886896133422851562e+00 -2.419501066207886186e+00 -6.695501804351806641e-01 9.000000000000000000e+00
6.650537014007568359e+00 -3.294124364852904829e+00 -6.493102908134460449e-01 3.000000000000000000e+00
9.337262153625488281e+00 -4.628964900970458984e+00 -5.461780428886413574e-01 1.800000000000000000e+01
2.243137836456298828e+00 -1.116432666778564009e+00 -6.713765859603881836e-01 1.600000000000000000e+01
2.567606449127196822e+00 -1.279042482376099077e+00 -6.622558832168579102e-01 1.400000000000000000e+01
3.039846420288085938e+00 -1.514949083328247070e+00 -6.601991057395935059e-01 9.000000000000000000e+00
3.708589792251586914e+00 -1.849842905998229980e+00 -6.563990116119384766e-01 9.000000000000000000e+00
4.878845691680908203e+00 -2.435693264007567915e+00 -6.695501804351806641e-01 9.000000000000000000e+00
6.660965919494628906e+00 -3.326843261718750000e+00 -6.514019966125488281e-01 3.000000000000000000e+00
9.350444793701171875e+00 -4.674191951751708984e+00 -5.478528141975402832e-01 1.500000000000000000e+01
2.225415468215941939e+00 -1.117321372032165971e+00 -6.672354936599731445e-01 1.800000000000000000e+01
2.573573827743529829e+00 -1.293247342109679954e+00 -6.649553179740905762e-01 1.300000000000000000e+01
3.034539699554442915e+00 -1.525550961494446023e+00 -6.601991057395935059e-01 9.000000000000000000e+00
3.712697505950928178e+00 -1.868104338645935059e+00 -6.582762002944946289e-01 9.000000000000000000e+00
4.866767883300781250e+00 -2.450922966003417969e+00 -6.690626740455627441e-01 9.000000000000000000e+00
6.643974304199218750e+00 -3.347384691238402876e+00 -6.508790850639343262e-01 2.000000000000000000e+00
9.398272514343261719e+00 -4.739176273345947266e+00 -5.516209602355957031e-01 1.100000000000000000e+01
2.217858791351317915e+00 -1.123724222183227983e+00 -6.662002205848693848e-01 1.700000000000000000e+01
2.574030637741088867e+00 -1.305315375328063965e+00 -6.663050055503845215e-01 1.200000000000000000e+01
3.028928041458129883e+00 -1.536662817001342995e+00 -6.601991057395935059e-01 1.000000000000000000e+01
3.698780298233031782e+00 -1.878122091293334961e+00 -6.570247411727905273e-01 9.000000000000000000e+00
4.880758285522460938e+00 -2.480435848236083984e+00 -6.722313165664672852e-01 1.000000000000000000e+01
6.631660938262938565e+00 -3.371713638305664062e+00 -6.508790850639343262e-01 2.000000000000000000e+00
9.418220520019531250e+00 -4.792613029479979581e+00 -5.538190603256225586e-01 1.600000000000000000e+01
2.217363119125366211e+00 -1.133217334747314009e+00 -6.672354936599731445e-01 1.600000000000000000e+01
2.567723512649536133e+00 -1.313405036926269975e+00 -6.658551096916198730e-01 1.200000000000000000e+01
3.030536413192749023e+00 -1.550803780555725098e+00 -6.617255806922912598e-01 9.000000000000000000e+00
3.699234724044799805e+00 -1.894623756408690962e+00 -6.582762002944946289e-01 9.000000000000000000e+00
4.863237380981445312e+00 -2.492930173873900923e+00 -6.710125803947448730e-01 1.000000000000000000e+01
6.634034156799316406e+00 -3.402115345001221147e+00 -6.522735953330993652e-01 2.000000000000000000e+00
9.444078445434570312e+00 -4.847347736358642578e+00 -5.563312172889709473e-01 5.000000000000000000e+00
2.220462322235106978e+00 -1.144103527069092019e+00 -6.693060398101806641e-01 1.500000000000000000e+01
2.552962064743041992e+00 -1.316553592681884988e+00 -6.631557345390319824e-01 1.300000000000000000e+01
3.035845518112183061e+00 -1.566245794296265093e+00 -6.640152931213378906e-01 9.000000000000000000e+00
3.682400465011597124e+00 -1.901442527770996094e+00 -6.563990116119384766e-01 9.000000000000000000e+00
4.840835571289063388e+00 -2.501752376556396040e+00 -6.690626740455627441e-01 9.000000000000000000e+00
6.640414237976074219e+00 -3.433246135711669922e+00 -6.540166735649108887e-01 2.000000000000000000e+00
9.539704322814941406e+00 -4.936466217041015625e+00 -5.629255175590515137e-01 1.700000000000000000e+01
2.219883441925048828e+00 -1.153629183769226074e+00 -6.703413128852844238e-01 1.500000000000000000e+01
2.553537368774414062e+00 -1.328154802322387917e+00 -6.645054221153259277e-01 1.300000000000000000e+01
3.023393392562866211e+00 -1.573208332061768022e+00 -6.624888181686401367e-01 9.000000000000000000e+00
3.682748794555664062e+00 -1.917934656143188032e+00 -6.576504707336425781e-01 9.000000000000000000e+00
4.759900569915770596e+00 -2.481015920639038086e+00 -6.590694189071655273e-01 8.000000000000000000e+00
6.633689403533936435e+00 -3.459168434143065962e+00 -6.545396447181701660e-01 3.000000000000000000e+00
9.568450927734375000e+00 -4.993762493133544922e+00 -5.656470060348510742e-01 1.100000000000000000e+01
2.208998680114746094e+00 -1.157783746719359907e+00 -6.682707667350769043e-01 1.600000000000000000e+01
2.550611495971680132e+00 -1.337965488433837891e+00 -6.649553179740905762e-01 1.400000000000000000e+01
3.016144990921020952e+00 -1.582840085029602051e+00 -6.621072292327880859e-01 1.100000000000000000e+01
3.686524391174315962e+00 -1.936289429664612038e+00 -6.595277190208435059e-01 9.000000000000000000e+00
4.803924083709716797e+00 -2.525326013565063032e+00 -6.663815975189208984e-01 8.000000000000000000e+00
6.626864433288574219e+00 -3.485085248947143999e+00 -6.550625562667846680e-01 2.000000000000000000e+00
9.473196029663085938e+00 -4.986200809478759766e+00 -5.610414743423461914e-01 8.000000000000000000e+00
2.203235864639281782e+00 -1.164584755897521973e+00 -6.677531599998474121e-01 1.600000000000000000e+01
2.554538249969481978e+00 -1.351416945457458052e+00 -6.672048568725585938e-01 1.200000000000000000e+01
3.017542362213135210e+00 -1.597032189369202104e+00 -6.636337041854858398e-01 1.000000000000000000e+01
3.679743051528931108e+00 -1.949146032333374023e+00 -6.595277190208435059e-01 9.000000000000000000e+00
4.782802581787109375e+00 -2.535570859909058061e+00 -6.646754145622253418e-01 8.000000000000000000e+00
6.632260322570800781e+00 -3.517531394958496094e+00 -6.568056941032409668e-01 3.000000000000000000e+00
9.386931419372558594e+00 -4.982717037200927734e+00 -5.569592714309692383e-01 1.900000000000000000e+01
2.197452545166016069e+00 -1.171359658241271973e+00 -6.672354936599731445e-01 1.600000000000000000e+01
2.556682825088500977e+00 -1.363994836807250977e+00 -6.690044403076171875e-01 1.300000000000000000e+01
3.010217428207397017e+00 -1.606631278991698997e+00 -6.632520556449890137e-01 9.000000000000000000e+00
3.672916889190673828e+00 -1.961978793144226074e+00 -6.595277190208435059e-01 9.000000000000000000e+00
4.847448825836181641e+00 -2.591559171676636186e+00 -6.749124526977539062e-01 1.000000000000000000e+01
6.641024112701416016e+00 -3.551936864852904829e+00 -6.588973999023437500e-01 3.000000000000000000e+00
9.313134193420410156e+00 -4.985291004180908203e+00 -5.536097288131713867e-01 1.300000000000000000e+01
2.206963062286376953e+00 -1.186340451240539995e+00 -6.713765859603881836e-01 1.700000000000000000e+01
2.541609287261962891e+00 -1.367371320724487083e+00 -6.663050055503845215e-01 1.200000000000000000e+01
3.016692161560059038e+00 -1.623642325401305930e+00 -6.659234166145324707e-01 1.000000000000000000e+01
3.666045904159545898e+00 -1.974787712097167969e+00 -6.595277190208435059e-01 9.000000000000000000e+00
4.826141357421875000e+00 -2.601870059967041016e+00 -6.732062697410583496e-01 8.000000000000000000e+00
6.632091999053955078e+00 -3.576988220214844194e+00 -6.592460274696350098e-01 3.000000000000000000e+00
9.285130500793457031e+00 -5.012077331542968750e+00 -5.529817342758178711e-01 8.000000000000000000e+00
2.197713375091553178e+00 -1.191275119781493919e+00 -6.698237061500549316e-01 1.600000000000000000e+01
2.538533687591553178e+00 -1.377164125442505105e+00 -6.667549014091491699e-01 1.300000000000000000e+01
3.011006355285644975e+00 -1.634162664413451926e+00 -6.659234166145324707e-01 1.000000000000000000e+01
3.669545173645019975e+00 -1.993229866027832031e+00 -6.614049077033996582e-01 1.000000000000000000e+01
4.780405044555664062e+00 -2.598789930343627930e+00 -6.680877208709716797e-01 8.000000000000000000e+00
6.647570133209229404e+00 -3.615347385406494141e+00 -6.620350480079650879e-01 2.000000000000000000e+00
9.185130119323730469e+00 -4.999579906463623047e+00 -5.480621457099914551e-01 1.000000000000000000e+01
2.195236682891846147e+00 -1.199865818023682085e+00 -6.703413128852844238e-01 1.700000000000000000e+01
2.538839817047119141e+00 -1.388822555541991965e+00 -6.681046485900878906e-01 1.300000000000000000e+01
2.991505861282349077e+00 -1.637122988700866921e+00 -6.628704667091369629e-01 1.000000000000000000e+01
3.657367706298828125e+00 -2.003180027008057085e+00 -6.604663133621215820e-01 8.000000000000000000e+00
4.790452480316162109e+00 -2.625957012176514116e+00 -6.707688570022583008e-01 8.000000000000000000e+00
6.631415843963623047e+00 -3.636613607406616211e+00 -6.616864204406738281e-01 3.000000000000000000e+00
9.080078125000000000e+00 -4.983563423156738281e+00 -5.428285598754882812e-01 7.000000000000000000e+00
2.182365417480469194e+00 -1.203240036964416948e+00 -6.677531599998474121e-01 1.600000000000000000e+01
2.538851261138916016e+00 -1.400943040847778098e+00 -6.694543361663818359e-01 1.400000000000000000e+01
3.000954151153564009e+00 -1.656615734100342019e+00 -6.663050055503845215e-01 1.100000000000000000e+01
3.658646345138549805e+00 -2.021347761154174805e+00 -6.620306372642517090e-01 1.000000000000000000e+01
4.756474494934082031e+00 -2.630049228668212891e+00 -6.673565506935119629e-01 8.000000000000000000e+00
6.623272895812988281e+00 -3.663787841796875000e+00 -6.622093319892883301e-01 3.000000000000000000e+00
9.082719802856445312e+00 -5.028418540954589844e+00 -5.440846085548400879e-01 7.000000000000000000e+00
2.183217525482178178e+00 -1.213666439056396040e+00 -6.693060398101806641e-01 1.600000000000000000e+01
2.528836727142333984e+00 -1.406954407691956010e+00 -6.681046485900878906e-01 1.300000000000000000e+01
2.988291501998900923e+00 -1.663261651992798074e+00 -6.647785305976867676e-01 1.000000000000000000e+01
3.648116827011107954e+00 -2.032183885574340820e+00 -6.614049077033996582e-01 1.000000000000000000e+01
4.667508125305175781e+00 -2.602171421051024947e+00 -6.561445593833923340e-01 1.100000000000000000e+01
6.619143486022949219e+00 -3.691737413406372070e+00 -6.630808711051940918e-01 3.000000000000000000e+00
9.377281188964843750e+00 -5.234343528747558594e+00 -5.628208518028259277e-01 5.000000000000000000e+00
4.949197006225585938e+01 -2.764879226684569957e+01 -9.895514249801635742e-01 1.500000000000000000e+01
2.187393903732299805e+00 -1.226002573966979980e+00 -6.718942523002624512e-01 1.600000000000000000e+01
2.527309417724608931e+00 -1.417679905891418013e+00 -6.690044403076171875e-01 1.300000000000000000e+01
3.009860992431641069e+00 -1.689055204391479048e+00 -6.708844304084777832e-01 1.100000000000000000e+01
3.641000986099243164e+00 -2.044905900955200195e+00 -6.614049077033996582e-01 1.000000000000000000e+01
4.774337291717529297e+00 -2.683617591857910156e+00 -6.724750399589538574e-01 1.000000000000000000e+01
6.611426830291748047e+00 -3.717749834060668945e+00 -6.636038422584533691e-01 3.000000000000000000e+00
9.240594863891601562e+00 -5.200435161590576172e+00 -5.557031631469726562e-01 5.000000000000000000e+00
2.183100938796997070e+00 -1.233630537986754927e+00 -6.718942523002624512e-01 1.600000000000000000e+01
2.520649194717406782e+00 -1.425533890724181907e+00 -6.685545444488525391e-01 1.300000000000000000e+01
2.988568067550659180e+00 -1.690850496292114036e+00 -6.674498915672302246e-01 1.100000000000000000e+01
3.644154310226439986e+00 -2.063442945480347124e+00 -6.632821559906005859e-01 1.000000000000000000e+01
4.787392616271972656e+00 -2.712990045547484907e+00 -6.756436228752136230e-01 8.000000000000000000e+00
6.615741252899169922e+00 -3.750631570816040039e+00 -6.653469204902648926e-01 3.000000000000000000e+00
9.496850967407226562e+00 -5.388387203216552734e+00 -5.722413659095764160e-01 6.000000000000000000e+00
2.178997993469237837e+00 -1.240863204002379927e+00 -6.718942523002624512e-01 1.600000000000000000e+01
2.519294023513793945e+00 -1.435814738273621050e+00 -6.694543361663818359e-01 1.300000000000000000e+01
2.981239080429077148e+00 -1.699779272079467995e+00 -6.670682430267333984e-01 1.100000000000000000e+01
3.651017189025878906e+00 -2.083348035812377930e+00 -6.657850742340087891e-01 1.000000000000000000e+01
4.640465736389160156e+00 -2.650096178054810014e+00 -6.561445593833923340e-01 8.000000000000000000e+00
6.618836879730224609e+00 -3.781444549560546875e+00 -6.669157147407531738e-01 2.000000000000000000e+00
9.426915168762207031e+00 -5.390108585357666016e+00 -5.691012144088745117e-01 2.000000000000000000e+00
2.167951822280883789e+00 -1.244614481925963911e+00 -6.698237061500549316e-01 1.600000000000000000e+01
2.521025657653809038e+00 -1.448483347892761008e+00 -6.712539196014404297e-01 1.200000000000000000e+01
2.970181226730347124e+00 -1.707240223884582964e+00 -6.659234166145324707e-01 1.000000000000000000e+01
3.640298128128052202e+00 -2.094109773635863814e+00 -6.651593446731567383e-01 1.000000000000000000e+01
4.760213375091552734e+00 -2.740561485290526900e+00 -6.744249463081359863e-01 7.000000000000000000e+00
6.605597019195556641e+00 -3.804525613784790039e+00 -6.669157147407531738e-01 3.000000000000000000e+00
9.484179496765136719e+00 -5.466868400573729581e+00 -5.737067461013793945e-01 6.000000000000000000e+00
2.165484905242919922e+00 -1.252764105796813965e+00 -6.703413128852844238e-01 1.700000000000000000e+01
2.521267890930175781e+00 -1.459764599800110085e+00 -6.726036667823791504e-01 1.200000000000000000e+01
2.971298933029174805e+00 -1.721016287803649902e+00 -6.674498915672302246e-01 1.000000000000000000e+01
3.616243839263916016e+00 -2.096263170242310014e+00 -6.620306372642517090e-01 1.000000000000000000e+01
4.634338855743408203e+00 -2.688594102859497070e+00 -6.578507423400878906e-01 8.000000000000000000e+00
6.592944622039794922e+00 -3.826409578323363814e+00 -6.669157147407531738e-01 2.000000000000000000e+00
9.379645347595214844e+00 -5.448131561279296875e+00 -5.684731602668762207e-01 5.000000000000000000e+00
2.164436340332030806e+00 -1.262261867523192915e+00 -6.713765859603881836e-01 1.600000000000000000e+01
2.501009464263916016e+00 -1.459715843200684038e+00 -6.685545444488525391e-01 1.100000000000000000e+01
2.972054958343505859e+00 -1.735337376594543013e+00 -6.689763665199279785e-01 1.000000000000000000e+01
3.622548818588256836e+00 -2.116846561431885210e+00 -6.645336151123046875e-01 1.000000000000000000e+01
4.588941097259520596e+00 -2.683709859848022017e+00 -6.527321934700012207e-01 1.100000000000000000e+01
6.617381095886229581e+00 -3.871534585952758789e+00 -6.707506179809570312e-01 2.000000000000000000e+00
9.405383110046386719e+00 -5.507078170776367188e+00 -5.711946487426757812e-01 3.000000000000000000e+00
2.173117160797119141e+00 -1.278021097183227983e+00 -6.755176782608032227e-01 1.600000000000000000e+01
2.499001502990723100e+00 -1.470849633216857910e+00 -6.694543361663818359e-01 1.200000000000000000e+01
2.962291240692139116e+00 -1.744226574897765891e+00 -6.682131290435791016e-01 1.100000000000000000e+01
3.624977111816405806e+00 -2.136126995086669922e+00 -6.664108037948608398e-01 1.000000000000000000e+01
4.560265064239501953e+00 -2.689418554306029829e+00 -6.500510573387145996e-01 1.300000000000000000e+01
6.592850685119628906e+00 -3.889688014984130859e+00 -6.697047352790832520e-01 2.000000000000000000e+00
2.153686523437500000e+00 -1.276732683181762917e+00 -6.708589792251586914e-01 1.600000000000000000e+01
2.497204065322875977e+00 -1.481552481651305930e+00 -6.703541278839111328e-01 1.200000000000000000e+01
2.944366693496704102e+00 -1.747542023658751997e+00 -6.655417680740356445e-01 1.100000000000000000e+01
3.620895147323607954e+00 -2.150784969329833984e+00 -6.670365333557128906e-01 1.000000000000000000e+01
4.542317867279052734e+00 -2.700248718261719194e+00 -6.488323807716369629e-01 1.600000000000000000e+01
6.586082458496093750e+00 -3.916751146316527876e+00 -6.704019904136657715e-01 2.000000000000000000e+00
2.146123886108397993e+00 -1.281886339187622070e+00 -6.698237061500549316e-01 1.600000000000000000e+01
2.509003877639770952e+00 -1.499824166297913042e+00 -6.748531460762023926e-01 1.100000000000000000e+01
2.943610191345214844e+00 -1.760319113731384055e+00 -6.666866540908813477e-01 1.000000000000000000e+01
3.610352993011475053e+00 -2.160751581192017046e+00 -6.664108037948608398e-01 1.000000000000000000e+01
4.545258998870849609e+00 -2.722436904907227007e+00 -6.505385637283325195e-01 1.400000000000000000e+01
6.566221714019775391e+00 -3.934473752975463867e+00 -6.697047352790832520e-01 2.000000000000000000e+00
2.144946336746215820e+00 -1.291362762451172097e+00 -6.708589792251586914e-01 1.600000000000000000e+01
2.493738174438477007e+00 -1.502538800239562988e+00 -6.721537709236145020e-01 1.300000000000000000e+01
2.947536230087279829e+00 -1.776664495468140093e+00 -6.689763665199279785e-01 1.000000000000000000e+01
3.606171369552611861e+00 -2.175381660461425781e+00 -6.670365333557128906e-01 1.000000000000000000e+01
4.564618587493895596e+00 -2.755727529525756836e+00 -6.546820998191833496e-01 1.100000000000000000e+01
6.583146572113037109e+00 -3.975910663604735884e+00 -6.728423237800598145e-01 1.000000000000000000e+00
2.145153045654296875e+00 -1.302223086357116921e+00 -6.724118590354919434e-01 1.700000000000000000e+01
2.489879846572875977e+00 -1.512680530548095925e+00 -6.726036667823791504e-01 1.300000000000000000e+01
2.942682266235352007e+00 -1.788475513458251953e+00 -6.693579554557800293e-01 1.100000000000000000e+01
3.601549386978148970e+00 -2.190637350082397017e+00 -6.676623225212097168e-01 1.000000000000000000e+01
4.630791187286376953e+00 -2.818887233734130859e+00 -6.656503677368164062e-01 9.000000000000000000e+00
6.602563858032226562e+00 -4.020737648010253906e+00 -6.763285398483276367e-01 1.000000000000000000e+00
2.145537853240966797e+00 -1.312727808952331987e+00 -6.739647984504699707e-01 1.500000000000000000e+01
2.482922554016112837e+00 -1.520344972610474077e+00 -6.721537709236145020e-01 1.200000000000000000e+01
2.943117856979370117e+00 -1.802838563919066939e+00 -6.708844304084777832e-01 1.200000000000000000e+01
3.593880891799927202e+00 -2.203195810317993164e+00 -6.676623225212097168e-01 1.000000000000000000e+01
4.576930522918701172e+00 -2.808044195175170898e+00 -6.593131422996520996e-01 1.100000000000000000e+01
6.574903964996337891e+00 -4.035422801971436435e+00 -6.749340891838073730e-01 1.000000000000000000e+00
2.134594917297362837e+00 -1.315780758857727051e+00 -6.718942523002624512e-01 1.600000000000000000e+01
2.482842922210692915e+00 -1.531639695167541948e+00 -6.735034584999084473e-01 1.500000000000000000e+01
2.927098989486693892e+00 -1.806402087211609109e+00 -6.685947179794311523e-01 1.100000000000000000e+01
3.591597080230712891e+00 -2.218215465545653853e+00 -6.686009168624877930e-01 9.000000000000000000e+00
4.618250846862792969e+00 -2.854517459869385210e+00 -6.666253209114074707e-01 9.000000000000000000e+00
6.578432083129882812e+00 -4.067682266235351562e+00 -6.766771674156188965e-01 2.000000000000000000e+00
8.707561492919921875e+00 -5.388402938842773438e+00 -5.366529226303100586e-01 2.000000000000000000e+00
4.547708511352539062e+01 -2.816403388977051137e+01 -9.337037205696105957e-01 1.400000000000000000e+01
2.126707077026367188e+00 -1.321184992790221946e+00 -6.708589792251586914e-01 1.600000000000000000e+01
2.482446193695067915e+00 -1.543383836746216042e+00 -6.748531460762023926e-01 1.100000000000000000e+01
2.914107322692871094e+00 -1.812461018562316895e+00 -6.670682430267333984e-01 1.100000000000000000e+01
3.587186098098754883e+00 -2.232826709747314009e+00 -6.692266464233398438e-01 9.000000000000000000e+00
4.603203773498535156e+00 -2.867471933364868164e+00 -6.658940911293029785e-01 1.100000000000000000e+01
6.567574977874755859e+00 -4.092728137969970703e+00 -6.770257949829101562e-01 2.000000000000000000e+00
4.537849807739257812e+01 -2.832260704040526988e+01 -9.337037205696105957e-01 1.400000000000000000e+01
2.122082233428955078e+00 -1.328600525856018066e+00 -6.708589792251586914e-01 1.500000000000000000e+01
2.473741054534912109e+00 -1.549970507621764915e+00 -6.739533543586730957e-01 1.200000000000000000e+01
2.921070575714110884e+00 -1.830963611602782981e+00 -6.701211929321289062e-01 1.100000000000000000e+01
3.577696800231934038e+00 -2.244285106658935991e+00 -6.689137816429138184e-01 1.000000000000000000e+01
4.554497718811035156e+00 -2.859246969223022017e+00 -6.602880954742431641e-01 1.300000000000000000e+01
6.546499729156494141e+00 -4.111389636993408203e+00 -6.763285398483276367e-01 1.000000000000000000e+00
2.128868341445922852e+00 -1.343215942382812944e+00 -6.744824051856994629e-01 1.600000000000000000e+01
2.458429098129272017e+00 -1.552353262901305930e+00 -6.712539196014404297e-01 1.200000000000000000e+01
2.919641017913817915e+00 -1.844294309616089089e+00 -6.712660193443298340e-01 1.000000000000000000e+01
3.569841146469116211e+00 -2.256759881973267046e+00 -6.689137816429138184e-01 1.000000000000000000e+01
4.529391288757324219e+00 -2.865575790405272993e+00 -6.580944657325744629e-01 1.600000000000000000e+01
6.552310466766357422e+00 -4.147002220153808594e+00 -6.784203052520751953e-01 2.000000000000000000e+00
4.517966461181641336e+01 -2.863871574401855113e+01 -9.337037205696105957e-01 1.400000000000000000e+01
2.124166727066040039e+00 -1.350638866424560991e+00 -6.744824051856994629e-01 1.500000000000000000e+01
2.456283569335937944e+00 -1.563017725944519043e+00 -6.721537709236145020e-01 1.100000000000000000e+01
2.909873247146606001e+00 -1.852365970611572044e+00 -6.705027818679809570e-01 1.200000000000000000e+01
3.555277824401855025e+00 -2.264961719512939009e+00 -6.676623225212097168e-01 1.000000000000000000e+01
4.522708892822265625e+00 -2.883503198623656782e+00 -6.585819125175476074e-01 1.600000000000000000e+01
6.527716159820556641e+00 -4.163420677185058594e+00 -6.773744225502014160e-01 1.000000000000000000e+00
4.516368484497070312e+01 -2.885007286071776988e+01 -9.354490041732788086e-01 1.400000000000000000e+01
2.117812633514403853e+00 -1.357003092765808105e+00 -6.739647984504699707e-01 1.600000000000000000e+01
2.463936090469359907e+00 -1.579997658729553001e+00 -6.757529377937316895e-01 1.200000000000000000e+01
2.898432016372681108e+00 -1.859331965446471946e+00 -6.693579554557800293e-01 1.100000000000000000e+01
3.572284460067749023e+00 -2.293365716934204102e+00 -6.723553538322448730e-01 9.000000000000000000e+00
4.529316902160645419e+00 -2.910002946853638139e+00 -6.610193252563476562e-01 1.900000000000000000e+01
6.543312072753906250e+00 -4.205571651458740234e+00 -6.805120110511779785e-01 0.000000000000000000e+00
2.108669042587279829e+00 -1.360507607460021973e+00 -6.724118590354919434e-01 1.500000000000000000e+01
2.462234497070312944e+00 -1.589844703674315962e+00 -6.766527891159057617e-01 1.200000000000000000e+01
2.902471303939818892e+00 -1.874819874763488992e+00 -6.716476678848266602e-01 1.200000000000000000e+01
3.560085058212279829e+00 -2.301359891891479048e+00 -6.714166998863220215e-01 1.000000000000000000e+01
4.545153617858886719e+00 -2.940391540527344194e+00 -6.646754145622253418e-01 4.300000000000000000e+01
6.509995937347412109e+00 -4.213117122650145596e+00 -6.784203052520751953e-01 3.000000000000000000e+00
2.103907108306885210e+00 -1.367859959602355957e+00 -6.724118590354919434e-01 1.600000000000000000e+01
2.453402996063231978e+00 -1.596304297447205034e+00 -6.757529377937316895e-01 1.100000000000000000e+01
2.905781745910644975e+00 -1.891365885734558105e+00 -6.739373803138732910e-01 1.200000000000000000e+01
3.545409440994263139e+00 -2.309460163116455078e+00 -6.701652407646179199e-01 1.000000000000000000e+01
4.526546955108642578e+00 -2.950819015502930132e+00 -6.634566783905029297e-01 1.900000000000000000e+01
6.506931781768798828e+00 -4.243433952331542969e+00 -6.796404719352722168e-01 3.000000000000000000e+00
2.102351427078247070e+00 -1.377313017845154031e+00 -6.734471321105957031e-01 1.600000000000000000e+01
2.438037872314453125e+00 -1.598447561264038086e+00 -6.730535626411437988e-01 1.100000000000000000e+01
2.894237041473389116e+00 -1.898267269134521040e+00 -6.727924942970275879e-01 1.200000000000000000e+01
3.545583486557006836e+00 -2.327241659164429155e+00 -6.717295646667480469e-01 9.000000000000000000e+00
4.517878532409667969e+00 -2.967691421508789062e+00 -6.637004613876342773e-01 1.700000000000000000e+01
6.503735065460205078e+00 -4.273780822753906250e+00 -6.808606386184692383e-01 3.000000000000000000e+00
2.107204437255858931e+00 -1.391028881072998047e+00 -6.765530109405517578e-01 1.500000000000000000e+01
2.445451021194458008e+00 -1.615541458129883035e+00 -6.766527891159057617e-01 1.100000000000000000e+01
2.884317398071289062e+00 -1.906193614006042036e+00 -6.720292568206787109e-01 1.100000000000000000e+01
3.547323942184447798e+00 -2.346142053604125977e+00 -6.736068129539489746e-01 1.000000000000000000e+01
4.515768527984619141e+00 -2.988921880722045898e+00 -6.649191379547119141e-01 1.600000000000000000e+01
6.483793735504150391e+00 -4.293157100677490234e+00 -6.803377270698547363e-01 3.000000000000000000e+00
2.099118947982788086e+00 -1.396236181259155051e+00 -6.755176782608032227e-01 1.800000000000000000e+01
2.443041324615478960e+00 -1.626227498054503950e+00 -6.775525808334350586e-01 1.100000000000000000e+01
2.877645969390869141e+00 -1.916250109672545943e+00 -6.720292568206787109e-01 1.100000000000000000e+01
3.544044017791748047e+00 -2.361796617507935014e+00 -6.745454072952270508e-01 1.000000000000000000e+01
4.502004623413085938e+00 -3.002463817596435991e+00 -6.644316315650939941e-01 2.200000000000000000e+01
6.465453624725341797e+00 -4.313551902770996094e+00 -6.799890995025634766e-01 3.000000000000000000e+00
2.087813377380371094e+00 -1.399252891540526900e+00 -6.734471321105957031e-01 2.300000000000000000e+01
2.434112787246704102e+00 -1.632574439048767090e+00 -6.766527891159057617e-01 1.100000000000000000e+01
2.867678880691527876e+00 -1.924095630645751953e+00 -6.712660193443298340e-01 1.100000000000000000e+01
3.525938510894774947e+00 -2.367546319961547852e+00 -6.726682186126708984e-01 1.000000000000000000e+01
4.517858982086181641e+00 -3.035875320434569868e+00 -6.683315038681030273e-01 2.900000000000000000e+01
6.435475349426270419e+00 -4.326090335845947266e+00 -6.784203052520751953e-01 4.000000000000000000e+00
2.088827610015869141e+00 -1.411585807800292969e+00 -6.755176782608032227e-01 2.300000000000000000e+01
2.427826404571533203e+00 -1.641908764839171919e+00 -6.766527891159057617e-01 1.100000000000000000e+01
2.876530408859252930e+00 -1.946093559265136941e+00 -6.750822067260742188e-01 1.200000000000000000e+01
3.511914730072021040e+00 -2.377744913101195845e+00 -6.717295646667480469e-01 1.000000000000000000e+01
4.511098861694335938e+00 -3.056540727615356001e+00 -6.690626740455627441e-01 2.100000000000000000e+01
6.405622959136962891e+00 -4.341825962066650391e+00 -6.770257949829101562e-01 5.000000000000000000e+00
2.088678121566772017e+00 -1.422130346298217995e+00 -6.770706176757812500e-01 2.400000000000000000e+01
2.418859481811522993e+00 -1.648178815841675027e+00 -6.757529377937316895e-01 1.100000000000000000e+01
2.876208782196044922e+00 -1.960545778274535911e+00 -6.766086816787719727e-01 1.100000000000000000e+01
3.505225181579589844e+00 -2.391102552413939986e+00 -6.720424890518188477e-01 1.000000000000000000e+01
4.516797065734863281e+00 -3.083461046218872070e+00 -6.715000867843627930e-01 2.200000000000000000e+01
6.369039058685302734e+00 -4.349552154541015625e+00 -6.747597455978393555e-01 4.000000000000000000e+00
2.087387084960937944e+00 -1.430869698524475098e+00 -6.781058907508850098e-01 2.500000000000000000e+01
2.416883468627930132e+00 -1.657974481582642046e+00 -6.766527891159057617e-01 1.100000000000000000e+01
2.861941576004027876e+00 -1.964017629623413086e+00 -6.747006177902221680e-01 1.200000000000000000e+01
3.510722875595093218e+00 -2.411049127578734907e+00 -6.745454072952270508e-01 1.000000000000000000e+01
4.511995792388916016e+00 -3.101008653640747070e+00 -6.722313165664672852e-01 2.400000000000000000e+01
6.325790882110595703e+00 -4.349221706390380859e+00 -6.716221570968627930e-01 6.000000000000000000e+00
2.082379579544066939e+00 -1.438147306442260964e+00 -6.781058907508850098e-01 2.400000000000000000e+01
2.414287567138671875e+00 -1.668616771697998047e+00 -6.775525808334350586e-01 1.200000000000000000e+01
2.846994161605834961e+00 -1.968413114547729048e+00 -6.727924942970275879e-01 1.100000000000000000e+01
3.515280723571776900e+00 -2.432280778884888139e+00 -6.770483851432800293e-01 1.000000000000000000e+01
4.520728111267089844e+00 -3.130300521850585938e+00 -6.751561760902404785e-01 2.800000000000000000e+01
6.277814388275145596e+00 -4.348586082458496094e+00 -6.681359410285949707e-01 6.000000000000000000e+00
2.072589635848999023e+00 -1.442097306251526101e+00 -6.765530109405517578e-01 2.300000000000000000e+01
2.416444540023804155e+00 -1.682601928710937944e+00 -6.798020601272583008e-01 1.200000000000000000e+01
2.843327760696411133e+00 -1.980583310127258079e+00 -6.735557317733764648e-01 1.100000000000000000e+01
3.500287055969237837e+00 -2.440018177032471147e+00 -6.757968664169311523e-01 1.000000000000000000e+01
4.517914295196533203e+00 -3.151740550994873047e+00 -6.763748526573181152e-01 2.200000000000000000e+01
6.264230251312255859e+00 -4.371613025665283203e+00 -6.683102250099182129e-01 6.000000000000000000e+00
2.070706844329833984e+00 -1.451540946960448997e+00 -6.775882840156555176e-01 2.300000000000000000e+01
2.405770301818848100e+00 -1.687669157981873003e+00 -6.784523725509643555e-01 1.100000000000000000e+01
2.842824935913085938e+00 -1.995007276535033958e+00 -6.750822067260742188e-01 1.100000000000000000e+01
3.488515377044678178e+00 -2.449950933456420898e+00 -6.751711368560791016e-01 1.000000000000000000e+01
4.521502017974854404e+00 -3.177764892578125000e+00 -6.785684823989868164e-01 1.700000000000000000e+01
6.248932361602783203e+00 -4.393452644348145419e+00 -6.683102250099182129e-01 7.000000000000000000e+00
2.072194814682006836e+00 -1.462856173515320046e+00 -6.796588301658630371e-01 2.600000000000000000e+01
2.393794059753417969e+00 -1.691140055656433105e+00 -6.766527891159057617e-01 1.100000000000000000e+01
2.839400291442871094e+00 -2.006689548492432085e+00 -6.758454442024230957e-01 1.200000000000000000e+01
3.473920822143555132e+00 -2.456943273544311968e+00 -6.739196777343750000e-01 1.000000000000000000e+01
4.506078243255615234e+00 -3.189300775527954102e+00 -6.778373122215270996e-01 1.500000000000000000e+01
6.188798904418945312e+00 -4.381914138793945312e+00 -6.634294986724853516e-01 7.000000000000000000e+00
2.071798801422119141e+00 -1.473439574241637962e+00 -6.812117099761962891e-01 2.400000000000000000e+01
2.391051769256591797e+00 -1.701745629310607910e+00 -6.775525808334350586e-01 1.100000000000000000e+01
2.825980901718140093e+00 -2.012034177780150923e+00 -6.743189692497253418e-01 1.100000000000000000e+01
3.484628677368164062e+00 -2.482809782028197798e+00 -6.776741147041320801e-01 1.000000000000000000e+01
4.472290039062500000e+00 -3.188875913619995117e+00 -6.744249463081359863e-01 1.500000000000000000e+01
6.171843528747558594e+00 -4.402333259582520419e+00 -6.632552146911621094e-01 1.000000000000000000e+01
2.057220697402954102e+00 -1.473911762237549050e+00 -6.781058907508850098e-01 2.200000000000000000e+01
2.394599437713623047e+00 -1.716894626617432085e+00 -6.802520155906677246e-01 1.100000000000000000e+01
2.822131156921387163e+00 -2.024174928665161133e+00 -6.750822067260742188e-01 1.100000000000000000e+01
3.480755329132080078e+00 -2.498413801193236861e+00 -6.786127090454101562e-01 1.000000000000000000e+01
4.491764545440673828e+00 -3.226471662521361861e+00 -6.790559887886047363e-01 1.500000000000000000e+01
6.127315521240234375e+00 -4.402922630310058594e+00 -6.601175665855407715e-01 1.200000000000000000e+01
2.055196046829224077e+00 -1.483345031738281028e+00 -6.791411638259887695e-01 2.400000000000000000e+01
2.394910812377930132e+00 -1.729807019233704057e+00 -6.820515990257263184e-01 1.100000000000000000e+01
2.815048217773437944e+00 -2.034013509750366211e+00 -6.750822067260742188e-01 1.100000000000000000e+01
3.464009284973144975e+00 -2.504761457443236861e+00 -6.770483851432800293e-01 1.000000000000000000e+01
4.488515853881835938e+00 -3.247949838638306108e+00 -6.802746653556823730e-01 1.400000000000000000e+01
6.102225303649902344e+00 -4.417274475097656250e+00 -6.590717434883117676e-01 1.000000000000000000e+01
2.054693222045897993e+00 -1.493918061256408913e+00 -6.806941032409667969e-01 2.300000000000000000e+01
2.382555007934569868e+00 -1.733570098876952903e+00 -6.802520155906677246e-01 1.100000000000000000e+01
2.807931184768677202e+00 -2.043827533721923828e+00 -6.750822067260742188e-01 1.100000000000000000e+01
3.452051401138306108e+00 -2.514511585235596147e+00 -6.764226555824279785e-01 1.000000000000000000e+01
4.491588115692138672e+00 -3.274121761322021040e+00 -6.824682950973510742e-01 1.500000000000000000e+01
6.048132896423339844e+00 -4.410374641418457031e+00 -6.548882722854614258e-01 1.100000000000000000e+01
