-5.735022544860839844e+00 2.594228386878966730e-01 -7.048922777175903320e-01 1.100000000000000000e+01
-8.323595046997070312e+00 3.779722452163695734e-01 -7.289706468582153320e-01 2.000000000000000000e+00
-3.441019439697266336e+01 1.586630821228026900e+00 -6.012703180313110352e-01 1.300000000000000000e+01
-2.551030635833739790e+00 1.211960241198540011e-01 -6.843175292015075684e-01 2.300000000000000000e+01
-4.475032806396483664e+01 2.133855819702147993e+00 7.820074558258056641e-01 4.800000000000000000e+01
-2.931447505950928178e+00 1.402947008609772006e-01 -6.775525808334350586e-01 1.200000000000000000e+01
-4.499829483032227273e+01 2.161423206329346147e+00 2.360979557037353960e+00 3.500000000000000000e+01
-3.494490385055541992e+00 1.678524017333984097e-01 -6.800432801246643066e-01 1.200000000000000000e+01
-4.481855010986328125e+01 2.160629749298096147e+00 3.925668954849243164e+00 5.400000000000000000e+01
-4.332858562469482422e+00 2.096380889415740967e-01 -6.870601773262023926e-01 1.000000000000000000e+01
-5.738047599792479581e+00 2.796334624290465753e-01 -7.053797841072082520e-01 1.100000000000000000e+01
-8.306304931640625000e+00 4.062460958957672119e-01 -7.275761365890502930e-01 2.000000000000000000e+00
-3.435651016235352273e+01 1.704357266426085982e+00 -6.004325747489929199e-01 1.300000000000000000e+01
-2.558263540267943892e+00 1.313866972923279086e-01 -6.863881349563598633e-01 2.300000000000000000e+01
-4.474580001831054688e+01 2.305874586105347124e+00 7.820772528648376465e-01 4.800000000000000000e+01
-2.928941011428833008e+00 1.514489650726318082e-01 -6.771026849746704102e-01 1.300000000000000000e+01
-3.491859436035155806e+00 1.811672896146774014e-01 -6.796616315841674805e-01 1.100000000000000000e+01
-4.483777999877929688e+01 2.334154367446898970e+00 3.928109407424927202e+00 5.400000000000000000e+01
-4.335967063903808594e+00 2.264795750379562100e-01 -6.876859068870544434e-01 1.000000000000000000e+01
-5.725037097930908203e+00 3.010384440422058105e-01 -7.039173245429992676e-01 1.100000000000000000e+01
-8.290756225585937500e+00 4.374021589756011963e-01 -7.263559699058532715e-01 3.000000000000000000e+00
-1.580600357055664062e+01 8.394229412078857422e-01 -8.295249342918395996e-01 4.000000000000000000e+00
-3.436568832397460938e+01 1.837117910385132058e+00 -6.007118225097656250e-01 1.300000000000000000e+01
-2.563576221466064009e+00 1.406333595514296930e-01 -6.879410147666931152e-01 2.700000000000000000e+01
-4.474945831298828125e+01 2.462711811065673828e+00 7.822866439819335938e-01 4.800000000000000000e+01
-2.932286024093627930e+00 1.618867963552474976e-01 -6.780024766921997070e-01 1.300000000000000000e+01
-3.501007080078125000e+00 1.938978880643844882e-01 -6.815697550773620605e-01 1.100000000000000000e+01
-4.485323333740233664e+01 2.491979598999022993e+00 3.930201053619385210e+00 5.400000000000000000e+01
-4.339094638824462891e+00 2.418333888053894043e-01 -6.883116364479064941e-01 1.000000000000000000e+01
-5.692239761352539062e+00 3.192422091960906982e-01 -7.000175118446350098e-01 1.000000000000000000e+01
-8.295146942138671875e+00 4.666753709316254217e-01 -7.268788814544677734e-01 2.000000000000000000e+00
-1.580297756195068004e+01 8.945910930633544922e-01 -8.295249342918395996e-01 4.000000000000000000e+00
-3.435108184814453125e+01 1.956610441207885964e+00 -6.005722284317016602e-01 1.900000000000000000e+01
-2.543835639953612837e+00 1.475675851106643954e-01 -6.827646493911743164e-01 2.400000000000000000e+01
-4.472552871704102273e+01 2.602354764938354048e+00 7.820074558258056641e-01 4.800000000000000000e+01
-2.935653924942017046e+00 1.713251024484634122e-01 -6.789022684097290039e-01 1.300000000000000000e+01
-3.484701395034790039e+00 2.039778530597687045e-01 -6.785168051719665527e-01 1.200000000000000000e+01
-4.483722686767578125e+01 2.632410526275635210e+00 3.929503917694091797e+00 5.400000000000000000e+01
-4.338313579559326172e+00 2.554638385772705078e-01 -6.883116364479064941e-01 1.000000000000000000e+01
-5.711025238037109375e+00 3.382971286773682196e-01 -7.024549245834350586e-01 1.100000000000000000e+01
-8.275739669799804688e+00 4.916695356369019110e-01 -7.253100872039794922e-01 3.000000000000000000e+00
-3.434476470947266336e+01 2.064517736434936968e+00 -6.005722284317016602e-01 1.300000000000000000e+01
-2.541376829147338867e+00 1.563277095556258878e-01 -6.822469830513000488e-01 2.100000000000000000e+01
-4.476806640625000000e+01 2.761661291122436968e+00 7.829149365425109863e-01 4.800000000000000000e+01
-2.938927888870238814e+00 1.818120628595351895e-01 -6.798020601272583008e-01 1.300000000000000000e+01
-3.487887144088745117e+00 2.163836210966109952e-01 -6.792800426483154297e-01 1.100000000000000000e+01
-4.481185531616210938e+01 2.787915945053101030e+00 3.928109407424927202e+00 5.400000000000000000e+01
-4.333452224731445312e+00 2.703598141670227051e-01 -6.876859068870544434e-01 1.000000000000000000e+01
-5.705847263336181641e+00 3.579816818237305243e-01 -7.019674181938171387e-01 1.100000000000000000e+01
-8.244146347045898438e+00 5.186777114868164062e-01 -7.226954102516174316e-01 2.000000000000000000e+00
-3.432537460327147727e+01 2.183629035949707031e+00 -6.003627777099609375e-01 1.900000000000000000e+01
-2.529220342636107954e+00 1.648872196674346924e-01 -6.791411638259887695e-01 1.600000000000000000e+01
-4.473768997192382812e+01 2.924421548843383789e+00 7.825658917427062988e-01 4.800000000000000000e+01
-2.930463552474976030e+00 1.920727342367171964e-01 -6.780024766921997070e-01 1.200000000000000000e+01
-3.490988731384276900e+00 2.294234037399291992e-01 -6.800432801246643066e-01 1.200000000000000000e+01
-4.485700225830078125e+01 2.955808877944945845e+00 3.932990074157714844e+00 5.400000000000000000e+01
-4.316663742065429688e+00 2.851990759372711182e-01 -6.851829290390014648e-01 1.000000000000000000e+01
-5.696573734283447266e+00 3.783660233020781916e-01 -7.009924650192260742e-01 1.100000000000000000e+01
-8.250142097473144531e+00 5.494201183319091797e-01 -7.233926653861999512e-01 3.000000000000000000e+00
-3.431913375854492188e+01 2.309557437896728960e+00 -6.003977060317993164e-01 1.900000000000000000e+01
-2.524774789810181108e+00 1.734500378370285034e-01 -6.781058907508850098e-01 1.300000000000000000e+01
-4.474715805053710938e+01 3.081941366195679155e+00 7.829149365425109863e-01 4.800000000000000000e+01
-2.918110609054564986e+00 2.014953345060349066e-01 -6.753030419349670410e-01 1.200000000000000000e+01
-3.490166664123535156e+00 2.416078299283981046e-01 -6.800432801246643066e-01 1.200000000000000000e+01
-4.485038757324218750e+01 3.112647056579589844e+00 3.933338642120360884e+00 5.400000000000000000e+01
-4.315641880035400391e+00 3.002653121948242188e-01 -6.851829290390014648e-01 1.000000000000000000e+01
-5.683336734771729404e+00 3.974176347255706787e-01 -6.995300054550170898e-01 1.000000000000000000e+01
-8.244198799133300781e+00 5.779364705085754395e-01 -7.230440378189086914e-01 3.000000000000000000e+00
-3.434876251220703125e+01 2.432023048400878906e+00 -6.010608673095703125e-01 1.300000000000000000e+01
-2.524153947830200195e+00 1.822620928287506104e-01 -6.781058907508850098e-01 1.300000000000000000e+01
-4.472814941406250000e+01 3.237541913986206055e+00 7.827753424644470215e-01 4.800000000000000000e+01
-2.919332981109619141e+00 2.118212431669234952e-01 -6.757529377937316895e-01 1.400000000000000000e+01
-3.489301919937133789e+00 2.537893056869506836e-01 -6.800432801246643066e-01 1.100000000000000000e+01
-4.487501525878906250e+01 3.271792888641356978e+00 3.936476230621337891e+00 5.400000000000000000e+01
-4.310627460479736328e+00 3.150399029254912775e-01 -6.845571994781494141e-01 1.000000000000000000e+01
-4.497085189819335938e+01 3.294561862945557085e+00 5.536524295806884766e+00 3.800000000000000000e+01
-5.670036315917968750e+00 4.163814485073090155e-01 -6.980676054954528809e-01 1.000000000000000000e+01
-8.218286514282226562e+00 6.049553751945495605e-01 -7.209523320198059082e-01 2.000000000000000000e+00
-3.430416870117188211e+01 2.549240112304687944e+00 -6.004325747489929199e-01 1.300000000000000000e+01
-2.529281377792357954e+00 1.915094852447510043e-01 -6.796588301658630371e-01 1.400000000000000000e+01
-4.476443099975585938e+01 3.397284269332886186e+00 7.836130261421203613e-01 4.800000000000000000e+01
-2.924405336380004883e+00 2.224537581205368042e-01 -6.771026849746704102e-01 1.300000000000000000e+01
-4.496023178100585938e+01 3.420036315917969194e+00 2.363073110580443892e+00 3.500000000000000000e+01
-3.480564594268798828e+00 2.653706967830657959e-01 -6.785168051719665527e-01 1.100000000000000000e+01
-4.485140228271483664e+01 3.427505016326903853e+00 3.935430526733397993e+00 5.400000000000000000e+01
-4.317379951477050781e+00 3.306883275508881170e-01 -6.858087182044982910e-01 1.000000000000000000e+01
-4.486011505126953125e+01 3.443922042846680132e+00 5.524337291717529297e+00 3.700000000000000000e+01
-5.668548583984375000e+00 4.361710250377655029e-01 -6.980676054954528809e-01 1.000000000000000000e+01
-8.208179473876953125e+00 6.330260634422302246e-01 -7.202550768852233887e-01 2.000000000000000000e+00
-3.431898498535156250e+01 2.670830488204956055e+00 -6.008514761924743652e-01 2.000000000000000000e+01
-2.517112016677856001e+00 1.985430568456650058e-01 -6.765530109405517578e-01 1.300000000000000000e+01
-4.474157714843750000e+01 3.536953449249268022e+00 7.834036350250244141e-01 4.800000000000000000e+01
-2.919806718826293945e+00 2.313321083784103116e-01 -6.762028932571411133e-01 1.300000000000000000e+01
-4.490944290161132812e+01 3.558110952377318892e+00 2.360979557037353960e+00 3.500000000000000000e+01
-3.471885204315185991e+00 2.756822705268859863e-01 -6.769903302192687988e-01 1.100000000000000000e+01
-4.486424636840820312e+01 3.570289373397827148e+00 3.937522172927856001e+00 5.400000000000000000e+01
-4.308443069458007812e+00 3.436219394207000732e-01 -6.845571994781494141e-01 1.000000000000000000e+01
-4.490052413940429688e+01 3.588949203491210938e+00 5.530674457550048828e+00 3.800000000000000000e+01
-5.655277729034423828e+00 4.530260562896729071e-01 -6.966051459312438965e-01 1.000000000000000000e+01
-8.174373626708984375e+00 6.562585830688476562e-01 -7.174660563468933105e-01 1.000000000000000000e+00
-3.433832931518554688e+01 2.780893087387084961e+00 -6.013401150703430176e-01 2.000000000000000000e+01
-2.512552976608275923e+00 2.070109546184540072e-01 -6.755176782608032227e-01 1.400000000000000000e+01
-4.468511581420897727e+01 3.689489126205443892e+00 7.826356887817382812e-01 4.800000000000000000e+01
-2.917039394378662109e+00 2.413620352745055875e-01 -6.757529377937316895e-01 1.400000000000000000e+01
-3.486554145812987837e+00 2.890976071357727051e-01 -6.800432801246643066e-01 1.100000000000000000e+01
-4.485150909423828125e+01 3.726873159408568892e+00 3.937522172927856001e+00 5.400000000000000000e+01
-4.299343109130859375e+00 3.580034375190734863e-01 -6.833057403564453125e-01 1.000000000000000000e+01
-4.487981033325195312e+01 3.744999170303345171e+00 5.529699802398681641e+00 3.800000000000000000e+01
-5.661574363708496094e+00 4.734255671501160223e-01 -6.975800991058349609e-01 1.000000000000000000e+01
-8.166077613830566406e+00 6.842893958091735840e-01 -7.169431447982788086e-01 2.000000000000000000e+00
-3.432243728637695312e+01 2.900234222412108931e+00 -6.012353897094726562e-01 2.000000000000000000e+01
-2.519476175308227983e+00 2.168812602758407870e-01 -6.775882840156555176e-01 1.300000000000000000e+01
-4.468722915649414062e+01 3.854618310928345171e+00 7.829149365425109863e-01 4.800000000000000000e+01
-2.910310506820679155e+00 2.515484690666198730e-01 -6.744032502174377441e-01 1.500000000000000000e+01
-3.483515262603760210e+00 3.017051219940186102e-01 -6.796616315841674805e-01 1.000000000000000000e+01
-4.486533737182617188e+01 3.893648862838745117e+00 3.939962625503540039e+00 5.400000000000000000e+01
-4.286194324493408203e+00 3.727321028709412176e-01 -6.814285516738891602e-01 1.000000000000000000e+01
-4.486380386352539062e+01 3.909294366836547852e+00 5.529455661773681641e+00 3.800000000000000000e+01
-5.655846118927001953e+00 4.938277602195739746e-01 -6.970926523208618164e-01 1.000000000000000000e+01
-8.165498733520507812e+00 7.143886089324951172e-01 -7.171174287796020508e-01 1.000000000000000000e+00
-1.536964416503906072e+01 1.350075960159301980e+00 -8.085905313491821289e-01 4.000000000000000000e+00
-3.428368759155272727e+01 3.023553371429442915e+00 -6.007467508316040039e-01 1.900000000000000000e+01
-2.526400327682495117e+00 2.263641655445098877e-01 -6.796588301658630371e-01 1.300000000000000000e+01
-4.471731948852539062e+01 4.014515876770020419e+00 7.836828827857971191e-01 4.800000000000000000e+01
-2.911355733871459961e+00 2.618803977966309149e-01 -6.748531460762023926e-01 1.400000000000000000e+01
-3.476574897766112837e+00 3.133343160152434748e-01 -6.785168051719665527e-01 1.100000000000000000e+01
-4.485147476196289062e+01 4.050234317779541016e+00 3.939962625503540039e+00 5.400000000000000000e+01
-4.296671390533447266e+00 3.887594640254973810e-01 -6.833057403564453125e-01 1.000000000000000000e+01
-4.486174774169921875e+01 4.066949844360351562e+00 5.530918121337890625e+00 3.800000000000000000e+01
-5.626410484313964844e+00 5.110533833503723145e-01 -6.936802864074707031e-01 1.000000000000000000e+01
-8.151050567626953125e+00 7.418037056922912598e-01 -7.160716056823730469e-01 2.000000000000000000e+00
-1.536483860015868963e+01 1.403717756271362083e+00 -8.085905313491821289e-01 4.000000000000000000e+00
-3.430478668212891336e+01 3.146129369735718218e+00 -6.013051867485046387e-01 2.000000000000000000e+01
-2.517859697341918945e+00 2.349045574665070135e-01 -6.775882840156555176e-01 1.300000000000000000e+01
-4.472619628906250000e+01 4.180619239807128906e+00 7.841017246246337891e-01 4.800000000000000000e+01
-2.914256811141968218e+00 2.729126811027526855e-01 -6.757529377937316895e-01 1.400000000000000000e+01
-3.459765672683715820e+00 3.246073424816132147e-01 -6.754638552665710449e-01 1.100000000000000000e+01
-4.486409759521483664e+01 4.217206478118895596e+00 3.942402839660644975e+00 5.400000000000000000e+01
-4.301117420196533203e+00 4.050605595111846924e-01 -6.842443346977233887e-01 9.000000000000000000e+00
-4.485049057006835938e+01 4.231721878051757812e+00 5.531405925750732422e+00 3.800000000000000000e+01
-5.620547294616699219e+00 5.312981009483337402e-01 -6.931928396224975586e-01 1.000000000000000000e+01
-8.124474525451660156e+00 7.694196701049804688e-01 -7.139798402786254883e-01 1.000000000000000000e+00
-3.432089614868164062e+01 3.274500608444213867e+00 -6.017938852310180664e-01 2.000000000000000000e+01
-2.511255979537963867e+00 2.431335896253586093e-01 -6.760353446006774902e-01 1.400000000000000000e+01
-4.478298568725585938e+01 4.343667507171630859e+00 7.853583097457885742e-01 4.900000000000000000e+01
-2.917165517807006836e+00 2.834606170654296875e-01 -6.766527891159057617e-01 1.400000000000000000e+01
-3.466427564620972124e+00 3.374430835247039795e-01 -6.769903302192687988e-01 1.100000000000000000e+01
-4.487290191650391336e+01 4.376106262207031250e+00 3.944494724273682085e+00 5.400000000000000000e+01
-4.285915374755859375e+00 4.187272787094116211e-01 -6.820542812347412109e-01 1.000000000000000000e+01
-4.487496185302733664e+01 4.392120838165283203e+00 5.536280632019042969e+00 3.800000000000000000e+01
-5.618658542633056641e+00 5.509142875671386719e-01 -6.931928396224975586e-01 1.000000000000000000e+01
-8.131653785705566406e+00 7.987485527992248535e-01 -7.148513793945312500e-01 2.000000000000000000e+00
-1.515563774108887074e+01 1.494035482406615989e+00 -7.981233596801757812e-01 4.000000000000000000e+00
-3.424756622314453125e+01 3.388179779052733931e+00 -6.007118225097656250e-01 1.900000000000000000e+01
-2.512402057647705078e+00 2.512139379978179932e-01 -6.765530109405517578e-01 1.300000000000000000e+01
-4.476911926269531250e+01 4.484335899353027344e+00 7.853583097457885742e-01 4.900000000000000000e+01
-2.908504724502563032e+00 2.918455004692078192e-01 -6.748531460762023926e-01 1.300000000000000000e+01
-3.457536697387694868e+00 3.475460708141326904e-01 -6.754638552665710449e-01 1.100000000000000000e+01
-4.487082672119141336e+01 4.518254756927490234e+00 3.945540428161621094e+00 5.400000000000000000e+01
-4.276717185974121094e+00 4.313967823982238770e-01 -6.808027625083923340e-01 1.000000000000000000e+01
-4.488069152832031250e+01 4.535073757171630859e+00 5.538717746734619141e+00 3.800000000000000000e+01
-5.636649608612061435e+00 5.705622434616088867e-01 -6.956301927566528320e-01 1.000000000000000000e+01
-8.107299804687500000e+00 8.220798969268798828e-01 -7.129339575767517090e-01 2.000000000000000000e+00
-1.515086936950683949e+01 1.541640877723694070e+00 -7.981233596801757812e-01 4.000000000000000000e+00
-3.423675155639647727e+01 3.495754718780518022e+00 -6.007118225097656250e-01 1.300000000000000000e+01
-2.505744934082030806e+00 2.593855559825897217e-01 -6.750000715255737305e-01 1.500000000000000000e+01
-4.476910400390625000e+01 4.642231941223145419e+00 7.856375575065612793e-01 4.900000000000000000e+01
-2.895838260650635210e+00 3.007883131504058838e-01 -6.721537709236145020e-01 1.400000000000000000e+01
-3.460207939147949219e+00 3.600193560123444159e-01 -6.762270927429199219e-01 1.200000000000000000e+01
-4.489044952392578125e+01 4.678573131561279297e+00 3.948678016662598100e+00 5.400000000000000000e+01
-4.279114723205566406e+00 4.467328786849976141e-01 -6.814285516738891602e-01 1.000000000000000000e+01
-4.484879302978516336e+01 4.690057277679443359e+00 5.536767959594726562e+00 7.600000000000000000e+01
-5.605009555816650391e+00 5.871321558952331543e-01 -6.919741034507751465e-01 1.200000000000000000e+01
-8.102398872375488281e+00 8.501667380332946777e-01 -7.127596735954284668e-01 2.000000000000000000e+00
-3.424422836303710938e+01 3.617342710494995117e+00 -6.010608673095703125e-01 1.300000000000000000e+01
-2.510586977005004883e+00 2.687475383281707764e-01 -6.765530109405517578e-01 1.400000000000000000e+01
-4.475660324096679688e+01 4.798902988433837891e+00 7.857073545455932617e-01 4.900000000000000000e+01
-2.902521133422852007e+00 3.117272257804871161e-01 -6.739533543586730957e-01 1.400000000000000000e+01
-4.499032592773438211e+01 4.839848995208740234e+00 2.371446847915648970e+00 3.500000000000000000e+01
-3.456978082656859907e+00 3.718855679035186768e-01 -6.758454442024230957e-01 1.200000000000000000e+01
-4.487384414672852273e+01 4.835241317749023438e+00 3.948678016662598100e+00 5.400000000000000000e+01
-4.259853363037109375e+00 4.597593545913695734e-01 -6.786127090454101562e-01 9.000000000000000000e+00
-4.485583114624022727e+01 4.849140167236328125e+00 5.539692878723145419e+00 7.600000000000000000e+01
-5.597005367279052734e+00 6.060526371002197266e-01 -6.912429332733154297e-01 1.000000000000000000e+01
-8.095420837402343750e+00 8.780145645141601562e-01 -7.124110460281372070e-01 2.000000000000000000e+00
-1.504046058654784979e+01 1.636572957038878950e+00 -7.928897142410278320e-01 4.000000000000000000e+00
-3.426717376708983664e+01 3.740761518478393999e+00 -6.016891598701477051e-01 1.300000000000000000e+01
-2.505793333053588867e+00 2.770848274230957031e-01 -6.755176782608032227e-01 1.300000000000000000e+01
-4.477933120727539062e+01 4.959506034851074219e+00 7.864054441452026367e-01 4.900000000000000000e+01
-2.909162759780883789e+00 3.227164447307587225e-01 -6.757529377937316895e-01 1.300000000000000000e+01
-3.442000150680541992e+00 3.824328184127808172e-01 -6.731741428375244141e-01 1.200000000000000000e+01
-4.487649536132813211e+01 4.994054317474365234e+00 3.950421094894409180e+00 5.400000000000000000e+01
-4.273928165435791016e+00 4.763768017292023260e-01 -6.811156868934631348e-01 1.000000000000000000e+01
-4.487808609008789062e+01 5.010091781616210938e+00 5.544567584991455078e+00 3.800000000000000000e+01
-5.602746963500976562e+00 6.264684796333312988e-01 -6.922178864479064941e-01 1.000000000000000000e+01
-8.078446388244628906e+00 9.047152996063232422e-01 -7.111908793449401855e-01 2.000000000000000000e+00
-1.493541717529297053e+01 1.677915096282958984e+00 -7.876561284065246582e-01 4.000000000000000000e+00
-3.419826889038085938e+01 3.854083061218262163e+00 -6.007118225097656250e-01 1.300000000000000000e+01
-2.500972032546997070e+00 2.853919565677642822e-01 -6.744824051856994629e-01 1.500000000000000000e+01
-4.477764129638671875e+01 5.117601394653320312e+00 7.866846919059753418e-01 4.900000000000000000e+01
-2.902210235595703125e+00 3.322044909000396729e-01 -6.744032502174377441e-01 1.300000000000000000e+01
-3.438693761825561968e+00 3.942216932773590088e-01 -6.727924942970275879e-01 1.200000000000000000e+01
-4.485879135131835938e+01 5.150672435760498047e+00 3.950421094894409180e+00 5.400000000000000000e+01
-4.268314361572265625e+00 4.908413290977478027e-01 -6.804898977279663086e-01 9.000000000000000000e+00
-4.486032485961914062e+01 5.166715145111083984e+00 5.544567584991455078e+00 7.700000000000000000e+01
-5.580805778503417969e+00 6.437472105026245117e-01 -6.897804737091064453e-01 1.000000000000000000e+01
-8.067322731018066406e+00 9.319941997528076172e-01 -7.104936242103576660e-01 2.000000000000000000e+00
-1.492947006225585938e+01 1.730039238929748979e+00 -7.876561284065246582e-01 4.000000000000000000e+00
-3.416871643066406250e+01 3.971586704254149947e+00 -6.004325747489929199e-01 1.900000000000000000e+01
-2.501879215240478960e+00 2.943459451198577881e-01 -6.750000715255737305e-01 1.500000000000000000e+01
-4.475950241088867188e+01 5.273873329162597656e+00 7.866846919059753418e-01 4.900000000000000000e+01
-2.901032924652100053e+00 3.423330783843994141e-01 -6.744032502174377441e-01 1.200000000000000000e+01
-3.447045326232910156e+00 4.073746502399445135e-01 -6.747006177902221680e-01 1.100000000000000000e+01
-4.488010787963867188e+01 5.311911106109619141e+00 3.953907489776610884e+00 5.400000000000000000e+01
-4.258728504180908203e+00 5.048074722290039062e-01 -6.792384386062622070e-01 9.000000000000000000e+00
-4.487553024291992188e+01 5.327253341674804688e+00 5.548711299896240234e+00 7.700000000000000000e+01
-5.592323303222656250e+00 6.648644208908081055e-01 -6.914866566658020020e-01 1.000000000000000000e+01
-8.056106567382812500e+00 9.592065215110778809e-01 -7.097963690757751465e-01 1.000000000000000000e+00
-1.492333984375000000e+01 1.782142281532288042e+00 -7.876561284065246582e-01 4.000000000000000000e+00
-3.416258621215820312e+01 4.091784954071044922e+00 -6.005722284317016602e-01 1.300000000000000000e+01
-2.504672050476074219e+00 3.035421967506409247e-01 -6.760353446006774902e-01 1.400000000000000000e+01
-4.478647994995117188e+01 5.435622692108154297e+00 7.874875068664550781e-01 4.900000000000000000e+01
-2.886278867721558061e+00 3.508116006851195734e-01 -6.712539196014404297e-01 1.300000000000000000e+01
-3.447551012039185014e+00 4.196418225765228271e-01 -6.750822067260742188e-01 1.200000000000000000e+01
-4.487316131591796875e+01 5.469985961914063388e+00 3.954953193664550781e+00 5.400000000000000000e+01
-4.254979610443115234e+00 5.194307565689086914e-01 -6.789255738258361816e-01 1.000000000000000000e+01
-4.486257171630858664e+01 5.484588623046875000e+00 5.549442291259765625e+00 7.700000000000000000e+01
-5.586027622222900391e+00 6.838987469673156738e-01 -6.909991502761840820e-01 1.000000000000000000e+01
-8.042820930480957031e+00 9.861093759536743164e-01 -7.089248299598693848e-01 2.000000000000000000e+00
-3.416397476196289062e+01 4.212967395782470703e+00 -6.008514761924743652e-01 2.000000000000000000e+01
-2.501680374145507812e+00 3.120441734790802002e-01 -6.755176782608032227e-01 1.500000000000000000e+01
-4.480691909790039062e+01 5.596880435943604404e+00 7.881855964660644531e-01 4.900000000000000000e+01
-2.888904094696044922e+00 3.613682091236115057e-01 -6.721537709236145020e-01 1.300000000000000000e+01
-3.444117307662963867e+00 4.314294457435607910e-01 -6.747006177902221680e-01 1.100000000000000000e+01
-4.488146972656250000e+01 5.630061149597167969e+00 3.957393646240233931e+00 5.400000000000000000e+01
-4.249220848083496094e+00 5.337877869606018066e-01 -6.782998442649841309e-01 1.000000000000000000e+01
-4.486285018920897727e+01 5.643632411956787109e+00 5.551879882812500000e+00 7.700000000000000000e+01
-5.556032657623291016e+00 6.999198794364929199e-01 -6.875868439674377441e-01 1.000000000000000000e+01
-8.015608787536621094e+00 1.011185646057128906e+00 -7.068330645561218262e-01 2.000000000000000000e+00
-1.471238803863525035e+01 1.861215591430664062e+00 -7.771889567375183105e-01 4.000000000000000000e+00
-3.411533355712891336e+01 4.327918052673339844e+00 -6.002580523490905762e-01 1.900000000000000000e+01
-2.502491950988769975e+00 3.210205435752869207e-01 -6.760353446006774902e-01 1.500000000000000000e+01
-4.481090927124022727e+01 5.756309032440186435e+00 7.886044383049011230e-01 4.900000000000000000e+01
-2.883759260177611861e+00 3.709529042243958075e-01 -6.712539196014404297e-01 1.300000000000000000e+01
-3.432854413986206055e+00 4.421949386596680243e-01 -6.727924942970275879e-01 1.200000000000000000e+01
-4.486154174804688211e+01 5.786692142486572266e+00 3.957393646240233931e+00 5.400000000000000000e+01
-4.257126808166503906e+00 5.498823523521423340e-01 -6.798641681671142578e-01 9.000000000000000000e+00
-4.488618469238281250e+01 5.805800437927246094e+00 5.557241916656494141e+00 7.700000000000000000e+01
-5.555524349212645596e+00 7.195647954940795898e-01 -6.878305673599243164e-01 1.000000000000000000e+01
-8.025861740112304688e+00 1.040953040122986062e+00 -7.080532312393188477e-01 1.000000000000000000e+00
-3.402665328979492188e+01 4.437408447265625000e+00 -5.989665985107421875e-01 1.900000000000000000e+01
-2.493695020675659180e+00 3.287439644336699884e-01 -6.739647984504699707e-01 1.500000000000000000e+01
-4.481433486938477273e+01 5.915833950042724609e+00 7.890232801437377930e-01 4.900000000000000000e+01
-2.890174627304077148e+00 3.820383548736572266e-01 -6.730535626411437988e-01 1.400000000000000000e+01
-3.437128782272338867e+00 4.549479782581328791e-01 -6.739373803138732910e-01 1.200000000000000000e+01
-4.489242553710938211e+01 5.950059413909912109e+00 3.961925745010375977e+00 5.400000000000000000e+01
-4.247348785400390625e+00 5.636996030807495117e-01 -6.786127090454101562e-01 9.000000000000000000e+00
-4.489319610595703125e+01 5.966108322143554688e+00 5.560654163360595703e+00 7.700000000000000000e+01
-5.556914329528808594e+00 7.394765019416809082e-01 -6.883180737495422363e-01 1.000000000000000000e+01
-7.988605022430419922e+00 1.064488410949707031e+00 -7.050899863243103027e-01 2.000000000000000000e+00
-1.469903564453125000e+01 1.963881254196166992e+00 -7.771889567375183105e-01 4.000000000000000000e+00
-3.404464721679688211e+01 4.560670375823974609e+00 -5.995599627494812012e-01 1.900000000000000000e+01
-2.494387626647949219e+00 3.381411135196685791e-01 -6.744824051856994629e-01 1.400000000000000000e+01
-4.478442382812500000e+01 6.078970909118652344e+00 7.888836860656738281e-01 4.900000000000000000e+01
-2.884892940521239790e+00 3.921038806438446045e-01 -6.721537709236145020e-01 1.200000000000000000e+01
-3.425711631774901900e+00 4.662188887596129816e-01 -6.720292568206787109e-01 1.200000000000000000e+01
-4.487031555175781250e+01 6.114558219909667969e+00 3.961925745010375977e+00 5.400000000000000000e+01
-4.233510971069335938e+00 5.776607394218444824e-01 -6.767355203628540039e-01 9.000000000000000000e+00
-4.486315917968750000e+01 6.129535198211669922e+00 5.559679508209229404e+00 7.700000000000000000e+01
-5.560067176818847656e+00 7.606458663940429688e-01 -6.890492439270019531e-01 1.200000000000000000e+01
-7.994519710540770596e+00 1.095113039016724077e+00 -7.059615254402160645e-01 2.000000000000000000e+00
-1.469173908233642933e+01 2.017742872238159180e+00 -7.771889567375183105e-01 4.000000000000000000e+00
-3.397817993164063211e+01 4.678600311279296875e+00 -5.986873507499694824e-01 1.300000000000000000e+01
-2.491278648376464844e+00 3.465799093246459961e-01 -6.739647984504699707e-01 1.500000000000000000e+01
-4.479066085815429688e+01 6.239123344421386719e+00 7.893723249435424805e-01 4.900000000000000000e+01
-2.871926307678223100e+00 4.005565047264099121e-01 -6.694543361663818359e-01 1.100000000000000000e+01
-4.486248397827147727e+01 6.265092849731445312e+00 2.373959064483643022e+00 3.500000000000000000e+01
-3.435729742050170898e+00 4.798032343387603760e-01 -6.743189692497253418e-01 1.200000000000000000e+01
-4.488026809692382812e+01 6.275562286376953125e+00 3.964714765548706055e+00 5.400000000000000000e+01
-4.237337589263916016e+00 5.932565927505493164e-01 -6.776741147041320801e-01 7.000000000000000000e+00
-4.489260482788085938e+01 6.293264865875244141e+00 5.566016674041748047e+00 7.800000000000000000e+01
-5.535753726959229404e+00 7.770142555236816406e-01 -6.863681674003601074e-01 1.000000000000000000e+01
-7.970918178558349609e+00 1.120239496231079102e+00 -7.042183876037597656e-01 2.000000000000000000e+00
-3.400520324707031250e+01 4.803330898284912109e+00 -5.994552373886108398e-01 1.300000000000000000e+01
-2.493878841400146040e+00 3.558197021484375000e-01 -6.750000715255737305e-01 1.600000000000000000e+01
-4.478048324584960938e+01 6.397130489349365234e+00 7.895817756652832031e-01 4.900000000000000000e+01
-2.878227233886719194e+00 4.116826653480529785e-01 -6.712539196014404297e-01 1.200000000000000000e+01
-4.483355331420897727e+01 6.412696361541748047e+00 2.373540401458739790e+00 3.500000000000000000e+01
-3.422373294830321822e+00 4.901233315467833918e-01 -6.720292568206787109e-01 1.200000000000000000e+01
-4.493303298950195312e+01 6.442931652069091797e+00 3.971338510513306108e+00 5.400000000000000000e+01
-4.233285427093505859e+00 6.077633500099182129e-01 -6.773612499237060547e-01 9.000000000000000000e+00
-4.488018798828125000e+01 6.451343059539794922e+00 5.567235469818115234e+00 7.800000000000000000e+01
-5.527113437652587891e+00 7.954845428466796875e-01 -6.856369376182556152e-01 1.200000000000000000e+01
-7.966959476470947266e+00 1.148056387901305930e+00 -7.042183876037597656e-01 2.000000000000000000e+00
-1.447962093353270951e+01 2.091704845428466797e+00 -7.667217850685119629e-01 4.000000000000000000e+00
-3.400603866577147727e+01 4.924581527709960938e+00 -5.997694134712219238e-01 1.900000000000000000e+01
-2.481152296066284180e+00 3.628455400466918945e-01 -6.718942523002624512e-01 1.500000000000000000e+01
-4.478953933715820312e+01 6.558039665222167969e+00 7.901402711868286133e-01 4.900000000000000000e+01
-2.878700733184814009e+00 4.220097064971923828e-01 -6.717038750648498535e-01 1.300000000000000000e+01
-4.483856201171875000e+01 6.573211669921875000e+00 2.375005722045897993e+00 3.500000000000000000e+01
-3.405102252960205078e+00 4.997858107089995783e-01 -6.689763665199279785e-01 1.300000000000000000e+01
-4.491027069091796875e+01 6.599738121032714844e+00 3.971338510513306108e+00 5.400000000000000000e+01
-4.235046863555908203e+00 6.231116652488708496e-01 -6.779869794845581055e-01 9.000000000000000000e+00
-4.490060043334960938e+01 6.614329338073729581e+00 5.572597503662109375e+00 7.800000000000000000e+01
-5.534121990203857422e+00 8.162211179733276367e-01 -6.868556141853332520e-01 1.200000000000000000e+01
-7.955019474029541016e+00 1.174695014953613059e+00 -7.035211324691772461e-01 1.000000000000000000e+00
-1.447223091125487926e+01 2.142235279083251953e+00 -7.667217850685119629e-01 4.000000000000000000e+00
-3.395897293090820312e+01 5.038852214813232422e+00 -5.992458462715148926e-01 1.900000000000000000e+01
-2.479870796203612837e+00 3.715041875839232843e-01 -6.718942523002624512e-01 1.400000000000000000e+01
-4.477824020385742188e+01 6.716124057769775391e+00 7.903496623039245605e-01 4.900000000000000000e+01
-2.879137277603148970e+00 4.323450624942780096e-01 -6.721537709236145020e-01 1.400000000000000000e+01
-4.484576797485352273e+01 6.742259979248046875e+00 2.376680374145507812e+00 3.500000000000000000e+01
-3.407219648361206055e+00 5.122525691986083984e-01 -6.697395443916320801e-01 1.200000000000000000e+01
-4.484755325317382812e+01 6.750532627105712891e+00 3.967852354049683061e+00 5.400000000000000000e+01
-4.217219352722167969e+00 6.355360150337219238e-01 -6.754840016365051270e-01 9.000000000000000000e+00
-4.488312530517578125e+01 6.771910190582275391e+00 5.573328971862792969e+00 7.800000000000000000e+01
-5.507685661315917969e+00 8.319758772850036621e-01 -6.839307546615600586e-01 1.000000000000000000e+01
-7.935110569000244141e+00 1.200072646141052024e+00 -7.021266818046569824e-01 1.000000000000000000e+00
-1.446466445922851918e+01 2.192739725112915039e+00 -7.667217850685119629e-01 4.000000000000000000e+00
-3.390954589843750000e+01 5.152553558349609375e+00 -5.986873507499694824e-01 1.900000000000000000e+01
-2.476649284362792969e+00 3.798654079437255859e-01 -6.713765859603881836e-01 1.500000000000000000e+01
-4.480591201782227273e+01 6.880280017852783203e+00 7.912572026252746582e-01 5.000000000000000000e+01
-2.877610445022583008e+00 4.423924982547760010e-01 -6.721537709236145020e-01 1.300000000000000000e+01
-4.484685516357421875e+01 6.894578456878662109e+00 2.377936601638793945e+00 3.500000000000000000e+01
-3.409291744232178178e+00 5.247401595115661621e-01 -6.705027818679809570e-01 1.200000000000000000e+01
-4.490248489379882812e+01 6.919176101684570312e+00 3.974824905395507812e+00 5.400000000000000000e+01
-4.211070537567138672e+00 6.496506333351135254e-01 -6.748582720756530762e-01 9.000000000000000000e+00
-4.487098693847656250e+01 6.930358409881591797e+00 5.574791431427001953e+00 7.800000000000000000e+01
-5.512594699859619141e+00 8.524096012115478516e-01 -6.849057078361511230e-01 1.200000000000000000e+01
-7.926935195922851562e+00 1.227154374122620073e+00 -7.017780542373657227e-01 1.000000000000000000e+00
-1.445692253112792969e+01 2.243217468261719194e+00 -7.667217850685119629e-01 4.000000000000000000e+00
-3.396643829345703125e+01 5.282566547393798828e+00 -6.000137329101562500e-01 1.300000000000000000e+01
-2.481101512908935991e+00 3.889738023281096857e-01 -6.729295253753662109e-01 1.600000000000000000e+01
-4.476704788208007812e+01 7.026343345642089844e+00 7.909779548645019531e-01 5.000000000000000000e+01
-2.866502046585083008e+00 4.504200816154479980e-01 -6.699042320251464844e-01 1.300000000000000000e+01
-4.483952713012695312e+01 7.045738220214843750e+00 2.378773927688599077e+00 3.500000000000000000e+01
-3.415290355682373047e+00 5.372632741928100586e-01 -6.720292568206787109e-01 1.200000000000000000e+01
-4.487929153442382812e+01 7.068039894104003906e+00 3.974824905395507812e+00 5.400000000000000000e+01
-4.201087951660156250e+00 6.623808145523071289e-01 -6.736068129539489746e-01 9.000000000000000000e+00
-4.486540603637695312e+01 7.081903457641601562e+00 5.576984882354736328e+00 7.800000000000000000e+01
-5.501894950866699219e+00 8.694459199905395508e-01 -6.839307546615600586e-01 1.000000000000000000e+01
-7.891335487365722656e+00 1.248453021049499956e+00 -6.989890336990356445e-01 1.000000000000000000e+00
-1.432315731048583984e+01 2.271127939224243164e+00 -7.600227594375610352e-01 4.000000000000000000e+00
-3.391318511962891336e+01 5.389524459838867188e+00 -5.993854403495788574e-01 1.300000000000000000e+01
-2.485451221466064009e+00 3.985497057437896729e-01 -6.744824051856994629e-01 1.500000000000000000e+01
-4.479358291625977273e+01 7.190807342529296875e+00 7.918854951858520508e-01 5.000000000000000000e+01
-2.853368043899536133e+00 4.585679769515991211e-01 -6.672048568725585938e-01 1.300000000000000000e+01
-4.481466293334960938e+01 7.202214717864990234e+00 2.378773927688599077e+00 3.500000000000000000e+01
-3.397887706756591797e+00 5.466867089271545410e-01 -6.689763665199279785e-01 1.200000000000000000e+01
-4.488581848144531250e+01 7.229723930358886719e+00 3.977613687515258789e+00 5.400000000000000000e+01
-4.202650547027587891e+00 6.776702404022216797e-01 -6.742325425148010254e-01 9.000000000000000000e+00
-4.488548278808593750e+01 7.245745658874511719e+00 5.582591056823729581e+00 7.800000000000000000e+01
-5.485108852386474609e+00 8.864289522171020508e-01 -6.822245717048645020e-01 1.200000000000000000e+01
-7.922332286834716797e+00 1.281718969345092995e+00 -7.021266818046569824e-01 1.000000000000000000e+00
-1.434274291992188033e+01 2.325586557388306108e+00 -7.614881396293640137e-01 4.000000000000000000e+00
-3.387047958374022727e+01 5.504022121429443359e+00 -5.989665985107421875e-01 1.300000000000000000e+01
-2.474512815475463867e+00 4.056604802608489990e-01 -6.718942523002624512e-01 1.500000000000000000e+01
-4.482346343994141336e+01 7.356190204620361328e+00 7.928628325462341309e-01 5.000000000000000000e+01
-2.863287687301636186e+00 4.704208970069885254e-01 -6.699042320251464844e-01 1.200000000000000000e+01
-4.482866287231445312e+01 7.365078926086425781e+00 2.380867242813109907e+00 3.500000000000000000e+01
-3.392084121704102007e+00 5.579069852828979492e-01 -6.682131290435791016e-01 1.300000000000000000e+01
-4.484851455688477273e+01 7.384418487548828125e+00 3.976567983627318892e+00 5.400000000000000000e+01
-4.208055973052979404e+00 6.936212182044982910e-01 -6.754840016365051270e-01 1.000000000000000000e+01
-4.489125442504882812e+01 7.407552242279052734e+00 5.586490631103515625e+00 7.900000000000000000e+01
-5.491773605346679688e+00 9.071878194808959961e-01 -6.834432482719421387e-01 1.200000000000000000e+01
-7.888324737548828125e+00 1.304489254951477051e+00 -6.995120048522949219e-01 2.000000000000000000e+00
-1.423601913452148082e+01 2.359310388565063032e+00 -7.562545537948608398e-01 4.000000000000000000e+00
-3.373664474487304688e+01 5.603215694427490234e+00 -5.969421267509460449e-01 1.300000000000000000e+01
-2.467365741729735884e+00 4.133381545543671209e-01 -6.703413128852844238e-01 1.500000000000000000e+01
-4.480934524536132812e+01 7.514592647552490234e+00 7.930722236633300781e-01 5.000000000000000000e+01
-2.867393732070922852e+00 4.813807010650634766e-01 -6.712539196014404297e-01 1.200000000000000000e+01
-4.483025741577147727e+01 7.526144981384277344e+00 2.382332801818848100e+00 3.500000000000000000e+01
-3.382371664047241211e+00 5.684426426887512207e-01 -6.666866540908813477e-01 1.200000000000000000e+01
-4.488533782958983664e+01 7.551501750946044922e+00 3.982145786285399947e+00 5.400000000000000000e+01
-4.191973686218261719e+00 7.060093283653259277e-01 -6.732939481735229492e-01 1.000000000000000000e+01
-4.490036010742188211e+01 7.570147037506104404e+00 5.590878009796142578e+00 7.900000000000000000e+01
-5.474871635437011719e+00 9.240396022796630859e-01 -6.817371249198913574e-01 1.200000000000000000e+01
-7.862112998962402344e+00 1.328365445137023926e+00 -6.975945830345153809e-01 1.000000000000000000e+00
-1.422769641876221058e+01 2.408988952636719194e+00 -7.562545537948608398e-01 4.000000000000000000e+00
-3.383911514282227273e+01 5.741684436798095703e+00 -5.991061925888061523e-01 6.000000000000000000e+00
-2.475502729415893999e+00 4.231454432010651190e-01 -6.729295253753662109e-01 1.600000000000000000e+01
-4.479206085205078125e+01 7.664493560791015625e+00 7.932118773460388184e-01 5.000000000000000000e+01
-2.867702484130858931e+00 4.912156760692595880e-01 -6.717038750648498535e-01 1.200000000000000000e+01
-4.484702301025391336e+01 7.690011978149414062e+00 2.384635448455810991e+00 3.600000000000000000e+01
-3.395948171615601030e+00 5.823102593421936035e-01 -6.697395443916320801e-01 1.200000000000000000e+01
-4.490717697143554688e+01 7.708395004272460938e+00 3.986329317092895952e+00 5.400000000000000000e+01
-4.181821823120117188e+00 7.185684442520141602e-01 -6.720424890518188477e-01 1.000000000000000000e+01
-4.490631103515625000e+01 7.724384784698486328e+00 5.594777584075927734e+00 7.900000000000000000e+01
-5.489384174346923828e+00 9.452215433120727539e-01 -6.839307546615600586e-01 1.200000000000000000e+01
-7.845884323120117188e+00 1.352399230003356934e+00 -6.965487003326416016e-01 1.000000000000000000e+00
-1.421963024139403942e+01 2.456156492233275923e+00 -7.562545537948608398e-01 4.000000000000000000e+00
-3.381988906860352273e+01 5.853867530822753906e+00 -5.991061925888061523e-01 6.000000000000000000e+00
-2.472107410430908203e+00 4.314518272876740057e-01 -6.724118590354919434e-01 1.500000000000000000e+01
-4.477685546875000000e+01 7.822865486145020419e+00 7.934213280677795410e-01 5.000000000000000000e+01
-2.846774339675902876e+00 4.978656768798828125e-01 -6.672048568725585938e-01 1.200000000000000000e+01
-4.481990432739257812e+01 7.846510410308837891e+00 2.384635448455810991e+00 3.600000000000000000e+01
-3.391960859298706055e+00 5.938222408294677734e-01 -6.693579554557800293e-01 1.100000000000000000e+01
-4.489962005615233664e+01 7.868542671203613281e+00 3.988072395324707031e+00 5.400000000000000000e+01
-4.175396919250488281e+00 7.324786782264709473e-01 -6.714166998863220215e-01 1.000000000000000000e+01
-4.488494110107421875e+01 7.882120132446289062e+00 5.595509052276611328e+00 7.900000000000000000e+01
-5.470410346984863281e+00 9.616278409957885742e-01 -6.819808483123779297e-01 1.000000000000000000e+01
-7.856813430786132812e+00 1.382540583610534890e+00 -6.979432106018066406e-01 1.000000000000000000e+00
-1.411262416839599965e+01 2.488436460494995117e+00 -7.510209679603576660e-01 4.000000000000000000e+00
-3.377955627441406250e+01 5.968406200408936435e+00 -5.987571477890014648e-01 6.000000000000000000e+00
-2.474390268325806108e+00 4.407560229301453192e-01 -6.734471321105957031e-01 1.600000000000000000e+01
-4.478470993041992188e+01 7.985436439514160156e+00 7.940495610237121582e-01 5.000000000000000000e+01
-2.846937417984008789e+00 5.081421732902526855e-01 -6.676547527313232422e-01 1.400000000000000000e+01
-4.481976699829102273e+01 8.007831573486328125e+00 2.386101007461547852e+00 3.600000000000000000e+01
-3.389867544174193892e+00 6.056587696075439453e-01 -6.693579554557800293e-01 1.100000000000000000e+01
-4.487972640991210938e+01 8.026626586914062500e+00 3.988769769668579102e+00 5.400000000000000000e+01
-4.176703453063964844e+00 7.477452754974365234e-01 -6.720424890518188477e-01 1.000000000000000000e+01
-4.487669372558593750e+01 8.042251586914062500e+00 5.597946643829345703e+00 7.900000000000000000e+01
-5.459204673767089844e+00 9.793152809143066406e-01 -6.810058951377868652e-01 1.000000000000000000e+01
-7.855861663818359375e+00 1.410661816596985085e+00 -6.982918381690979004e-01 1.000000000000000000e+00
-1.400556659698485973e+01 2.519999265670775923e+00 -7.457873821258544922e-01 4.000000000000000000e+00
-3.369554138183593750e+01 6.074928760528563565e+00 -5.976402163505554199e-01 1.300000000000000000e+01
-2.472836732864379883e+00 4.493905901908875067e-01 -6.734471321105957031e-01 1.300000000000000000e+01
-4.485099792480468750e+01 8.158894538879394531e+00 7.957250475883483887e-01 5.000000000000000000e+01
-2.847063541412353960e+00 5.184258222579956055e-01 -6.681046485900878906e-01 1.200000000000000000e+01
-4.483477020263671875e+01 8.172111511230468750e+00 2.388403654098511186e+00 3.600000000000000000e+01
-3.372281312942504883e+00 6.146715879440307617e-01 -6.663050055503845215e-01 1.100000000000000000e+01
-4.489063262939453125e+01 8.190389633178710938e+00 3.992255926132202148e+00 5.400000000000000000e+01
-4.168238162994384766e+00 7.612554430961608887e-01 -6.711038351058959961e-01 9.000000000000000000e+00
-4.488935470581054688e+01 8.206348419189453125e+00 5.603065013885498047e+00 8.000000000000000000e+01
-5.471374511718750000e+00 1.001224040985106978e+00 -6.829558014869689941e-01 1.000000000000000000e+01
-7.831292152404785156e+00 1.434485554695128950e+00 -6.965487003326416016e-01 1.000000000000000000e+00
-1.399668502807617010e+01 2.568872451782227007e+00 -7.457873821258544922e-01 4.000000000000000000e+00
-3.369773101806641336e+01 6.196850776672363281e+00 -5.980590581893920898e-01 1.300000000000000000e+01
-2.454077959060668945e+00 4.552794992923737127e-01 -6.687884330749511719e-01 1.400000000000000000e+01
-4.482472610473632812e+01 8.323957443237304688e+00 7.957948446273803711e-01 5.000000000000000000e+01
-2.847060203552246094e+00 5.292134881019592285e-01 -6.685545444488525391e-01 1.100000000000000000e+01
-4.480059051513671875e+01 8.335653305053710938e+00 2.388194322586060014e+00 3.600000000000000000e+01
-3.370005607604980025e+00 6.270274519920349121e-01 -6.663050055503845215e-01 1.100000000000000000e+01
-4.488381958007813211e+01 8.359244346618652344e+00 3.994347572326660156e+00 5.400000000000000000e+01
-4.169303894042968750e+00 7.772517204284667969e-01 -6.717295646667480469e-01 1.000000000000000000e+01
-4.489800262451171875e+01 8.378103256225585938e+00 5.607939720153808594e+00 8.000000000000000000e+01
-5.455959796905517578e+00 1.019084095954895020e+00 -6.814933419227600098e-01 1.000000000000000000e+01
-7.790729522705078125e+00 1.456588149070739968e+00 -6.934111118316650391e-01 1.000000000000000000e+00
-1.398717594146729049e+01 2.620155572891234907e+00 -7.457873821258544922e-01 4.000000000000000000e+00
-3.373375320434570312e+01 6.331384181976318359e+00 -5.991061925888061523e-01 1.300000000000000000e+01
-2.458168268203734907e+00 4.649201035499572754e-01 -6.703413128852844238e-01 1.600000000000000000e+01
-4.479539489746093750e+01 8.480374336242675781e+00 7.957948446273803711e-01 5.000000000000000000e+01
-2.845195531845093218e+00 5.391483902931213379e-01 -6.685545444488525391e-01 1.200000000000000000e+01
-4.482616424560546875e+01 8.502408027648925781e+00 2.391125202178955078e+00 3.600000000000000000e+01
-3.369725227355957031e+00 6.391530036926269531e-01 -6.666866540908813477e-01 1.000000000000000000e+01
-4.483087539672852273e+01 8.511407852172851562e+00 3.992255926132202148e+00 5.400000000000000000e+01
-4.149099349975585938e+00 7.884814739227294922e-01 -6.689137816429138184e-01 1.000000000000000000e+01
-4.490358734130858664e+01 8.541452407836914062e+00 5.612327098846436435e+00 8.000000000000000000e+01
-5.460169792175292969e+00 1.039607882499695046e+00 -6.824682950973510742e-01 1.000000000000000000e+01
-7.789512157440186435e+00 1.484519958496093972e+00 -6.937597393989562988e-01 1.000000000000000000e+00
-3.370359420776367188e+01 6.447595119476318359e+00 -5.989665985107421875e-01 1.300000000000000000e+01
-2.460324287414550781e+00 4.742291569709777832e-01 -6.713765859603881836e-01 1.500000000000000000e+01
-4.479693603515625000e+01 8.642748832702636719e+00 7.963532805442810059e-01 5.000000000000000000e+01
-2.835642814636230025e+00 5.475986599922180176e-01 -6.667549014091491699e-01 1.300000000000000000e+01
-4.485111999511718750e+01 8.669441223144531250e+00 2.394056081771851030e+00 3.600000000000000000e+01
-3.375184059143065962e+00 6.524020433425903320e-01 -6.682131290435791016e-01 1.200000000000000000e+01
-4.487913894653320312e+01 8.682983398437500000e+00 3.999228477478026900e+00 5.400000000000000000e+01
-4.148261547088623047e+00 8.033352494239807129e-01 -6.692266464233398438e-01 9.000000000000000000e+00
-4.488908767700195312e+01 8.701165199279785156e+00 5.614276885986328125e+00 8.000000000000000000e+01
-5.433122634887695312e+00 1.054123997688293013e+00 -6.795434355735778809e-01 1.000000000000000000e+01
-7.741253852844238281e+00 1.503345251083374023e+00 -6.899248361587524414e-01 1.000000000000000000e+00
-3.364358901977539062e+01 6.557934284210205078e+00 -5.983033776283264160e-01 1.900000000000000000e+01
-2.464340925216674805e+00 4.839311540126801092e-01 -6.729295253753662109e-01 1.500000000000000000e+01
-4.476649475097656250e+01 8.799066543579101562e+00 7.963532805442810059e-01 5.000000000000000000e+01
-2.839450120925902876e+00 5.586221218109130859e-01 -6.681046485900878906e-01 1.300000000000000000e+01
-4.482842254638671875e+01 8.827491760253906250e+00 2.394474744796752930e+00 3.600000000000000000e+01
-3.376738548278809038e+00 6.649382710456848145e-01 -6.689763665199279785e-01 1.200000000000000000e+01
-4.486810302734375000e+01 8.843441009521484375e+00 4.000971317291259766e+00 5.400000000000000000e+01
-4.141555786132813388e+00 8.170458674430847168e-01 -6.686009168624877930e-01 9.000000000000000000e+00
-4.489739227294921875e+01 8.865495681762695312e+00 5.619151592254638672e+00 8.000000000000000000e+01
-5.427462100982666016e+00 1.072697758674622026e+00 -6.792997121810913086e-01 1.200000000000000000e+01
