-5.767747879028320312e+00 -2.618794441223144975e+00 -7.777701616287231445e-01 9.000000000000000000e+00
-8.846491813659667969e+00 -4.014808654785156250e+00 -8.499428033828735352e-01 1.000000000000000000e+00
-1.261123180389403942e+01 -5.718054771423339844e+00 -7.256903648376464844e-01 8.000000000000000000e+00
-4.708999252319335938e+01 -2.133124542236328125e+01 -9.023592472076416016e-01 1.400000000000000000e+01
-2.438563823699951172e+00 -1.101053833961487038e+00 -7.169287800788879395e-01 2.200000000000000000e+01
-2.861728668212891069e+00 -1.290917754173279031e+00 -7.247923016548156738e-01 1.200000000000000000e+01
-3.418401956558227983e+00 -1.541313409805298074e+00 -7.288903594017028809e-01 1.100000000000000000e+01
-4.275748252868652344e+00 -1.926084280014038086e+00 -7.427508234977722168e-01 1.200000000000000000e+01
-5.776400089263916016e+00 -2.599653482437133789e+00 -7.777701616287231445e-01 1.100000000000000000e+01
-8.881560325622558594e+00 -3.995258569717406782e+00 -8.520345687866210938e-01 1.000000000000000000e+00
-1.263012504577637074e+01 -5.676203250885009766e+00 -7.256903648376464844e-01 8.000000000000000000e+00
-4.716046905517578125e+01 -2.117497253417969105e+01 -9.023592472076416016e-01 1.400000000000000000e+01
-2.444155931472777876e+00 -1.093323707580565962e+00 -7.174463868141174316e-01 1.900000000000000000e+01
-2.860880136489868164e+00 -1.278535246849060059e+00 -7.234426140785217285e-01 1.200000000000000000e+01
-3.430931568145751953e+00 -1.532574415206908958e+00 -7.304168343544006348e-01 1.100000000000000000e+01
-4.284249782562255859e+00 -1.911952376365662065e+00 -7.430636882781982422e-01 1.200000000000000000e+01
-5.783626556396484375e+00 -2.578665733337401900e+00 -7.775264382362365723e-01 1.100000000000000000e+01
-8.855416297912597656e+00 -3.946389675140380859e+00 -8.481996655464172363e-01 3.000000000000000000e+00
-1.271189689636229936e+01 -5.659701347351074219e+00 -7.292492389678955078e-01 8.000000000000000000e+00
-4.723409652709960938e+01 -2.101022148132323863e+01 -9.023592472076416016e-01 1.400000000000000000e+01
-2.444046735763549805e+00 -1.084073305130005105e+00 -7.164111137390136719e-01 2.000000000000000000e+01
-2.861319303512572798e+00 -1.267962217330933061e+00 -7.225427627563476562e-01 1.200000000000000000e+01
-3.428549051284790039e+00 -1.518607974052428977e+00 -7.288903594017028809e-01 1.200000000000000000e+01
-4.297460556030273438e+00 -1.901681065559386985e+00 -7.443152070045471191e-01 1.100000000000000000e+01
-5.777174472808837891e+00 -2.554062128067017046e+00 -7.755764722824096680e-01 1.100000000000000000e+01
-8.860480308532714844e+00 -3.915328979492187944e+00 -8.475024700164794922e-01 1.000000000000000000e+00
-1.278077507019042969e+01 -5.642323493957520419e+00 -7.321799993515014648e-01 8.000000000000000000e+00
-4.725230026245117188e+01 -2.084074783325194957e+01 -9.014517068862915039e-01 1.400000000000000000e+01
-5.144897842407227273e+01 -2.268097686767578125e+01 1.506585693359375000e+01 1.900000000000000000e+01
-2.449584484100341797e+00 -1.076312422752379927e+00 -7.169287800788879395e-01 1.900000000000000000e+01
-2.871081113815308061e+00 -1.260316491127013938e+00 -7.238925099372863770e-01 1.100000000000000000e+01
-3.432031393051147017e+00 -1.505842089653014915e+00 -7.285087704658508301e-01 1.200000000000000000e+01
-4.302263259887695312e+00 -1.885875463485717995e+00 -7.440023422241210938e-01 1.200000000000000000e+01
-5.780599594116210938e+00 -2.531491518020629883e+00 -7.748453021049499512e-01 1.100000000000000000e+01
-8.895996093750000000e+00 -3.893963336944580078e+00 -8.495941758155822754e-01 1.000000000000000000e+00
-1.283516120910645064e+01 -5.612880229949951172e+00 -7.341687679290771484e-01 1.200000000000000000e+01
-2.448012590408325195e+00 -1.065442442893981934e+00 -7.153758406639099121e-01 1.800000000000000000e+01
-2.877249956130981001e+00 -1.251063823699950950e+00 -7.243424057960510254e-01 1.200000000000000000e+01
-3.430064439773560014e+00 -1.490722656250000000e+00 -7.269822955131530762e-01 1.200000000000000000e+01
-4.308820247650145596e+00 -1.870846271514893022e+00 -7.440023422241210938e-01 1.200000000000000000e+01
-5.027965927124022727e+01 -2.182049369812012074e+01 6.729868888854979581e+00 5.800000000000000000e+01
-5.794864177703857422e+00 -2.513667821884154829e+00 -7.755764722824096680e-01 9.000000000000000000e+00
-8.876630783081054688e+00 -3.848620891571044922e+00 -8.464565873146057129e-01 1.000000000000000000e+00
-1.294264602661132990e+01 -5.606147766113281250e+00 -7.391930222511291504e-01 1.200000000000000000e+01
-4.726083374023438211e+01 -2.045158958435058949e+01 -8.988687396049499512e-01 1.400000000000000000e+01
-2.444620609283446822e+00 -1.053831696510314941e+00 -7.133052945137023926e-01 2.000000000000000000e+01
-2.883389234542847124e+00 -1.241783618927001953e+00 -7.247923016548156738e-01 1.200000000000000000e+01
-3.446066856384276900e+00 -1.483397960662842019e+00 -7.292720079421997070e-01 1.200000000000000000e+01
-4.300806999206542969e+00 -1.849551081657409890e+00 -7.414993643760681152e-01 1.200000000000000000e+01
-5.801779270172119141e+00 -2.492641210556029829e+00 -7.753327488899230957e-01 1.100000000000000000e+01
-8.897334098815917969e+00 -3.820756912231444868e+00 -8.471538424491882324e-01 1.000000000000000000e+00
-1.292909717559813920e+01 -5.546761035919188565e+00 -7.373089790344238281e-01 1.200000000000000000e+01
-5.066082763671875000e+01 -2.170279312133789062e+01 1.476769733428955078e+01 1.900000000000000000e+01
-2.462864637374877930e+00 -1.050500869750977007e+00 -7.174463868141174316e-01 1.800000000000000000e+01
-2.877379655838013139e+00 -1.226119399070739968e+00 -7.220928668975830078e-01 1.200000000000000000e+01
-3.451737403869628906e+00 -1.470155119895935059e+00 -7.292720079421997070e-01 1.200000000000000000e+01
-4.304241657257080078e+00 -1.831476688385009988e+00 -7.408736348152160645e-01 1.200000000000000000e+01
-5.796692371368408203e+00 -2.464132785797119141e+00 -7.733828425407409668e-01 1.100000000000000000e+01
-8.886266708374023438e+00 -3.775657653808594194e+00 -8.447134494781494141e-01 1.000000000000000000e+00
-1.300913143157958984e+01 -5.522048950195313388e+00 -7.406584620475769043e-01 1.200000000000000000e+01
-5.069734573364257812e+01 -2.149886512756348012e+01 1.475527381896973012e+01 1.900000000000000000e+01
-2.470075845718383789e+00 -1.043400883674622026e+00 -7.184816598892211914e-01 1.500000000000000000e+01
-2.876255750656127930e+00 -1.213794946670532005e+00 -7.207431793212890625e-01 1.200000000000000000e+01
-3.447803497314453125e+00 -1.454282283782958984e+00 -7.273638844490051270e-01 1.100000000000000000e+01
-4.319710254669188565e+00 -1.820276379585265891e+00 -7.424379587173461914e-01 1.100000000000000000e+01
-5.794281005859375000e+00 -2.439262390136719194e+00 -7.719204425811767578e-01 1.100000000000000000e+01
-8.873682022094726562e+00 -3.733797788619995117e+00 -8.422731161117553711e-01 1.000000000000000000e+00
-1.306331062316895064e+01 -5.491310119628906250e+00 -7.426472306251525879e-01 1.700000000000000000e+01
-5.220083618164063211e+01 -2.191105651855469105e+01 1.516938400268555043e+01 2.000000000000000000e+01
-2.470138549804687944e+00 -1.033281326293945090e+00 -7.174463868141174316e-01 1.400000000000000000e+01
-2.885869264602661133e+00 -1.206001758575439009e+00 -7.220928668975830078e-01 1.200000000000000000e+01
-3.440177917480469194e+00 -1.436941623687743919e+00 -7.246925830841064453e-01 1.200000000000000000e+01
-4.329683780670166016e+00 -1.806708097457885964e+00 -7.430636882781982422e-01 1.100000000000000000e+01
-5.817418575286865234e+00 -2.425132274627685991e+00 -7.738703489303588867e-01 1.100000000000000000e+01
-8.886660575866699219e+00 -3.702800035476685014e+00 -8.422731161117553711e-01 1.000000000000000000e+00
-1.313218402862549006e+01 -5.466400623321533203e+00 -7.454733848571777344e-01 2.500000000000000000e+01
-2.475515127182006836e+00 -1.025391936302185059e+00 -7.179640531539916992e-01 1.300000000000000000e+01
-2.897264003753662109e+00 -1.198901414871216042e+00 -7.238925099372863770e-01 1.300000000000000000e+01
-3.457872152328491211e+00 -1.430176854133605957e+00 -7.273638844490051270e-01 1.100000000000000000e+01
-4.328661441802979404e+00 -1.788566231727600098e+00 -7.418122291564941406e-01 1.100000000000000000e+01
-5.820343494415283203e+00 -2.402538537979125977e+00 -7.731391191482543945e-01 9.000000000000000000e+00
-8.888481140136718750e+00 -3.667197942733765093e+00 -8.412272334098815918e-01 1.000000000000000000e+00
-1.314010620117188033e+01 -5.415960788726806641e+00 -7.448453307151794434e-01 1.700000000000000000e+01
-5.133066940307617188e+01 -2.112553977966308949e+01 1.487329483032226918e+01 1.900000000000000000e+01
-2.480689048767089844e+00 -1.017910599708556907e+00 -7.184816598892211914e-01 1.400000000000000000e+01
-2.895814418792725053e+00 -1.187069654464721902e+00 -7.225427627563476562e-01 1.300000000000000000e+01
-3.460779190063477007e+00 -1.417957901954651101e+00 -7.269822955131530762e-01 1.200000000000000000e+01
-4.332740306854248047e+00 -1.773453831672668013e+00 -7.414993643760681152e-01 1.200000000000000000e+01
-5.830116271972656250e+00 -2.383975744247436968e+00 -7.733828425407409668e-01 1.100000000000000000e+01
-8.878461837768554688e+00 -3.628657341003417969e+00 -8.391354680061340332e-01 1.000000000000000000e+00
-1.319497585296631037e+01 -5.387456417083740234e+00 -7.469387650489807129e-01 1.200000000000000000e+01
-2.487806797027587891e+00 -1.010699391365051047e+00 -7.195169329643249512e-01 1.400000000000000000e+01
-2.896329164505004883e+00 -1.175488471984863059e+00 -7.216429710388183594e-01 1.200000000000000000e+01
-3.463888406753540039e+00 -1.405130863189697044e+00 -7.266006469726562500e-01 1.100000000000000000e+01
-4.338904857635498047e+00 -1.758318901062011941e+00 -7.414993643760681152e-01 1.200000000000000000e+01
-5.831042289733886719e+00 -2.360630750656127930e+00 -7.724078893661499023e-01 1.100000000000000000e+01
-8.905849456787109375e+00 -3.603622198104857954e+00 -8.405299782752990723e-01 1.000000000000000000e+00
-1.319333267211914062e+01 -5.333130836486816406e+00 -7.457873821258544922e-01 1.200000000000000000e+01
-5.090718460083007812e+01 -2.054717063903808949e+01 1.470972156524658025e+01 1.900000000000000000e+01
-2.503690004348754883e+00 -1.007492184638977051e+00 -7.231404185295104980e-01 1.000000000000000000e+01
-2.896595001220703125e+00 -1.164423704147339089e+00 -7.207431793212890625e-01 1.200000000000000000e+01
-3.457598686218262163e+00 -1.389244794845581055e+00 -7.243109345436096191e-01 1.100000000000000000e+01
-4.348378181457520419e+00 -1.745392560958862083e+00 -7.421250939369201660e-01 1.200000000000000000e+01
-5.827783107757568359e+00 -2.336848497390747070e+00 -7.709454894065856934e-01 1.100000000000000000e+01
-5.226485061645507812e+01 -2.095737266540526988e+01 8.918642044067382812e+00 2.800000000000000000e+01
-8.925148010253906250e+00 -3.577034235000609907e+00 -8.412272334098815918e-01 1.000000000000000000e+00
-1.337782001495360973e+01 -5.356163978576660156e+00 -7.552078366279602051e-01 8.000000000000000000e+00
-5.112932968139647727e+01 -2.045027351379394887e+01 1.475527381896973012e+01 1.900000000000000000e+01
-2.501807451248168945e+00 -9.966018199920654297e-01 -7.215874791145324707e-01 1.100000000000000000e+01
-2.902452707290648970e+00 -1.155026197433471902e+00 -7.211930751800537109e-01 1.200000000000000000e+01
-3.458778381347655806e+00 -1.375715851783751997e+00 -7.235476970672607422e-01 1.200000000000000000e+01
-4.354444026947020596e+00 -1.730203270912169966e+00 -7.421250939369201660e-01 1.200000000000000000e+01
-5.839594841003417969e+00 -2.317956209182738814e+00 -7.714329361915588379e-01 1.100000000000000000e+01
-8.937580108642578125e+00 -3.545857906341553178e+00 -8.412272334098815918e-01 1.000000000000000000e+00
-1.337786769866943004e+01 -5.302074909210205078e+00 -7.541611194610595703e-01 4.000000000000000000e+00
-4.843769454956054688e+01 -1.917784118652344105e+01 -9.093402028083801270e-01 1.400000000000000000e+01
-2.501676559448242188e+00 -9.864454865455627441e-01 -7.205522060394287109e-01 1.100000000000000000e+01
-2.908279895782471147e+00 -1.145601868629456010e+00 -7.216429710388183594e-01 1.300000000000000000e+01
-3.467213153839110884e+00 -1.365072607994080034e+00 -7.243109345436096191e-01 1.200000000000000000e+01
-4.356780529022216797e+00 -1.713546872138977051e+00 -7.414993643760681152e-01 1.200000000000000000e+01
-5.821784496307373047e+00 -2.287395000457764116e+00 -7.680206298828125000e-01 1.100000000000000000e+01
-8.949902534484863281e+00 -3.514638423919678178e+00 -8.412272334098815918e-01 1.000000000000000000e+00
-1.358594322204590021e+01 -5.329744338989257812e+00 -7.648376822471618652e-01 8.000000000000000000e+00
-4.842987060546875000e+01 -1.897945785522460938e+01 -9.079439640045166016e-01 1.400000000000000000e+01
-2.503304958343505859e+00 -9.770046472549438477e-01 -7.200345993041992188e-01 1.300000000000000000e+01
-2.912261009216309038e+00 -1.135443091392517090e+00 -7.216429710388183594e-01 1.200000000000000000e+01
-3.471956968307495117e+00 -1.352961421012877974e+00 -7.243109345436096191e-01 1.100000000000000000e+01
-4.344326972961425781e+00 -1.691162467002869096e+00 -7.383706569671630859e-01 1.200000000000000000e+01
-5.816782474517822266e+00 -2.262022972106934038e+00 -7.663144469261169434e-01 1.500000000000000000e+01
-8.943546295166015625e+00 -3.476157903671265093e+00 -8.394840955734252930e-01 1.000000000000000000e+00
-1.368079948425292969e+01 -5.311927318572998047e+00 -7.691292166709899902e-01 1.700000000000000000e+01
-4.871955108642578125e+01 -1.889706802368164062e+01 -9.121325612068176270e-01 1.400000000000000000e+01
-5.139458465576171875e+01 -1.992432785034180043e+01 1.476976776123047053e+01 1.900000000000000000e+01
-2.515710592269897017e+00 -9.717409610748291016e-01 -7.226227521896362305e-01 1.300000000000000000e+01
-2.899843931198120117e+00 -1.118956685066222922e+00 -7.175938487052917480e-01 1.100000000000000000e+01
-3.483985424041748047e+00 -1.343659520149230957e+00 -7.258374094963073730e-01 1.200000000000000000e+01
-4.364950180053710938e+00 -1.681668877601623979e+00 -7.408736348152160645e-01 1.200000000000000000e+01
-5.852432250976563388e+00 -2.252399921417235884e+00 -7.699705362319946289e-01 1.100000000000000000e+01
-8.937029838562011719e+00 -3.437764883041381836e+00 -8.377410173416137695e-01 1.000000000000000000e+00
-1.377010440826416016e+01 -5.291363239288330078e+00 -7.731067538261413574e-01 1.300000000000000000e+01
-4.882255172729492188e+01 -1.874122238159180043e+01 -9.128306508064270020e-01 1.400000000000000000e+01
-5.138101959228516336e+01 -1.972332572937012074e+01 1.474699115753174006e+01 1.900000000000000000e+01
-2.519087314605712891e+00 -9.629535675048828125e-01 -7.226227521896362305e-01 1.400000000000000000e+01
-2.909193754196166992e+00 -1.110913038253783958e+00 -7.189435958862304688e-01 1.200000000000000000e+01
-3.473980903625487837e+00 -1.325889587402343972e+00 -7.227844595909118652e-01 1.100000000000000000e+01
-4.367102146148681641e+00 -1.665014743804932085e+00 -7.402479052543640137e-01 1.200000000000000000e+01
-5.849128246307373047e+00 -2.227718353271483931e+00 -7.685080766677856445e-01 1.100000000000000000e+01
-8.941527366638183594e+00 -3.403712749481201172e+00 -8.370437622070312500e-01 3.000000000000000000e+00
-1.381275939941406072e+01 -5.252492904663085938e+00 -7.744674682617187500e-01 2.600000000000000000e+01
-5.442064285278320312e+01 -2.068333244323730113e+01 1.344082546234131037e+01 1.900000000000000000e+01
-4.898114395141602273e+01 -1.860619163513183949e+01 -9.145759344100952148e-01 1.400000000000000000e+01
-5.165904235839843750e+01 -1.962343025207519887e+01 1.480703735351563033e+01 1.900000000000000000e+01
-2.515039682388306108e+00 -9.518594741821289062e-01 -7.205522060394287109e-01 2.600000000000000000e+01
-2.921975851058959961e+00 -1.104705452919005904e+00 -7.211930751800537109e-01 1.200000000000000000e+01
-3.482031583786011186e+00 -1.315750122070312944e+00 -7.235476970672607422e-01 1.100000000000000000e+01
-4.376296043395996094e+00 -1.651918888092041016e+00 -7.408736348152160645e-01 1.200000000000000000e+01
-5.860198497772216797e+00 -2.209710359573363814e+00 -7.689955830574035645e-01 1.100000000000000000e+01
-8.952765464782714844e+00 -3.374042749404906782e+00 -8.370437622070312500e-01 1.000000000000000000e+00
-1.387122344970702947e+01 -5.222140789031982422e+00 -7.767702341079711914e-01 1.700000000000000000e+01
-4.926343536376953125e+01 -1.852672195434569957e+01 -9.186946749687194824e-01 1.400000000000000000e+01
-2.498446226119995117e+00 -9.356220960617065430e-01 -7.148581743240356445e-01 1.500000000000000000e+01
-2.922163724899291992e+00 -1.093133568763732910e+00 -7.202932834625244141e-01 1.200000000000000000e+01
-3.482925415039062944e+00 -1.302212476730346902e+00 -7.227844595909118652e-01 1.100000000000000000e+01
-4.382035732269287109e+00 -1.636632680892943892e+00 -7.408736348152160645e-01 1.200000000000000000e+01
-5.867876052856445312e+00 -2.189240932464600053e+00 -7.689955830574035645e-01 1.100000000000000000e+01
-8.938352584838867188e+00 -3.333025455474853960e+00 -8.346033692359924316e-01 1.000000000000000000e+00
-1.384257698059082031e+01 -5.156260013580322266e+00 -7.741534709930419922e-01 1.300000000000000000e+01
-4.938777923583983664e+01 -1.837696266174316051e+01 -9.198116064071655273e-01 1.400000000000000000e+01
-5.124433135986328125e+01 -1.905759620666503906e+01 1.464967536926270064e+01 1.800000000000000000e+01
-2.496584892272949219e+00 -9.240102171897888184e-01 -7.133052945137023926e-01 1.400000000000000000e+01
-2.924511671066284180e+00 -1.081229448318481001e+00 -7.198433876037597656e-01 1.200000000000000000e+01
-3.486058235168457031e+00 -1.288148880004883035e+00 -7.224028706550598145e-01 1.000000000000000000e+01
-4.379021644592285156e+00 -1.616374731063842995e+00 -7.393093109130859375e-01 1.100000000000000000e+01
-5.883688926696777344e+00 -2.169440984725952148e+00 -7.699705362319946289e-01 1.100000000000000000e+01
-8.939867973327636719e+00 -3.294546604156494141e+00 -8.335575461387634277e-01 1.000000000000000000e+00
-1.398597621917724965e+01 -5.148609161376953125e+00 -7.810618281364440918e-01 1.300000000000000000e+01
-5.150603103637695312e+01 -1.894032287597655895e+01 1.470454502105713068e+01 1.900000000000000000e+01
-2.507051467895507812e+00 -9.179467558860778809e-01 -7.153758406639099121e-01 1.600000000000000000e+01
-2.904475927352904829e+00 -1.062312483787537065e+00 -7.139946222305297852e-01 1.300000000000000000e+01
-3.492377519607543945e+00 -1.276646494865417036e+00 -7.227844595909118652e-01 1.100000000000000000e+01
-4.375359535217285156e+00 -1.597691416740417036e+00 -7.377449274063110352e-01 1.200000000000000000e+01
-5.861387252807617188e+00 -2.138005733489989790e+00 -7.660706639289855957e-01 1.100000000000000000e+01
-8.932595252990722656e+00 -3.256496429443358931e+00 -8.318144083023071289e-01 1.000000000000000000e+00
-1.415212154388427912e+01 -5.153748512268066406e+00 -7.893308997154235840e-01 9.000000000000000000e+00
-5.120869827270507812e+01 -1.862832069396973012e+01 -9.511561393737792969e-01 1.400000000000000000e+01
-2.506449222564696822e+00 -9.083116054534912109e-01 -7.143405675888061523e-01 1.900000000000000000e+01
-2.917144536972045898e+00 -1.055991530418395996e+00 -7.162441611289978027e-01 1.300000000000000000e+01
-3.492899417877196822e+00 -1.263722538948059082e+00 -7.220212221145629883e-01 1.100000000000000000e+01
-4.391780376434326172e+00 -1.587201833724976030e+00 -7.396221756935119629e-01 1.200000000000000000e+01
-5.868444919586181641e+00 -2.118556976318358931e+00 -7.660706639289855957e-01 1.100000000000000000e+01
-8.909610748291015625e+00 -3.214685201644897017e+00 -8.286768198013305664e-01 1.000000000000000000e+00
-1.418416595458984020e+01 -5.112207889556884766e+00 -7.901682853698730469e-01 9.000000000000000000e+00
-5.253894424438477273e+01 -1.891518402099609020e+01 1.496232891082764027e+01 1.900000000000000000e+01
-2.507786035537720171e+00 -8.989050984382629395e-01 -7.138229012489318848e-01 2.400000000000000000e+01
-2.928151607513428178e+00 -1.048430085182189941e+00 -7.180437445640563965e-01 1.500000000000000000e+01
-3.493592500686645952e+00 -1.250199317932128906e+00 -7.212579846382141113e-01 1.100000000000000000e+01
-4.393573760986328125e+00 -1.570532202720642090e+00 -7.389963865280151367e-01 1.200000000000000000e+01
-5.864587783813476562e+00 -2.094054222106934038e+00 -7.646082639694213867e-01 1.100000000000000000e+01
-8.905765533447265625e+00 -3.178207874298096147e+00 -8.272823095321655273e-01 1.000000000000000000e+00
-1.454432106018066051e+01 -5.184720993041992188e+00 -8.092185258865356445e-01 9.000000000000000000e+00
-5.260791778564453125e+01 -1.872249221801758168e+01 1.496232891082764027e+01 1.900000000000000000e+01
-2.509242773056029829e+00 -8.890624046325683594e-01 -7.133052945137023926e-01 2.300000000000000000e+01
-2.939322948455810991e+00 -1.040291547775268999e+00 -7.198433876037597656e-01 1.300000000000000000e+01
-3.494449377059936968e+00 -1.236076831817626953e+00 -7.204947471618652344e-01 1.100000000000000000e+01
-4.406750679016113281e+00 -1.557050824165344016e+00 -7.402479052543640137e-01 1.200000000000000000e+01
-5.875967025756835938e+00 -2.073866605758666992e+00 -7.650957107543945312e-01 1.100000000000000000e+01
-8.913597106933593750e+00 -3.144219875335692915e+00 -8.269336819648742676e-01 1.000000000000000000e+00
-1.464611148834229049e+01 -5.160583496093750000e+00 -8.138241171836853027e-01 1.300000000000000000e+01
-2.503215074539185014e+00 -8.771039843559265137e-01 -7.107170820236206055e-01 2.400000000000000000e+01
-2.937418222427368164e+00 -1.028093695640563965e+00 -7.184936404228210449e-01 1.300000000000000000e+01
-3.508008718490601030e+00 -1.227112650871277078e+00 -7.224028706550598145e-01 1.100000000000000000e+01
-4.406564235687255859e+00 -1.539704084396362083e+00 -7.393093109130859375e-01 1.200000000000000000e+01
-5.905661106109619141e+00 -2.061192750930786133e+00 -7.680206298828125000e-01 1.100000000000000000e+01
-4.971767044067382812e+01 -1.734271812438964844e+01 8.339834213256835938e+00 2.200000000000000000e+01
-8.913230895996093750e+00 -3.109149217605590820e+00 -8.258877992630004883e-01 1.000000000000000000e+00
-1.468478202819824041e+01 -5.116656303405761719e+00 -8.149755001068115234e-01 1.800000000000000000e+01
-2.513563156127930132e+00 -8.708906173706054688e-01 -7.127876281738281250e-01 2.200000000000000000e+01
-2.928098201751708984e+00 -1.013372540473937988e+00 -7.153443694114685059e-01 1.200000000000000000e+01
-3.508559942245482954e+00 -1.213576436042786089e+00 -7.216396331787109375e-01 1.100000000000000000e+01
-4.404443740844726562e+00 -1.521732568740844949e+00 -7.380577921867370605e-01 1.100000000000000000e+01
-5.879043102264404297e+00 -2.028908967971802202e+00 -7.636333107948303223e-01 1.100000000000000000e+01
-8.927796363830566406e+00 -3.079316377639770952e+00 -8.262364268302917480e-01 1.000000000000000000e+00
-1.478941631317139027e+01 -5.095292091369628906e+00 -8.197904229164123535e-01 1.300000000000000000e+01
-2.520242929458618164e+00 -8.633634448051452637e-01 -7.138229012489318848e-01 2.200000000000000000e+01
-2.931617498397827148e+00 -1.003145456314086914e+00 -7.153443694114685059e-01 1.300000000000000000e+01
-3.509059429168701172e+00 -1.200051307678223100e+00 -7.208763957023620605e-01 1.200000000000000000e+01
-4.413467407226563388e+00 -1.507626056671143022e+00 -7.386835217475891113e-01 1.100000000000000000e+01
-5.893604755401611328e+00 -2.010939121246337891e+00 -7.646082639694213867e-01 1.100000000000000000e+01
-8.934719085693359375e+00 -3.046847820281981978e+00 -8.258877992630004883e-01 1.000000000000000000e+00
-1.485815811157226918e+01 -5.061023712158203125e+00 -8.226165771484375000e-01 1.300000000000000000e+01
-2.511965513229370117e+00 -8.517196178436279297e-01 -7.107170820236206055e-01 2.100000000000000000e+01
-2.942137718200684038e+00 -9.964309930801391602e-01 -7.171439528465270996e-01 1.300000000000000000e+01
-3.503514051437377930e+00 -1.185874104499816895e+00 -7.189682722091674805e-01 1.100000000000000000e+01
-4.429409980773925781e+00 -1.497549414634705034e+00 -7.405607700347900391e-01 1.200000000000000000e+01
-5.892370223999023438e+00 -1.989873290061950906e+00 -7.636333107948303223e-01 1.100000000000000000e+01
-8.910266876220703125e+00 -3.007295131683350053e+00 -8.227502107620239258e-01 1.000000000000000000e+00
-1.502350044250487926e+01 -5.064725399017333984e+00 -8.308856487274169922e-01 1.300000000000000000e+01
-5.222018814086914062e+01 -1.759432983398437855e+01 1.272188186645507990e+01 1.700000000000000000e+01
-5.370353317260742188e+01 -1.807323646545410156e+01 1.518284320831299006e+01 2.000000000000000000e+01
-2.507596492767333984e+00 -8.404902815818786621e-01 -7.086465358734130859e-01 2.100000000000000000e+01
-2.943749904632567915e+00 -9.855362772941589355e-01 -7.166940569877624512e-01 1.200000000000000000e+01
-3.516941308975220171e+00 -1.176752090454102007e+00 -7.208763957023620605e-01 1.200000000000000000e+01
-4.410254478454589844e+00 -1.473938941955565962e+00 -7.364934682846069336e-01 1.200000000000000000e+01
-5.895514011383056641e+00 -1.968035936355591042e+00 -7.631458044052124023e-01 1.100000000000000000e+01
-8.932049751281738281e+00 -2.979957342147827148e+00 -8.237960934638977051e-01 1.000000000000000000e+00
-1.505435180664063033e+01 -5.016672611236572266e+00 -8.316183686256408691e-01 1.300000000000000000e+01
-2.514182806015015093e+00 -8.329470753669738770e-01 -7.096818089485168457e-01 1.900000000000000000e+01
-2.949022293090819868e+00 -9.758669137954711914e-01 -7.171439528465270996e-01 1.300000000000000000e+01
-3.515435457229613814e+00 -1.162619113922118919e+00 -7.197315096855163574e-01 1.100000000000000000e+01
-4.411621570587158203e+00 -1.457296133041382058e+00 -7.358677387237548828e-01 1.200000000000000000e+01
-5.906118392944335938e+00 -1.948688626289367898e+00 -7.636333107948303223e-01 1.100000000000000000e+01
-8.919692039489746094e+00 -2.941273212432860884e+00 -8.217043280601501465e-01 1.000000000000000000e+00
-1.522163581848145064e+01 -5.013452053070068359e+00 -8.398874402046203613e-01 1.400000000000000000e+01
-5.372988510131835938e+01 -1.767587852478026988e+01 1.515592575073242010e+01 2.000000000000000000e+01
-2.520746946334838867e+00 -8.253681659698486328e-01 -7.107170820236206055e-01 1.900000000000000000e+01
-2.939445257186890093e+00 -9.613266587257385254e-01 -7.139946222305297852e-01 1.300000000000000000e+01
-3.519472360610961914e+00 -1.150340914726257102e+00 -7.197315096855163574e-01 1.100000000000000000e+01
-4.424192905426025391e+00 -1.444339990615844949e+00 -7.371191978454589844e-01 1.200000000000000000e+01
-5.910997390747070312e+00 -1.927445173263550027e+00 -7.633895874023437500e-01 1.100000000000000000e+01
-8.914749145507812500e+00 -2.905180931091309038e+00 -8.203098773956298828e-01 1.000000000000000000e+00
-1.534919548034667969e+01 -4.996142864227294922e+00 -8.459584116935729980e-01 1.400000000000000000e+01
-2.529412031173706055e+00 -8.174654245376586914e-01 -7.122700214385986328e-01 1.800000000000000000e+01
-2.941260337829589844e+00 -9.494343400001525879e-01 -7.135447263717651367e-01 1.300000000000000000e+01
-3.520126581192017046e+00 -1.135613083839416948e+00 -7.189682722091674805e-01 1.100000000000000000e+01
-4.422185420989990234e+00 -1.424918293952941895e+00 -7.358677387237548828e-01 1.200000000000000000e+01
-5.903237342834472656e+00 -1.899869203567505105e+00 -7.614396810531616211e-01 9.000000000000000000e+00
-8.941012382507324219e+00 -2.875809907913208008e+00 -8.217043280601501465e-01 3.000000000000000000e+00
-1.539869117736816051e+01 -4.946943759918212891e+00 -8.476331233978271484e-01 1.400000000000000000e+01
-2.524888992309569868e+00 -8.062804341316223145e-01 -7.101994752883911133e-01 1.800000000000000000e+01
-2.957552671432495117e+00 -9.433067440986633301e-01 -7.166940569877624512e-01 1.300000000000000000e+01
-3.516587018966674805e+00 -1.120933651924133079e+00 -7.174417972564697266e-01 1.100000000000000000e+01
-4.427132129669188565e+00 -1.409473299980164018e+00 -7.358677387237548828e-01 1.200000000000000000e+01
-5.917399883270263672e+00 -1.881657719612122026e+00 -7.624146342277526855e-01 9.000000000000000000e+00
-5.281815719604492188e+01 -1.678535079956055043e+01 8.777851104736328125e+00 2.600000000000000000e+01
-8.950996398925781250e+00 -2.844582557678223100e+00 -8.217043280601501465e-01 1.000000000000000000e+00
-1.533400726318359020e+01 -4.867179393768311435e+00 -8.431322574615478516e-01 9.000000000000000000e+00
-2.523725271224976030e+00 -7.971805334091186523e-01 -7.091642022132873535e-01 1.900000000000000000e+01
-2.956784725189208984e+00 -9.328380227088928223e-01 -7.157942652702331543e-01 1.200000000000000000e+01
-3.518218755722045898e+00 -1.109290122985840066e+00 -7.170602083206176758e-01 1.200000000000000000e+01
-4.431538105010986328e+00 -1.395558118820189986e+00 -7.358677387237548828e-01 1.200000000000000000e+01
-5.910027027130126953e+00 -1.858889102935791016e+00 -7.607084512710571289e-01 9.000000000000000000e+00
-8.948484420776367188e+00 -2.812863349914550781e+00 -8.206584453582763672e-01 1.000000000000000000e+00
-1.528443431854248047e+01 -4.798641681671142578e+00 -8.395733833312988281e-01 9.000000000000000000e+00
-3.221993255615233664e+01 -1.010329151153563920e+01 -5.894026756286621094e-01 6.000000000000000000e+00
-2.517271757125854048e+00 -7.854890227317810059e-01 -7.065759897232055664e-01 1.900000000000000000e+01
-2.960022926330565962e+00 -9.225112199783325195e-01 -7.157942652702331543e-01 1.300000000000000000e+01
-3.538939476013184038e+00 -1.102256894111633079e+00 -7.204947471618652344e-01 1.100000000000000000e+01
-4.425065517425537109e+00 -1.376560091972351074e+00 -7.339904904365539551e-01 1.200000000000000000e+01
-5.929749488830566406e+00 -1.842370986938477007e+00 -7.624146342277526855e-01 9.000000000000000000e+00
-8.946831703186035156e+00 -2.778065204620360884e+00 -8.196126222610473633e-01 3.000000000000000000e+00
-1.583904266357422053e+01 -4.912092208862304688e+00 -8.690909147262573242e-01 1.000000000000000000e+01
-3.239635467529296875e+01 -1.003454399108887074e+01 -5.919856429100036621e-01 6.000000000000000000e+00
-2.536750078201293945e+00 -7.813756465911865234e-01 -7.112347483634948730e-01 1.900000000000000000e+01
-2.942895650863647017e+00 -9.053529500961303711e-01 -7.108453512191772461e-01 1.300000000000000000e+01
-3.535449504852294922e+00 -1.086970806121825950e+00 -7.189682722091674805e-01 1.100000000000000000e+01
-4.437634468078613281e+00 -1.362651586532592995e+00 -7.352420091629028320e-01 1.200000000000000000e+01
-5.926972866058349609e+00 -1.817714691162108931e+00 -7.611958980560302734e-01 9.000000000000000000e+00
-8.968383789062500000e+00 -2.748757839202880859e+00 -8.206584453582763672e-01 3.000000000000000000e+00
-1.596770763397216975e+01 -4.887913703918457031e+00 -8.751618862152099609e-01 1.000000000000000000e+01
-3.251705932617188211e+01 -9.941462516784667969e+00 -5.935214161872863770e-01 6.000000000000000000e+00
-2.537613868713378906e+00 -7.719537615776062012e-01 -7.107170820236206055e-01 1.900000000000000000e+01
-2.959089994430541992e+00 -8.990402817726135254e-01 -7.139946222305297852e-01 1.400000000000000000e+01
-3.531708002090454102e+00 -1.072341680526732954e+00 -7.174417972564697266e-01 1.200000000000000000e+01
-4.434802532196044922e+00 -1.344860076904297097e+00 -7.339904904365539551e-01 1.200000000000000000e+01
-5.919982910156250000e+00 -1.792986750602721946e+00 -7.594897747039794922e-01 9.000000000000000000e+00
-8.958854675292968750e+00 -2.711663722991942915e+00 -8.189153671264648438e-01 1.000000000000000000e+00
-1.629438591003417969e+01 -4.925772190093994141e+00 -8.921186923980712891e-01 5.000000000000000000e+00
-3.254773330688477273e+01 -9.826740264892578125e+00 -5.934516191482543945e-01 6.000000000000000000e+00
-2.542143344879149947e+00 -7.636469006538391113e-01 -7.112347483634948730e-01 2.000000000000000000e+01
-2.964076757431029829e+00 -8.892656564712524414e-01 -7.144445776939392090e-01 1.300000000000000000e+01
-3.535429477691649947e+00 -1.060007095336914062e+00 -7.174417972564697266e-01 1.100000000000000000e+01
-4.447039604187011719e+00 -1.331638097763061968e+00 -7.352420091629028320e-01 1.200000000000000000e+01
-5.924303531646729404e+00 -1.771742463111876997e+00 -7.592459917068481445e-01 7.000000000000000000e+00
-8.975901603698730469e+00 -2.682657003402709961e+00 -8.196126222610473633e-01 1.000000000000000000e+00
-1.650286293029785156e+01 -4.925990104675292969e+00 -9.025859236717224121e-01 5.000000000000000000e+00
-2.533680915832519975e+00 -7.514725923538208008e-01 -7.081289291381835938e-01 2.000000000000000000e+01
-2.972768306732178178e+00 -8.805741071701049805e-01 -7.157942652702331543e-01 1.400000000000000000e+01
-3.540990591049193892e+00 -1.048216938972472922e+00 -7.178234457969665527e-01 1.200000000000000000e+01
-4.432717323303222656e+00 -1.310506463050842063e+00 -7.321133017539978027e-01 1.200000000000000000e+01
-5.930452346801757812e+00 -1.751052021980286089e+00 -7.592459917068481445e-01 7.000000000000000000e+00
-5.322357177734375000e+01 -1.570493221282958984e+01 8.789113998413085938e+00 2.600000000000000000e+01
-8.946991920471191406e+00 -2.640031576156616211e+00 -8.161263465881347656e-01 1.000000000000000000e+00
-1.662724113464355113e+01 -4.899971008300781250e+00 -9.084475040435791016e-01 1.100000000000000000e+01
-2.536288499832152876e+00 -7.426238059997558594e-01 -7.081289291381835938e-01 2.000000000000000000e+01
-2.970212697982788086e+00 -8.685510158538818359e-01 -7.144445776939392090e-01 1.300000000000000000e+01
-3.542743682861328125e+00 -1.035299539566040039e+00 -7.174417972564697266e-01 1.100000000000000000e+01
-4.441057205200195312e+00 -1.296132326126099077e+00 -7.327390313148498535e-01 1.200000000000000000e+01
-5.930810928344726562e+00 -1.728673696517943892e+00 -7.585148215293884277e-01 7.000000000000000000e+00
-8.933197975158691406e+00 -2.602098226547241211e+00 -8.140346407890319824e-01 1.000000000000000000e+00
-1.670944786071776988e+01 -4.860869407653808594e+00 -9.120063781738281250e-01 5.000000000000000000e+00
-2.546288967132567915e+00 -7.359114885330200195e-01 -7.101994752883911133e-01 1.900000000000000000e+01
-2.965737342834473100e+00 -8.560160994529724121e-01 -7.126449346542358398e-01 1.500000000000000000e+01
-3.546335935592650923e+00 -1.022926807403564009e+00 -7.174417972564697266e-01 1.200000000000000000e+01
-4.441758155822753906e+00 -1.279528617858886941e+00 -7.321133017539978027e-01 1.200000000000000000e+01
-5.352970123291016336e+01 -1.541007804870604936e+01 6.839551448822020596e+00 5.900000000000000000e+01
-5.940624237060546875e+00 -1.709058523178101030e+00 -7.590022683143615723e-01 7.000000000000000000e+00
-8.965205192565917969e+00 -2.577506065368651900e+00 -8.161263465881347656e-01 1.000000000000000000e+00
-1.655354118347167969e+01 -4.752905845642089844e+00 -9.025859236717224121e-01 5.000000000000000000e+00
-2.550572872161864790e+00 -7.279938459396362305e-01 -7.107170820236206055e-01 2.200000000000000000e+01
-2.962937355041503906e+00 -8.445740342140197754e-01 -7.112952470779418945e-01 1.400000000000000000e+01
-3.551596641540526900e+00 -1.011698961257935014e+00 -7.178234457969665527e-01 1.200000000000000000e+01
-4.434576988220214844e+00 -1.261549115180969016e+00 -7.302360534667968750e-01 1.200000000000000000e+01
-5.929073333740234375e+00 -1.684466719627379927e+00 -7.568086385726928711e-01 7.000000000000000000e+00
-8.973702430725097656e+00 -2.547762155532836914e+00 -8.161263465881347656e-01 1.000000000000000000e+00
-1.684206771850585938e+01 -4.775350570678710938e+00 -9.174492955207824707e-01 5.000000000000000000e+00
-2.545660495758057085e+00 -7.169913053512573242e-01 -7.086465358734130859e-01 2.100000000000000000e+01
-2.973371267318726030e+00 -8.363369107246398926e-01 -7.130948305130004883e-01 1.400000000000000000e+01
-3.538096427917480025e+00 -9.945140480995178223e-01 -7.143889069557189941e-01 1.100000000000000000e+01
-4.442757129669188565e+00 -1.247129559516906960e+00 -7.308618426322937012e-01 1.300000000000000000e+01
-5.936828613281250000e+00 -1.664296030998229980e+00 -7.570523619651794434e-01 5.000000000000000000e+00
-8.948007583618164062e+00 -2.506748199462891069e+00 -8.129887580871582031e-01 1.000000000000000000e+00
-1.686632728576660156e+01 -4.718684196472167969e+00 -9.178680181503295898e-01 1.100000000000000000e+01
-3.324168777465820312e+01 -9.287500381469726562e+00 -6.024570465087890625e-01 6.000000000000000000e+00
-2.540825605392456055e+00 -7.055885195732116699e-01 -7.065759897232055664e-01 2.200000000000000000e+01
-2.980172395706177202e+00 -8.264749050140380859e-01 -7.139946222305297852e-01 1.400000000000000000e+01
-3.549285411834716797e+00 -9.836369156837463379e-01 -7.159153223037719727e-01 1.200000000000000000e+01
-4.432067871093750000e+00 -1.226622462272644043e+00 -7.283588647842407227e-01 1.100000000000000000e+01
-5.937148571014404297e+00 -1.640938758850098100e+00 -7.563211321830749512e-01 7.000000000000000000e+00
-8.980181694030761719e+00 -2.480300426483153853e+00 -8.150805234909057617e-01 1.000000000000000000e+00
-1.693741798400878906e+01 -4.671703815460205078e+00 -9.207988381385803223e-01 5.000000000000000000e+00
-2.545136451721190962e+00 -6.972255110740661621e-01 -7.070936560630798340e-01 1.900000000000000000e+01
-4.516890335083007812e+01 -1.236528682708740057e+01 8.174358010292053223e-01 5.400000000000000000e+01
-2.979279756546020952e+00 -8.150386810302734375e-01 -7.130948305130004883e-01 1.400000000000000000e+01
-4.515093231201171875e+01 -1.234342765808104936e+01 2.453090906143188032e+00 3.900000000000000000e+01
-3.554591178894042969e+00 -9.717593193054199219e-01 -7.162969708442687988e-01 1.200000000000000000e+01
-4.428699970245361328e+00 -1.209063172340393066e+00 -7.271074056625366211e-01 1.100000000000000000e+01
-5.954331398010253906e+00 -1.623337149620055930e+00 -7.577835917472839355e-01 7.000000000000000000e+00
-8.958027839660644531e+00 -2.440558910369873047e+00 -8.122915029525756836e-01 1.000000000000000000e+00
-1.687653541564941051e+01 -4.591579437255859375e+00 -9.166119098663330078e-01 1.100000000000000000e+01
-4.506712722778320312e+01 -1.224446678161620916e+01 -8.151670098304748535e-01 1.200000000000000000e+01
-2.551043748855590820e+00 -6.902354359626770020e-01 -7.081289291381835938e-01 1.900000000000000000e+01
-4.516505813598632812e+01 -1.221184158325194957e+01 8.166679143905639648e-01 5.400000000000000000e+01
-2.972419261932373047e+00 -8.031334280967712402e-01 -7.108453512191772461e-01 1.500000000000000000e+01
-4.514107894897460938e+01 -1.219690418243408025e+01 2.450578927993773970e+00 3.800000000000000000e+01
-3.565207958221435991e+00 -9.626345038414001465e-01 -7.178234457969665527e-01 1.200000000000000000e+01
-4.436291217803955078e+00 -1.196172595024109109e+00 -7.277331352233886719e-01 1.100000000000000000e+01
-5.949818134307861328e+00 -1.602042436599731001e+00 -7.565648555755615234e-01 7.000000000000000000e+00
-8.961802482604980469e+00 -2.411369085311890093e+00 -8.119428753852844238e-01 1.000000000000000000e+00
-1.694488334655762074e+01 -4.553049564361572266e+00 -9.195427298545837402e-01 1.100000000000000000e+01
-4.512468338012695312e+01 -1.210800647735596058e+01 -8.155160546302795410e-01 1.200000000000000000e+01
-2.560903787612915039e+00 -6.833186149597167969e-01 -7.101994752883911133e-01 2.000000000000000000e+01
-4.516490173339843750e+01 -1.204277706146240057e+01 8.159000277519226074e-01 5.400000000000000000e+01
-2.965789318084716797e+00 -7.902441620826721191e-01 -7.085958123207092285e-01 1.300000000000000000e+01
-4.513143920898438211e+01 -1.201698303222656072e+01 2.447648048400878906e+00 3.800000000000000000e+01
-3.545780658721923828e+00 -9.441220164299011230e-01 -7.132440209388732910e-01 1.200000000000000000e+01
-4.432803630828857422e+00 -1.178649425506592019e+00 -7.264816761016845703e-01 1.100000000000000000e+01
-5.936187744140625000e+00 -1.576169610023498979e+00 -7.541275024414062500e-01 7.000000000000000000e+00
-8.943204879760742188e+00 -2.372918367385863814e+00 -8.095025420188903809e-01 1.000000000000000000e+00
-1.736996841430664062e+01 -4.602319240570068359e+00 -9.417331814765930176e-01 6.000000000000000000e+00
-2.555800437927246094e+00 -6.724091172218322754e-01 -7.081289291381835938e-01 2.000000000000000000e+01
-4.513317108154296875e+01 -1.186572742462158025e+01 8.145736455917358398e-01 5.300000000000000000e+01
-2.983608007431029829e+00 -7.838481664657592773e-01 -7.121950387954711914e-01 1.400000000000000000e+01
-4.515172576904296875e+01 -1.186218070983887074e+01 2.446601390838623047e+00 3.800000000000000000e+01
-3.550953626632689986e+00 -9.322376847267150879e-01 -7.136256694793701172e-01 1.100000000000000000e+01
-4.448355674743652344e+00 -1.166174411773682085e+00 -7.283588647842407227e-01 1.100000000000000000e+01
-5.933971881866455078e+00 -1.553427934646606001e+00 -7.531525492668151855e-01 9.000000000000000000e+00
-8.951433181762695312e+00 -2.341686248779296875e+00 -8.095025420188903809e-01 1.000000000000000000e+00
-1.775695228576660156e+01 -4.638579845428466797e+00 -9.618301987648010254e-01 1.900000000000000000e+01
-3.378418350219727273e+01 -8.812714576721191406e+00 -6.094380617141723633e-01 7.000000000000000000e+00
-2.539432048797606978e+00 -6.586335897445678711e-01 -7.029525041580200195e-01 1.900000000000000000e+01
-4.513947296142578125e+01 -1.169908046722411932e+01 8.139453530311584473e-01 5.300000000000000000e+01
-2.988212347030640093e+00 -7.739171981811523438e-01 -7.126449346542358398e-01 1.500000000000000000e+01
-4.518512344360352273e+01 -1.170249652862549006e+01 2.446182489395142046e+00 3.800000000000000000e+01
-3.556086778640747070e+00 -9.203287363052368164e-01 -7.140072584152221680e-01 1.200000000000000000e+01
-4.456223964691162109e+00 -1.151628136634827104e+00 -7.289845943450927734e-01 1.100000000000000000e+01
-5.952813148498535156e+00 -1.536177277565001997e+00 -7.548587322235107422e-01 7.000000000000000000e+00
-8.959552764892578125e+00 -2.310425758361815962e+00 -8.095025420188903809e-01 1.000000000000000000e+00
-1.782719230651855113e+01 -4.590513706207275391e+00 -9.647610187530517578e-01 1.900000000000000000e+01
-3.373339843750000000e+01 -8.673816680908203125e+00 -6.079720258712768555e-01 6.000000000000000000e+00
-2.551074028015137163e+00 -6.521576642990112305e-01 -7.055407166481018066e-01 2.100000000000000000e+01
-4.514516067504882812e+01 -1.153253459930419922e+01 8.133170604705810547e-01 5.300000000000000000e+01
-2.989007472991942915e+00 -7.629997134208679199e-01 -7.121950387954711914e-01 1.400000000000000000e+01
-4.517739486694335938e+01 -1.152397060394286932e+01 2.443461179733275923e+00 3.800000000000000000e+01
-3.566886901855469194e+00 -9.098510742187500000e-01 -7.155337333679199219e-01 1.200000000000000000e+01
-4.427674770355224609e+00 -1.127777099609375000e+00 -7.236658334732055664e-01 1.200000000000000000e+01
-5.954291343688964844e+00 -1.514410018920897993e+00 -7.543712258338928223e-01 7.000000000000000000e+00
-8.959838867187500000e+00 -2.277173995971680132e+00 -8.088052868843078613e-01 1.000000000000000000e+00
-1.788569641113280895e+01 -4.539065361022949219e+00 -9.670637845993041992e-01 1.300000000000000000e+01
-2.553334951400756836e+00 -6.432487964630126953e-01 -7.055407166481018066e-01 2.100000000000000000e+01
-4.514635848999022727e+01 -1.136511421203612926e+01 8.126189708709716797e-01 5.300000000000000000e+01
-2.980313539505004883e+00 -7.497090697288513184e-01 -7.094956040382385254e-01 1.400000000000000000e+01
-4.518049621582031250e+01 -1.136532402038574041e+01 2.441576957702637163e+00 3.800000000000000000e+01
-3.568137168884276900e+00 -8.969162106513977051e-01 -7.151521444320678711e-01 1.200000000000000000e+01
-4.443079948425292969e+00 -1.115200161933898926e+00 -7.255430221557617188e-01 1.100000000000000000e+01
-5.955690383911132812e+00 -1.492651343345642090e+00 -7.538837790489196777e-01 7.000000000000000000e+00
-8.963868141174316406e+00 -2.244916200637816939e+00 -8.084566593170166016e-01 1.000000000000000000e+00
-1.799443626403808949e+01 -4.499862670898438388e+00 -9.720880389213562012e-01 6.000000000000000000e+00
-2.566814422607421875e+00 -6.371244192123413086e-01 -7.086465358734130859e-01 2.100000000000000000e+01
-4.511199951171875000e+01 -1.118916225433349965e+01 8.112925887107849121e-01 5.300000000000000000e+01
-2.982912302017211914e+00 -7.393012642860412598e-01 -7.094956040382385254e-01 1.400000000000000000e+01
-4.514622497558593750e+01 -1.118928718566895064e+01 2.437599420547484907e+00 3.800000000000000000e+01
-3.565529108047484907e+00 -8.830397129058837891e-01 -7.140072584152221680e-01 1.200000000000000000e+01
-4.439275264739990234e+00 -1.097787380218506081e+00 -7.242915630340576172e-01 1.100000000000000000e+01
-5.924247264862061435e+00 -1.462811470031738059e+00 -7.492527365684509277e-01 9.000000000000000000e+00
-8.960042953491210938e+00 -2.210749149322510210e+00 -8.074107766151428223e-01 3.000000000000000000e+00
-1.841728210449219105e+01 -4.537353992462158203e+00 -9.940691590309143066e-01 6.000000000000000000e+00
-2.559639930725098100e+00 -6.258664727210998535e-01 -7.060583829879760742e-01 2.000000000000000000e+01
-4.515078353881835938e+01 -1.103162384033202947e+01 8.112925887107849121e-01 5.300000000000000000e+01
-2.993047237396239790e+00 -7.307332158088684082e-01 -7.112952470779418945e-01 1.300000000000000000e+01
-4.516560745239257812e+01 -1.102689170837401988e+01 2.436552762985229048e+00 3.800000000000000000e+01
-3.551424026489257812e+00 -8.664005398750305176e-01 -7.105727195739746094e-01 1.200000000000000000e+01
-4.456514835357666016e+00 -1.085557222366333008e+00 -7.264816761016845703e-01 1.100000000000000000e+01
-5.954392433166503906e+00 -1.448221921920775923e+00 -7.524213194847106934e-01 7.000000000000000000e+00
-8.956089019775390625e+00 -2.176636219024658203e+00 -8.063649535179138184e-01 1.000000000000000000e+00
-1.770709991455078125e+01 -4.296885967254638672e+00 -9.549218416213989258e-01 6.000000000000000000e+00
-3.405722427368164062e+01 -8.251893997192382812e+00 -6.116719245910644531e-01 7.000000000000000000e+00
-2.550540208816527876e+00 -6.142140626907348633e-01 -7.029525041580200195e-01 2.000000000000000000e+01
-4.514624404907227273e+01 -1.086365795135498047e+01 8.105246424674987793e-01 5.300000000000000000e+01
-2.995579719543457031e+00 -7.202810645103454590e-01 -7.112952470779418945e-01 1.400000000000000000e+01
-4.518828582763671875e+01 -1.086543178558349965e+01 2.435715436935424805e+00 3.800000000000000000e+01
-3.569698095321654829e+00 -8.576676845550537109e-01 -7.136256694793701172e-01 1.200000000000000000e+01
-4.452593803405761719e+00 -1.068151235580443892e+00 -7.252301573753356934e-01 1.200000000000000000e+01
-5.955550670623779297e+00 -1.426503539085387962e+00 -7.519338726997375488e-01 7.000000000000000000e+00
-8.940381050109863281e+00 -2.139795303344727007e+00 -8.042731881141662598e-01 2.000000000000000000e+00
-1.781912040710448863e+01 -4.258261203765869141e+00 -9.601554274559020996e-01 6.000000000000000000e+00
-3.399245452880858664e+01 -8.110685348510742188e+00 -6.099964976310729980e-01 7.000000000000000000e+00
-2.556427955627440962e+00 -6.061987280845642090e-01 -7.039877772331237793e-01 2.000000000000000000e+01
-4.512940597534179688e+01 -1.069309329986572088e+01 8.095473051071166992e-01 5.300000000000000000e+01
-2.999972105026245117e+00 -7.102691531181335449e-01 -7.117451429367065430e-01 1.500000000000000000e+01
-4.519873046875000000e+01 -1.070118713378906072e+01 2.434249877929687944e+00 3.800000000000000000e+01
-3.566938638687133789e+00 -8.438459038734436035e-01 -7.124807834625244141e-01 1.200000000000000000e+01
-4.444760322570800781e+00 -1.049877762794495073e+00 -7.233529686927795410e-01 1.200000000000000000e+01
-5.941173076629638672e+00 -1.401149511337280051e+00 -7.494964599609375000e-01 9.000000000000000000e+00
-8.936160087585449219e+00 -2.105832576751708984e+00 -8.032273054122924805e-01 2.000000000000000000e+00
-1.795635795593262074e+01 -4.224853515625000000e+00 -9.667497873306274414e-01 2.600000000000000000e+01
-3.389207839965820312e+01 -7.961797237396240234e+00 -6.076927781105041504e-01 6.000000000000000000e+00
