-1.747664093971251997e+00 1.569741845130919966e+00 -6.294479370117187500e-01 1.900000000000000000e+01
-2.029066801071166992e+00 1.823776364326477051e+00 -6.298629641532897949e-01 1.300000000000000000e+01
-2.373795986175537109e+00 2.134376525878905806e+00 -6.205108761787414551e-01 1.300000000000000000e+01
-2.863481998443603960e+00 2.576481342315673828e+00 -6.100944280624389648e-01 9.000000000000000000e+00
-3.645246505737305132e+00 3.282194852828979048e+00 -6.022782921791076660e-01 9.000000000000000000e+00
-4.932696819305419922e+00 4.442979335784912109e+00 -5.808058977127075195e-01 5.000000000000000000e+00
-7.606174945831298828e+00 6.855845451354979581e+00 -5.366529226303100586e-01 2.000000000000000000e+00
-1.752202987670897993e+00 1.584904193878174050e+00 -6.330713629722595215e-01 2.100000000000000000e+01
-2.016909360885620117e+00 1.825616955757140891e+00 -6.280633211135864258e-01 1.400000000000000000e+01
-2.357599258422852007e+00 2.134743213653564009e+00 -6.182211637496948242e-01 1.200000000000000000e+01
-2.850079298019409180e+00 2.582481861114501953e+00 -6.091558337211608887e-01 8.000000000000000000e+00
-3.630826234817504883e+00 3.292232275009154829e+00 -6.017908453941345215e-01 9.000000000000000000e+00
-4.899448871612548828e+00 4.444107532501220703e+00 -5.787141323089599609e-01 5.000000000000000000e+00
-7.546704292297363281e+00 6.850137233734130859e+00 -5.341407656669616699e-01 2.000000000000000000e+00
-1.746937632560729980e+00 1.590705990791321023e+00 -6.330713629722595215e-01 2.100000000000000000e+01
-2.003642082214355025e+00 1.825732588768004927e+00 -6.258138418197631836e-01 1.600000000000000000e+01
-2.353409051895142046e+00 2.145194530487060991e+00 -6.189844012260437012e-01 1.100000000000000000e+01
-2.847337484359741211e+00 2.597243785858153853e+00 -6.104072928428649902e-01 9.000000000000000000e+00
-3.616956472396851030e+00 3.301577806472777876e+00 -6.013033390045166016e-01 9.000000000000000000e+00
-4.897926330566406250e+00 4.472421169281005859e+00 -5.802829265594482422e-01 4.000000000000000000e+00
-7.473816871643066406e+00 6.829318046569824219e+00 -5.305819511413574219e-01 2.000000000000000000e+00
-1.744222044944762962e+00 1.599405527114867942e+00 -6.341066360473632812e-01 2.200000000000000000e+01
-1.994385123252869096e+00 1.830080389976501021e+00 -6.249140501022338867e-01 1.600000000000000000e+01
-2.338675022125244141e+00 2.146758317947388139e+00 -6.170762777328491211e-01 1.200000000000000000e+01
-2.826616048812866211e+00 2.596476554870605025e+00 -6.079043149948120117e-01 9.000000000000000000e+00
-3.593718290328979048e+00 3.303435802459716797e+00 -5.993534326553344727e-01 9.000000000000000000e+00
-4.869085311889648438e+00 4.477353572845458984e+00 -5.787141323089599609e-01 4.000000000000000000e+00
-7.499902725219726562e+00 6.901347160339354581e+00 -5.341407656669616699e-01 2.000000000000000000e+00
-1.731532096862792969e+00 1.598931193351746050e+00 -6.315184831619262695e-01 1.900000000000000000e+01
-1.990847349166869895e+00 1.839676022529602051e+00 -6.258138418197631836e-01 1.600000000000000000e+01
-2.331167221069335938e+00 2.154908895492554155e+00 -6.170762777328491211e-01 1.200000000000000000e+01
-2.827686071395874023e+00 2.615717172622681108e+00 -6.100944280624389648e-01 9.000000000000000000e+00
-3.582165241241455078e+00 3.315960168838500977e+00 -5.993534326553344727e-01 9.000000000000000000e+00
-4.851964950561523438e+00 4.492969036102294922e+00 -5.785398483276367188e-01 5.000000000000000000e+00
-7.437677383422851562e+00 6.892188549041748047e+00 -5.314192771911621094e-01 2.000000000000000000e+00
-1.721696138381958008e+00 1.601019024848937988e+00 -6.299655437469482422e-01 2.000000000000000000e+01
-1.990119934082031028e+00 1.851924419403075950e+00 -6.276134252548217773e-01 1.300000000000000000e+01
-2.319319963455200195e+00 2.159019947052001953e+00 -6.159314513206481934e-01 1.100000000000000000e+01
-2.805529594421387163e+00 2.613453626632689986e+00 -6.072785854339599609e-01 9.000000000000000000e+00
-3.573472499847412109e+00 3.331151247024536133e+00 -5.998408794403076172e-01 9.000000000000000000e+00
-4.820223808288574219e+00 4.494931221008300781e+00 -5.766223669052124023e-01 6.000000000000000000e+00
-7.434016704559326172e+00 6.937186241149902344e+00 -5.328847169876098633e-01 2.000000000000000000e+00
-1.720889568328856978e+00 1.610379934310913086e+00 -6.315184831619262695e-01 1.900000000000000000e+01
-1.982869744300842063e+00 1.856835365295409934e+00 -6.271635293960571289e-01 1.300000000000000000e+01
-2.321122646331787109e+00 2.174348831176757812e+00 -6.182211637496948242e-01 1.200000000000000000e+01
-2.798746585845946822e+00 2.623605489730834961e+00 -6.075914502143859863e-01 9.000000000000000000e+00
-3.555750846862792969e+00 3.335570573806763139e+00 -5.986222028732299805e-01 9.000000000000000000e+00
-4.817701339721679688e+00 4.520959377288818359e+00 -5.780168771743774414e-01 5.000000000000000000e+00
-7.403450965881347656e+00 6.952302932739257812e+00 -5.322566628456115723e-01 2.000000000000000000e+00
-1.715257763862610085e+00 1.616377115249634011e+00 -6.315184831619262695e-01 1.600000000000000000e+01
-1.967869400978087935e+00 1.855723738670348899e+00 -6.244641542434692383e-01 1.400000000000000000e+01
-2.312090396881103960e+00 2.181090593338013139e+00 -6.178395152091979980e-01 1.000000000000000000e+01
-2.789571523666381836e+00 2.633358955383300781e+00 -6.075914502143859863e-01 9.000000000000000000e+00
-3.554187297821044922e+00 3.357504367828369141e+00 -6.003283858299255371e-01 9.000000000000000000e+00
-4.790306091308593750e+00 4.526801109313964844e+00 -5.766223669052124023e-01 4.000000000000000000e+00
-7.344309806823729581e+00 6.945168495178222656e+00 -5.297445654869079590e-01 2.000000000000000000e+00
-1.716611742973328081e+00 1.629003643989562988e+00 -6.341066360473632812e-01 1.800000000000000000e+01
-1.955727338790893999e+00 1.857213854789734109e+00 -6.226645112037658691e-01 1.400000000000000000e+01
-2.300192832946776900e+00 2.185091495513916016e+00 -6.166946887969970703e-01 1.100000000000000000e+01
-2.780362367630004883e+00 2.643080472946166992e+00 -6.075914502143859863e-01 9.000000000000000000e+00
-3.522310018539429155e+00 3.350735425949097124e+00 -5.969160199165344238e-01 9.000000000000000000e+00
-4.770145893096923828e+00 4.539374351501464844e+00 -5.760994553565979004e-01 4.000000000000000000e+00
-7.285309314727783203e+00 6.937706470489501953e+00 -5.272324085235595703e-01 2.000000000000000000e+00
-1.616436767578125000e+01 1.540388107299805043e+01 -3.897471427917479914e-01 3.000000000000000000e+00
-1.703931689262389915e+00 1.628312468528748003e+00 -6.315184831619262695e-01 1.900000000000000000e+01
-1.960499763488769975e+00 1.874804019927978960e+00 -6.262637376785278320e-01 1.100000000000000000e+01
-2.281202077865601030e+00 2.182250499725341797e+00 -6.136417388916015625e-01 1.200000000000000000e+01
-2.766838550567626953e+00 2.648671627044678178e+00 -6.066528558731079102e-01 8.000000000000000000e+00
-3.501991271972655806e+00 3.354770898818970171e+00 -5.954536199569702148e-01 9.000000000000000000e+00
-4.744201660156250000e+00 4.546348094940186435e+00 -5.748792886734008789e-01 4.000000000000000000e+00
-7.286995410919188565e+00 6.987977504730224609e+00 -5.291165113449096680e-01 2.000000000000000000e+00
-1.690993309020996094e+00 1.627847790718079057e+00 -6.289302706718444824e-01 1.700000000000000000e+01
-1.959228992462157981e+00 1.887385010719299094e+00 -6.280633211135864258e-01 8.000000000000000000e+00
-2.278843164443970171e+00 2.196046113967895952e+00 -6.151682138442993164e-01 1.100000000000000000e+01
-2.754268169403076172e+00 2.656052350997924805e+00 -6.060271263122558594e-01 8.000000000000000000e+00
-3.509670019149779829e+00 3.386882305145264116e+00 -5.988659262657165527e-01 9.000000000000000000e+00
-4.726073265075683594e+00 4.562322139739990234e+00 -5.747049450874328613e-01 5.000000000000000000e+00
-7.229732036590576172e+00 6.984110355377197266e+00 -5.268137454986572266e-01 2.000000000000000000e+00
-1.685300707817078081e+00 1.633740544319153054e+00 -6.289302706718444824e-01 1.800000000000000000e+01
-1.941439032554626021e+00 1.883357405662537065e+00 -6.244641542434692383e-01 7.000000000000000000e+00
-2.273981332778931108e+00 2.206721782684326172e+00 -6.159314513206481934e-01 1.100000000000000000e+01
-2.739311456680297852e+00 2.660145759582519975e+00 -6.047756671905517578e-01 8.000000000000000000e+00
-3.506367921829224077e+00 3.407413244247436968e+00 -6.003283858299255371e-01 9.000000000000000000e+00
-4.694404125213623047e+00 4.563514709472656250e+00 -5.727875232696533203e-01 4.000000000000000000e+00
-7.196719169616699219e+00 7.000947952270507812e+00 -5.261856913566589355e-01 2.000000000000000000e+00
-1.685404300689697044e+00 1.644717097282409890e+00 -6.310008168220520020e-01 1.700000000000000000e+01
-1.931000232696532981e+00 1.885700583457946999e+00 -6.231144070625305176e-01 6.000000000000000000e+00
-2.265246868133544922e+00 2.212878465652465820e+00 -6.155498027801513672e-01 1.200000000000000000e+01
-2.730475187301636186e+00 2.669214963912963867e+00 -6.047756671905517578e-01 8.000000000000000000e+00
-3.482278108596802202e+00 3.406528711318970171e+00 -5.981347560882568359e-01 9.000000000000000000e+00
-4.683517456054688388e+00 4.583237648010253906e+00 -5.733104944229125977e-01 5.000000000000000000e+00
-7.162047863006591797e+00 7.013595581054688388e+00 -5.253483057022094727e-01 2.000000000000000000e+00
-1.678274989128113015e+00 1.649236202239990012e+00 -6.304832100868225098e-01 1.900000000000000000e+01
-1.931353449821471946e+00 1.899261355400085005e+00 -6.253639459609985352e-01 8.000000000000000000e+00
-2.247711658477783203e+00 2.211134672164916992e+00 -6.128785014152526855e-01 1.200000000000000000e+01
-2.719733476638793945e+00 2.677344083786011186e+00 -6.044628024101257324e-01 9.000000000000000000e+00
-3.451981782913208008e+00 3.400552988052368164e+00 -5.949661135673522949e-01 9.000000000000000000e+00
-4.666070938110351562e+00 4.598159313201904297e+00 -5.731361508369445801e-01 4.000000000000000000e+00
-7.126145362854003906e+00 7.027333736419677734e+00 -5.245109796524047852e-01 2.000000000000000000e+00
-1.665642023086548074e+00 1.648290157318115012e+00 -6.278949975967407227e-01 1.800000000000000000e+01
-1.926096677780150923e+00 1.907362699508666992e+00 -6.258138418197631836e-01 9.000000000000000000e+00
-2.239979505538939986e+00 2.218967199325561968e+00 -6.128785014152526855e-01 1.100000000000000000e+01
-2.710371255874633789e+00 2.686821222305297852e+00 -6.044628024101257324e-01 9.000000000000000000e+00
-3.440090656280518022e+00 3.412581920623778853e+00 -5.949661135673522949e-01 9.000000000000000000e+00
-4.633021354675292969e+00 4.597578048706054688e+00 -5.710444450378417969e-01 6.000000000000000000e+00
-7.112909793853759766e+00 7.063424587249755859e+00 -5.253483057022094727e-01 2.000000000000000000e+00
-1.661246657371520996e+00 1.655457973480225053e+00 -6.284126639366149902e-01 1.900000000000000000e+01
-1.918047189712523970e+00 1.912698388099669966e+00 -6.253639459609985352e-01 1.300000000000000000e+01
-2.230830430984497070e+00 2.225386142730712891e+00 -6.124968528747558594e-01 1.200000000000000000e+01
-2.703771829605102983e+00 2.699057102203369141e+00 -6.050885319709777832e-01 9.000000000000000000e+00
-3.428157567977904829e+00 3.424569368362427202e+00 -5.949661135673522949e-01 9.000000000000000000e+00
-4.622581958770751953e+00 4.619355678558349609e+00 -5.717417001724243164e-01 3.000000000000000000e+00
-7.057140350341796875e+00 7.057140350341796875e+00 -5.230455398559570312e-01 2.000000000000000000e+00
-1.654094338417053001e+00 1.659878253936768022e+00 -6.278949975967407227e-01 1.800000000000000000e+01
-1.915484070777893066e+00 1.923524498939513938e+00 -6.267136335372924805e-01 1.500000000000000000e+01
-2.228589057922362837e+00 2.238725185394287109e+00 -6.140233278274536133e-01 1.200000000000000000e+01
-2.688761472702025923e+00 2.702876806259154829e+00 -6.038370132446289062e-01 9.000000000000000000e+00
-3.421780586242675781e+00 3.442146301269530806e+00 -5.959410667419433594e-01 9.000000000000000000e+00
-4.595193862915039062e+00 4.624157428741455078e+00 -5.703471899032592773e-01 3.000000000000000000e+00
-7.032463550567626953e+00 7.081731319427490234e+00 -5.230455398559570312e-01 2.000000000000000000e+00
-1.652366757392883079e+00 1.669761538505553977e+00 -6.294479370117187500e-01 1.900000000000000000e+01
-1.893685340881348100e+00 1.914957046508789062e+00 -6.217647194862365723e-01 1.400000000000000000e+01
-2.220760822296143022e+00 2.246490716934204102e+00 -6.140233278274536133e-01 1.200000000000000000e+01
-2.682086706161499023e+00 2.715056419372559038e+00 -6.044628024101257324e-01 9.000000000000000000e+00
-3.406955242156981978e+00 3.451244115829468218e+00 -5.954536199569702148e-01 9.000000000000000000e+00
-4.572027206420898438e+00 4.633079051971436435e+00 -5.694756507873535156e-01 4.000000000000000000e+00
-6.990871906280517578e+00 7.089170932769775391e+00 -5.217894911766052246e-01 2.000000000000000000e+00
-1.645466208457946999e+00 1.673854112625122070e+00 -6.289302706718444824e-01 1.800000000000000000e+01
-1.890056014060973899e+00 1.924006581306457964e+00 -6.226645112037658691e-01 1.400000000000000000e+01
-2.211923360824584961e+00 2.252441883087158203e+00 -6.136417388916015625e-01 1.200000000000000000e+01
-2.675835609436035156e+00 2.726755380630493164e+00 -6.050885319709777832e-01 9.000000000000000000e+00
-3.387152433395386186e+00 3.454019069671630859e+00 -5.939911603927612305e-01 9.000000000000000000e+00
-4.574769973754882812e+00 4.666710853576660156e+00 -5.717417001724243164e-01 6.000000000000000000e+00
-6.978506565093994141e+00 7.123728275299072266e+00 -5.226268768310546875e-01 2.000000000000000000e+00
-1.639613389968872070e+00 1.679587721824645996e+00 -6.289302706718444824e-01 1.700000000000000000e+01
-1.884689211845397949e+00 1.931987285614013894e+00 -6.231144070625305176e-01 1.300000000000000000e+01
-2.197194099426269975e+00 2.253121376037598100e+00 -6.117336153984069824e-01 1.200000000000000000e+01
-2.664922714233397993e+00 2.734664440155028853e+00 -6.047756671905517578e-01 8.000000000000000000e+00
-3.379229784011840820e+00 3.470088005065917969e+00 -5.947223901748657227e-01 9.000000000000000000e+00
-4.545944213867188388e+00 4.669802665710449219e+00 -5.701728463172912598e-01 7.000000000000000000e+00
-6.900675773620604581e+00 7.093643188476563388e+00 -5.186493396759033203e-01 2.000000000000000000e+00
-1.628361940383910911e+00 1.679752469062804954e+00 -6.268597245216369629e-01 1.700000000000000000e+01
-1.890137076377869096e+00 1.951151371002197044e+00 -6.271635293960571289e-01 1.400000000000000000e+01
-2.187950134277344194e+00 2.259366989135742188e+00 -6.113520264625549316e-01 1.200000000000000000e+01
-2.662229061126708984e+00 2.751047849655150923e+00 -6.063399910926818848e-01 9.000000000000000000e+00
-3.361576557159423828e+00 3.476154565811156782e+00 -5.937474370002746582e-01 8.000000000000000000e+00
-4.522692203521729404e+00 4.678480148315429688e+00 -5.693013072013854980e-01 6.000000000000000000e+00
-6.870321750640869141e+00 7.111941814422607422e+00 -5.182306170463562012e-01 2.000000000000000000e+00
-1.627847790718079057e+00 1.690993309020996094e+00 -6.289302706718444824e-01 1.800000000000000000e+01
-1.879261732101439986e+00 1.953524112701416016e+00 -6.258138418197631836e-01 1.500000000000000000e+01
-2.182771682739257812e+00 2.269820690155028853e+00 -6.121152639389038086e-01 1.100000000000000000e+01
-2.637553930282593218e+00 2.744656562805175781e+00 -6.028984189033508301e-01 8.000000000000000000e+00
-3.352171897888184038e+00 3.490731000900268999e+00 -5.942349433898925781e-01 8.000000000000000000e+00
-4.495295524597167969e+00 4.682740211486816406e+00 -5.679067969322204590e-01 6.000000000000000000e+00
-6.870342254638671875e+00 7.161824226379395419e+00 -5.201147198677062988e-01 2.000000000000000000e+00
-1.625198125839232954e+00 1.698890924453734907e+00 -6.299655437469482422e-01 1.800000000000000000e+01
-1.866382241249084029e+00 1.952375173568726030e+00 -6.235643029212951660e-01 1.400000000000000000e+01
-2.178342819213867188e+00 2.279505729675292969e+00 -6.128785014152526855e-01 1.100000000000000000e+01
-2.630282402038574219e+00 2.754357576370238814e+00 -6.032112836837768555e-01 9.000000000000000000e+00
-3.335707187652587891e+00 3.495500564575194868e+00 -5.932599902153015137e-01 9.000000000000000000e+00
-4.475060939788818359e+00 4.691072940826416016e+00 -5.672096014022827148e-01 6.000000000000000000e+00
-6.817490577697753906e+00 7.151568412780761719e+00 -5.178119540214538574e-01 2.000000000000000000e+00
-1.623249650001526101e+00 1.708755373954772949e+00 -6.315184831619262695e-01 1.900000000000000000e+01
-5.855303573608397727e+01 6.165890884399414062e+01 1.484222412109375000e+00 3.000000000000000000e+00
-1.855530858039855957e+00 1.954638123512268066e+00 -6.222146153450012207e-01 1.300000000000000000e+01
-2.167669773101807085e+00 2.284247398376464844e+00 -6.121152639389038086e-01 1.100000000000000000e+01
-2.623370409011840820e+00 2.766388893127440962e+00 -6.038370132446289062e-01 9.000000000000000000e+00
-3.309830904006958008e+00 3.492714166641234907e+00 -5.908225774765014648e-01 8.000000000000000000e+00
-4.461399555206298828e+00 4.709558010101318359e+00 -5.675581693649291992e-01 6.000000000000000000e+00
-6.797977447509765625e+00 7.181124210357666016e+00 -5.182306170463562012e-01 2.000000000000000000e+00
-1.611375927925110085e+00 1.709352731704711914e+00 -6.294479370117187500e-01 2.100000000000000000e+01
-1.854693055152893066e+00 1.968840837478637917e+00 -6.244641542434692383e-01 1.100000000000000000e+01
-2.153499364852904829e+00 2.286836624145507812e+00 -6.105887889862060547e-01 1.100000000000000000e+01
-2.607314109802246094e+00 2.770687341690063032e+00 -6.025855541229248047e-01 9.000000000000000000e+00
-3.299115180969237837e+00 3.508289575576781782e+00 -5.913100838661193848e-01 8.000000000000000000e+00
-4.429636478424072266e+00 4.712137222290039062e+00 -5.658150911331176758e-01 6.000000000000000000e+00
-6.737534523010253906e+00 7.172236442565917969e+00 -5.157185196876525879e-01 2.000000000000000000e+00
-1.597478032112122026e+00 1.706505060195923074e+00 -6.263421177864074707e-01 1.600000000000000000e+01
-1.845146656036376953e+00 1.972456693649291992e+00 -6.235643029212951660e-01 1.100000000000000000e+01
-2.153549194335937944e+00 2.302943706512451172e+00 -6.128785014152526855e-01 1.200000000000000000e+01
-2.594929218292235884e+00 2.776885032653809038e+00 -6.019598245620727539e-01 9.000000000000000000e+00
-3.286849021911621094e+00 3.519784212112427202e+00 -5.913100838661193848e-01 8.000000000000000000e+00
-4.413161277770996094e+00 4.727571010589599609e+00 -5.658150911331176758e-01 6.000000000000000000e+00
-6.728806495666503906e+00 7.213236808776854581e+00 -5.169745683670043945e-01 2.000000000000000000e+00
-1.590793132781981978e+00 1.710100769996643066e+00 -6.258244514465332031e-01 1.700000000000000000e+01
-1.844248175621032937e+00 1.983952879905700906e+00 -6.253639459609985352e-01 1.300000000000000000e+01
-2.140958070755004883e+00 2.303945302963256836e+00 -6.113520264625549316e-01 1.200000000000000000e+01
-2.586192607879639116e+00 2.785023689270019975e+00 -6.019598245620727539e-01 9.000000000000000000e+00
-3.282526493072510210e+00 3.537368297576903853e+00 -5.925287604331970215e-01 9.000000000000000000e+00
-4.392867565155029297e+00 4.735569000244140625e+00 -5.651178359985351562e-01 6.000000000000000000e+00
-6.711543083190917969e+00 7.240199565887451172e+00 -5.173932909965515137e-01 2.000000000000000000e+00
-1.592679142951965110e+00 1.724157691001892090e+00 -6.289302706718444824e-01 1.700000000000000000e+01
-1.820128083229064941e+00 1.971763372421265093e+00 -6.195151805877685547e-01 1.300000000000000000e+01
-2.132902622222899947e+00 2.311404466629027876e+00 -6.113520264625549316e-01 1.200000000000000000e+01
-2.573776960372924805e+00 2.791129827499390093e+00 -6.013340950012207031e-01 9.000000000000000000e+00
-3.260742425918579102e+00 3.538586139678955078e+00 -5.908225774765014648e-01 8.000000000000000000e+00
-4.384409904479979581e+00 4.759666442871093750e+00 -5.661637187004089355e-01 4.000000000000000000e+00
-6.664586544036865234e+00 7.240071296691895419e+00 -5.157185196876525879e-01 2.000000000000000000e+00
-1.591874599456787109e+00 1.735401153564452903e+00 -6.310008168220520020e-01 1.900000000000000000e+01
-1.819818258285522017e+00 1.985287427902221902e+00 -6.217647194862365723e-01 1.400000000000000000e+01
-2.118189573287963867e+00 2.311598300933837891e+00 -6.094439029693603516e-01 1.200000000000000000e+01
-2.569354534149169922e+00 2.805924415588378906e+00 -6.025855541229248047e-01 9.000000000000000000e+00
-3.240329980850220171e+00 3.541159629821776900e+00 -5.893601179122924805e-01 8.000000000000000000e+00
-4.357010364532470703e+00 4.763181209564208984e+00 -5.647692084312438965e-01 6.000000000000000000e+00
-6.639273643493652344e+00 7.263290882110595703e+00 -5.157185196876525879e-01 2.000000000000000000e+00
-1.398017978668213068e+01 1.530488491058349965e+01 -3.618232905864716131e-01 3.000000000000000000e+00
-1.576700925827025923e+00 1.730949997901916948e+00 -6.273773908615112305e-01 1.900000000000000000e+01
-1.816812634468079057e+00 1.995951056480407937e+00 -6.231144070625305176e-01 1.600000000000000000e+01
-2.110107660293579102e+00 2.318978071212768999e+00 -6.094439029693603516e-01 1.200000000000000000e+01
-2.554228782653809038e+00 2.809029817581177202e+00 -6.013340950012207031e-01 9.000000000000000000e+00
-3.227949380874633789e+00 3.552448987960814986e+00 -5.893601179122924805e-01 8.000000000000000000e+00
-4.334999084472656250e+00 4.772461891174316406e+00 -5.640719532966613770e-01 4.000000000000000000e+00
-6.568238735198974609e+00 7.236140251159667969e+00 -5.121596455574035645e-01 2.000000000000000000e+00
-1.565465450286865012e+00 1.730712413787842019e+00 -6.253067851066589355e-01 1.900000000000000000e+01
-1.808527588844299094e+00 2.000834941864014116e+00 -6.226645112037658691e-01 1.400000000000000000e+01
-2.104632616043090820e+00 2.329242944717406782e+00 -6.102071404457092285e-01 1.200000000000000000e+01
-2.549703121185303178e+00 2.823793172836304155e+00 -6.025855541229248047e-01 9.000000000000000000e+00
-3.218189001083374023e+00 3.566642761230469194e+00 -5.898476243019104004e-01 8.000000000000000000e+00
-4.310307025909423828e+00 4.778687953948974609e+00 -5.630260705947875977e-01 6.000000000000000000e+00
-6.548288822174072266e+00 7.264957904815673828e+00 -5.125783681869506836e-01 2.000000000000000000e+00
-1.559414625167846902e+00 1.736166357994080034e+00 -6.253067851066589355e-01 1.600000000000000000e+01
-1.797627329826354980e+00 2.002784967422484907e+00 -6.213148236274719238e-01 1.200000000000000000e+01
-2.096489191055297852e+00 2.336575269699097124e+00 -6.102071404457092285e-01 1.200000000000000000e+01
-2.529281139373778853e+00 2.820910215377808061e+00 -6.000826358795166016e-01 9.000000000000000000e+00
-3.208368778228760210e+00 3.580811500549315962e+00 -5.903350710868835449e-01 8.000000000000000000e+00
-4.292270660400390625e+00 4.792220115661621094e+00 -5.628517866134643555e-01 6.000000000000000000e+00
-6.546865463256835938e+00 7.314559459686279297e+00 -5.144624710083007812e-01 2.000000000000000000e+00
-1.554630637168884055e+00 1.743040800094604048e+00 -6.258244514465332031e-01 1.800000000000000000e+01
-1.784142255783081055e+00 2.001773834228516069e+00 -6.190652847290039062e-01 1.100000000000000000e+01
-2.092238187789916992e+00 2.348276853561400923e+00 -6.113520264625549316e-01 1.200000000000000000e+01
-2.516791820526123047e+00 2.826771020889281782e+00 -5.994568467140197754e-01 9.000000000000000000e+00
-3.187932729721068892e+00 3.583090543746947798e+00 -5.888726711273193359e-01 8.000000000000000000e+00
-4.271543979644775391e+00 4.802707672119140625e+00 -5.623288750648498535e-01 7.000000000000000000e+00
-6.460259914398193359e+00 7.268696308135986328e+00 -5.096475481986999512e-01 2.000000000000000000e+00
-1.551098465919495073e+00 1.751349329948425071e+00 -6.268597245216369629e-01 1.800000000000000000e+01
-1.777143836021422896e+00 2.007989406585692915e+00 -6.190652847290039062e-01 1.200000000000000000e+01
-2.076223134994506836e+00 2.346743345260620117e+00 -6.090623140335083008e-01 1.100000000000000000e+01
-2.510834455490111861e+00 2.839978933334351030e+00 -6.003955006599426270e-01 8.000000000000000000e+00
-3.162262916564940962e+00 3.579319953918457031e+00 -5.864352583885192871e-01 9.000000000000000000e+00
-4.261347770690917969e+00 4.825055599212645596e+00 -5.632004141807556152e-01 6.000000000000000000e+00
-6.479782104492188388e+00 7.342116832733154297e+00 -5.132063627243041992e-01 2.000000000000000000e+00
-1.544006228446960005e+00 1.755032896995543990e+00 -6.263421177864074707e-01 1.900000000000000000e+01
-1.770475387573241965e+00 2.013871669769287109e+00 -6.190652847290039062e-01 1.100000000000000000e+01
-2.064541578292847124e+00 2.349191427230834961e+00 -6.079174876213073730e-01 1.000000000000000000e+01
-2.507920265197753906e+00 2.855710744857788086e+00 -6.019598245620727539e-01 9.000000000000000000e+00
-3.158232212066649947e+00 3.598738908767700195e+00 -5.878977179527282715e-01 8.000000000000000000e+00
-4.230870723724365234e+00 4.822685241699218750e+00 -5.612829923629760742e-01 6.000000000000000000e+00
-6.442233085632324219e+00 7.348545551300048828e+00 -5.121596455574035645e-01 2.000000000000000000e+00
-1.531515836715698020e+00 1.753137350082397017e+00 -6.237539052963256836e-01 1.800000000000000000e+01
-5.841683959960938211e+01 6.689374542236328125e+01 1.550192594528198020e+00 2.000000000000000000e+00
-1.780095219612122026e+00 2.039124250411986861e+00 -6.249140501022338867e-01 1.500000000000000000e+01
-2.060201406478881836e+00 2.360821247100830078e+00 -6.090623140335083008e-01 1.100000000000000000e+01
-2.490146875381470171e+00 2.855515003204346147e+00 -6.000826358795166016e-01 9.000000000000000000e+00
-3.144346952438354048e+00 3.608244657516479048e+00 -5.876539945602416992e-01 9.000000000000000000e+00
-4.203541278839111328e+00 4.825406074523925781e+00 -5.598884820938110352e-01 6.000000000000000000e+00
-6.421787738800048828e+00 7.377014160156250000e+00 -5.125783681869506836e-01 2.000000000000000000e+00
-1.527918696403502974e+00 1.761391282081604004e+00 -6.247891783714294434e-01 1.700000000000000000e+01
-1.764031529426574929e+00 2.035017728805541992e+00 -6.217647194862365723e-01 1.600000000000000000e+01
-2.048090934753417969e+00 2.363547325134276900e+00 -6.079174876213073730e-01 1.100000000000000000e+01
-2.467233180999755859e+00 2.849256515502930132e+00 -5.969539284706115723e-01 9.000000000000000000e+00
-3.130433797836304155e+00 3.617697238922119141e+00 -5.874102115631103516e-01 8.000000000000000000e+00
-4.197099208831787109e+00 4.852104663848876953e+00 -5.612829923629760742e-01 4.000000000000000000e+00
-6.369876384735107422e+00 7.369165420532226562e+00 -5.104849338531494141e-01 2.000000000000000000e+00
-1.281811428070068004e+01 1.483945274353026988e+01 -3.422766029834746759e-01 3.000000000000000000e+00
-1.521760940551758035e+00 1.766713976860045943e+00 -6.247891783714294434e-01 1.600000000000000000e+01
-1.753103375434875044e+00 2.036732196807860884e+00 -6.204150319099426270e-01 1.500000000000000000e+01
-2.043669700622559038e+00 2.375146627426147017e+00 -6.090623140335083008e-01 1.100000000000000000e+01
-2.464999675750731978e+00 2.866838455200194868e+00 -5.988311171531677246e-01 9.000000000000000000e+00
-3.125548601150513139e+00 3.637636423110961914e+00 -5.888726711273193359e-01 8.000000000000000000e+00
-4.163260459899902344e+00 4.847077369689941406e+00 -5.590169429779052734e-01 4.000000000000000000e+00
-6.310292720794677734e+00 7.351951122283936435e+00 -5.077634453773498535e-01 2.000000000000000000e+00
-1.521862983703613059e+00 1.779355645179748979e+00 -6.273773908615112305e-01 1.900000000000000000e+01
-1.748515367507935014e+00 2.045802116394042969e+00 -6.213148236274719238e-01 1.500000000000000000e+01
-2.031540632247924805e+00 2.377787828445435014e+00 -6.079174876213073730e-01 1.000000000000000000e+01
-2.449846982955933061e+00 2.869415998458861861e+00 -5.975796580314636230e-01 9.000000000000000000e+00
-3.089640140533446822e+00 3.621341705322266069e+00 -5.844853520393371582e-01 8.000000000000000000e+00
-4.155365943908691406e+00 4.872191905975341797e+00 -5.602371096611022949e-01 3.000000000000000000e+00
-6.292364597320556641e+00 7.383053779602050781e+00 -5.083914995193481445e-01 2.000000000000000000e+00
-1.514392018318176047e+00 1.783184647560120073e+00 -6.268597245216369629e-01 1.800000000000000000e+01
-1.743885397911071999e+00 2.054864645004272017e+00 -6.222146153450012207e-01 1.600000000000000000e+01
-2.024498224258422852e+00 2.386361837387084961e+00 -6.082990765571594238e-01 1.100000000000000000e+01
-2.450034856796265093e+00 2.890004396438599077e+00 -6.000826358795166016e-01 9.000000000000000000e+00
-3.092378377914429155e+00 3.650280237197875977e+00 -5.874102115631103516e-01 9.000000000000000000e+00
-4.129320144653320312e+00 4.876024246215820312e+00 -5.590169429779052734e-01 4.000000000000000000e+00
-6.253652095794677734e+00 7.389727592468261719e+00 -5.073447823524475098e-01 2.000000000000000000e+00
-1.257679271697998047e+01 1.487209129333495916e+01 -3.399728834629058838e-01 3.000000000000000000e+00
-1.502865672111511008e+00 1.782814979553223100e+00 -6.247891783714294434e-01 1.700000000000000000e+01
-1.737597703933716042e+00 2.062732934951781782e+00 -6.226645112037658691e-01 1.600000000000000000e+01
-2.010679960250854048e+00 2.387759208679199219e+00 -6.067726016044616699e-01 1.100000000000000000e+01
-2.436882495880126953e+00 2.895941972732543945e+00 -5.994568467140197754e-01 9.000000000000000000e+00
-3.073868274688721147e+00 3.655512571334838867e+00 -5.864352583885192871e-01 8.000000000000000000e+00
-4.107574939727783203e+00 4.886550426483154297e+00 -5.584939718246459961e-01 4.000000000000000000e+00
-6.200833320617675781e+00 7.382012367248535156e+00 -5.052513480186462402e-01 2.000000000000000000e+00
-1.247591590881348012e+01 1.486294937133789062e+01 -3.387162983417510986e-01 3.000000000000000000e+00
-1.494153380393981934e+00 1.785087227821350098e+00 -6.237539052963256836e-01 1.600000000000000000e+01
-1.726636052131653054e+00 2.064301252365111861e+00 -6.213148236274719238e-01 1.500000000000000000e+01
-2.007369995117187944e+00 2.400787591934204102e+00 -6.082990765571594238e-01 1.200000000000000000e+01
-2.419159412384033203e+00 2.895335197448730025e+00 -5.975796580314636230e-01 9.000000000000000000e+00
-3.067450761795043945e+00 3.673838853836060014e+00 -5.876539945602416992e-01 9.000000000000000000e+00
-4.085385799407958984e+00 4.894740581512451172e+00 -5.577967762947082520e-01 6.000000000000000000e+00
-6.195495605468750000e+00 7.428153038024902344e+00 -5.069260597229003906e-01 2.000000000000000000e+00
-1.241115570068359020e+01 1.489104652404784979e+01 -3.383672535419464111e-01 3.000000000000000000e+00
-1.495321869850158913e+00 1.799206256866455078e+00 -6.268597245216369629e-01 1.500000000000000000e+01
-1.718174695968627930e+00 2.068816661834716797e+00 -6.208649277687072754e-01 1.400000000000000000e+01
-2.001485586166381836e+00 2.410801172256470171e+00 -6.090623140335083008e-01 1.100000000000000000e+01
-2.414083003997803178e+00 2.909843206405640093e+00 -5.988311171531677246e-01 9.000000000000000000e+00
-3.049540281295775923e+00 3.678411006927489790e+00 -5.866790413856506348e-01 9.000000000000000000e+00
-4.070817947387695312e+00 4.912039279937744141e+00 -5.581454038619995117e-01 6.000000000000000000e+00
-6.164433479309082031e+00 7.443581104278563565e+00 -5.065073966979980469e-01 2.000000000000000000e+00
-1.230300426483153942e+01 1.486649322509765980e+01 -3.368314504623413086e-01 3.000000000000000000e+00
-1.491491556167602983e+00 1.807394981384276900e+00 -6.278949975967407227e-01 1.800000000000000000e+01
-1.704743623733520952e+00 2.067284107208251953e+00 -6.186153888702392578e-01 1.300000000000000000e+01
-1.985565543174744096e+00 2.408683538436890093e+00 -6.067726016044616699e-01 1.200000000000000000e+01
-2.396375417709351030e+00 2.909104108810424805e+00 -5.969539284706115723e-01 9.000000000000000000e+00
-3.030373573303223100e+00 3.681370496749877930e+00 -5.854603052139282227e-01 8.000000000000000000e+00
-4.053647041320800781e+00 4.926219463348388672e+00 -5.581454038619995117e-01 6.000000000000000000e+00
-6.110505104064941406e+00 7.431114196777343750e+00 -5.042046308517456055e-01 2.000000000000000000e+00
-1.233736419677734020e+01 1.501440906524658025e+01 -3.392049670219420832e-01 3.000000000000000000e+00
-1.480591297149657981e+00 1.806354641914367898e+00 -6.258244514465332031e-01 1.700000000000000000e+01
-1.708992362022399902e+00 2.086494207382202148e+00 -6.226645112037658691e-01 1.400000000000000000e+01
-1.975079655647278054e+00 2.412216663360596147e+00 -6.060093641281127930e-01 1.100000000000000000e+01
-2.400475263595581055e+00 2.933852195739746094e+00 -6.003955006599426270e-01 8.000000000000000000e+00
-3.020662069320679155e+00 3.694472789764403853e+00 -5.859478116035461426e-01 8.000000000000000000e+00
-4.025940895080566406e+00 4.925750732421875000e+00 -5.565765500068664551e-01 6.000000000000000000e+00
-6.073194980621337891e+00 7.435867786407470703e+00 -5.031578540802001953e-01 2.000000000000000000e+00
-1.214336395263672053e+01 1.487862873077392933e+01 -3.352258205413817804e-01 3.000000000000000000e+00
-1.464521527290344016e+00 1.799525022506714089e+00 -6.216833591461181641e-01 1.700000000000000000e+01
-1.701698660850524902e+00 2.092447042465209961e+00 -6.226645112037658691e-01 1.300000000000000000e+01
-1.974078059196471946e+00 2.428236484527587891e+00 -6.082990765571594238e-01 1.100000000000000000e+01
-2.385237216949462891e+00 2.936080694198607954e+00 -5.991439819335937500e-01 8.000000000000000000e+00
-3.005245208740233931e+00 3.701912164688109907e+00 -5.854603052139282227e-01 9.000000000000000000e+00
-4.001189231872558594e+00 4.930491447448729581e+00 -5.555307269096374512e-01 6.000000000000000000e+00
-6.057265758514404297e+00 7.469432353973388672e+00 -5.039952397346496582e-01 2.000000000000000000e+00
-1.209135437011718928e+01 1.492092609405517933e+01 -3.352258205413817804e-01 3.000000000000000000e+00
-1.464618325233459029e+00 1.811883687973022017e+00 -6.242715120315551758e-01 1.600000000000000000e+01
-1.687403321266174094e+00 2.088982820510863814e+00 -6.199650764465332031e-01 1.100000000000000000e+01
-1.964781522750854048e+00 2.433241844177246094e+00 -6.079174876213073730e-01 1.000000000000000000e+01
-2.366804599761962891e+00 2.933212995529174805e+00 -5.969539284706115723e-01 9.000000000000000000e+00
-3.002920866012572798e+00 3.724220037460327148e+00 -5.874102115631103516e-01 9.000000000000000000e+00
-3.971063613891602007e+00 4.926669120788574219e+00 -5.536133050918579102e-01 4.000000000000000000e+00
-6.027451992034912109e+00 7.483255863189697266e+00 -5.035765767097473145e-01 2.000000000000000000e+00
-1.199666976928710938e+01 1.490486049652099965e+01 -3.339692354202271063e-01 3.000000000000000000e+00
-1.464330673217772993e+00 1.824518203735352007e+00 -6.268597245216369629e-01 1.800000000000000000e+01
-1.678881883621216042e+00 2.093339920043944868e+00 -6.195151805877685547e-01 1.500000000000000000e+01
-1.953819751739501953e+00 2.437021970748900923e+00 -6.071542501449584961e-01 1.000000000000000000e+01
-2.361491680145264116e+00 2.947623491287231001e+00 -5.982053875923156738e-01 9.000000000000000000e+00
-2.972533941268920898e+00 3.712984323501586914e+00 -5.839979052543640137e-01 9.000000000000000000e+00
-3.961311578750609907e+00 4.949834346771240234e+00 -5.546591281890869141e-01 6.000000000000000000e+00
-5.958881855010986328e+00 7.451216697692871094e+00 -5.000177025794982910e-01 2.000000000000000000e+00
-1.194456958770751953e+01 1.494664573669433949e+01 -3.339692354202271063e-01 3.000000000000000000e+00
-1.455545186996459961e+00 1.826596856117248979e+00 -6.258244514465332031e-01 1.500000000000000000e+01
-1.666708946228026900e+00 2.093089818954468218e+00 -6.177155971527099609e-01 1.300000000000000000e+01
-1.942855715751647949e+00 2.440755128860474077e+00 -6.063910126686096191e-01 1.000000000000000000e+01
-2.348728656768798828e+00 2.952756643295288086e+00 -5.975796580314636230e-01 9.000000000000000000e+00
-2.962025642395019975e+00 3.726445674896239790e+00 -5.844853520393371582e-01 9.000000000000000000e+00
-3.937811851501464844e+00 4.955832004547119141e+00 -5.537875890731811523e-01 6.000000000000000000e+00
-5.945255279541015625e+00 7.487613201141357422e+00 -5.010644197463989258e-01 2.000000000000000000e+00
-1.189232349395751953e+01 1.498824882507324041e+01 -3.339692354202271063e-01 3.000000000000000000e+00
-1.445564270019531028e+00 1.827121496200561968e+00 -6.242715120315551758e-01 1.600000000000000000e+01
-1.663018226623534934e+00 2.103481054306029829e+00 -6.190652847290039062e-01 1.400000000000000000e+01
-1.933106780052185059e+00 2.445981740951538086e+00 -6.060093641281127930e-01 1.100000000000000000e+01
-2.331061601638793945e+00 2.951635837554932085e+00 -5.957024693489074707e-01 9.000000000000000000e+00
-2.944080591201781782e+00 3.730529308319091797e+00 -5.835103988647460938e-01 1.100000000000000000e+01
-3.914318799972534180e+00 4.961726188659667969e+00 -5.529160499572753906e-01 6.000000000000000000e+00
-5.881987571716308594e+00 7.461266040802001953e+00 -4.979242980480194092e-01 2.000000000000000000e+00
-1.176073455810547053e+01 1.492913722991943004e+01 -3.317353427410125732e-01 3.000000000000000000e+00
-1.434404253959655984e+00 1.826079487800597922e+00 -6.222009658813476562e-01 1.600000000000000000e+01
-1.655665636062622070e+00 2.109273195266724077e+00 -6.190652847290039062e-01 1.400000000000000000e+01
-1.920921087265015093e+00 2.448081016540526900e+00 -6.048645377159118652e-01 1.100000000000000000e+01
-2.329276323318481001e+00 2.970636367797852007e+00 -5.978925228118896484e-01 8.000000000000000000e+00
-2.931040763854980025e+00 3.740783214569091797e+00 -5.835103988647460938e-01 9.000000000000000000e+00
-3.884689807891846147e+00 4.959674358367919922e+00 -5.511729121208190918e-01 7.000000000000000000e+00
-5.863293170928955078e+00 7.491189002990722656e+00 -4.985523223876953125e-01 2.000000000000000000e+00
-1.173811817169188920e+01 1.500790214538574041e+01 -3.325730562210083008e-01 3.000000000000000000e+00
-1.430397391319274902e+00 1.834122061729430930e+00 -6.232362389564514160e-01 1.600000000000000000e+01
-1.654282212257385032e+00 2.122725248336791992e+00 -6.213148236274719238e-01 1.500000000000000000e+01
-1.915983557701111062e+00 2.459417819976807085e+00 -6.060093641281127930e-01 9.000000000000000000e+00
-2.305544853210449219e+00 2.961602687835692915e+00 -5.944509506225585938e-01 9.000000000000000000e+00
-2.922840595245360884e+00 3.757259130477904829e+00 -5.844853520393371582e-01 9.000000000000000000e+00
-3.864907503128052202e+00 4.970058441162109375e+00 -5.508242845535278320e-01 6.000000000000000000e+00
-5.822402477264404297e+00 7.492685317993164062e+00 -4.972962439060211182e-01 2.000000000000000000e+00
-1.165622425079346058e+01 1.501087760925292969e+01 -3.317353427410125732e-01 3.000000000000000000e+00
-1.427534580230712891e+00 1.843686461448668990e+00 -6.247891783714294434e-01 1.700000000000000000e+01
-1.636129856109618919e+00 2.114615440368651900e+00 -6.172657012939453125e-01 1.600000000000000000e+01
-1.910990357398987038e+00 2.470749616622924805e+00 -6.071542501449584961e-01 1.000000000000000000e+01
-2.304856777191162109e+00 2.982136249542235884e+00 -5.969539284706115723e-01 9.000000000000000000e+00
-2.912134170532227007e+00 3.770581007003784180e+00 -5.849728584289550781e-01 9.000000000000000000e+00
-3.830489158630371094e+00 4.961440563201904297e+00 -5.483839511871337891e-01 6.000000000000000000e+00
-5.796212673187255859e+00 7.512963771820068359e+00 -4.972962439060211182e-01 2.000000000000000000e+00
-1.160375499725341975e+01 1.505147457122802912e+01 -3.317353427410125732e-01 3.000000000000000000e+00
-1.426977038383484109e+00 1.856316328048706055e+00 -6.273773908615112305e-01 1.800000000000000000e+01
-1.628738522529602051e+00 2.120313644409180132e+00 -6.172657012939453125e-01 1.300000000000000000e+01
-1.898767113685607910e+00 2.472733736038208008e+00 -6.060093641281127930e-01 9.000000000000000000e+00
-2.290825605392456055e+00 2.985461950302124023e+00 -5.960153341293334961e-01 8.000000000000000000e+00
-2.884459972381591797e+00 3.761819601058959961e+00 -5.820479989051818848e-01 9.000000000000000000e+00
-3.827691793441772017e+00 4.993756771087645596e+00 -5.504756569862365723e-01 7.000000000000000000e+00
-5.760236263275145596e+00 7.520465850830078125e+00 -4.964588880538939875e-01 2.000000000000000000e+00
-1.150739097595215021e+01 1.503472137451172053e+01 -3.304787576198577881e-01 3.000000000000000000e+00
-1.410789728164673074e+00 1.849246621131896973e+00 -6.232362389564514160e-01 1.600000000000000000e+01
-1.624500513076782005e+00 2.130918264389038086e+00 -6.186153888702392578e-01 1.600000000000000000e+01
-1.882551431655884011e+00 2.470307350158690962e+00 -6.037196516990661621e-01 1.000000000000000000e+01
-2.283458232879639116e+00 2.998553037643433061e+00 -5.969539284706115723e-01 9.000000000000000000e+00
-2.875461339950561968e+00 3.778685331344604048e+00 -5.830229520797729492e-01 9.000000000000000000e+00
-3.791269302368164062e+00 4.983966350555419922e+00 -5.478609800338745117e-01 6.000000000000000000e+00
-5.737468242645263672e+00 7.547887802124023438e+00 -4.968775808811187744e-01 2.000000000000000000e+00
-1.403159618377685991e+00 1.852619886398314986e+00 -6.227186322212219238e-01 1.900000000000000000e+01
-1.619404435157776101e+00 2.139683723449707031e+00 -6.195151805877685547e-01 1.500000000000000000e+01
-1.870363354682921919e+00 2.472166776657104048e+00 -6.025748252868652344e-01 1.000000000000000000e+01
-2.270594835281372070e+00 3.003354072570800781e+00 -5.963281989097595215e-01 9.000000000000000000e+00
-2.857467412948607954e+00 3.782363891601562944e+00 -5.820479989051818848e-01 9.000000000000000000e+00
-3.775049448013306108e+00 4.998760223388671875e+00 -5.480353236198425293e-01 7.000000000000000000e+00
-5.687024593353270596e+00 7.535984039306640625e+00 -4.947841167449951172e-01 2.000000000000000000e+00
-1.399330973625183105e+00 1.860350489616394043e+00 -6.237539052963256836e-01 1.900000000000000000e+01
-1.608787417411803977e+00 2.140368700027465820e+00 -6.181654930114746094e-01 1.700000000000000000e+01
-1.873948335647583008e+00 2.494051218032836914e+00 -6.063910126686096191e-01 1.000000000000000000e+01
-2.262995004653931108e+00 3.014026403427124023e+00 -5.969539284706115723e-01 9.000000000000000000e+00
-2.856822252273560014e+00 3.807697534561156782e+00 -5.844853520393371582e-01 9.000000000000000000e+00
-3.748888731002808061e+00 4.998499870300292969e+00 -5.466408133506774902e-01 6.000000000000000000e+00
-5.671585083007813388e+00 7.567587375640869141e+00 -4.956215023994445801e-01 2.000000000000000000e+00
-1.398607969284058061e+00 1.872963190078734907e+00 -6.263421177864074707e-01 1.600000000000000000e+01
-1.596644639968872070e+00 2.139724016189575195e+00 -6.163659095764160156e-01 1.600000000000000000e+01
-1.866404891014098899e+00 2.502151012420653853e+00 -6.067726016044616699e-01 1.100000000000000000e+01
-2.247738122940063032e+00 3.015572071075439009e+00 -5.957024693489074707e-01 9.000000000000000000e+00
-2.834027290344237837e+00 3.804910182952880859e+00 -5.825354456901550293e-01 9.000000000000000000e+00
-3.738557100296020952e+00 5.021143913269042969e+00 -5.476866960525512695e-01 8.000000000000000000e+00
-5.621290683746337891e+00 7.555291175842285156e+00 -4.935280680656433105e-01 1.000000000000000000e+00
-1.117704105377197088e+01 1.503344726562500000e+01 -3.269882798194885254e-01 3.000000000000000000e+00
-1.388610243797302024e+00 1.873178124427794966e+00 -6.247891783714294434e-01 1.300000000000000000e+01
-1.585685968399048074e+00 2.140586614608765093e+00 -6.150161623954772949e-01 1.500000000000000000e+01
-1.852986097335814986e+00 2.502339601516724077e+00 -6.052461266517639160e-01 1.100000000000000000e+01
-2.232498168945312944e+00 3.017048120498656782e+00 -5.944509506225585938e-01 9.000000000000000000e+00
-2.820728302001953125e+00 3.814779758453369141e+00 -5.825354456901550293e-01 9.000000000000000000e+00
-3.725744485855102983e+00 5.040572166442871094e+00 -5.483839511871337891e-01 7.000000000000000000e+00
-5.609122753143311435e+00 7.594145298004150391e+00 -4.947841167449951172e-01 2.000000000000000000e+00
-1.112449645996093928e+01 1.507237052917479936e+01 -3.269882798194885254e-01 3.000000000000000000e+00
-1.384353160858154075e+00 1.881125688552856001e+00 -6.258244514465332031e-01 1.000000000000000000e+01
-1.583976745605468972e+00 2.153958320617675781e+00 -6.172657012939453125e-01 1.700000000000000000e+01
-1.837262988090514915e+00 2.499301433563231978e+00 -6.029564142227172852e-01 1.200000000000000000e+01
-2.228969812393188032e+00 3.034374713897705078e+00 -5.963281989097595215e-01 9.000000000000000000e+00
-2.807394981384276900e+00 3.824602603912353960e+00 -5.825354456901550293e-01 9.000000000000000000e+00
-3.702233552932738814e+00 5.045515060424804688e+00 -5.475123524665832520e-01 9.000000000000000000e+00
-5.568408012390136719e+00 7.594350337982177734e+00 -4.935280680656433105e-01 1.000000000000000000e+00
-1.107181644439697088e+01 1.511111068725585938e+01 -3.269882798194885254e-01 3.000000000000000000e+00
-1.369801163673401101e+00 1.875027060508728027e+00 -6.222009658813476562e-01 9.000000000000000000e+00
-1.573001384735106978e+00 2.154752492904663086e+00 -6.159160137176513672e-01 1.600000000000000000e+01
-1.829684972763061968e+00 2.507285356521606001e+00 -6.033380627632141113e-01 1.200000000000000000e+01
-2.218364238739014116e+00 3.042136907577515093e+00 -5.963281989097595215e-01 9.000000000000000000e+00
-2.795196533203125000e+00 3.835983276367187944e+00 -5.827792286872863770e-01 1.100000000000000000e+01
-3.678733348846435991e+00 5.050355434417724609e+00 -5.466408133506774902e-01 8.000000000000000000e+00
-5.555969238281250000e+00 7.633119106292724609e+00 -4.947841167449951172e-01 2.000000000000000000e+00
-1.101900100708007990e+01 1.514966678619384943e+01 -3.269882798194885254e-01 3.000000000000000000e+00
-1.367784380912780984e+00 1.886052727699280007e+00 -6.242715120315551758e-01 7.000000000000000000e+00
-1.568900823593140093e+00 2.164963960647583008e+00 -6.172657012939453125e-01 1.600000000000000000e+01
-1.823225259780884011e+00 2.516836881637572798e+00 -6.041013002395629883e-01 1.200000000000000000e+01
-2.199623584747314009e+00 3.038660764694213867e+00 -5.941380858421325684e-01 9.000000000000000000e+00
-2.779462575912476030e+00 3.842500209808350053e+00 -5.822917222976684570e-01 1.100000000000000000e+01
-3.656412363052368164e+00 5.056707382202148438e+00 -5.459435582160949707e-01 8.000000000000000000e+00
-5.529291152954101562e+00 7.652466773986816406e+00 -4.947841167449951172e-01 2.000000000000000000e+00
-1.096605205535889027e+01 1.518803787231444957e+01 -3.269882798194885254e-01 3.000000000000000000e+00
-1.363449931144713911e+00 1.893951416015625000e+00 -6.253067851066589355e-01 6.000000000000000000e+00
-1.549954175949096902e+00 2.154607772827147993e+00 -6.127666831016540527e-01 1.700000000000000000e+01
-1.815574884414673074e+00 2.524779558181763139e+00 -6.044828891754150391e-01 1.100000000000000000e+01
-2.187850713729857954e+00 3.044716358184814009e+00 -5.938252210617065430e-01 9.000000000000000000e+00
-2.752139091491699219e+00 3.832829236984252930e+00 -5.793668627738952637e-01 1.100000000000000000e+01
-3.629444360733031782e+00 5.056491374969482422e+00 -5.445491075515747070e-01 6.000000000000000000e+00
-5.472279548645020419e+00 7.629523754119873047e+00 -4.920626580715178888e-01 1.000000000000000000e+00
-1.091296863555908025e+01 1.522622394561767933e+01 -3.269882798194885254e-01 3.000000000000000000e+00
-1.362446427345276101e+00 1.906558036804198997e+00 -6.278949975967407227e-01 8.000000000000000000e+00
-1.544688701629638894e+00 2.163177013397216797e+00 -6.136664748191833496e-01 1.700000000000000000e+01
-1.802188277244568093e+00 2.524710178375244141e+00 -6.029564142227172852e-01 1.100000000000000000e+01
