2.356791734695435014e+00 -2.716919898986815962e+00 -6.991241574287414551e-01 1.200000000000000000e+01
2.917701244354248047e+00 -3.365911722183227983e+00 -7.055194377899169922e-01 1.100000000000000000e+01
3.809482097625731978e+00 -4.397786617279052734e+00 -7.143980860710144043e-01 2.200000000000000000e+01
4.610473632812500000e+00 -5.324353694915770596e+00 -6.161910891532897949e-01 8.000000000000000000e+00
2.175926780700683949e+01 -2.516392517089844105e+01 -5.806764960289001465e-01 6.000000000000000000e+00
1.701825261116028054e+00 -1.973671793937683105e+00 -6.982938051223754883e-01 1.500000000000000000e+01
1.967875480651855025e+00 -2.283831834793090820e+00 -6.959985494613647461e-01 1.300000000000000000e+01
2.356262683868408203e+00 -2.735542774200439009e+00 -7.017954587936401367e-01 1.200000000000000000e+01
2.909800291061400923e+00 -3.380567312240601030e+00 -7.064580321311950684e-01 1.100000000000000000e+01
3.779868602752685991e+00 -4.394502639770507812e+00 -7.117169499397277832e-01 3.900000000000000000e+01
4.569777488708496094e+00 -5.314732551574707031e+00 -6.132277846336364746e-01 8.000000000000000000e+00
2.183282852172851918e+01 -2.542785453796387074e+01 -5.850046873092651367e-01 6.000000000000000000e+00
1.697784304618835005e+00 -1.982238888740539995e+00 -6.993290781974792480e-01 1.600000000000000000e+01
1.962825536727905051e+00 -2.293306112289429155e+00 -6.968983411788940430e-01 1.300000000000000000e+01
2.342072963714600053e+00 -2.737374305725098100e+00 -7.002689838409423828e-01 1.200000000000000000e+01
2.906275987625122070e+00 -3.399206399917602983e+00 -7.083352804183959961e-01 1.100000000000000000e+01
3.745932817459106001e+00 -4.384374141693115234e+00 -7.080608606338500977e-01 3.900000000000000000e+01
4.559891700744628906e+00 -5.338947296142578125e+00 -6.142736673355102539e-01 8.000000000000000000e+00
2.161862182617187855e+01 -2.534796714782714844e+01 -5.815141797065734863e-01 6.000000000000000000e+00
1.688351631164551003e+00 -1.985209941864013894e+00 -6.982938051223754883e-01 1.600000000000000000e+01
1.956070423126220925e+00 -2.301628589630126953e+00 -6.973482966423034668e-01 1.100000000000000000e+01
2.327419042587279829e+00 -2.739548206329346147e+00 -6.987425684928894043e-01 1.200000000000000000e+01
2.895671367645264116e+00 -3.410836458206177202e+00 -7.086481451988220215e-01 1.000000000000000000e+01
3.725468873977661133e+00 -4.391368389129638672e+00 -7.070859074592590332e-01 3.100000000000000000e+01
4.614681243896484375e+00 -5.441445350646972656e+00 -6.242094039916992188e-01 7.000000000000000000e+00
1.672686696052551047e+00 -1.980759501457213911e+00 -6.946703195571899414e-01 1.500000000000000000e+01
1.956821799278259055e+00 -2.318867683410644975e+00 -7.004975676536560059e-01 1.200000000000000000e+01
2.325437307357788086e+00 -2.756659507751464844e+00 -7.010322213172912598e-01 1.200000000000000000e+01
2.879928112030028853e+00 -3.416392326354980025e+00 -7.077094912528991699e-01 1.100000000000000000e+01
3.706280708312987837e+00 -4.399791240692138672e+00 -7.063547372817993164e-01 2.800000000000000000e+01
4.559725284576416016e+00 -5.414847850799561435e+00 -6.193287372589111328e-01 8.000000000000000000e+00
1.671968698501586914e+00 -1.993987798690795898e+00 -6.972585320472717285e-01 1.600000000000000000e+01
1.938702821731566939e+00 -2.313734531402587891e+00 -6.968983411788940430e-01 1.300000000000000000e+01
2.315800666809082031e+00 -2.764760017395019975e+00 -7.010322213172912598e-01 1.200000000000000000e+01
2.860377788543701172e+00 -3.417335748672484907e+00 -7.058323025703430176e-01 1.100000000000000000e+01
3.699815273284912109e+00 -4.423360347747802734e+00 -7.080608606338500977e-01 2.400000000000000000e+01
4.607253074645996094e+00 -5.510212421417236328e+00 -6.283929347991943359e-01 7.000000000000000000e+00
1.668706417083740012e+00 -2.004265785217285156e+00 -6.988114118576049805e-01 1.500000000000000000e+01
1.933107376098633035e+00 -2.323483943939208984e+00 -6.977981925010681152e-01 1.200000000000000000e+01
2.316178798675537109e+00 -2.784902095794678178e+00 -7.040851712226867676e-01 1.300000000000000000e+01
2.867370605468750000e+00 -3.450087308883666992e+00 -7.105253338813781738e-01 1.000000000000000000e+01
3.672937870025635210e+00 -4.422504425048828125e+00 -7.058672308921813965e-01 2.600000000000000000e+01
4.612171173095703125e+00 -5.555387496948242188e+00 -6.317048072814941406e-01 7.000000000000000000e+00
1.662930965423583984e+00 -2.011567354202270952e+00 -6.993290781974792480e-01 1.600000000000000000e+01
1.926226258277893066e+00 -2.331720113754272017e+00 -6.982480883598327637e-01 1.200000000000000000e+01
2.300192832946776900e+00 -2.785401105880736861e+00 -7.021771073341369629e-01 1.200000000000000000e+01
2.856567382812500000e+00 -3.461598873138428178e+00 -7.108381986618041992e-01 1.100000000000000000e+01
3.642322778701781782e+00 -4.416919708251953125e+00 -7.029423713684082031e-01 2.200000000000000000e+01
4.610493659973145419e+00 -5.592976093292236328e+00 -6.341452002525329590e-01 7.000000000000000000e+00
1.729442787170410156e+01 -2.099474525451660156e+01 -1.425526738166809082e+00 1.300000000000000000e+01
1.655899167060852051e+00 -2.017359972000122070e+00 -6.993290781974792480e-01 1.400000000000000000e+01
1.925490498542786089e+00 -2.347469806671143022e+00 -7.009474635124206543e-01 1.400000000000000000e+01
2.287966489791870117e+00 -2.790377140045166016e+00 -7.014138698577880859e-01 1.100000000000000000e+01
2.845718860626221147e+00 -3.473077058792113814e+00 -7.111510634422302246e-01 1.000000000000000000e+01
3.616822004318236861e+00 -4.417319774627686435e+00 -7.009924650192260742e-01 1.800000000000000000e+01
4.575799465179443359e+00 -5.590534210205078125e+00 -6.320534348487854004e-01 7.000000000000000000e+00
1.719574737548828125e+01 -2.102406501770019887e+01 -1.423433303833008035e+00 1.300000000000000000e+01
1.645185708999634011e+00 -2.018635272979735884e+00 -6.977761387825012207e-01 1.500000000000000000e+01
1.920976400375365989e+00 -2.358709812164307085e+00 -7.022972106933593750e-01 1.200000000000000000e+01
2.284409761428833008e+00 -2.805958986282349077e+00 -7.033219337463378906e-01 1.100000000000000000e+01
2.832331418991088867e+00 -3.481456995010375977e+00 -7.108381986618041992e-01 1.100000000000000000e+01
3.616407155990601030e+00 -4.448401451110839844e+00 -7.039173245429992676e-01 1.600000000000000000e+01
4.444423675537109375e+00 -5.468862056732177734e+00 -6.165397167205810547e-01 1.100000000000000000e+01
1.705174636840819957e+01 -2.099713897705078125e+01 -1.417571663856505904e+00 1.200000000000000000e+01
1.634131073951720969e+00 -2.020145654678345171e+00 -6.962232589721679688e-01 1.500000000000000000e+01
1.909868240356445090e+00 -2.362703800201416016e+00 -7.013973593711853027e-01 1.300000000000000000e+01
2.275344133377075195e+00 -2.815840005874633789e+00 -7.037035822868347168e-01 1.100000000000000000e+01
2.812106370925902876e+00 -3.482593297958374023e+00 -7.089610099792480469e-01 1.100000000000000000e+01
3.602571725845336914e+00 -4.464715957641601562e+00 -7.044048309326171875e-01 1.800000000000000000e+01
4.374314308166503906e+00 -5.423083782196044922e+00 -6.095672845840454102e-01 1.200000000000000000e+01
1.696464538574219105e+01 -2.104705619812012074e+01 -1.416734337806702104e+00 1.200000000000000000e+01
1.630698680877685991e+00 -2.030356168746947798e+00 -6.977761387825012207e-01 1.300000000000000000e+01
1.891851186752318892e+00 -2.357197761535644975e+00 -6.977981925010681152e-01 1.300000000000000000e+01
2.267958164215087891e+00 -2.826828002929687944e+00 -7.044668197631835938e-01 1.200000000000000000e+01
2.803639650344849077e+00 -3.497011899948120117e+00 -7.098996043205261230e-01 1.100000000000000000e+01
3.570829868316649947e+00 -4.457124233245849609e+00 -7.012361884117126465e-01 1.500000000000000000e+01
4.421366691589354581e+00 -5.520742416381835938e+00 -6.188057661056518555e-01 8.000000000000000000e+00
1.684115600585937855e+01 -2.104376983642578125e+01 -1.412547469139098899e+00 1.200000000000000000e+01
1.639618158340454102e+00 -2.055385351181029829e+00 -7.045054435729980469e-01 1.400000000000000000e+01
1.891312241554260032e+00 -2.372601270675659180e+00 -7.004975676536560059e-01 1.300000000000000000e+01
2.263465642929077148e+00 -2.840474843978881836e+00 -7.059932947158813477e-01 1.100000000000000000e+01
2.801871776580810991e+00 -3.518652200698852983e+00 -7.124025821685791016e-01 1.000000000000000000e+01
3.556030035018920898e+00 -4.468941211700438565e+00 -7.012361884117126465e-01 2.000000000000000000e+01
4.458847999572753906e+00 -5.605540275573729581e+00 -6.266497969627380371e-01 9.000000000000000000e+00
1.675388145446776988e+01 -2.107761192321776988e+01 -1.411082029342650923e+00 1.200000000000000000e+01
1.624037504196166992e+00 -2.050495147705078125e+00 -7.008819580078125000e-01 1.300000000000000000e+01
1.883018851280211958e+00 -2.379188776016234907e+00 -7.004975676536560059e-01 1.300000000000000000e+01
2.248664140701293945e+00 -2.842199802398682085e+00 -7.044668197631835938e-01 1.100000000000000000e+01
2.792022466659545898e+00 -3.531510353088378906e+00 -7.130283117294311523e-01 1.000000000000000000e+01
3.537947654724121094e+00 -4.478211402893066406e+00 -7.007487416267395020e-01 3.500000000000000000e+01
4.293542861938476562e+00 -5.436568260192871094e+00 -6.060810089111328125e-01 7.000000000000000000e+00
1.662328720092773082e+01 -2.106384658813476918e+01 -1.406267166137695090e+00 1.200000000000000000e+01
1.616034388542175071e+00 -2.054351091384888139e+00 -7.003643512725830078e-01 1.400000000000000000e+01
1.883548974990844949e+00 -2.396144390106201172e+00 -7.036468982696533203e-01 1.300000000000000000e+01
2.239226818084716797e+00 -2.849641084671020952e+00 -7.044668197631835938e-01 1.200000000000000000e+01
2.779076337814331055e+00 -3.539196014404296875e+00 -7.127154469490051270e-01 1.100000000000000000e+01
3.520627021789550781e+00 -4.486795902252197266e+00 -7.002612352371215820e-01 2.900000000000000000e+01
4.482071876525878906e+00 -5.714144229888916016e+00 -6.353653669357299805e-01 1.000000000000000000e+01
1.653363227844237926e+01 -2.109370422363280895e+01 -1.404592394828795943e+00 1.200000000000000000e+01
1.610042691230773926e+00 -2.061502218246459961e+00 -7.008819580078125000e-01 1.700000000000000000e+01
1.875173449516295943e+00 -2.402704715728760210e+00 -7.036468982696533203e-01 1.300000000000000000e+01
2.226850748062133789e+00 -2.854344129562377930e+00 -7.037035822868347168e-01 1.200000000000000000e+01
2.756989002227783203e+00 -3.536412000656127930e+00 -7.102124691009521484e-01 1.100000000000000000e+01
3.500063896179199219e+00 -4.492793560028076172e+00 -6.992862820625305176e-01 2.900000000000000000e+01
4.479237079620361328e+00 -5.751761913299561435e+00 -6.378057003021240234e-01 1.000000000000000000e+01
1.639121055603026988e+01 -2.106302070617676137e+01 -1.398730754852294922e+00 1.200000000000000000e+01
1.605204463005065918e+00 -2.070163011550902876e+00 -7.019172310829162598e-01 1.500000000000000000e+01
1.862000703811645952e+00 -2.403073787689208984e+00 -7.018473148345947266e-01 1.400000000000000000e+01
2.225289106369018999e+00 -2.872964859008789062e+00 -7.063748836517333984e-01 1.200000000000000000e+01
2.755509614944458008e+00 -3.560073375701903853e+00 -7.130283117294311523e-01 1.000000000000000000e+01
3.473429441452025923e+00 -4.490851879119873047e+00 -6.970926523208618164e-01 3.600000000000000000e+01
4.481068611145020419e+00 -5.795733928680419922e+00 -6.409433484077453613e-01 6.000000000000000000e+00
1.622722625732421875e+01 -2.100315093994140980e+01 -1.390985012054442915e+00 1.200000000000000000e+01
1.603860616683959961e+00 -2.083407640457152876e+00 -7.045054435729980469e-01 1.600000000000000000e+01
1.853600978851317915e+00 -2.409558773040771040e+00 -7.018473148345947266e-01 1.100000000000000000e+01
2.209263086318970171e+00 -2.872933387756348100e+00 -7.044668197631835938e-01 1.200000000000000000e+01
2.745473146438599077e+00 -3.572802782058715820e+00 -7.136540412902832031e-01 1.000000000000000000e+01
3.479494094848632812e+00 -4.531289100646972656e+00 -7.014799118041992188e-01 2.600000000000000000e+01
4.475368022918701172e+00 -5.830306053161621094e+00 -6.430350542068481445e-01 1.000000000000000000e+01
1.615624427795410156e+01 -2.106283760070801137e+01 -1.391194343566894975e+00 1.200000000000000000e+01
1.595040917396544966e+00 -2.087736845016479048e+00 -7.039877772331237793e-01 1.700000000000000000e+01
1.847122192382812944e+00 -2.419434309005736861e+00 -7.027471065521240234e-01 1.400000000000000000e+01
2.202291727066040039e+00 -2.885693550109862837e+00 -7.056116461753845215e-01 1.200000000000000000e+01
2.738348960876464844e+00 -3.590695142745972124e+00 -7.152183651924133301e-01 1.100000000000000000e+01
3.496552944183350053e+00 -4.588220596313476562e+00 -7.083046436309814453e-01 1.800000000000000000e+01
4.480531215667724609e+00 -5.881537437438964844e+00 -6.468698978424072266e-01 9.000000000000000000e+00
1.611280822753905895e+01 -2.116640853881835938e+01 -1.394125223159790039e+00 1.200000000000000000e+01
1.580738902091979980e+00 -2.084056854248046875e+00 -7.008819580078125000e-01 1.500000000000000000e+01
1.842196941375731978e+00 -2.430526256561278853e+00 -7.040967941284179688e-01 1.200000000000000000e+01
2.193390846252440962e+00 -2.894928216934204102e+00 -7.059932947158813477e-01 1.200000000000000000e+01
2.717451810836791992e+00 -3.589207649230957031e+00 -7.130283117294311523e-01 1.000000000000000000e+01
3.487701892852783203e+00 -4.609896183013916016e+00 -7.097670435905456543e-01 2.200000000000000000e+01
4.433533191680908203e+00 -5.862181663513183594e+00 -6.430350542068481445e-01 7.000000000000000000e+00
1.571494579315185991e+00 -2.086201190948485884e+00 -6.998466849327087402e-01 1.600000000000000000e+01
1.832954883575439009e+00 -2.435065031051636186e+00 -7.036468982696533203e-01 1.200000000000000000e+01
2.189681053161621094e+00 -2.910029649734497070e+00 -7.079013586044311523e-01 1.200000000000000000e+01
2.707908868789672852e+00 -3.601356983184814009e+00 -7.136540412902832031e-01 1.000000000000000000e+01
3.454509258270264116e+00 -4.597630977630615234e+00 -7.061109542846679688e-01 1.500000000000000000e+01
4.418855190277099609e+00 -5.883224010467529297e+00 -6.437323093414306641e-01 7.000000000000000000e+00
1.572301506996155007e+00 -2.102503776550292969e+00 -7.034701704978942871e-01 1.600000000000000000e+01
1.819777607917786089e+00 -2.435204267501831055e+00 -7.018473148345947266e-01 1.200000000000000000e+01
2.177160024642943892e+00 -2.914509534835814986e+00 -7.071381211280822754e-01 1.300000000000000000e+01
2.697684526443481001e+00 -3.613953351974486861e+00 -7.142797708511352539e-01 1.100000000000000000e+01
3.399271726608275923e+00 -4.557152271270751953e+00 -6.980676054954528809e-01 1.700000000000000000e+01
4.430448532104492188e+00 -5.941738128662109375e+00 -6.484387516975402832e-01 7.000000000000000000e+00
1.639519882202148082e+01 -2.200386047363280895e+01 -1.438087463378906028e+00 1.300000000000000000e+01
1.575316667556762917e+00 -2.121939420700072798e+00 -7.081289291381835938e-01 1.700000000000000000e+01
1.813588261604309082e+00 -2.444671869277954102e+00 -7.027471065521240234e-01 1.400000000000000000e+01
2.163464784622191939e+00 -2.917360782623291016e+00 -7.059932947158813477e-01 1.400000000000000000e+01
2.687405347824097124e+00 -3.626522064208983931e+00 -7.149055004119873047e-01 1.000000000000000000e+01
3.317188978195189986e+00 -4.479652404785156250e+00 -6.844182610511779785e-01 1.900000000000000000e+01
4.420349597930908203e+00 -5.971579551696777344e+00 -6.500075459480285645e-01 8.000000000000000000e+00
1.557585000991821067e+00 -2.113429069519042969e+00 -7.034701704978942871e-01 1.600000000000000000e+01
1.810821652412414995e+00 -2.458833217620850053e+00 -7.049965858459472656e-01 1.200000000000000000e+01
2.153268098831177202e+00 -2.924894809722899947e+00 -7.059932947158813477e-01 1.700000000000000000e+01
2.677071094512939009e+00 -3.639063119888306108e+00 -7.155312299728393555e-01 1.000000000000000000e+01
3.279192447662353960e+00 -4.460814952850341797e+00 -6.797872185707092285e-01 1.900000000000000000e+01
4.354645729064941406e+00 -5.925963401794433594e+00 -6.433836817741394043e-01 1.300000000000000000e+01
2.857423019409180043e+01 -3.894182205200195312e+01 -8.430908322334289551e-01 1.300000000000000000e+01
1.544494867324829102e+00 -2.111057519912720171e+00 -7.008819580078125000e-01 1.400000000000000000e+01
1.806828141212462935e+00 -2.471431732177733931e+00 -7.067962288856506348e-01 1.300000000000000000e+01
2.147678852081298828e+00 -2.938733577728271040e+00 -7.075197696685791016e-01 1.700000000000000000e+01
2.664352178573607954e+00 -3.648385763168334961e+00 -7.155312299728393555e-01 1.000000000000000000e+01
3.270622253417969194e+00 -4.481855392456054688e+00 -6.812496185302734375e-01 1.900000000000000000e+01
4.329236984252929688e+00 -5.934689521789550781e+00 -6.426864266395568848e-01 1.100000000000000000e+01
1.543927907943726030e+00 -2.125814676284790039e+00 -7.039877772331237793e-01 1.500000000000000000e+01
1.790177941322327104e+00 -2.466683626174927202e+00 -7.036468982696533203e-01 1.100000000000000000e+01
2.143172025680541992e+00 -2.954158067703247070e+00 -7.094278335571289062e-01 1.500000000000000000e+01
2.651600599288939986e+00 -3.657663822174071822e+00 -7.155312299728393555e-01 1.000000000000000000e+01
3.303869485855102983e+00 -4.560764312744140625e+00 -6.914866566658020020e-01 1.500000000000000000e+01
4.296808719635009766e+00 -5.933628082275390625e+00 -6.409433484077453613e-01 1.100000000000000000e+01
1.538012504577636941e+00 -2.134862184524536133e+00 -7.050230503082275391e-01 1.400000000000000000e+01
1.785247564315795898e+00 -2.479865312576293945e+00 -7.054464817047119141e-01 1.100000000000000000e+01
2.132959842681885210e+00 -2.963958978652954102e+00 -7.098094820976257324e-01 1.600000000000000000e+01
2.644456386566162109e+00 -3.677440881729125977e+00 -7.174084782600402832e-01 1.000000000000000000e+01
3.208721399307250977e+00 -4.465408325195313388e+00 -6.751561760902404785e-01 2.400000000000000000e+01
4.283292770385742188e+00 -5.963028430938720703e+00 -6.423377990722656250e-01 9.000000000000000000e+00
1.536169767379760964e+00 -2.148074626922606978e+00 -7.076112627983093262e-01 1.400000000000000000e+01
1.772048234939574973e+00 -2.479739904403686968e+00 -7.036468982696533203e-01 1.100000000000000000e+01
2.120318412780762163e+00 -2.968191385269165039e+00 -7.090462446212768555e-01 1.600000000000000000e+01
2.631603479385375977e+00 -3.686649322509766069e+00 -7.174084782600402832e-01 1.000000000000000000e+01
3.191962003707886186e+00 -4.474965572357177734e+00 -6.749124526977539062e-01 1.900000000000000000e+01
4.316816806793212891e+00 -6.054188728332520419e+00 -6.505304574966430664e-01 7.000000000000000000e+00
1.520463347434998003e+00 -2.140290737152100053e+00 -7.034701704978942871e-01 1.300000000000000000e+01
1.771017432212830034e+00 -2.494829177856444868e+00 -7.063463330268859863e-01 1.100000000000000000e+01
2.109846830368041992e+00 -2.973236799240111861e+00 -7.086645960807800293e-01 1.400000000000000000e+01
2.624579191207886186e+00 -3.701344251632689986e+00 -7.186599373817443848e-01 1.000000000000000000e+01
3.262814998626708984e+00 -4.604829788208007812e+00 -6.929491162300109863e-01 1.400000000000000000e+01
4.289714336395263672e+00 -6.056339263916015625e+00 -6.493102908134460449e-01 1.000000000000000000e+01
2.765931320190430043e+01 -3.910805130004882812e+01 -8.361098766326904297e-01 1.200000000000000000e+01
1.514096379280090110e+00 -2.147164106369018999e+00 -7.039877772331237793e-01 1.400000000000000000e+01
1.764543056488037109e+00 -2.504181861877440962e+00 -7.072461247444152832e-01 1.100000000000000000e+01
2.097194433212279829e+00 -2.977373361587523970e+00 -7.079013586044311523e-01 1.500000000000000000e+01
2.607095003128052202e+00 -3.704021692276000977e+00 -7.174084782600402832e-01 1.000000000000000000e+01
3.197614908218383789e+00 -4.546371459960938388e+00 -6.824682950973510742e-01 1.500000000000000000e+01
4.245629310607910156e+00 -6.038679122924804688e+00 -6.458240747451782227e-01 1.000000000000000000e+01
1.666768264770508168e+01 -2.372451400756835938e+01 -1.519522190093993919e+00 1.400000000000000000e+01
1.509539008140563965e+00 -2.157447576522827148e+00 -7.055407166481018066e-01 1.400000000000000000e+01
1.757586121559143066e+00 -2.513826608657836914e+00 -7.081459164619445801e-01 1.000000000000000000e+01
2.095265150070189986e+00 -2.997913360595703125e+00 -7.109543085098266602e-01 1.400000000000000000e+01
2.593501567840576172e+00 -3.713552236557006836e+00 -7.174084782600402832e-01 1.000000000000000000e+01
3.202515125274658203e+00 -4.588990688323974609e+00 -6.870993375778198242e-01 1.500000000000000000e+01
4.215488433837890625e+00 -6.042760848999023438e+00 -6.446038484573364258e-01 9.000000000000000000e+00
1.646640014648437855e+01 -2.362159919738769887e+01 -1.509055018424988015e+00 1.400000000000000000e+01
2.741990280151366832e+01 -3.936404418945313211e+01 -8.373664617538452148e-01 1.200000000000000000e+01
1.503100872039794922e+00 -2.164290428161621094e+00 -7.060583829879760742e-01 1.500000000000000000e+01
1.742134213447571023e+00 -2.510340452194213867e+00 -7.054464817047119141e-01 1.000000000000000000e+01
2.085906744003295898e+00 -3.006822109222412109e+00 -7.113359570503234863e-01 1.300000000000000000e+01
2.582773923873900923e+00 -3.725829601287841797e+00 -7.180342078208923340e-01 1.000000000000000000e+01
3.240734100341796875e+00 -4.678469657897949219e+00 -6.987988352775573730e-01 1.700000000000000000e+01
4.231799125671386719e+00 -6.111494064331054688e+00 -6.503561735153198242e-01 8.000000000000000000e+00
1.631111526489258168e+01 -2.357381820678710938e+01 -1.502355933189392090e+00 1.400000000000000000e+01
1.497350573539734109e+00 -2.172966480255126953e+00 -7.070936560630798340e-01 1.500000000000000000e+01
1.735132098197937012e+00 -2.519918918609619141e+00 -7.063463330268859863e-01 1.100000000000000000e+01
2.070419549942017046e+00 -3.007978200912476030e+00 -7.098094820976257324e-01 1.300000000000000000e+01
2.569100618362427202e+00 -3.735270738601685014e+00 -7.180342078208923340e-01 1.000000000000000000e+01
3.242679119110106978e+00 -4.718127727508544922e+00 -7.029423713684082031e-01 1.600000000000000000e+01
4.169883251190186435e+00 -6.069487094879150391e+00 -6.442552208900451660e-01 7.000000000000000000e+00
1.624042892456055043e+01 -2.365649604797362926e+01 -1.503821372985840066e+00 1.400000000000000000e+01
1.484303474426269975e+00 -2.170207262039185014e+00 -7.045054435729980469e-01 1.400000000000000000e+01
1.730723619461060014e+00 -2.532395839691162109e+00 -7.081459164619445801e-01 1.000000000000000000e+01
2.061014652252196822e+00 -3.016808032989501953e+00 -7.101910710334777832e-01 1.500000000000000000e+01
2.566070318222045898e+00 -3.758899211883544922e+00 -7.208499908447265625e-01 1.100000000000000000e+01
3.201579809188843218e+00 -4.693340301513671875e+00 -6.975800991058349609e-01 1.700000000000000000e+01
4.141936779022216797e+00 -6.074129104614257812e+00 -6.432093977928161621e-01 7.000000000000000000e+00
1.616674995422362926e+01 -2.372624588012694957e+01 -1.504658699035644975e+00 1.400000000000000000e+01
1.476718902587891069e+00 -2.175375223159790039e+00 -7.045054435729980469e-01 1.500000000000000000e+01
1.730624914169311968e+00 -2.551323652267456055e+00 -7.117451429367065430e-01 1.100000000000000000e+01
2.051573276519774947e+00 -3.025609016418457031e+00 -7.105727195739746094e-01 1.400000000000000000e+01
2.556257724761962891e+00 -3.772739410400391069e+00 -7.217886447906494141e-01 1.100000000000000000e+01
3.162919044494628906e+00 -4.671611785888671875e+00 -6.927053332328796387e-01 2.100000000000000000e+01
4.099491119384765625e+00 -6.057199954986572266e+00 -6.398974657058715820e-01 7.000000000000000000e+00
1.606816673278808949e+01 -2.375937080383301137e+01 -1.503193378448486106e+00 1.400000000000000000e+01
1.473434209823607954e+00 -2.186925172805786133e+00 -7.065759897232055664e-01 1.400000000000000000e+01
1.715178728103637917e+00 -2.547649860382080078e+00 -7.090457081794738770e-01 1.200000000000000000e+01
2.045383930206298828e+00 -3.039266824722290039e+00 -7.120991945266723633e-01 1.200000000000000000e+01
2.538663625717163086e+00 -3.775082826614379883e+00 -7.205371260643005371e-01 1.000000000000000000e+01
3.111163139343262163e+00 -4.629899501800537109e+00 -6.849057078361511230e-01 1.500000000000000000e+01
4.088321208953857422e+00 -6.086358070373535156e+00 -6.414662599563598633e-01 7.000000000000000000e+00
1.600739479064941051e+01 -2.384848213195801137e+01 -1.505286812782288042e+00 1.400000000000000000e+01
1.468322277069092019e+00 -2.195010662078856978e+00 -7.076112627983093262e-01 1.500000000000000000e+01
1.704555153846740945e+00 -2.550083398818970171e+00 -7.081459164619445801e-01 1.200000000000000000e+01
2.039657115936278853e+00 -3.052562475204468218e+00 -7.136256694793701172e-01 1.100000000000000000e+01
2.526130914688109907e+00 -3.783480405807495117e+00 -7.205371260643005371e-01 1.000000000000000000e+01
3.115623474121094194e+00 -4.669914245605468750e+00 -6.892930269241333008e-01 1.700000000000000000e+01
4.086908340454101562e+00 -6.128060817718505859e+00 -6.444295644760131836e-01 6.000000000000000000e+00
1.585733699798583984e+01 -2.379506301879883168e+01 -1.498587727546691895e+00 1.400000000000000000e+01
1.459582805633544922e+00 -2.198513269424438032e+00 -7.070936560630798340e-01 1.600000000000000000e+01
1.695643305778502974e+00 -2.556017875671387163e+00 -7.081459164619445801e-01 1.100000000000000000e+01
2.021394014358520952e+00 -3.048210382461547852e+00 -7.109543085098266602e-01 1.000000000000000000e+01
2.521637916564940962e+00 -3.805448532104492188e+00 -7.230401039123535156e-01 1.100000000000000000e+01
3.066425561904906782e+00 -4.631107330322265625e+00 -6.819808483123779297e-01 2.600000000000000000e+01
4.105080604553222656e+00 -6.202100753784179688e+00 -6.507048010826110840e-01 6.000000000000000000e+00
1.575875568389892933e+01 -2.382694816589355113e+01 -1.497122406959533913e+00 1.400000000000000000e+01
1.449389815330504927e+00 -2.200621366500854048e+00 -7.060583829879760742e-01 1.500000000000000000e+01
1.690548896789551003e+00 -2.568726778030395952e+00 -7.099454998970031738e-01 1.100000000000000000e+01
2.011287212371826172e+00 -3.057238817214965820e+00 -7.113359570503234863e-01 9.000000000000000000e+00
2.518524408340454102e+00 -3.831171989440917969e+00 -7.261688113212585449e-01 1.000000000000000000e+01
3.082126855850220171e+00 -4.692089557647705078e+00 -6.892930269241333008e-01 5.000000000000000000e+01
4.065917968750000000e+00 -6.192122936248779297e+00 -6.480901241302490234e-01 6.000000000000000000e+00
1.561434459686278942e+01 -2.379771232604980113e+01 -1.491679430007935014e+00 1.400000000000000000e+01
1.438528537750243919e+00 -2.200816154479980025e+00 -7.045054435729980469e-01 1.500000000000000000e+01
1.691162824630737083e+00 -2.589296340942382812e+00 -7.139946222305297852e-01 1.300000000000000000e+01
2.003823041915893999e+00 -3.069172620773314986e+00 -7.124807834625244141e-01 1.000000000000000000e+01
2.492183685302733931e+00 -3.820086717605590820e+00 -7.224143743515014648e-01 1.000000000000000000e+01
3.072233915328979048e+00 -4.712797164916992188e+00 -6.907554268836975098e-01 4.000000000000000000e+01
4.298813343048095703e+00 -6.596882820129395419e+00 -6.888790130615234375e-01 6.000000000000000000e+00
1.552246093750000000e+01 -2.383868217468262074e+01 -1.490842103958130105e+00 1.400000000000000000e+01
1.432659268379210982e+00 -2.206944942474364790e+00 -7.050230503082275391e-01 1.400000000000000000e+01
1.676656961441040039e+00 -2.584787130355834961e+00 -7.112952470779418945e-01 1.200000000000000000e+01
2.003784179687500000e+00 -3.090278148651123047e+00 -7.159153223037719727e-01 1.000000000000000000e+01
2.482318639755249023e+00 -3.831212759017943892e+00 -7.230401039123535156e-01 1.000000000000000000e+01
2.645256614685058949e+01 -4.084253311157227273e+01 5.974766254425048828e+00 4.900000000000000000e+01
3.067122697830200195e+00 -4.737422943115234375e+00 -6.929491162300109863e-01 3.100000000000000000e+01
4.313790321350097656e+00 -6.665553092956542969e+00 -6.946312785148620605e-01 6.000000000000000000e+00
2.764535140991210938e+01 -4.278231048583983664e+01 1.364856338500976918e+01 1.600000000000000000e+01
1.431224107742310014e+00 -2.221676588058472124e+00 -7.081289291381835938e-01 1.600000000000000000e+01
1.662350177764893022e+00 -2.582431077957152876e+00 -7.090457081794738770e-01 1.100000000000000000e+01
1.991922497749329057e+00 -3.095602750778197798e+00 -7.155337333679199219e-01 1.000000000000000000e+01
2.473203420639038086e+00 -3.846500635147095171e+00 -7.242915630340576172e-01 1.000000000000000000e+01
3.040910243988037109e+00 -4.733069419860839844e+00 -6.907554268836975098e-01 4.500000000000000000e+01
4.210824012756347656e+00 -6.556514739990234375e+00 -6.817322373390197754e-01 4.000000000000000000e+00
1.528203487396240057e+01 -2.381335830688476918e+01 -1.482887029647826926e+00 1.300000000000000000e+01
2.773856735229491832e+01 -4.327368545532227273e+01 1.377279663085938033e+01 1.600000000000000000e+01
1.426192402839661089e+00 -2.231791019439696822e+00 -7.096818089485168457e-01 1.400000000000000000e+01
1.652873873710632102e+00 -2.588506460189818892e+00 -7.090457081794738770e-01 1.000000000000000000e+01
1.977394223213196023e+00 -3.097918033599853960e+00 -7.143889069557189941e-01 9.000000000000000000e+00
2.459088563919066939e+00 -3.855539560317993164e+00 -7.242915630340576172e-01 1.000000000000000000e+01
3.039545297622681108e+00 -4.769293308258056641e+00 -6.944115161895751953e-01 2.200000000000000000e+01
4.243501663208007812e+00 -6.660963535308837891e+00 -6.909707188606262207e-01 5.000000000000000000e+00
1.519465255737305043e+01 -2.386920928955078125e+01 -1.482887029647826926e+00 1.300000000000000000e+01
1.415289640426635964e+00 -2.231861352920531782e+00 -7.081289291381835938e-01 1.300000000000000000e+01
1.648000359535217063e+00 -2.600844860076903853e+00 -7.108453512191772461e-01 1.200000000000000000e+01
1.966568470001220925e+00 -3.104801654815673828e+00 -7.143889069557189941e-01 9.000000000000000000e+00
2.447728157043457031e+00 -3.867438077926636186e+00 -7.249172925949096680e-01 1.100000000000000000e+01
3.063198089599608931e+00 -4.843628406524658203e+00 -7.036736011505126953e-01 1.600000000000000000e+01
1.505790805816650035e+01 -2.383767318725585938e+01 -1.477653384208678977e+00 1.300000000000000000e+01
1.401317119598388894e+00 -2.226977586746215820e+00 -7.050230503082275391e-01 1.300000000000000000e+01
1.648247241973876953e+00 -2.621429204940795898e+00 -7.148944735527038574e-01 1.000000000000000000e+01
1.951539754867553933e+00 -3.104998588562012163e+00 -7.128624320030212402e-01 9.000000000000000000e+00
2.432112216949462891e+00 -3.872613191604613814e+00 -7.242915630340576172e-01 1.000000000000000000e+01
2.524137687683105113e+01 -4.020701980590820312e+01 5.829010486602783203e+00 4.500000000000000000e+01
3.029389381408690962e+00 -4.827388763427734375e+00 -6.997737884521484375e-01 2.200000000000000000e+01
4.184191226959229404e+00 -6.670172691345214844e+00 -6.888790130615234375e-01 5.000000000000000000e+00
1.495551395416259943e+01 -2.385962867736816051e+01 -1.475769281387329102e+00 1.300000000000000000e+01
2.671169853210448863e+01 -4.264820861816406250e+01 1.348395442962645951e+01 1.600000000000000000e+01
1.393535017967223899e+00 -2.231855392456055132e+00 -7.050230503082275391e-01 1.100000000000000000e+01
1.640118241310120073e+00 -2.628819942474364790e+00 -7.153443694114685059e-01 1.000000000000000000e+01
1.943806171417236106e+00 -3.116789340972899947e+00 -7.140072584152221680e-01 1.000000000000000000e+01
2.418579339981079102e+00 -3.881079196929932085e+00 -7.242915630340576172e-01 1.000000000000000000e+01
3.011470794677733931e+00 -4.836248397827148438e+00 -6.995300054550170898e-01 4.200000000000000000e+01
4.019800186157226562e+00 -6.458078861236572266e+00 -6.655212640762329102e-01 4.000000000000000000e+00
1.480884742736816051e+01 -2.380992889404296875e+01 -1.469488978385925071e+00 1.300000000000000000e+01
2.633500862121582031e+01 -4.239137268066406250e+01 1.337214469909667969e+01 1.500000000000000000e+01
1.391840457916259988e+00 -2.246559381484984907e+00 -7.081289291381835938e-01 1.400000000000000000e+01
1.616571545600890891e+00 -2.611331939697266069e+00 -7.090457081794738770e-01 1.000000000000000000e+01
1.942212581634521040e+00 -3.138580560684204102e+00 -7.174417972564697266e-01 1.100000000000000000e+01
2.407094955444335938e+00 -3.892858266830443892e+00 -7.249172925949096680e-01 1.000000000000000000e+01
2.986223697662353960e+00 -4.833220958709716797e+00 -6.975800991058349609e-01 4.200000000000000000e+01
4.150086402893066406e+00 -6.719563007354736328e+00 -6.909707188606262207e-01 5.000000000000000000e+00
1.471725368499756037e+01 -2.384787940979003906e+01 -1.468651652336121050e+00 1.300000000000000000e+01
2.622065162658691051e+01 -4.252122497558593750e+01 1.338560295104979936e+01 1.600000000000000000e+01
1.392083525657654031e+00 -2.264570236206055132e+00 -7.122700214385986328e-01 1.500000000000000000e+01
1.615606069564818892e+00 -2.630243062973022017e+00 -7.126449346542358398e-01 1.000000000000000000e+01
1.925081491470336914e+00 -3.135302543640137163e+00 -7.151521444320678711e-01 1.200000000000000000e+01
2.399689674377440962e+00 -3.911339282989501953e+00 -7.267945408821105957e-01 1.000000000000000000e+01
2.968296766281127930e+00 -4.841923236846923828e+00 -6.973363757133483887e-01 3.500000000000000000e+01
4.092251777648925781e+00 -6.677948474884033203e+00 -6.852184534072875977e-01 5.000000000000000000e+00
1.462140369415283025e+01 -2.387866783142089844e+01 -1.467395544052124023e+00 1.300000000000000000e+01
1.376516461372375044e+00 -2.255981445312500000e+00 -7.081289291381835938e-01 1.400000000000000000e+01
1.608903884887695090e+00 -2.638913869857788086e+00 -7.135447263717651367e-01 1.000000000000000000e+01
1.911608695983886941e+00 -3.136639833450316939e+00 -7.140072584152221680e-01 1.100000000000000000e+01
2.394925355911254883e+00 -3.932772636413574219e+00 -7.292974591255187988e-01 1.000000000000000000e+01
2.975957393646239790e+00 -4.890743732452392578e+00 -7.029423713684082031e-01 2.200000000000000000e+01
4.107358455657958984e+00 -6.752762317657470703e+00 -6.914936900138854980e-01 6.000000000000000000e+00
1.367632746696471946e+00 -2.259119987487792969e+00 -7.076112627983093262e-01 1.400000000000000000e+01
1.605734348297118919e+00 -2.654518365859984907e+00 -7.162441611289978027e-01 1.000000000000000000e+01
1.902679920196532981e+00 -3.146653413772583008e+00 -7.147704958915710449e-01 1.000000000000000000e+01
2.385268926620482954e+00 -3.947871446609497070e+00 -7.305489778518676758e-01 1.100000000000000000e+01
2.979386806488037109e+00 -4.935090065002441406e+00 -7.078171372413635254e-01 1.600000000000000000e+01
4.178469657897949219e+00 -6.923995494842529297e+00 -7.075303196907043457e-01 6.000000000000000000e+00
2.533024215698241832e+01 -4.202358245849608664e+01 1.132808494567870916e+01 1.400000000000000000e+01
2.632013893127441051e+01 -4.370034408569335938e+01 1.366926860809325994e+01 1.600000000000000000e+01
1.359738707542418990e+00 -2.263880014419556108e+00 -7.076112627983093262e-01 1.500000000000000000e+01
1.588436126708983931e+00 -2.646739721298218218e+00 -7.126449346542358398e-01 1.000000000000000000e+01
1.895724296569823997e+00 -3.160010099411011186e+00 -7.162969708442687988e-01 1.100000000000000000e+01
2.359286308288574219e+00 -3.935842037200928178e+00 -7.267945408821105957e-01 1.000000000000000000e+01
2.964181900024414062e+00 -4.948865890502929688e+00 -7.083046436309814453e-01 1.800000000000000000e+01
4.174744606018066406e+00 -6.972727298736572266e+00 -7.110165357589721680e-01 9.000000000000000000e+00
1.431116962432860973e+01 -2.392169570922851918e+01 -1.460905909538269043e+00 1.300000000000000000e+01
2.528341674804687855e+01 -4.227899551391602273e+01 1.137307548522949041e+01 1.400000000000000000e+01
2.610371208190917969e+01 -4.366799545288085938e+01 1.363199901580811080e+01 1.600000000000000000e+01
1.356772422790526900e+00 -2.276910543441772017e+00 -7.101994752883911133e-01 1.600000000000000000e+01
1.578190684318542036e+00 -2.650593996047974077e+00 -7.121950387954711914e-01 1.000000000000000000e+01
1.892714977264404075e+00 -3.180104732513428178e+00 -7.193499207496643066e-01 1.000000000000000000e+01
2.345533370971680132e+00 -3.944053649902344194e+00 -7.267945408821105957e-01 1.000000000000000000e+01
2.928635835647583008e+00 -4.928465366363525391e+00 -7.039173245429992676e-01 1.600000000000000000e+01
4.150379657745361328e+00 -6.987257480621337891e+00 -7.110165357589721680e-01 9.000000000000000000e+00
1.429078292846680043e+01 -2.407799339294433949e+01 -1.467395544052124023e+00 1.300000000000000000e+01
2.592550086975098012e+01 -4.371564483642578125e+01 1.361854076385498047e+01 1.600000000000000000e+01
1.350782513618469016e+00 -2.284958600997924805e+00 -7.112347483634948730e-01 1.600000000000000000e+01
1.572893261909485085e+00 -2.662798166275023970e+00 -7.139946222305297852e-01 9.000000000000000000e+00
1.875613689422606978e+00 -3.176548719406127930e+00 -7.170602083206176758e-01 1.000000000000000000e+01
2.341789484024047852e+00 -3.969230413436890093e+00 -7.299231886863708496e-01 1.000000000000000000e+01
2.878146886825561968e+00 -4.882225990295410156e+00 -6.958739757537841797e-01 1.400000000000000000e+01
4.109779834747313565e+00 -6.974238395690917969e+00 -7.082275748252868652e-01 6.000000000000000000e+00
1.413165664672851918e+01 -2.400037002563476918e+01 -1.459649801254272017e+00 1.300000000000000000e+01
2.601569175720214844e+01 -4.421880722045897727e+01 1.374691486358642933e+01 1.600000000000000000e+01
1.341820955276489036e+00 -2.287993431091309038e+00 -7.107170820236206055e-01 1.400000000000000000e+01
1.566544413566588911e+00 -2.673316478729248047e+00 -7.153443694114685059e-01 1.000000000000000000e+01
1.864513993263245073e+00 -3.183076620101929155e+00 -7.170602083206176758e-01 1.000000000000000000e+01
2.331911325454711914e+00 -3.984200000762939009e+00 -7.311747074127197266e-01 1.100000000000000000e+01
2.914200067520142046e+00 -4.983061790466308594e+00 -7.087920904159545898e-01 1.800000000000000000e+01
4.012007713317871094e+00 -6.862978458404541016e+00 -6.955028176307678223e-01 4.000000000000000000e+00
1.404174995422362926e+01 -2.403920555114746094e+01 -1.459021806716918945e+00 1.300000000000000000e+01
1.327997446060181108e+00 -2.282644271850585938e+00 -7.076112627983093262e-01 1.500000000000000000e+01
1.559162020683289018e+00 -2.682137966156005859e+00 -7.162441611289978027e-01 1.000000000000000000e+01
1.857337117195128950e+00 -3.196355342864989790e+00 -7.185866832733154297e-01 1.000000000000000000e+01
2.316005945205688032e+00 -3.988898992538452148e+00 -7.305489778518676758e-01 1.200000000000000000e+01
2.851961851119995117e+00 -4.915936470031738281e+00 -6.978238821029663086e-01 1.400000000000000000e+01
4.021010875701904297e+00 -6.933817863464354581e+00 -7.012550830841064453e-01 5.000000000000000000e+00
1.393772506713867010e+01 -2.405351257324219105e+01 -1.456928372383117898e+00 1.300000000000000000e+01
1.323884010314940962e+00 -2.293958902359008789e+00 -7.096818089485168457e-01 1.300000000000000000e+01
1.551737070083617942e+00 -2.690940380096435991e+00 -7.171439528465270996e-01 1.100000000000000000e+01
1.842246651649475098e+00 -3.196015596389770952e+00 -7.170602083206176758e-01 1.000000000000000000e+01
2.300096035003662109e+00 -3.993535518646239790e+00 -7.299231886863708496e-01 1.000000000000000000e+01
2.855577707290648970e+00 -4.961992740631104404e+00 -7.029423713684082031e-01 1.600000000000000000e+01
3.993802070617675781e+00 -6.942630767822265625e+00 -7.007321715354919434e-01 5.000000000000000000e+00
1.380391216278075994e+01 -2.401543807983398082e+01 -1.451694726943969949e+00 1.300000000000000000e+01
2.627281188964844105e+01 -4.574523162841796875e+01 1.413514328002930043e+01 1.700000000000000000e+01
1.318747878074645996e+00 -2.303595781326293945e+00 -7.112347483634948730e-01 1.300000000000000000e+01
1.528788328170775923e+00 -2.672658920288085938e+00 -7.108453512191772461e-01 1.100000000000000000e+01
1.840824246406554954e+00 -3.219470024108887163e+00 -7.208763957023620605e-01 1.000000000000000000e+01
2.295941352844237837e+00 -4.018692016601563388e+00 -7.330518960952758789e-01 1.100000000000000000e+01
2.848080873489379883e+00 -4.989170074462890625e+00 -7.053797841072082520e-01 1.800000000000000000e+01
3.958681583404541016e+00 -6.937493801116943359e+00 -6.988147497177124023e-01 3.000000000000000000e+00
1.368438529968262074e+01 -2.400101470947265980e+01 -1.447926521301269975e+00 1.300000000000000000e+01
1.312606573104857954e+00 -2.311544895172119141e+00 -7.122700214385986328e-01 1.500000000000000000e+01
1.529066443443297896e+00 -2.694928169250487837e+00 -7.153443694114685059e-01 1.000000000000000000e+01
1.821826696395874023e+00 -3.212214469909667969e+00 -7.178234457969665527e-01 1.000000000000000000e+01
2.283847332000731978e+00 -4.030118942260742188e+00 -7.336776256561279297e-01 1.100000000000000000e+01
2.813042163848876953e+00 -4.967988014221191406e+00 -7.009924650192260742e-01 1.800000000000000000e+01
3.916775941848754883e+00 -6.920059680938720703e+00 -6.956771612167358398e-01 4.000000000000000000e+00
1.356119537353515980e+01 -2.397909545898437855e+01 -1.443739652633666992e+00 1.300000000000000000e+01
2.632484245300292969e+01 -4.660488510131835938e+01 1.434219837188721058e+01 1.800000000000000000e+01
1.300737619400023970e+00 -2.309379577636719194e+00 -7.101994752883911133e-01 1.500000000000000000e+01
1.522517323493957964e+00 -2.705343961715697798e+00 -7.166940569877624512e-01 9.000000000000000000e+00
1.811565399169922097e+00 -3.220265150070189986e+00 -7.182050347328186035e-01 1.100000000000000000e+01
2.267829656600952148e+00 -4.034622669219970703e+00 -7.330518960952758789e-01 1.100000000000000000e+01
2.315712547302246094e+01 -4.121493148803710938e+01 5.804636955261229581e+00 4.500000000000000000e+01
2.818041324615478960e+00 -5.017585754394531250e+00 -7.065984606742858887e-01 1.600000000000000000e+01
3.915029287338256836e+00 -6.973648071289063388e+00 -6.996862888336181641e-01 5.000000000000000000e+00
1.352626609802245916e+01 -2.411338233947753906e+01 -1.448973298072814941e+00 1.300000000000000000e+01
2.571139907836914062e+01 -4.585467147827147727e+01 1.213700962066650035e+01 1.600000000000000000e+01
2.611347770690917969e+01 -4.659081268310546875e+01 1.431114006042479936e+01 1.800000000000000000e+01
1.288899660110474077e+00 -2.307159900665283203e+00 -7.081289291381835938e-01 1.200000000000000000e+01
1.597571659088134943e+01 -2.860862350463866832e+01 5.719502568244934082e-01 2.400000000000000000e+01
1.515914082527161089e+00 -2.715746879577637163e+00 -7.180437445640563965e-01 1.000000000000000000e+01
1.799356937408447044e+00 -3.224854707717895952e+00 -7.178234457969665527e-01 1.000000000000000000e+01
2.251808643341064009e+00 -4.039063453674316406e+00 -7.324261665344238281e-01 1.200000000000000000e+01
2.785053014755249023e+00 -4.999645233154296875e+00 -7.026986479759216309e-01 2.000000000000000000e+01
3.976928234100341797e+00 -7.142196178436279297e+00 -7.152000069618225098e-01 4.000000000000000000e+00
1.343812751770020064e+01 -2.415346908569335938e+01 -1.448554635047913042e+00 1.300000000000000000e+01
2.578548431396484020e+01 -4.638451004028320312e+01 1.422003555297851918e+01 1.700000000000000000e+01
1.280838370323180930e+00 -2.311645030975341797e+00 -7.081289291381835938e-01 1.400000000000000000e+01
1.506425142288208008e+00 -2.721021890640258789e+00 -7.180437445640563965e-01 1.000000000000000000e+01
1.790940999984740989e+00 -3.236269235610961914e+00 -7.189682722091674805e-01 1.000000000000000000e+01
2.241519451141356978e+00 -4.053813934326171875e+00 -7.336776256561279297e-01 1.100000000000000000e+01
2.814622402191162109e+00 -5.094475746154785156e+00 -7.146418094635009766e-01 2.200000000000000000e+01
3.925003767013549805e+00 -7.107200145721436435e+00 -7.103192806243896484e-01 3.000000000000000000e+00
1.332092666625976918e+01 -2.414077377319335938e+01 -1.444995760917664018e+00 1.300000000000000000e+01
2.564887237548828125e+01 -4.653961563110352273e+01 1.423867130279541016e+01 1.700000000000000000e+01
1.281134843826293945e+00 -2.331339359283446822e+00 -7.127876281738281250e-01 1.600000000000000000e+01
1.489414453506469949e+00 -2.712598323822021040e+00 -7.144445776939392090e-01 1.100000000000000000e+01
1.784356355667114036e+00 -3.251106500625609907e+00 -7.208763957023620605e-01 9.000000000000000000e+00
2.227355480194091797e+00 -4.061613559722900391e+00 -7.336776256561279297e-01 1.100000000000000000e+01
2.775836467742919922e+00 -5.065970420837402344e+00 -7.092795968055725098e-01 1.800000000000000000e+01
3.938455104827880859e+00 -7.190755367279052734e+00 -7.172917723655700684e-01 5.000000000000000000e+00
1.325000190734862926e+01 -2.421165466308594105e+01 -1.446461200714111106e+00 1.300000000000000000e+01
2.466866874694823863e+01 -4.509560775756835938e+01 1.186706829071044922e+01 1.500000000000000000e+01
1.272472023963928001e+00 -2.333878755569458008e+00 -7.122700214385986328e-01 1.300000000000000000e+01
1.568027877807617010e+01 -2.877161216735839844e+01 5.719502568244934082e-01 2.400000000000000000e+01
1.484140038490294966e+00 -2.724367618560791016e+00 -7.162441611289978027e-01 1.100000000000000000e+01
1.773565530776977983e+00 -3.257005691528319868e+00 -7.208763957023620605e-01 1.000000000000000000e+01
2.215762615203856978e+00 -4.072447776794433594e+00 -7.343033552169799805e-01 1.100000000000000000e+01
2.722045421600341797e+00 -5.007130146026611328e+00 -6.997737884521484375e-01 2.100000000000000000e+01
3.917441844940185991e+00 -7.209028244018554688e+00 -7.178146839141845703e-01 2.000000000000000000e+00
1.316964054107666016e+01 -2.425546073913573863e+01 -1.446461200714111106e+00 1.300000000000000000e+01
2.504417037963866832e+01 -4.618327713012695312e+01 1.407716751098632990e+01 1.700000000000000000e+01
1.266155242919922097e+00 -2.341705083847045898e+00 -7.133052945137023926e-01 1.500000000000000000e+01
1.557975196838379084e+01 -2.882617187500000000e+01 5.719502568244934082e-01 2.400000000000000000e+01
1.478326201438904031e+00 -2.736389636993408203e+00 -7.180437445640563965e-01 1.100000000000000000e+01
1.756588459014893022e+00 -3.252812147140502930e+00 -7.185866832733154297e-01 1.000000000000000000e+01
2.197781324386597124e+00 -4.073203563690186435e+00 -7.330518960952758789e-01 1.100000000000000000e+01
2.691362142562866211e+00 -4.992138385772705078e+00 -6.963614225387573242e-01 1.900000000000000000e+01
3.592631578445435014e+00 -6.666664600372313565e+00 -6.625579595565795898e-01 5.000000000000000000e+00
1.303754901885985973e+01 -2.421335601806640980e+01 -1.441227555274962935e+00 1.300000000000000000e+01
2.503103446960448863e+01 -4.654604721069335938e+01 1.416102504730224965e+01 1.700000000000000000e+01
1.253408908843993919e+00 -2.337597846984862837e+00 -7.107170820236206055e-01 1.300000000000000000e+01
1.544502735137938920e+01 -2.881692886352539062e+01 5.706936717033386230e-01 2.400000000000000000e+01
1.465084314346313032e+00 -2.734662294387816939e+00 -7.162441611289978027e-01 1.000000000000000000e+01
1.527499198913574041e+01 -2.851163291931151988e+01 1.695161581039428933e+00 1.700000000000000000e+01
1.747076988220215066e+00 -3.262385368347167969e+00 -7.193499207496643066e-01 1.000000000000000000e+01
2.190073490142821822e+00 -4.093042373657226562e+00 -7.352420091629028320e-01 1.200000000000000000e+01
2.668304443359375000e+00 -4.990998744964599609e+00 -6.948990225791931152e-01 1.500000000000000000e+01
4.068914413452148438e+00 -7.614001750946044922e+00 -7.552916407585144043e-01 4.000000000000000000e+00
1.295859336853026988e+01 -2.426928901672362926e+01 -1.441855549812316895e+00 1.300000000000000000e+01
2.348643112182616832e+01 -4.402315521240233664e+01 -8.709449172019958496e-01 1.300000000000000000e+01
1.247962355613708052e+00 -2.347075939178466797e+00 -7.122700214385986328e-01 1.400000000000000000e+01
1.460101008415221946e+00 -2.748364686965941939e+00 -7.184936404228210449e-01 9.000000000000000000e+00
