-4.378893375396729404e+00 6.726026535034179688e-02 -6.936303973197937012e-01 9.000000000000000000e+00
-5.765981674194335938e+00 9.057927876710891724e-02 -7.080608606338500977e-01 1.100000000000000000e+01
-8.400846481323242188e+00 1.334376335144042969e-01 -7.350715398788452148e-01 3.000000000000000000e+00
-3.449600219726563211e+01 5.720177888870239258e-01 -6.022127270698547363e-01 2.000000000000000000e+01
-2.543837547302246094e+00 4.573521763086318970e-02 -6.817293763160705566e-01 2.200000000000000000e+01
-4.473981094360352273e+01 8.121805191040039062e-01 7.810649871826171875e-01 4.800000000000000000e+01
-2.955742359161376953e+00 5.417287349700927734e-02 -6.825014948844909668e-01 1.400000000000000000e+01
-4.499069213867188211e+01 8.245897889137268066e-01 2.358258247375487837e+00 3.400000000000000000e+01
-3.525401353836060014e+00 6.522909551858901978e-02 -6.853858828544616699e-01 1.100000000000000000e+01
-4.485680007934570312e+01 8.377991914749145508e-01 3.925146102905272993e+00 5.400000000000000000e+01
-4.378632068634033203e+00 8.254504948854446411e-02 -6.936303973197937012e-01 1.000000000000000000e+01
-5.771584510803222656e+00 1.108200848102569996e-01 -7.087920904159545898e-01 9.000000000000000000e+00
-8.418257713317871094e+00 1.631086170673370084e-01 -7.366403341293334961e-01 2.000000000000000000e+00
-3.451778793334960938e+01 6.929094195365905762e-01 -6.026315689086914062e-01 2.000000000000000000e+01
-2.555250883102416992e+00 5.486340075731276772e-02 -6.848351955413818359e-01 2.400000000000000000e+01
-4.474470138549804688e+01 9.685197472572326660e-01 7.812046408653259277e-01 4.800000000000000000e+01
-2.939949035644530806e+00 6.414991617202758789e-02 -6.789022684097290039e-01 1.400000000000000000e+01
-4.498753738403320312e+01 9.816315770149230957e-01 2.358258247375487837e+00 3.400000000000000000e+01
-3.515338420867919922e+00 7.731879502534866333e-02 -6.834778189659118652e-01 1.200000000000000000e+01
-4.485360336303710938e+01 9.943735599517822266e-01 3.925146102905272993e+00 5.400000000000000000e+01
-4.388191699981688565e+00 9.804945439100265503e-02 -6.951947808265686035e-01 1.000000000000000000e+01
-5.761239528656005859e+00 1.307408213615416925e-01 -7.075734138488769531e-01 1.100000000000000000e+01
-8.393734931945800781e+00 1.919462233781815130e-01 -7.345486283302307129e-01 3.000000000000000000e+00
-3.449716567993164062e+01 8.129707574844360352e-01 -6.023174524307250977e-01 2.000000000000000000e+01
-2.539593696594237837e+00 6.339687108993530273e-02 -6.806941032409667969e-01 2.200000000000000000e+01
-4.475704193115233664e+01 1.125104069709778054e+00 7.814838290214538574e-01 4.800000000000000000e+01
-2.951395988464355025e+00 7.470773905515670776e-02 -6.816017031669616699e-01 1.400000000000000000e+01
-4.499561691284179688e+01 1.146817922592163086e+00 2.358886241912841797e+00 3.400000000000000000e+01
-3.517009735107421875e+00 8.963916450738906860e-02 -6.838594675064086914e-01 1.100000000000000000e+01
-4.482197570800781250e+01 1.150220274925231934e+00 3.922705650329589844e+00 5.400000000000000000e+01
-4.381898403167724609e+00 1.132134497165679932e-01 -6.942561268806457520e-01 9.000000000000000000e+00
-5.756779193878173828e+00 1.507465690374374112e-01 -7.070859074592590332e-01 1.100000000000000000e+01
-8.377079963684082031e+00 2.208246439695357999e-01 -7.331541180610656738e-01 2.000000000000000000e+00
-3.449411773681641336e+01 9.333834052085876465e-01 -6.023174524307250977e-01 1.300000000000000000e+01
-2.549012422561645952e+00 7.253608107566833496e-02 -6.832822561264038086e-01 1.700000000000000000e+01
-4.472885513305664062e+01 1.280641674995421919e+00 7.810649871826171875e-01 4.800000000000000000e+01
-2.953065156936645952e+00 8.506568521261215210e-02 -6.820515990257263184e-01 1.400000000000000000e+01
-4.503149795532227273e+01 1.297172665596008079e+00 2.360979557037353960e+00 3.500000000000000000e+01
-3.508825540542602983e+00 1.016877815127373019e-01 -6.823329925537109375e-01 1.200000000000000000e+01
-4.481768798828125000e+01 1.306671142578125000e+00 3.922705650329589844e+00 5.400000000000000000e+01
-4.369629383087158203e+00 1.281609535217284879e-01 -6.923789381980895996e-01 9.000000000000000000e+00
-5.748281478881835938e+00 1.706050038337708075e-01 -7.061109542846679688e-01 1.100000000000000000e+01
-8.364309310913085938e+00 2.497080266475676935e-01 -7.321082353591918945e-01 2.000000000000000000e+00
-3.453861999511718750e+01 1.055250287055969016e+00 -6.031551957130432129e-01 1.300000000000000000e+01
-2.541020154953002930e+00 8.118658512830734253e-02 -6.812117099761962891e-01 1.800000000000000000e+01
-4.474409866333007812e+01 1.437408804893494096e+00 7.814140319824218750e-01 4.800000000000000000e+01
-2.944959163665771040e+00 9.512164443731307983e-02 -6.802520155906677246e-01 1.300000000000000000e+01
-4.502669525146483664e+01 1.454353928565979004e+00 2.360979557037353960e+00 3.500000000000000000e+01
-3.512373685836791992e+00 1.140626966953278004e-01 -6.830962300300598145e-01 1.100000000000000000e+01
-4.484471511840820312e+01 1.464146256446837935e+00 3.925494670867919922e+00 5.400000000000000000e+01
-4.353361129760742188e+00 1.428945958614349088e-01 -6.898760199546813965e-01 9.000000000000000000e+00
-5.751618862152099609e+00 1.908008456230164129e-01 -7.065984606742858887e-01 1.100000000000000000e+01
-8.371351242065429688e+00 2.791690230369567871e-01 -7.328054904937744141e-01 2.000000000000000000e+00
-3.451074218750000000e+01 1.174989581108093040e+00 -6.027362942695617676e-01 2.000000000000000000e+01
-2.556166410446166992e+00 9.060335904359817505e-02 -6.853528022766113281e-01 1.600000000000000000e+01
-4.472681808471679688e+01 1.593158960342407005e+00 7.812046408653259277e-01 4.800000000000000000e+01
-2.932924270629882812e+00 1.049826368689537048e-01 -6.775525808334350586e-01 1.400000000000000000e+01
-4.502134323120117188e+01 1.611517548561095969e+00 2.360979557037353960e+00 3.500000000000000000e+01
-3.515878200531005859e+00 1.264636218547821045e-01 -6.838594675064086914e-01 1.100000000000000000e+01
-4.484331130981445312e+01 1.620818614959717019e+00 3.925843238830565962e+00 5.400000000000000000e+01
-4.356783866882324219e+00 1.582331806421279907e-01 -6.905017495155334473e-01 1.000000000000000000e+01
-5.735047340393066406e+00 2.102946490049361905e-01 -7.046485543251037598e-01 1.100000000000000000e+01
-8.360370635986328125e+00 3.080220222473145086e-01 -7.319339513778686523e-01 3.000000000000000000e+00
-3.447446060180664062e+01 1.294247031211853027e+00 -6.021778583526611328e-01 2.000000000000000000e+01
-2.551973819732666016e+00 9.937515109777450562e-02 -6.843175292015075684e-01 1.500000000000000000e+01
-4.475295639038085938e+01 1.750525474548340066e+00 7.817630767822265625e-01 4.800000000000000000e+01
-2.942276239395142046e+00 1.156023442745209018e-01 -6.798020601272583008e-01 1.200000000000000000e+01
-4.501544189453125000e+01 1.768661618232727051e+00 2.360979557037353960e+00 3.500000000000000000e+01
-3.507568359375000000e+00 1.384258717298507968e-01 -6.823329925537109375e-01 1.200000000000000000e+01
-4.482941818237304688e+01 1.777025461196898970e+00 3.925146102905272993e+00 5.400000000000000000e+01
-4.358178615570068359e+00 1.735188215970993042e-01 -6.908146142959594727e-01 1.000000000000000000e+01
-5.730311393737792969e+00 2.301530838012695035e-01 -7.041610479354858398e-01 1.100000000000000000e+01
-8.357254028320312500e+00 3.371229767799376886e-01 -7.317596077919006348e-01 2.000000000000000000e+00
-3.446173858642578125e+01 1.414249539375304954e+00 -6.020382046699523926e-01 1.300000000000000000e+01
-2.553541421890258789e+00 1.083645075559615950e-01 -6.848351955413818359e-01 1.900000000000000000e+01
-4.472659301757813211e+01 1.905880451202393022e+00 7.814140319824218750e-01 4.800000000000000000e+01
-2.943801641464232954e+00 1.259554028511047086e-01 -6.802520155906677246e-01 1.300000000000000000e+01
-4.500899505615233664e+01 1.925783991813659890e+00 2.360979557037353960e+00 3.500000000000000000e+01
-3.495295047760010210e+00 1.501631289720535001e-01 -6.800432801246643066e-01 1.200000000000000000e+01
-4.481497955322266336e+01 1.933155059814452903e+00 3.924448728561400923e+00 5.400000000000000000e+01
-4.373334884643554688e+00 1.894144564867019931e-01 -6.933175325393676758e-01 1.000000000000000000e+01
-5.721540451049804688e+00 2.498078495264053067e-01 -7.031860947608947754e-01 1.100000000000000000e+01
-8.332139968872070312e+00 3.652461171150208075e-01 -7.296679019927978516e-01 2.000000000000000000e+00
-3.439865875244141336e+01 1.531954765319823997e+00 -6.010259985923767090e-01 2.000000000000000000e+01
-2.541568756103516069e+00 1.167455017566681047e-01 -6.817293763160705566e-01 2.100000000000000000e+01
-4.475562286376953125e+01 2.063651800155640093e+00 7.820423245429992676e-01 4.800000000000000000e+01
-2.943344116210937944e+00 1.362304240465163907e-01 -6.802520155906677246e-01 1.300000000000000000e+01
-4.500163650512695312e+01 2.090737342834473100e+00 2.360979557037353960e+00 3.500000000000000000e+01
-3.494749784469604048e+00 1.623630672693253119e-01 -6.800432801246643066e-01 1.100000000000000000e+01
-4.485174179077147727e+01 2.091618537902832031e+00 3.928283691406250000e+00 5.400000000000000000e+01
-4.352914810180664062e+00 2.037554383277893066e-01 -6.901888847351074219e-01 1.000000000000000000e+01
-5.732531070709229404e+00 2.703393101692200262e-01 -7.046485543251037598e-01 1.100000000000000000e+01
-8.318873405456542969e+00 3.937632739543914795e-01 -7.286220192909240723e-01 2.000000000000000000e+00
-1.600582313537598012e+01 7.632149457931518555e-01 -8.397827744483947754e-01 4.000000000000000000e+00
-3.439110565185546875e+01 1.651923179626465066e+00 -6.009910702705383301e-01 1.300000000000000000e+01
-2.550793170928955078e+00 1.260934174060822088e-01 -6.843175292015075684e-01 2.300000000000000000e+01
-4.475214385986328125e+01 2.220063686370850053e+00 7.821121215820312500e-01 4.800000000000000000e+01
-2.946743249893188032e+00 1.466975659132004062e-01 -6.811518073081970215e-01 1.400000000000000000e+01
-3.500044107437133789e+00 1.748549044132232944e-01 -6.811881065368652344e-01 1.200000000000000000e+01
-4.485212707519531250e+01 2.248566627502440962e+00 3.928980827331542969e+00 5.400000000000000000e+01
-4.328502655029296875e+00 2.177576869726181030e-01 -6.864344477653503418e-01 1.000000000000000000e+01
-5.731552600860595703e+00 2.903479039669036865e-01 -7.046485543251037598e-01 1.100000000000000000e+01
-8.301529884338378906e+00 4.219899773597716730e-01 -7.272275090217590332e-01 2.000000000000000000e+00
-1.590332984924316051e+01 8.139764666557312012e-01 -8.345491290092468262e-01 4.000000000000000000e+00
-3.436315917968750000e+01 1.770828485488892046e+00 -6.006070971488952637e-01 1.900000000000000000e+01
-2.552266597747803178e+00 1.350986957550049106e-01 -6.848351955413818359e-01 2.200000000000000000e+01
-4.474412155151367188e+01 2.376264095306396040e+00 7.821121215820312500e-01 4.800000000000000000e+01
-2.932591438293457031e+00 1.562569141387938898e-01 -6.780024766921997070e-01 1.200000000000000000e+01
-3.505293846130371094e+00 1.873856782913208008e-01 -6.823329925537109375e-01 1.100000000000000000e+01
-4.484400558471679688e+01 2.405116081237792969e+00 3.928980827331542969e+00 5.400000000000000000e+01
-4.339550971984863281e+00 2.335024774074553888e-01 -6.883116364479064941e-01 1.000000000000000000e+01
-5.710681915283203125e+00 3.092794716358184814e-01 -7.022111415863037109e-01 1.100000000000000000e+01
-8.311943054199218750e+00 4.516137242317200262e-01 -7.282733917236328125e-01 3.000000000000000000e+00
-3.432482528686522727e+01 1.889009356498718040e+00 -6.000486612319946289e-01 1.900000000000000000e+01
-2.555637121200561968e+00 1.442246437072753906e-01 -6.858704686164855957e-01 2.500000000000000000e+01
-4.473155975341796875e+01 2.532209873199462891e+00 7.820423245429992676e-01 4.800000000000000000e+01
-2.932028055191040039e+00 1.664926260709763128e-01 -6.780024766921997070e-01 1.200000000000000000e+01
-3.500698089599608931e+00 1.993970125913619995e-01 -6.815697550773620605e-01 1.100000000000000000e+01
-4.484329605102539062e+01 2.562090873718262163e+00 3.929678201675415039e+00 5.400000000000000000e+01
-4.330821037292479581e+00 2.481968253850936890e-01 -6.870601773262023926e-01 1.000000000000000000e+01
-5.693713188171386719e+00 3.282974362373352051e-01 -7.002612352371215820e-01 1.000000000000000000e+01
-8.290425300598144531e+00 4.794746935367584229e-01 -7.265302538871765137e-01 2.000000000000000000e+00
-1.580155277252197088e+01 9.194132089614868164e-01 -8.295249342918395996e-01 4.000000000000000000e+00
-3.436393356323242188e+01 2.011501550674438032e+00 -6.008514761924743652e-01 1.300000000000000000e+01
-2.545476198196411133e+00 1.525667011737822931e-01 -6.832822561264038086e-01 2.300000000000000000e+01
-4.474640274047852273e+01 2.689776420593262163e+00 7.824611663818359375e-01 4.800000000000000000e+01
-2.931429147720336914e+00 1.767262965440750122e-01 -6.780024766921997070e-01 1.300000000000000000e+01
-3.484303474426269975e+00 2.106676250696181973e-01 -6.785168051719665527e-01 1.100000000000000000e+01
-4.483407974243164062e+01 2.718607664108275923e+00 3.929678201675415039e+00 5.400000000000000000e+01
-4.337815284729003906e+00 2.637923359870911200e-01 -6.883116364479064941e-01 1.000000000000000000e+01
-5.684607028961181641e+00 3.476854562759398859e-01 -6.992862820625305176e-01 1.000000000000000000e+01
-8.244951248168945312e+00 5.057272315025329590e-01 -7.226954102516174316e-01 2.000000000000000000e+00
-3.432876205444335938e+01 2.129708290100098100e+00 -6.003627777099609375e-01 1.900000000000000000e+01
-2.533360242843627930e+00 1.607172787189483920e-01 -6.801764369010925293e-01 1.800000000000000000e+01
-4.474871444702147727e+01 2.846715927124022993e+00 7.826706171035766602e-01 4.800000000000000000e+01
-2.934683799743651900e+00 1.872059404850006104e-01 -6.789022684097290039e-01 1.200000000000000000e+01
-3.497261524200439009e+00 2.237061113119125089e-01 -6.811881065368652344e-01 1.200000000000000000e+01
-4.482431411743164062e+01 2.875091075897216797e+00 3.929678201675415039e+00 5.400000000000000000e+01
-4.332925319671630859e+00 2.786789536476135254e-01 -6.876859068870544434e-01 1.000000000000000000e+01
-5.687320709228515625e+00 3.677825331687927246e-01 -6.997737884521484375e-01 1.000000000000000000e+01
-8.235182762145996094e+00 5.339887142181396484e-01 -7.219981551170349121e-01 2.000000000000000000e+00
-3.433109664916992188e+01 2.250178813934326172e+00 -6.005373001098632812e-01 1.900000000000000000e+01
-2.521247863769530806e+00 1.683450937271117887e-01 -6.770706176757812500e-01 1.600000000000000000e+01
-4.474700927734375000e+01 2.995626688003540039e+00 7.828102111816406250e-01 4.800000000000000000e+01
-2.928213834762572798e+00 1.965451389551162997e-01 -6.775525808334350586e-01 1.200000000000000000e+01
-3.494541645050048828e+00 2.351703941822052002e-01 -6.808065176010131836e-01 1.100000000000000000e+01
-4.481851196289063211e+01 3.023986339569091797e+00 3.930026769638061968e+00 5.400000000000000000e+01
-4.310297966003417969e+00 2.915793359279633123e-01 -6.842443346977233887e-01 9.000000000000000000e+00
-5.688050270080566406e+00 3.867750167846680243e-01 -7.000175118446350098e-01 1.200000000000000000e+01
-8.233366012573242188e+00 5.612946152687072754e-01 -7.219981551170349121e-01 2.000000000000000000e+00
-3.435337066650391336e+01 2.366073608398437944e+00 -6.010608673095703125e-01 2.000000000000000000e+01
-2.532207489013671875e+00 1.779574602842330933e-01 -6.801764369010925293e-01 1.300000000000000000e+01
-4.474425888061522727e+01 3.152366876602172852e+00 7.829498648643493652e-01 4.800000000000000000e+01
-2.910014867782593218e+00 2.055296748876571933e-01 -6.735034584999084473e-01 1.300000000000000000e+01
-3.493699550628662109e+00 2.473671883344649991e-01 -6.808065176010131836e-01 1.100000000000000000e+01
-4.486332702636718750e+01 3.184363603591918945e+00 3.934907436370850053e+00 5.400000000000000000e+01
-4.305313110351563388e+00 3.063429296016693115e-01 -6.836186051368713379e-01 1.000000000000000000e+01
-5.664885044097900391e+00 4.050702452659606934e-01 -6.973363757133483887e-01 1.000000000000000000e+01
-8.227382659912109375e+00 5.897461175918579102e-01 -7.216495275497436523e-01 2.000000000000000000e+00
-3.431897354125977273e+01 2.484097957611083984e+00 -6.006070971488952637e-01 1.900000000000000000e+01
-2.535424232482910156e+00 1.870797425508498868e-01 -6.812117099761962891e-01 1.500000000000000000e+01
-4.478882217407227273e+01 3.312664031982421875e+00 7.839272022247314453e-01 4.800000000000000000e+01
-2.913166522979735884e+00 2.159744203090668002e-01 -6.744032502174377441e-01 1.300000000000000000e+01
-3.477151870727539062e+00 2.583970129489899237e-01 -6.777535676956176758e-01 1.100000000000000000e+01
-4.483604431152343750e+01 3.339762449264525923e+00 3.933512926101685014e+00 5.400000000000000000e+01
-4.304217338562011719e+00 3.213694095611572266e-01 -6.836186051368713379e-01 1.000000000000000000e+01
-4.496562194824218750e+01 3.365197896957397017e+00 5.536524295806884766e+00 3.800000000000000000e+01
-5.667395591735839844e+00 4.251388907432556152e-01 -6.978238821029663086e-01 1.000000000000000000e+01
-8.209379196166992188e+00 6.172663569450378418e-01 -7.202550768852233887e-01 2.000000000000000000e+00
-3.434598541259766336e+01 2.606602430343627930e+00 -6.012353897094726562e-01 2.000000000000000000e+01
-2.527051210403441939e+00 1.953333467245101929e-01 -6.791411638259887695e-01 1.300000000000000000e+01
-4.473312377929688211e+01 3.465588092803955078e+00 7.831593155860900879e-01 4.800000000000000000e+01
-2.922109365463256836e+00 2.268962711095809937e-01 -6.766527891159057617e-01 1.400000000000000000e+01
-4.495419311523438211e+01 3.498501539230347124e+00 2.363073110580443892e+00 3.500000000000000000e+01
-3.476228713989257812e+00 2.705329656600952148e-01 -6.777535676956176758e-01 1.100000000000000000e+01
-4.487178421020507812e+01 3.499967336654663086e+00 3.937696456909180132e+00 5.400000000000000000e+01
-4.320793628692626953e+00 3.377775549888610840e-01 -6.864344477653503418e-01 1.000000000000000000e+01
-4.491402053833007812e+01 3.519035577774047852e+00 5.531649589538574219e+00 3.800000000000000000e+01
-5.657961368560791016e+00 4.442976117134094238e-01 -6.968489289283752441e-01 1.000000000000000000e+01
-8.195257186889648438e+00 6.449807286262512207e-01 -7.192091941833496094e-01 2.000000000000000000e+00
-3.432272338867188211e+01 2.725368261337279829e+00 -6.009910702705383301e-01 1.300000000000000000e+01
-2.524428367614746094e+00 2.039976119995116910e-01 -6.786235570907592773e-01 1.200000000000000000e+01
-4.469882965087891336e+01 3.619939088821411133e+00 7.827753424644470215e-01 9.700000000000000000e+01
-2.929069042205810991e+00 2.377255260944365900e-01 -6.784523725509643555e-01 1.400000000000000000e+01
-3.475263118743896040e+00 2.826656103134155273e-01 -6.777535676956176758e-01 1.100000000000000000e+01
-4.484738159179688211e+01 3.655606746673583984e+00 3.936650514602661133e+00 5.400000000000000000e+01
-4.311713218688964844e+00 3.522145748138427734e-01 -6.851829290390014648e-01 1.000000000000000000e+01
-4.489750671386718750e+01 3.675469398498535156e+00 5.531161785125732422e+00 3.800000000000000000e+01
-5.648462295532226562e+00 4.633956253528594971e-01 -6.958739757537841797e-01 1.000000000000000000e+01
-8.186999320983886719e+00 6.730938553810119629e-01 -7.186862826347351074e-01 2.000000000000000000e+00
-1.547602748870849965e+01 1.277799844741821067e+00 -8.138241171836853027e-01 4.000000000000000000e+00
-3.435485076904296875e+01 2.848630428314208984e+00 -6.017240881919860840e-01 2.000000000000000000e+01
-2.516000986099243164e+00 2.121589630842208862e-01 -6.765530109405517578e-01 1.400000000000000000e+01
-4.470783996582031250e+01 3.777797222137451172e+00 7.831593155860900879e-01 4.800000000000000000e+01
-2.922395944595336914e+00 2.474551647901535034e-01 -6.771026849746704102e-01 1.600000000000000000e+01
-3.478167772293090820e+00 2.951268255710601807e-01 -6.785168051719665527e-01 1.100000000000000000e+01
-4.487405014038085938e+01 3.815506935119628906e+00 3.940136909484862837e+00 5.400000000000000000e+01
-4.298647880554199219e+00 3.662569224834442139e-01 -6.833057403564453125e-01 1.000000000000000000e+01
-4.487253570556641336e+01 3.831155300140380859e+00 5.529699802398681641e+00 3.800000000000000000e+01
-5.650765895843505859e+00 4.834480583667755127e-01 -6.963614225387573242e-01 1.000000000000000000e+01
-8.158793449401855469e+00 6.994553208351135254e-01 -7.164202332496643066e-01 3.000000000000000000e+00
-1.537197780609131037e+01 1.323248744010925071e+00 -8.085905313491821289e-01 4.000000000000000000e+00
-3.430286026000977273e+01 2.964917898178101030e+00 -6.009910702705383301e-01 2.000000000000000000e+01
-2.517169475555419922e+00 2.211091965436934870e-01 -6.770706176757812500e-01 1.300000000000000000e+01
-4.473023605346679688e+01 3.936989545822143999e+00 7.837875485420227051e-01 4.800000000000000000e+01
-2.905984640121459961e+00 2.562851309776306152e-01 -6.735034584999084473e-01 1.600000000000000000e+01
-3.484938859939575195e+00 3.079573512077332098e-01 -6.800432801246643066e-01 1.100000000000000000e+01
-4.489221191406250000e+01 3.974935054779053178e+00 3.942925691604613814e+00 5.400000000000000000e+01
-4.287505149841308594e+00 3.803869187831879217e-01 -6.817414164543151855e-01 9.000000000000000000e+00
-4.485889053344727273e+01 3.987766265869141069e+00 5.529699802398681641e+00 3.800000000000000000e+01
-5.637180328369140625e+00 5.021132230758666992e-01 -6.948990225791931152e-01 1.000000000000000000e+01
-8.152333259582519531e+00 7.275763154029846191e-01 -7.160716056823730469e-01 2.000000000000000000e+00
-3.431819152832031250e+01 3.086967945098876953e+00 -6.014448404312133789e-01 2.000000000000000000e+01
-2.520230054855347124e+00 2.302459329366683960e-01 -6.781058907508850098e-01 1.300000000000000000e+01
-4.474011611938477273e+01 4.095290660858154297e+00 7.842064499855041504e-01 4.800000000000000000e+01
-2.903131723403931108e+00 2.662493884563446045e-01 -6.730535626411437988e-01 1.400000000000000000e+01
-3.468202590942382812e+00 3.186830580234528143e-01 -6.769903302192687988e-01 1.100000000000000000e+01
-4.486616134643554688e+01 4.130517959594726562e+00 3.941879987716674805e+00 5.400000000000000000e+01
-4.292052268981933594e+00 3.958950936794281006e-01 -6.826800107955932617e-01 1.000000000000000000e+01
-4.482888412475585938e+01 4.142867565155029297e+00 5.527749538421630859e+00 3.800000000000000000e+01
-5.619580268859863281e+00 5.203234553337097168e-01 -6.929491162300109863e-01 1.000000000000000000e+01
-8.147759437561035156e+00 7.558447718620300293e-01 -7.158972620964050293e-01 2.000000000000000000e+00
-1.523509120941161932e+01 1.418680667877197044e+00 -8.018915057182312012e-01 4.000000000000000000e+00
-3.430123519897460938e+01 3.206183671951293945e+00 -6.013401150703430176e-01 1.300000000000000000e+01
-2.525180578231811968e+00 2.395891994237900058e-01 -6.796588301658630371e-01 1.400000000000000000e+01
-4.477730560302733664e+01 4.256357669830322266e+00 7.851139307022094727e-01 4.900000000000000000e+01
-2.909944534301757812e+00 2.771205604076384943e-01 -6.748531460762023926e-01 1.400000000000000000e+01
-3.463160276412963867e+00 3.304144740104674738e-01 -6.762270927429199219e-01 1.200000000000000000e+01
-4.486336898803710938e+01 4.288242340087890625e+00 3.942925691604613814e+00 5.400000000000000000e+01
-4.282778263092041016e+00 4.101215302944182794e-01 -6.814285516738891602e-01 1.000000000000000000e+01
-4.485762023925781250e+01 4.303494930267333984e+00 5.533112049102783203e+00 3.800000000000000000e+01
-5.625633716583251953e+00 5.406959652900695801e-01 -6.939240694046020508e-01 1.200000000000000000e+01
-8.133172035217285156e+00 7.831354141235351562e-01 -7.148513793945312500e-01 2.000000000000000000e+00
-1.525787830352783025e+01 1.474542140960692915e+00 -8.033569455146789551e-01 4.000000000000000000e+00
-3.429580688476563211e+01 3.326477050781250000e+00 -6.014448404312133789e-01 2.000000000000000000e+01
-2.508948326110839844e+00 2.468887716531754095e-01 -6.755176782608032227e-01 1.400000000000000000e+01
-4.476217651367188211e+01 4.412633895874023438e+00 7.851139307022094727e-01 4.900000000000000000e+01
-2.922534704208374023e+00 2.886171042919158936e-01 -6.780024766921997070e-01 1.300000000000000000e+01
-3.463939666748046875e+00 3.426944315433502197e-01 -6.766086816787719727e-01 1.100000000000000000e+01
-4.484416198730468750e+01 4.444425582885742188e+00 3.942577123641968218e+00 5.400000000000000000e+01
-4.289183616638183594e+00 4.258493781089783270e-01 -6.826800107955932617e-01 1.000000000000000000e+01
-4.489566040039063211e+01 4.465355396270751953e+00 5.539692878723145419e+00 7.600000000000000000e+01
-5.611860275268554688e+00 5.591489076614379883e-01 -6.924616098403930664e-01 1.000000000000000000e+01
-8.116511344909667969e+00 8.101355433464050293e-01 -7.136312127113342285e-01 2.000000000000000000e+00
-1.515327262878417969e+01 1.517840027809143066e+00 -7.981233596801757812e-01 4.000000000000000000e+00
-3.424220275878906250e+01 3.441971540451049805e+00 -6.007118225097656250e-01 1.300000000000000000e+01
-2.515758752822875977e+00 2.564287185668944757e-01 -6.775882840156555176e-01 1.400000000000000000e+01
-4.477037429809570312e+01 4.571293354034423828e+00 7.855328321456909180e-01 4.900000000000000000e+01
-2.906000375747681108e+00 2.972306013107299805e-01 -6.744032502174377441e-01 1.500000000000000000e+01
-3.464675188064575195e+00 3.549838364124298096e-01 -6.769903302192687988e-01 1.100000000000000000e+01
-4.485215759277343750e+01 4.603374958038330078e+00 3.944669008255004883e+00 5.400000000000000000e+01
-4.268020629882813388e+00 4.387985765933989923e-01 -6.795513033866882324e-01 1.000000000000000000e+01
-4.486203002929688211e+01 4.620213031768798828e+00 5.537499427795410156e+00 3.800000000000000000e+01
-5.633569240570068359e+00 5.811790227890014648e-01 -6.953864693641662598e-01 1.200000000000000000e+01
-8.117597579956054688e+00 8.388721346855163574e-01 -7.139798402786254883e-01 2.000000000000000000e+00
-1.514788150787354049e+01 1.570725560188293013e+00 -7.981233596801757812e-01 4.000000000000000000e+00
-3.425782394409179688e+01 3.564375400543212891e+00 -6.012005209922790527e-01 1.300000000000000000e+01
-2.522533178329468218e+00 2.660192251205443781e-01 -6.796588301658630371e-01 1.500000000000000000e+01
-4.476209640502929688e+01 4.728383541107177734e+00 7.856724262237548828e-01 4.900000000000000000e+01
-2.897193431854248047e+00 3.065524101257324219e-01 -6.726036667823791504e-01 1.300000000000000000e+01
-3.463414907455443892e+00 3.670756518840789795e-01 -6.769903302192687988e-01 1.100000000000000000e+01
-4.483581542968750000e+01 4.759910106658936435e+00 3.944669008255004883e+00 5.400000000000000000e+01
-4.278248786926270419e+00 4.549473822116851807e-01 -6.814285516738891602e-01 1.000000000000000000e+01
-4.486536788940429688e+01 4.778885364532470703e+00 5.539936542510986328e+00 7.600000000000000000e+01
-5.607819557189941406e+00 5.983131527900695801e-01 -6.924616098403930664e-01 1.000000000000000000e+01
-8.122544288635253906e+00 8.680495619773864746e-01 -7.146770954132080078e-01 3.000000000000000000e+00
-3.426903152465820312e+01 3.686502456665039062e+00 -6.016193628311157227e-01 1.300000000000000000e+01
-2.521637201309204102e+00 2.743827700614929199e-01 -6.796588301658630371e-01 1.400000000000000000e+01
-4.477002716064453125e+01 4.879394054412841797e+00 7.860912680625915527e-01 4.900000000000000000e+01
-2.894223690032958984e+00 3.159466981887816828e-01 -6.721537709236145020e-01 1.400000000000000000e+01
-3.450469017028809038e+00 3.772783875465393066e-01 -6.747006177902221680e-01 1.100000000000000000e+01
-4.486731719970703125e+01 4.913770675659179688e+00 3.948852300643920898e+00 5.400000000000000000e+01
-4.284571170806884766e+00 4.699936509132385254e-01 -6.826800107955932617e-01 1.000000000000000000e+01
-4.487887191772460938e+01 4.930890083312988281e+00 5.543592929840087891e+00 7.600000000000000000e+01
-5.590019226074218750e+00 6.151688694953918457e-01 -6.905117034912109375e-01 1.000000000000000000e+01
-8.095856666564941406e+00 8.923606872558593750e-01 -7.125853300094604492e-01 2.000000000000000000e+00
-1.493832302093506037e+01 1.651845335960387962e+00 -7.876561284065246582e-01 4.000000000000000000e+00
-3.422481918334960938e+01 3.796594619750977007e+00 -6.010608673095703125e-01 1.300000000000000000e+01
-2.511065244674683061e+00 2.821048796176909845e-01 -6.770706176757812500e-01 1.300000000000000000e+01
-4.478451538085938211e+01 5.039218425750732422e+00 7.866497635841369629e-01 4.900000000000000000e+01
-2.900849103927611861e+00 3.269204497337340753e-01 -6.739533543586730957e-01 1.400000000000000000e+01
-3.441327571868896040e+00 3.884396553039550781e-01 -6.731741428375244141e-01 1.100000000000000000e+01
-4.486968994140625000e+01 5.072595119476318359e+00 3.950595617294311968e+00 5.400000000000000000e+01
-4.280941486358642578e+00 4.847244620323181152e-01 -6.823671460151672363e-01 9.000000000000000000e+00
-4.486335754394531250e+01 5.087739944458007812e+00 5.543836593627929688e+00 7.600000000000000000e+01
-5.579948425292968750e+00 6.337818503379821777e-01 -6.895367503166198730e-01 1.000000000000000000e+01
-8.084774017333984375e+00 9.197142720222473145e-01 -7.118881344795227051e-01 3.000000000000000000e+00
-1.493246650695800959e+01 1.703979730606079102e+00 -7.876561284065246582e-01 4.000000000000000000e+00
-3.418354415893554688e+01 3.912854671478271040e+00 -6.005722284317016602e-01 1.300000000000000000e+01
-2.500419378280640093e+00 2.901929318904877264e-01 -6.744824051856994629e-01 1.400000000000000000e+01
-4.476971817016602273e+01 5.203789710998535156e+00 7.867195606231689453e-01 4.900000000000000000e+01
-2.901567220687866211e+00 3.377757370471953791e-01 -6.744032502174377441e-01 1.200000000000000000e+01
-3.439880609512329102e+00 4.010501503944396973e-01 -6.731741428375244141e-01 1.100000000000000000e+01
-4.485079574584960938e+01 5.237016677856445312e+00 3.950595617294311968e+00 5.400000000000000000e+01
-4.279136180877686435e+00 5.004116296768188477e-01 -6.823671460151672363e-01 1.000000000000000000e+01
-4.485623931884766336e+01 5.253523826599121094e+00 5.545299053192138672e+00 3.800000000000000000e+01
-5.581531047821044922e+00 6.546916365623474121e-01 -6.900241971015930176e-01 1.000000000000000000e+01
-8.051666259765625000e+00 9.458534717559814453e-01 -7.092734575271606445e-01 2.000000000000000000e+00
-1.492612075805664062e+01 1.758698463439940962e+00 -7.876561284065246582e-01 4.000000000000000000e+00
-3.416698455810546875e+01 4.037882804870604581e+00 -6.005373001098632812e-01 1.900000000000000000e+01
-2.503227710723876953e+00 2.993780672550200861e-01 -6.755176782608032227e-01 1.400000000000000000e+01
-4.476319503784179688e+01 5.361460685729979581e+00 7.869290113449096680e-01 4.900000000000000000e+01
-2.900370359420775923e+00 3.479020297527313232e-01 -6.744032502174377441e-01 1.300000000000000000e+01
-3.446256875991820845e+00 4.139917492866516113e-01 -6.747006177902221680e-01 1.100000000000000000e+01
-4.488367462158203125e+01 5.399730682373046875e+00 3.955127716064453125e+00 5.400000000000000000e+01
-4.249906539916992188e+00 5.120375156402587891e-01 -6.779869794845581055e-01 9.000000000000000000e+00
-4.486915969848632812e+01 5.413874149322509766e+00 5.549198627471923828e+00 7.700000000000000000e+01
-5.581182479858398438e+00 6.744089722633361816e-01 -6.902679800987243652e-01 8.000000000000000000e+00
-8.038426399230957031e+00 9.727564454078674316e-01 -7.084018588066101074e-01 1.000000000000000000e+00
-3.414672851562500000e+01 4.156398296356201172e+00 -6.004325747489929199e-01 1.900000000000000000e+01
-2.500303745269774947e+00 3.074416518211364746e-01 -6.750000715255737305e-01 1.500000000000000000e+01
-4.476501464843750000e+01 5.512315273284912109e+00 7.872780561447143555e-01 4.900000000000000000e+01
-2.893398523330688032e+00 3.568025827407836914e-01 -6.730535626411437988e-01 1.400000000000000000e+01
-3.448761940002440962e+00 4.258989095687866211e-01 -6.754638552665710449e-01 1.100000000000000000e+01
-4.489320373535156250e+01 5.551963806152343750e+00 3.957567930221558061e+00 5.400000000000000000e+01
-4.246224880218505859e+00 5.258851051330566406e-01 -6.776741147041320801e-01 1.000000000000000000e+01
-4.484307861328125000e+01 5.561658382415770596e+00 5.548223495483398438e+00 7.700000000000000000e+01
-5.569065570831298828e+00 6.916897296905517578e-01 -6.890492439270019531e-01 1.000000000000000000e+01
-8.023293495178222656e+00 9.979319572448730469e-01 -7.073560357093811035e-01 1.000000000000000000e+00
-1.481470870971680043e+01 1.847895383834839089e+00 -7.824225425720214844e-01 4.000000000000000000e+00
-3.414069366455078125e+01 4.270602703094482422e+00 -6.005722284317016602e-01 1.900000000000000000e+01
-2.501131772994995117e+00 3.164099454879760742e-01 -6.755176782608032227e-01 1.500000000000000000e+01
-4.479708099365233664e+01 5.675075054168701172e+00 7.881855964660644531e-01 4.900000000000000000e+01
-2.888268947601317915e+00 3.664097487926483154e-01 -6.721537709236145020e-01 1.400000000000000000e+01
-3.431673526763916016e+00 4.359553754329680841e-01 -6.724109053611755371e-01 1.100000000000000000e+01
-4.487355041503906250e+01 5.708636760711669922e+00 3.957567930221558061e+00 5.400000000000000000e+01
-4.246323108673095703e+00 5.409536361694335938e-01 -6.779869794845581055e-01 9.000000000000000000e+00
-4.487656021118164062e+01 5.724938392639160156e+00 5.554804801940917969e+00 7.700000000000000000e+01
-5.562679290771484375e+00 7.106221318244934082e-01 -6.885617971420288086e-01 1.000000000000000000e+01
-8.013832092285156250e+00 1.025174021720886008e+00 -7.068330645561218262e-01 2.000000000000000000e+00
-1.470911693572998047e+01 1.886890769004821999e+00 -7.771889567375183105e-01 4.000000000000000000e+00
-3.411764526367188211e+01 4.388729572296142578e+00 -6.004325747489929199e-01 1.300000000000000000e+01
-2.496180772781372070e+00 3.246403038501740057e-01 -6.744824051856994629e-01 1.400000000000000000e+01
-4.483252334594727273e+01 5.838642120361328125e+00 7.891629338264465332e-01 4.900000000000000000e+01
-2.883107423782349077e+00 3.759854435920714777e-01 -6.712539196014404297e-01 1.300000000000000000e+01
-3.418450355529785156e+00 4.464061856269835871e-01 -6.701211929321289062e-01 1.200000000000000000e+01
-4.488496017456054688e+01 5.869373321533203125e+00 3.960356950759888139e+00 5.400000000000000000e+01
-4.240491390228270596e+00 5.552598237991333008e-01 -6.773612499237060547e-01 9.000000000000000000e+00
-4.486614227294921875e+01 5.882842540740966797e+00 5.556023597717285156e+00 7.700000000000000000e+01
-5.556228160858154297e+00 7.295182943344116211e-01 -6.880742907524108887e-01 1.000000000000000000e+01
-7.996376991271972656e+00 1.051323175430298074e+00 -7.056128978729248047e-01 2.000000000000000000e+00
-3.403471374511718750e+01 4.498886108398438388e+00 -5.992458462715148926e-01 1.900000000000000000e+01
-2.487372875213623047e+00 3.323282897472382147e-01 -6.724118590354919434e-01 1.400000000000000000e+01
-4.477619171142578125e+01 5.990328311920166016e+00 7.885346412658691406e-01 4.900000000000000000e+01
-2.899160861968994141e+00 3.883757889270781916e-01 -6.753030419349670410e-01 1.300000000000000000e+01
-3.432437896728516069e+00 4.604241847991942804e-01 -6.731741428375244141e-01 1.200000000000000000e+01
-4.486419677734375000e+01 6.026015281677246094e+00 3.960356950759888139e+00 5.400000000000000000e+01
-4.242443084716796875e+00 5.705851316452026367e-01 -6.779869794845581055e-01 9.000000000000000000e+00
-4.487681198120117188e+01 6.043657779693604404e+00 5.559923171997070312e+00 7.700000000000000000e+01
-5.551680564880371094e+00 7.486434578895568848e-01 -6.878305673599243164e-01 1.200000000000000000e+01
-7.978837013244628906e+00 1.077363133430480957e+00 -7.043927311897277832e-01 2.000000000000000000e+00
-1.469558525085449041e+01 1.989532947540282981e+00 -7.771889567375183105e-01 4.000000000000000000e+00
-3.400295257568358664e+01 4.615509986877441406e+00 -5.989665985107421875e-01 1.300000000000000000e+01
-2.491939544677733931e+00 3.417963683605194092e-01 -6.739647984504699707e-01 1.400000000000000000e+01
-4.480255508422852273e+01 6.153120040893554688e+00 7.893723249435424805e-01 4.900000000000000000e+01
-2.886204242706298828e+00 3.969004750251770020e-01 -6.726036667823791504e-01 1.300000000000000000e+01
-4.491004562377929688e+01 6.183855533599854404e+00 2.375843048095703125e+00 3.500000000000000000e+01
-3.434699535369873047e+00 4.729384183883666992e-01 -6.739373803138732910e-01 1.200000000000000000e+01
-4.485078430175781250e+01 6.183672428131104404e+00 3.961054086685181108e+00 5.400000000000000000e+01
-4.226727485656738281e+00 5.834996104240417480e-01 -6.757968664169311523e-01 7.000000000000000000e+00
-4.486920928955078125e+01 6.202173233032226562e+00 5.561629295349121094e+00 7.700000000000000000e+01
-5.543134689331054688e+00 7.672014236450195312e-01 -6.870993375778198242e-01 1.200000000000000000e+01
-7.967133998870849609e+00 1.104113936424254927e+00 -7.036954760551452637e-01 2.000000000000000000e+00
-1.468855094909667969e+01 2.040817975997924805e+00 -7.771889567375183105e-01 4.000000000000000000e+00
-3.397871017456054688e+01 4.733070850372313565e+00 -5.988269448280334473e-01 1.900000000000000000e+01
-2.492644309997559038e+00 3.507619500160216730e-01 -6.744824051856994629e-01 1.600000000000000000e+01
-4.479268264770507812e+01 6.311146259307861328e+00 7.895817756652832031e-01 4.900000000000000000e+01
-2.880941867828369141e+00 4.064283370971680243e-01 -6.717038750648498535e-01 1.200000000000000000e+01
-4.484467697143554688e+01 6.334437370300292969e+00 2.373540401458739790e+00 3.500000000000000000e+01
-3.431083917617797852e+00 4.846502840518950861e-01 -6.735557317733764648e-01 1.200000000000000000e+01
-4.488811111450195312e+01 6.348563194274902344e+00 3.966283559799193892e+00 5.400000000000000000e+01
-4.236400127410888672e+00 5.999118685722351074e-01 -6.776741147041320801e-01 7.000000000000000000e+00
-4.487873077392578125e+01 6.363216876983642578e+00 5.565529346466063565e+00 7.800000000000000000e+01
-5.534526348114013672e+00 7.857088446617126465e-01 -6.863681674003601074e-01 1.200000000000000000e+01
-7.961258411407470703e+00 1.131637334823607954e+00 -7.035211324691772461e-01 2.000000000000000000e+00
-1.455479145050049006e+01 2.074045419692993164e+00 -7.704899311065673828e-01 4.000000000000000000e+00
-3.401741027832031250e+01 4.859568119049072266e+00 -5.998042821884155273e-01 1.900000000000000000e+01
-2.497140884399414062e+00 3.602883815765380859e-01 -6.760353446006774902e-01 1.400000000000000000e+01
-4.476246643066406250e+01 6.466320037841796875e+00 7.894421815872192383e-01 4.900000000000000000e+01
-2.873719692230225053e+00 4.156453609466552734e-01 -6.703541278839111328e-01 1.400000000000000000e+01
-4.483020019531250000e+01 6.492081165313720703e+00 2.373959064483643022e+00 3.500000000000000000e+01
-3.417713403701781782e+00 4.949358105659484863e-01 -6.712660193443298340e-01 1.200000000000000000e+01
-4.490905380249022727e+01 6.511503219604492188e+00 3.970118284225463867e+00 5.400000000000000000e+01
-4.234280586242675781e+00 6.146960258483886719e-01 -6.776741147041320801e-01 7.000000000000000000e+00
-4.488571166992188211e+01 6.524116992950438565e+00 5.569185256958007812e+00 7.800000000000000000e+01
-5.510141849517822266e+00 8.018785119056701660e-01 -6.836870312690734863e-01 1.000000000000000000e+01
-7.965146064758300781e+00 1.160569429397583008e+00 -7.042183876037597656e-01 1.000000000000000000e+00
-1.447631740570068004e+01 2.114446640014647993e+00 -7.667217850685119629e-01 4.000000000000000000e+00
-3.396067047119141336e+01 4.972487449645996094e+00 -5.991061925888061523e-01 1.900000000000000000e+01
-2.492045879364014116e+00 3.684377670288085938e-01 -6.750000715255737305e-01 1.400000000000000000e+01
-4.475544357299804688e+01 6.624873161315917969e+00 7.897213697433471680e-01 4.900000000000000000e+01
-2.874178886413574219e+00 4.259596765041350763e-01 -6.708040237426757812e-01 1.200000000000000000e+01
-4.482307052612304688e+01 6.650873184204101562e+00 2.374796390533446822e+00 3.500000000000000000e+01
-3.404312849044799805e+00 5.051339268684387207e-01 -6.689763665199279785e-01 1.200000000000000000e+01
-4.486634445190429688e+01 6.665297508239746094e+00 3.968375205993651900e+00 5.400000000000000000e+01
-4.230154991149902344e+00 6.291820406913757324e-01 -6.773612499237060547e-01 9.000000000000000000e+00
-4.488819122314453125e+01 6.684558868408203125e+00 5.572353839874267578e+00 7.800000000000000000e+01
-5.521052837371826172e+00 8.231567144393920898e-01 -6.853932142257690430e-01 1.200000000000000000e+01
-7.961046695709229404e+00 1.188365936279297097e+00 -7.042183876037597656e-01 1.000000000000000000e+00
-1.446884822845458984e+01 2.164965629577637163e+00 -7.667217850685119629e-01 4.000000000000000000e+00
-3.395101547241210938e+01 5.092188358306884766e+00 -5.992458462715148926e-01 1.900000000000000000e+01
-2.477374076843262163e+00 3.751098811626433771e-01 -6.713765859603881836e-01 1.600000000000000000e+01
-4.478740692138671875e+01 6.789450645446777344e+00 7.906987071037292480e-01 5.000000000000000000e+01
-2.882307767868041992e+00 4.374518990516663153e-01 -6.730535626411437988e-01 1.300000000000000000e+01
-4.483512496948242188e+01 6.812695026397705078e+00 2.376680374145507812e+00 3.500000000000000000e+01
-3.400588035583496094e+00 5.167191624641418457e-01 -6.685947179794311523e-01 1.200000000000000000e+01
-4.485856246948242188e+01 6.824266910552979404e+00 3.969769716262816939e+00 5.400000000000000000e+01
-4.227932929992675781e+00 6.439442038536071777e-01 -6.773612499237060547e-01 9.000000000000000000e+00
-4.488813400268554688e+01 6.844797611236572266e+00 5.575278759002686435e+00 7.800000000000000000e+01
-5.520108222961425781e+00 8.427233695983886719e-01 -6.856369376182556152e-01 1.000000000000000000e+01
-7.956850051879882812e+00 1.216147899627685991e+00 -7.042183876037597656e-01 1.000000000000000000e+00
-1.446120262145995916e+01 2.215458154678345171e+00 -7.667217850685119629e-01 4.000000000000000000e+00
-3.392512512207031250e+01 5.209454536437988281e+00 -5.991061925888061523e-01 1.300000000000000000e+01
-2.477958679199219194e+00 3.840511143207550049e-01 -6.718942523002624512e-01 1.500000000000000000e+01
-4.480295562744141336e+01 6.951878547668457031e+00 7.913967967033386230e-01 5.000000000000000000e+01
-2.874986410140991211e+00 4.466129541397094727e-01 -6.717038750648498535e-01 1.200000000000000000e+01
-4.484659194946289062e+01 6.974682331085205078e+00 2.378564596176147017e+00 3.500000000000000000e+01
-3.412343025207519975e+00 5.306982398033142090e-01 -6.712660193443298340e-01 1.200000000000000000e+01
-4.489352798461914062e+01 6.990006446838378906e+00 3.974999189376831055e+00 5.400000000000000000e+01
-4.202237606048583984e+00 6.550475358963012695e-01 -6.736068129539489746e-01 9.000000000000000000e+00
-4.488750457763671875e+01 7.005117893218994141e+00 5.578203678131104404e+00 7.800000000000000000e+01
-5.521055698394775391e+00 8.625998497009277344e-01 -6.861243844032287598e-01 1.200000000000000000e+01
-7.921061038970947266e+00 1.238988757133484109e+00 -7.014294266700744629e-01 1.000000000000000000e+00
-3.394229507446289062e+01 5.333430767059326172e+00 -5.997344851493835449e-01 1.300000000000000000e+01
-2.482326984405518022e+00 3.936060965061187744e-01 -6.734471321105957031e-01 1.500000000000000000e+01
-4.480606460571289062e+01 7.112617015838623047e+00 7.918854951858520508e-01 5.000000000000000000e+01
-2.861862421035767046e+00 4.548106491565703791e-01 -6.690044403076171875e-01 1.200000000000000000e+01
-4.482197570800781250e+01 7.131183624267578125e+00 2.378564596176147017e+00 3.500000000000000000e+01
-3.410469770431518999e+00 5.426062941551208496e-01 -6.712660193443298340e-01 1.200000000000000000e+01
-4.486885452270507812e+01 7.146671772003173828e+00 3.974999189376831055e+00 5.400000000000000000e+01
-4.194073677062988281e+00 6.687789559364318848e-01 -6.726682186126708984e-01 1.000000000000000000e+01
-4.489022064208983664e+01 7.166142940521240234e+00 5.581615924835205078e+00 7.800000000000000000e+01
-5.504289627075195312e+00 8.796737790107727051e-01 -6.844182610511779785e-01 1.200000000000000000e+01
-7.895046710968017578e+00 1.263168334960937944e+00 -6.995120048522949219e-01 2.000000000000000000e+00
-1.424817657470702947e+01 2.284738779067993164e+00 -7.562545537948608398e-01 4.000000000000000000e+00
-3.389977645874022727e+01 5.448071479797363281e+00 -5.993156433105468750e-01 1.300000000000000000e+01
-2.482844829559326172e+00 4.025778472423552912e-01 -6.739647984504699707e-01 1.500000000000000000e+01
-4.482833862304688211e+01 7.276665687561035156e+00 7.927231788635253906e-01 5.000000000000000000e+01
-2.854486942291260210e+00 4.638599157333374023e-01 -6.676547527313232422e-01 1.300000000000000000e+01
-4.480863571166992188e+01 7.289522171020507812e+00 2.379192590713500977e+00 3.500000000000000000e+01
-3.408555030822753906e+00 5.545077323913574219e-01 -6.712660193443298340e-01 1.200000000000000000e+01
-4.487509918212891336e+01 7.308373928070068359e+00 3.977788209915161133e+00 5.400000000000000000e+01
-4.203411102294921875e+00 6.853221058845520020e-01 -6.745454072952270508e-01 1.000000000000000000e+01
-4.487081146240233664e+01 7.323754787445068359e+00 5.582346916198729581e+00 7.800000000000000000e+01
-5.483553409576416016e+00 8.960009217262268066e-01 -6.822245717048645020e-01 1.200000000000000000e+01
-7.912218093872070312e+00 1.294257521629333052e+00 -7.014294266700744629e-01 1.000000000000000000e+00
-1.424011516571044922e+01 2.334460258483887163e+00 -7.562545537948608398e-01 4.000000000000000000e+00
-3.386082077026367188e+01 5.563128471374511719e+00 -5.989665985107421875e-01 1.300000000000000000e+01
-2.479518651962279829e+00 4.109262824058533270e-01 -6.734471321105957031e-01 1.500000000000000000e+01
-4.480266189575195312e+01 7.433101654052734375e+00 7.927231788635253906e-01 5.000000000000000000e+01
-2.864384651184082031e+00 4.757368266582489014e-01 -6.703541278839111328e-01 1.300000000000000000e+01
-4.481838226318358664e+01 7.451785564422607422e+00 2.381076574325561968e+00 3.500000000000000000e+01
-3.389168500900268999e+00 5.635044574737548828e-01 -6.678314805030822754e-01 1.100000000000000000e+01
-4.488862228393554688e+01 7.471515178680419922e+00 3.981274366378784180e+00 5.400000000000000000e+01
-4.204890251159667969e+00 7.006399035453796387e-01 -6.751711368560791016e-01 1.000000000000000000e+01
-4.489196395874022727e+01 7.488177299499511719e+00 5.588196754455566406e+00 7.900000000000000000e+01
-5.482350349426270419e+00 9.154636263847351074e-01 -6.824682950973510742e-01 1.200000000000000000e+01
-7.880140781402587891e+00 1.317269444465636985e+00 -6.989890336990356445e-01 1.000000000000000000e+00
-3.375836944580078125e+01 5.667386054992675781e+00 -5.975005626678466797e-01 1.300000000000000000e+01
-2.470450162887572798e+00 4.182888865470886230e-01 -6.713765859603881836e-01 1.500000000000000000e+01
-4.482770538330078125e+01 7.598135471343994141e+00 7.936307191848754883e-01 5.000000000000000000e+01
-2.866549253463745117e+00 4.863845109939575195e-01 -6.712539196014404297e-01 1.200000000000000000e+01
-4.481966400146483664e+01 7.612867832183837891e+00 2.382542133331298828e+00 3.500000000000000000e+01
-3.381374359130858931e+00 5.743451118469238281e-01 -6.666866540908813477e-01 1.200000000000000000e+01
-4.485833740234375000e+01 7.627492427825927734e+00 3.980925798416138139e+00 5.400000000000000000e+01
-4.198524475097656250e+00 7.146505117416381836e-01 -6.745454072952270508e-01 1.000000000000000000e+01
-4.489686203002929688e+01 7.650168895721436435e+00 5.592096805572509766e+00 7.900000000000000000e+01
-5.483035087585449219e+00 9.352625608444213867e-01 -6.829558014869689941e-01 1.200000000000000000e+01
-7.867638587951660156e+00 1.343426823616028054e+00 -6.982918381690979004e-01 1.000000000000000000e+00
-1.422347068786620916e+01 2.433817386627196822e+00 -7.562545537948608398e-01 4.000000000000000000e+00
-3.381327438354492188e+01 5.798032283782958984e+00 -5.988269448280334473e-01 1.300000000000000000e+01
