-4.470314025878906250e+01 1.037875056266784890e+00 7.805064916610717773e-01 4.800000000000000000e+01
-2.953482151031494141e+00 6.908690184354782104e-02 -6.820515990257263184e-01 1.500000000000000000e+01
-4.499973297119141336e+01 1.060477495193481001e+00 2.358990907669066939e+00 3.400000000000000000e+01
-3.532876968383789062e+00 8.325686305761337280e-02 -6.869123578071594238e-01 1.100000000000000000e+01
-4.482210922241210938e+01 1.064118862152100053e+00 3.922531366348267046e+00 5.400000000000000000e+01
-4.362359523773193359e+00 1.043283119797707020e-01 -6.911274790763854980e-01 9.000000000000000000e+00
-5.759042739868164062e+00 1.397422403097152988e-01 -7.073296904563903809e-01 1.100000000000000000e+01
-8.405373573303222656e+00 2.054229080677031916e-01 -7.355944514274597168e-01 2.000000000000000000e+00
-1.621875381469726918e+01 4.020426273345947266e-01 -8.502499461174011230e-01 4.000000000000000000e+00
-3.448984909057617188e+01 8.670070171356201172e-01 -6.022127270698547363e-01 2.000000000000000000e+01
-2.549146890640258789e+00 6.764219701290130615e-02 -6.832822561264038086e-01 2.200000000000000000e+01
-4.473922729492188211e+01 1.194979667663573997e+00 7.812046408653259277e-01 4.800000000000000000e+01
-2.941534757614136186e+00 7.908182591199874878e-02 -6.793521642684936523e-01 1.300000000000000000e+01
-4.498377990722656250e+01 1.217225313186645952e+00 2.358362913131713867e+00 3.400000000000000000e+01
-3.512939453125000000e+00 9.505734592676162720e-02 -6.830962300300598145e-01 1.200000000000000000e+01
-4.484600448608397727e+01 1.221330046653748003e+00 3.924971818923950195e+00 5.400000000000000000e+01
-4.365918159484863281e+00 1.196634024381637990e-01 -6.917532086372375488e-01 9.000000000000000000e+00
-5.744629383087158203e+00 1.594586223363876065e-01 -7.056235074996948242e-01 1.100000000000000000e+01
-8.400622367858886719e+00 2.346506118774414062e-01 -7.352458238601684570e-01 2.000000000000000000e+00
-1.621725082397460938e+01 4.586541950702667236e-01 -8.502499461174011230e-01 4.000000000000000000e+00
-3.451659393310546875e+01 9.882522225379943848e-01 -6.027362942695617676e-01 2.000000000000000000e+01
-2.546977519989014116e+00 7.603745162487030029e-02 -6.827646493911743164e-01 1.800000000000000000e+01
-4.477099609375000000e+01 1.344414114952086958e+00 7.818328738212585449e-01 4.800000000000000000e+01
-2.945152044296265093e+00 8.895353227853775024e-02 -6.802520155906677246e-01 1.500000000000000000e+01
-4.503139877319335938e+01 1.367966890335083008e+00 2.361084222793579102e+00 3.500000000000000000e+01
-3.506717920303345171e+00 1.065273135900497020e-01 -6.819513440132141113e-01 1.200000000000000000e+01
-4.483374023437500000e+01 1.369794726371764915e+00 3.924274444580078125e+00 5.400000000000000000e+01
-4.373395442962645596e+00 1.343833208084105890e-01 -6.930046677589416504e-01 1.000000000000000000e+01
-5.732164382934570312e+00 1.781376600265502930e-01 -7.041610479354858398e-01 1.100000000000000000e+01
-8.403779983520507812e+00 2.626312673091887873e-01 -7.355944514274597168e-01 2.000000000000000000e+00
-3.452112197875977273e+01 1.102963328361511008e+00 -6.028759479522705078e-01 1.300000000000000000e+01
-2.540904283523560014e+00 8.473443984985351562e-02 -6.812117099761962891e-01 1.600000000000000000e+01
-4.477802276611328125e+01 1.501087784767151101e+00 7.820423245429992676e-01 4.800000000000000000e+01
-2.950666427612305132e+00 9.943038225173950195e-02 -6.816017031669616699e-01 1.400000000000000000e+01
-4.502635192871093750e+01 1.525147557258605957e+00 2.361084222793579102e+00 3.500000000000000000e+01
-3.508286714553833008e+00 1.188338547945022999e-01 -6.823329925537109375e-01 1.100000000000000000e+01
-4.480877304077147727e+01 1.525607347488403098e+00 3.922531366348267046e+00 5.400000000000000000e+01
-4.366976737976074219e+00 1.494458168745040894e-01 -6.920660734176635742e-01 1.000000000000000000e+01
-5.743411064147949219e+00 1.985570788383483887e-01 -7.056235074996948242e-01 1.100000000000000000e+01
-8.372944831848144531e+00 2.909265458583831787e-01 -7.329797744750976562e-01 3.000000000000000000e+00
-3.448508834838867188e+01 1.222324490547179954e+00 -6.023174524307250977e-01 1.300000000000000000e+01
-2.544454097747803178e+00 9.374558925628662109e-02 -6.822469830513000488e-01 1.600000000000000000e+01
-4.477251052856445312e+01 1.657383203506469949e+00 7.820423245429992676e-01 4.800000000000000000e+01
-2.946406602859497070e+00 1.095846667885780057e-01 -6.807019114494323730e-01 1.400000000000000000e+01
-4.499280929565429688e+01 1.681265354156493919e+00 2.359618902206420898e+00 3.400000000000000000e+01
-3.517660140991210938e+00 1.314458996057510098e-01 -6.842410564422607422e-01 1.200000000000000000e+01
-4.483503341674804688e+01 1.683205842971801980e+00 3.925320386886597124e+00 5.400000000000000000e+01
-4.354584693908691406e+00 1.642417907714844028e-01 -6.901888847351074219e-01 1.000000000000000000e+01
-5.734748363494873047e+00 2.183020710945129117e-01 -7.046485543251037598e-01 1.300000000000000000e+01
-8.361923217773437500e+00 3.197711110115051270e-01 -7.321082353591918945e-01 2.000000000000000000e+00
-1.601209068298339844e+01 6.179212927818298340e-01 -8.397827744483947754e-01 4.000000000000000000e+00
-3.445663452148438211e+01 1.341758728027343972e+00 -6.018986105918884277e-01 1.300000000000000000e+01
-2.542181015014647993e+00 1.025489568710327010e-01 -6.817293763160705566e-01 1.500000000000000000e+01
-4.475446319580078125e+01 1.813172578811645952e+00 7.818328738212585449e-01 4.800000000000000000e+01
-2.940164804458618164e+00 1.196312010288238942e-01 -6.793521642684936523e-01 1.200000000000000000e+01
-4.501460647583007812e+01 1.839451074600219949e+00 2.361084222793579102e+00 3.500000000000000000e+01
-3.511294841766356978e+00 1.434835493564605990e-01 -6.830962300300598145e-01 1.200000000000000000e+01
-4.483684539794921875e+01 1.840025782585144043e+00 3.926017522811890093e+00 5.400000000000000000e+01
-4.352011203765869141e+00 1.793597787618637085e-01 -6.898760199546813965e-01 1.000000000000000000e+01
-5.733951568603515625e+00 2.383187562227248868e-01 -7.046485543251037598e-01 1.100000000000000000e+01
-8.352793693542480469e+00 3.486253917217255194e-01 -7.314109802246093750e-01 3.000000000000000000e+00
-3.443575668334960938e+01 1.461348414421081987e+00 -6.016193628311157227e-01 1.300000000000000000e+01
-2.545667648315430132e+00 1.115914061665534973e-01 -6.827646493911743164e-01 1.700000000000000000e+01
-4.475185775756835938e+01 1.969559669494628906e+00 7.819027304649353027e-01 4.800000000000000000e+01
-2.935835599899291992e+00 1.297215223312377930e-01 -6.784523725509643555e-01 1.200000000000000000e+01
-4.500791168212891336e+01 1.996570110321044922e+00 2.361084222793579102e+00 3.500000000000000000e+01
-3.508811473846435991e+00 1.556523740291594904e-01 -6.827145814895629883e-01 1.200000000000000000e+01
-4.481820678710938211e+01 1.995992541313170943e+00 3.924971818923950195e+00 5.400000000000000000e+01
-4.345438480377197266e+00 1.942853480577468872e-01 -6.889373660087585449e-01 1.000000000000000000e+01
-5.721186161041259766e+00 2.577963769435883123e-01 -7.031860947608947754e-01 1.100000000000000000e+01
-8.343564033508300781e+00 3.774198293685913086e-01 -7.307137250900268555e-01 3.000000000000000000e+00
-3.440647506713867188e+01 1.580441594123840110e+00 -6.012005209922790527e-01 1.300000000000000000e+01
-2.551051616668701172e+00 1.207507774233818054e-01 -6.843175292015075684e-01 2.200000000000000000e+01
-4.476468276977539062e+01 2.126709699630736861e+00 7.822517752647399902e-01 4.800000000000000000e+01
-2.941204547882080078e+00 1.402471512556076050e-01 -6.798020601272583008e-01 1.200000000000000000e+01
-4.500066757202147727e+01 2.153664827346802202e+00 2.361084222793579102e+00 3.500000000000000000e+01
-3.498441696166992188e+00 1.674302071332932074e-01 -6.808065176010131836e-01 1.200000000000000000e+01
-4.482290649414063211e+01 2.152998685836791992e+00 3.926017522811890093e+00 5.400000000000000000e+01
-4.364464759826660156e+00 2.104037702083587924e-01 -6.920660734176635742e-01 1.000000000000000000e+01
-5.716285705566406250e+00 2.775729298591613770e-01 -7.026986479759216309e-01 1.100000000000000000e+01
-8.322296142578125000e+00 4.055722057819365900e-01 -7.289706468582153320e-01 3.000000000000000000e+00
-3.435680770874022727e+01 1.698360919952393022e+00 -6.004325747489929199e-01 1.300000000000000000e+01
-2.546733379364014116e+00 1.299032121896744052e-01 -6.832822561264038086e-01 2.200000000000000000e+01
-4.475259399414063211e+01 2.290561676025391069e+00 7.821819782257080078e-01 4.800000000000000000e+01
-2.936778306961060014e+00 1.508263647556304932e-01 -6.789022684097290039e-01 1.200000000000000000e+01
-3.499765157699584961e+00 1.803525537252425870e-01 -6.811881065368652344e-01 1.200000000000000000e+01
-4.480277633666992188e+01 2.316651105880736861e+00 3.924971818923950195e+00 5.400000000000000000e+01
-4.343936920166015625e+00 2.253754138946532926e-01 -6.889373660087585449e-01 1.000000000000000000e+01
-5.719194889068604404e+00 2.987293899059296209e-01 -7.031860947608947754e-01 1.100000000000000000e+01
-8.300856590270996094e+00 4.350294768810272217e-01 -7.272275090217590332e-01 2.000000000000000000e+00
-3.434635925292968750e+01 1.824061393737792969e+00 -6.003627777099609375e-01 1.900000000000000000e+01
-2.546264410018920898e+00 1.387921869754790982e-01 -6.832822561264038086e-01 2.800000000000000000e+01
-4.473633956909179688e+01 2.446326732635498047e+00 7.820423245429992676e-01 4.800000000000000000e+01
-2.942071437835692915e+00 1.613969504833220880e-01 -6.802520155906677246e-01 1.200000000000000000e+01
-3.497153997421265093e+00 1.924600303173064908e-01 -6.808065176010131836e-01 1.100000000000000000e+01
-4.483022689819335938e+01 2.475004673004149947e+00 3.928109407424927202e+00 5.400000000000000000e+01
-4.323400020599365234e+00 2.394448518753052035e-01 -6.858087182044982910e-01 1.000000000000000000e+01
-5.708207130432128906e+00 3.181389570236206055e-01 -7.019674181938171387e-01 9.000000000000000000e+00
-8.289340972900390625e+00 4.634461402893065851e-01 -7.263559699058532715e-01 3.000000000000000000e+00
-3.433578872680664062e+01 1.943715453147887962e+00 -6.002929806709289551e-01 1.300000000000000000e+01
-2.557361841201781782e+00 1.479043960571289062e-01 -6.863881349563598633e-01 2.400000000000000000e+01
-4.475992202758789062e+01 2.596517324447631836e+00 7.826008200645446777e-01 4.800000000000000000e+01
-2.925956487655640093e+00 1.702467501163482944e-01 -6.766527891159057617e-01 1.200000000000000000e+01
-3.500416278839110884e+00 2.042847126722336093e-01 -6.815697550773620605e-01 1.100000000000000000e+01
-4.480983734130858664e+01 2.622955083847045898e+00 3.927063465118408203e+00 5.400000000000000000e+01
-4.334414005279541016e+00 2.544751167297362726e-01 -6.876859068870544434e-01 1.000000000000000000e+01
-5.705139160156250000e+00 3.369492590427399237e-01 -7.017236948013305664e-01 1.100000000000000000e+01
-8.265880584716796875e+00 4.896360635757445734e-01 -7.244385480880737305e-01 3.000000000000000000e+00
-1.580025386810302912e+01 9.414754509925842285e-01 -8.295249342918395996e-01 4.000000000000000000e+00
-3.436708068847656250e+01 2.059839487075806108e+00 -6.009561419486999512e-01 2.000000000000000000e+01
-2.551045417785644975e+00 1.564755290746689120e-01 -6.848351955413818359e-01 2.300000000000000000e+01
-4.475058364868164062e+01 2.752742767333983931e+00 7.826008200645446777e-01 4.800000000000000000e+01
-2.931179523468018022e+00 1.808191686868667880e-01 -6.780024766921997070e-01 1.200000000000000000e+01
-3.487924814224243164e+00 2.157748639583587924e-01 -6.792800426483154297e-01 1.100000000000000000e+01
-4.483222579956054688e+01 2.781328439712523970e+00 3.929852485656737837e+00 5.400000000000000000e+01
-4.323641777038574219e+00 2.689901888370513916e-01 -6.861215829849243164e-01 1.000000000000000000e+01
-5.678172588348388672e+00 3.552504777908325195e-01 -6.985550522804260254e-01 1.000000000000000000e+01
-8.284006118774414062e+00 5.197339653968811035e-01 -7.261816263198852539e-01 2.000000000000000000e+00
-3.432176208496093750e+01 2.177384853363037109e+00 -6.002929806709289551e-01 1.300000000000000000e+01
-2.531205415725708008e+00 1.641293466091156006e-01 -6.796588301658630371e-01 1.800000000000000000e+01
-4.472873306274414062e+01 2.908156156539916992e+00 7.823913693428039551e-01 4.800000000000000000e+01
-2.930530548095703125e+00 1.910497993230819980e-01 -6.780024766921997070e-01 1.100000000000000000e+01
-3.487150430679320845e+00 2.279486805200577060e-01 -6.792800426483154297e-01 1.200000000000000000e+01
-4.483815002441406250e+01 2.938847541809082031e+00 3.931246995925902876e+00 5.400000000000000000e+01
-4.322676181793212891e+00 2.840808928012847900e-01 -6.861215829849243164e-01 1.000000000000000000e+01
-5.682839870452880859e+00 3.754614293575286865e-01 -6.992862820625305176e-01 1.000000000000000000e+01
-8.242381095886230469e+00 5.460134744644165039e-01 -7.226954102516174316e-01 2.000000000000000000e+00
-3.430796813964843750e+01 2.296776294708251953e+00 -6.001882553100585938e-01 1.900000000000000000e+01
-2.530617237091064009e+00 1.729639023542403897e-01 -6.796588301658630371e-01 1.200000000000000000e+01
-4.471830749511718750e+01 3.064270973205565962e+00 7.823913693428039551e-01 4.800000000000000000e+01
-2.933733940124512163e+00 2.015452086925506869e-01 -6.789022684097290039e-01 1.200000000000000000e+01
-3.490250825881958008e+00 2.403895258903502863e-01 -6.800432801246643066e-01 1.100000000000000000e+01
-4.478388977050781250e+01 3.092324733734130859e+00 3.927412033081055132e+00 5.400000000000000000e+01
-4.319687843322753906e+00 2.990316748619080145e-01 -6.858087182044982910e-01 1.000000000000000000e+01
-5.685455322265625000e+00 3.955715298652648926e-01 -6.997737884521484375e-01 1.000000000000000000e+01
-8.240425109863281250e+00 5.747814178466796875e-01 -7.226954102516174316e-01 3.000000000000000000e+00
-1.566201686859131037e+01 1.097941875457763894e+00 -8.228259086608886719e-01 4.000000000000000000e+00
-3.432966232299804688e+01 2.418627500534058061e+00 -6.007118225097656250e-01 1.300000000000000000e+01
-2.522290468215941939e+00 1.812425255775451938e-01 -6.775882840156555176e-01 1.400000000000000000e+01
-4.471531677246093750e+01 3.220922946929932085e+00 7.825310230255126953e-01 4.800000000000000000e+01
-2.925237894058227983e+00 2.112232446670531949e-01 -6.771026849746704102e-01 1.200000000000000000e+01
-3.481557846069335938e+00 2.520043551921843927e-01 -6.785168051719665527e-01 1.100000000000000000e+01
-4.486820602416992188e+01 3.255551576614379883e+00 3.935779094696044922e+00 5.400000000000000000e+01
-4.308766841888427734e+00 3.133918941020966131e-01 -6.842443346977233887e-01 1.000000000000000000e+01
-4.497397994995117188e+01 3.279008388519287109e+00 5.536767959594726562e+00 3.800000000000000000e+01
-5.676120758056640625e+00 4.148362874984741211e-01 -6.987988352775573730e-01 1.000000000000000000e+01
-8.226446151733398438e+00 6.026689410209655762e-01 -7.216495275497436523e-01 2.000000000000000000e+00
-1.558638095855713068e+01 1.147327303886414018e+00 -8.190577030181884766e-01 4.000000000000000000e+00
-3.432300567626953125e+01 2.538593053817749023e+00 -6.007467508316040039e-01 1.900000000000000000e+01
-2.527421712875366211e+00 1.904814094305037897e-01 -6.791411638259887695e-01 1.400000000000000000e+01
-4.476760864257813211e+01 3.381808996200561968e+00 7.836479544639587402e-01 4.800000000000000000e+01
-2.912823677062987837e+00 2.205501496791839877e-01 -6.744032502174377441e-01 1.300000000000000000e+01
-3.488487482070922852e+00 2.647500038146973211e-01 -6.800432801246643066e-01 1.100000000000000000e+01
-4.484465026855468750e+01 3.411244392395019975e+00 3.934733152389525923e+00 5.400000000000000000e+01
-4.311585903167724609e+00 3.287307322025299072e-01 -6.848700642585754395e-01 9.000000000000000000e+00
-4.491079711914063211e+01 3.432044029235839844e+00 5.530430793762207031e+00 3.800000000000000000e+01
-5.662762165069580078e+00 4.337374866008759100e-01 -6.973363757133483887e-01 1.000000000000000000e+01
-8.208399772644042969e+00 6.301608085632324219e-01 -7.202550768852233887e-01 3.000000000000000000e+00
-3.434782791137695312e+01 2.661013126373291016e+00 -6.013401150703430176e-01 2.000000000000000000e+01
-2.530627965927124023e+00 1.991647332906723022e-01 -6.801764369010925293e-01 1.400000000000000000e+01
-4.471627807617188211e+01 3.527100324630736861e+00 7.829498648643493652e-01 4.800000000000000000e+01
-2.910133600234984907e+00 2.300546318292618075e-01 -6.739533543586730957e-01 1.500000000000000000e+01
-4.501160812377929688e+01 3.558300018310546875e+00 2.366317987442017046e+00 3.500000000000000000e+01
-3.475847482681273970e+00 2.753864228725432794e-01 -6.777535676956176758e-01 1.100000000000000000e+01
-4.486884307861328125e+01 3.562774419784545898e+00 3.937870740890502930e+00 5.400000000000000000e+01
-4.308503150939941406e+00 3.428699672222136896e-01 -6.845571994781494141e-01 1.000000000000000000e+01
-4.492291641235352273e+01 3.582848548889160156e+00 5.533355712890625000e+00 3.800000000000000000e+01
-5.641505241394042969e+00 4.509318470954895020e-01 -6.948990225791931152e-01 1.000000000000000000e+01
-8.186404228210449219e+00 6.557864546775817871e-01 -7.185119390487670898e-01 1.000000000000000000e+00
-3.431888198852539062e+01 2.773289203643798828e+00 -6.009910702705383301e-01 1.300000000000000000e+01
-2.524141073226929155e+00 2.075221836566925049e-01 -6.786235570907592773e-01 1.300000000000000000e+01
-4.472362518310546875e+01 3.684809923171997070e+00 7.832989096641540527e-01 4.800000000000000000e+01
-2.920965671539307085e+00 2.411736249923706055e-01 -6.766527891159057617e-01 1.600000000000000000e+01
-3.474865198135375977e+00 2.875177264213562012e-01 -6.777535676956176758e-01 1.100000000000000000e+01
-4.485216140747070312e+01 3.719044923782349077e+00 3.937522172927856001e+00 5.400000000000000000e+01
-4.307280063629150391e+00 3.579073548316956122e-01 -6.845571994781494141e-01 1.000000000000000000e+01
-4.487057113647460938e+01 3.736342430114746094e+00 5.528481006622313565e+00 3.800000000000000000e+01
-5.639896869659423828e+00 4.706216156482697088e-01 -6.948990225791931152e-01 1.000000000000000000e+01
-8.176123619079589844e+00 6.836942434310913086e-01 -7.178146839141845703e-01 1.000000000000000000e+00
-3.431098556518554688e+01 2.893235683441162109e+00 -6.010259985923767090e-01 2.000000000000000000e+01
-2.517627000808715820e+00 2.158367782831192017e-01 -6.770706176757812500e-01 1.300000000000000000e+01
-4.473041152954102273e+01 3.842613458633422852e+00 7.836479544639587402e-01 4.800000000000000000e+01
-2.927872180938721147e+00 2.520367503166198730e-01 -6.784523725509643555e-01 1.500000000000000000e+01
-3.473840236663817915e+00 2.996455132961273193e-01 -6.777535676956176758e-01 1.100000000000000000e+01
-4.484684371948242188e+01 3.876271963119506836e+00 3.938219308853148970e+00 5.400000000000000000e+01
-4.300100326538085938e+00 3.724290430545806885e-01 -6.836186051368713379e-01 9.000000000000000000e+00
-4.489285278320313211e+01 3.896036624908446822e+00 5.532868385314941406e+00 3.800000000000000000e+01
-5.650085449218750000e+00 4.913375377655028742e-01 -6.963614225387573242e-01 1.000000000000000000e+01
-8.165747642517089844e+00 7.115382552146911621e-01 -7.171174287796020508e-01 3.000000000000000000e+00
-3.428474044799804688e+01 3.011585950851439986e+00 -6.007467508316040039e-01 1.900000000000000000e+01
-2.509161472320557085e+00 2.239366918802261075e-01 -6.750000715255737305e-01 1.300000000000000000e+01
-4.470477676391602273e+01 3.997659683227539062e+00 7.834385037422180176e-01 4.800000000000000000e+01
-2.915328741073607954e+00 2.612119615077971857e-01 -6.757529377937316895e-01 1.500000000000000000e+01
-3.480594873428345171e+00 3.124718368053435724e-01 -6.792800426483154297e-01 1.100000000000000000e+01
-4.482907104492188211e+01 4.032435894012451172e+00 3.937870740890502930e+00 5.400000000000000000e+01
-4.285002231597900391e+00 3.861957192420958918e-01 -6.814285516738891602e-01 1.000000000000000000e+01
-4.485130310058593750e+01 4.050218582153320312e+00 5.529455661773681641e+00 3.800000000000000000e+01
-5.660197734832763672e+00 5.121302604675292969e-01 -6.978238821029663086e-01 1.000000000000000000e+01
-8.157261848449707031e+00 7.394980788230895996e-01 -7.165945172309875488e-01 2.000000000000000000e+00
-3.429592514038085938e+01 3.133244752883911133e+00 -6.011306643486022949e-01 1.300000000000000000e+01
-2.516058921813964844e+00 2.334077209234237948e-01 -6.770706176757812500e-01 1.300000000000000000e+01
-4.473435592651367188e+01 4.157755374908447266e+00 7.842064499855041504e-01 4.800000000000000000e+01
-2.906637907028197798e+00 2.706640064716339111e-01 -6.739533543586730957e-01 1.300000000000000000e+01
-3.473618507385253906e+00 3.240723609924315851e-01 -6.781351566314697266e-01 1.100000000000000000e+01
-4.487820434570313211e+01 4.194827556610107422e+00 3.943448781967163086e+00 5.400000000000000000e+01
-4.281661033630371094e+00 4.009666144847869873e-01 -6.811156868934631348e-01 9.000000000000000000e+00
-4.483293914794921875e+01 4.206383228302001953e+00 5.528968334197998047e+00 3.800000000000000000e+01
-5.622800827026367188e+00 5.285409092903137207e-01 -6.934365630149841309e-01 1.000000000000000000e+01
-8.142728805541992188e+00 7.668468356132507324e-01 -7.155486345291137695e-01 2.000000000000000000e+00
-1.526093292236327947e+01 1.442582845687865989e+00 -8.033569455146789551e-01 4.000000000000000000e+00
-3.434251022338867188e+01 3.258418560028076172e+00 -6.021429300308227539e-01 2.000000000000000000e+01
-2.524843692779541016e+00 2.431147843599318903e-01 -6.796588301658630371e-01 1.400000000000000000e+01
-4.473947143554688211e+01 4.315802097320556641e+00 7.845554947853088379e-01 4.800000000000000000e+01
-2.905675411224364790e+00 2.808084189891815186e-01 -6.739533543586730957e-01 1.500000000000000000e+01
-3.470512151718140093e+00 3.360064029693604071e-01 -6.777535676956176758e-01 1.100000000000000000e+01
-4.486328887939453125e+01 4.351456165313720703e+00 3.943448781967163086e+00 5.400000000000000000e+01
-4.290066242218017578e+00 4.168651998043059748e-01 -6.826800107955932617e-01 1.000000000000000000e+01
-4.485552215576171875e+01 4.366508483886718750e+00 5.533599376678466797e+00 7.600000000000000000e+01
-5.628824710845947266e+00 5.489356517791748047e-01 -6.944115161895751953e-01 1.200000000000000000e+01
-8.126121520996093750e+00 7.939094901084899902e-01 -7.143284678459167480e-01 2.000000000000000000e+00
-1.515641784667968928e+01 1.486099720001220925e+00 -7.981233596801757812e-01 4.000000000000000000e+00
-3.424933624267578125e+01 3.370247364044189009e+00 -6.007118225097656250e-01 1.300000000000000000e+01
-2.516290426254272017e+00 2.511591613292694092e-01 -6.775882840156555176e-01 1.300000000000000000e+01
-4.476393127441406250e+01 4.475924968719482422e+00 7.852535843849182129e-01 4.900000000000000000e+01
-2.918250799179077148e+00 2.923089861869812012e-01 -6.771026849746704102e-01 1.400000000000000000e+01
-3.457597255706787109e+00 3.469426333904265802e-01 -6.754638552665710449e-01 1.100000000000000000e+01
-4.493108367919921875e+01 4.516401290893554688e+00 3.950769901275635210e+00 5.400000000000000000e+01
-4.276792049407958984e+00 4.306503236293792725e-01 -6.808027625083923340e-01 1.000000000000000000e+01
-4.488148117065429688e+01 4.527240276336669922e+00 5.538717746734619141e+00 3.800000000000000000e+01
-5.622923851013183594e+00 5.681813955307006836e-01 -6.939240694046020508e-01 1.000000000000000000e+01
-8.119337081909179688e+00 8.218688368797302246e-01 -7.139798402786254883e-01 2.000000000000000000e+00
-3.426123428344727273e+01 3.492212533950806108e+00 -6.011306643486022949e-01 1.300000000000000000e+01
-2.513476610183715820e+00 2.597425580024719238e-01 -6.770706176757812500e-01 1.400000000000000000e+01
-4.477985763549804688e+01 4.635447502136229581e+00 7.858120799064636230e-01 4.900000000000000000e+01
-2.915274381637572798e+00 3.022928237915039062e-01 -6.766527891159057617e-01 1.500000000000000000e+01
-3.456365108489989790e+00 3.590097725391387939e-01 -6.754638552665710449e-01 1.100000000000000000e+01
-4.487541198730468750e+01 4.669088363647460938e+00 3.947283506393433061e+00 5.400000000000000000e+01
-4.283122062683104581e+00 4.463955760002136230e-01 -6.820542812347412109e-01 1.000000000000000000e+01
-4.487725067138671875e+01 4.685115337371826172e+00 5.540180206298828125e+00 7.600000000000000000e+01
-5.616957664489746094e+00 5.873926877975463867e-01 -6.934365630149841309e-01 1.000000000000000000e+01
-8.106510162353515625e+00 8.491677641868591309e-01 -7.131083011627197266e-01 3.000000000000000000e+00
-1.514567375183104936e+01 1.591874480247498003e+00 -7.981233596801757812e-01 4.000000000000000000e+00
-3.422497177124022727e+01 3.609268665313721147e+00 -6.007118225097656250e-01 1.300000000000000000e+01
-2.510633707046508789e+00 2.683093547821044922e-01 -6.765530109405517578e-01 1.500000000000000000e+01
-4.478726577758789062e+01 4.794284343719482422e+00 7.862309217453002930e-01 4.900000000000000000e+01
-2.912263631820679155e+00 3.122594356536865234e-01 -6.762028932571411133e-01 1.400000000000000000e+01
-4.509244918823242188e+01 4.842874050140380859e+00 2.376785039901732954e+00 3.500000000000000000e+01
-3.462899208068848100e+00 3.719111382961273193e-01 -6.769903302192687988e-01 1.100000000000000000e+01
-4.489846038818358664e+01 4.829966545104979581e+00 3.950769901275635210e+00 5.400000000000000000e+01
-4.269753456115722656e+00 4.600739777088164728e-01 -6.801770329475402832e-01 1.000000000000000000e+01
-4.487246704101563211e+01 4.843015670776367188e+00 5.541642665863037109e+00 7.600000000000000000e+01
-5.606978893280029297e+00 6.061425209045410156e-01 -6.924616098403930664e-01 1.000000000000000000e+01
-8.089631080627441406e+00 8.759581446647644043e-01 -7.118881344795227051e-01 2.000000000000000000e+00
-1.504074573516846058e+01 1.633947849273682085e+00 -7.928897142410278320e-01 4.000000000000000000e+00
-3.422011566162108664e+01 3.729580879211425781e+00 -6.008514761924743652e-01 1.300000000000000000e+01
-2.513522386550902876e+00 2.774954438209534247e-01 -6.775882840156555176e-01 1.400000000000000000e+01
-4.475435638427733664e+01 4.948833465576171875e+00 7.859516739845275879e-01 4.900000000000000000e+01
-2.891787052154541016e+00 3.202780187129973810e-01 -6.717038750648498535e-01 1.400000000000000000e+01
-3.457677125930786133e+00 3.835637271404265802e-01 -6.762270927429199219e-01 1.100000000000000000e+01
-4.485756301879882812e+01 4.984021663665770596e+00 3.948678016662598100e+00 5.400000000000000000e+01
-4.270084857940673828e+00 4.751938879489899237e-01 -6.804898977279663086e-01 9.000000000000000000e+00
-4.484936904907227273e+01 4.998960494995117188e+00 5.540911674499511719e+00 7.600000000000000000e+01
-5.592991828918457031e+00 6.243894100189208984e-01 -6.909991502761840820e-01 1.000000000000000000e+01
-8.092464447021484375e+00 9.048551321029663086e-01 -7.124110460281372070e-01 2.000000000000000000e+00
-3.421881103515625000e+01 3.850350141525268999e+00 -6.010608673095703125e-01 1.300000000000000000e+01
-2.504860639572143999e+00 2.853928208351135254e-01 -6.755176782608032227e-01 1.400000000000000000e+01
-4.477654647827147727e+01 5.109559535980224609e+00 7.866497635841369629e-01 4.900000000000000000e+01
-2.894523620605469194e+00 3.308128416538239081e-01 -6.726036667823791504e-01 1.400000000000000000e+01
-3.450465679168701172e+00 3.949611186981201172e-01 -6.750822067260742188e-01 1.200000000000000000e+01
-4.485968780517578125e+01 5.142842769622802734e+00 3.950421094894409180e+00 5.400000000000000000e+01
-4.264474868774414062e+00 4.896457195281981867e-01 -6.798641681671142578e-01 9.000000000000000000e+00
-4.485728454589843750e+01 5.158431529998779297e+00 5.544080257415770596e+00 7.600000000000000000e+01
-5.578946113586425781e+00 6.425459980964660645e-01 -6.895367503166198730e-01 1.000000000000000000e+01
-8.079360008239746094e+00 9.319560527801513672e-01 -7.115395069122314453e-01 3.000000000000000000e+00
-1.492977142333984020e+01 1.727433443069458008e+00 -7.876561284065246582e-01 4.000000000000000000e+00
-3.415748977661132812e+01 3.964239835739136186e+00 -6.002231836318969727e-01 1.900000000000000000e+01
-2.500011920928955078e+00 2.936838865280150812e-01 -6.744824051856994629e-01 1.500000000000000000e+01
-4.477432632446289062e+01 5.267696857452392578e+00 7.869290113449096680e-01 4.900000000000000000e+01
-2.901092767715454102e+00 3.418267667293549139e-01 -6.744032502174377441e-01 1.300000000000000000e+01
-3.431518554687500000e+00 4.049324095249176025e-01 -6.716476678848266602e-01 1.200000000000000000e+01
-4.489290618896483664e+01 5.305480957031250000e+00 3.954953193664550781e+00 5.400000000000000000e+01
-4.264701843261718750e+00 5.047606825828552246e-01 -6.801770329475402832e-01 1.000000000000000000e+01
-4.488434219360352273e+01 5.320355892181395596e+00 5.549685955047607422e+00 7.700000000000000000e+01
-5.578640460968017578e+00 6.622502803802490234e-01 -6.897804737091064453e-01 1.000000000000000000e+01
-8.058252334594726562e+00 9.580356478691101074e-01 -7.099706530570983887e-01 2.000000000000000000e+00
-3.416528701782227273e+01 4.086059570312500000e+00 -6.006070971488952637e-01 1.900000000000000000e+01
-2.500941991806029829e+00 3.022043704986572266e-01 -6.750000715255737305e-01 1.300000000000000000e+01
-4.478440475463867188e+01 5.419508457183837891e+00 7.874176502227783203e-01 4.900000000000000000e+01
-2.899943113327025923e+00 3.514452576637268066e-01 -6.744032502174377441e-01 1.200000000000000000e+01
-3.437952518463135210e+00 4.172556698322296143e-01 -6.731741428375244141e-01 1.200000000000000000e+01
-4.485528945922852273e+01 5.451918125152587891e+00 3.953210115432738814e+00 5.400000000000000000e+01
-4.257121562957763672e+00 5.181841254234313965e-01 -6.792384386062622070e-01 1.000000000000000000e+01
-4.488418960571289062e+01 5.471330165863037109e+00 5.551879882812500000e+00 7.700000000000000000e+01
-5.584295272827148438e+00 6.817082166671752930e-01 -6.907554268836975098e-01 1.000000000000000000e+01
-8.003611564636230469e+00 9.784663319587707520e-01 -7.054385542869567871e-01 2.000000000000000000e+00
-1.484630012512207031e+01 1.820266246795654075e+00 -7.838879823684692383e-01 4.000000000000000000e+00
-3.413765716552733664e+01 4.197625160217285156e+00 -6.003627777099609375e-01 1.900000000000000000e+01
-2.496037721633911133e+00 3.104555606842041016e-01 -6.739647984504699707e-01 1.500000000000000000e+01
-4.478902435302733664e+01 5.578768253326416016e+00 7.878365516662597656e-01 4.900000000000000000e+01
-2.894831180572510210e+00 3.610833883285521906e-01 -6.735034584999084473e-01 1.300000000000000000e+01
-3.432579040527344194e+00 4.287671446800231934e-01 -6.724109053611755371e-01 1.200000000000000000e+01
-4.485575485229492188e+01 5.610931873321533203e+00 3.954953193664550781e+00 5.400000000000000000e+01
-4.247446537017822266e+00 5.320590138435363770e-01 -6.779869794845581055e-01 9.000000000000000000e+00
-4.485693740844727273e+01 5.626983642578125000e+00 5.550904750823974609e+00 7.700000000000000000e+01
-5.579912185668945312e+00 7.009494900703430176e-01 -6.905117034912109375e-01 1.000000000000000000e+01
-8.025845527648925781e+00 1.009631037712096946e+00 -7.077046036720275879e-01 1.000000000000000000e+00
-1.471303653717041016e+01 1.856079936027527078e+00 -7.771889567375183105e-01 4.000000000000000000e+00
-3.410692214965820312e+01 4.314754486083984375e+00 -6.000835299491882324e-01 1.900000000000000000e+01
-2.493022680282593218e+00 3.189213275909423828e-01 -6.734471321105957031e-01 1.400000000000000000e+01
-4.478911590576171875e+01 5.737617969512938565e+00 7.881855964660644531e-01 4.900000000000000000e+01
-2.893553256988524947e+00 3.711860179901123047e-01 -6.735034584999084473e-01 1.300000000000000000e+01
-3.436903238296508789e+00 4.414968788623809814e-01 -6.735557317733764648e-01 1.200000000000000000e+01
-4.486355972290039062e+01 5.771032333374023438e+00 3.957393646240233931e+00 5.400000000000000000e+01
-4.239686012268066406e+00 5.461249947547912598e-01 -6.770483851432800293e-01 1.000000000000000000e+01
-4.486655426025391336e+01 5.787338733673095703e+00 5.554561138153076172e+00 7.700000000000000000e+01
-5.565618991851806641e+00 7.188969850540161133e-01 -6.890492439270019531e-01 1.000000000000000000e+01
-8.018321037292480469e+00 1.037129163742064986e+00 -7.073560357093811035e-01 2.000000000000000000e+00
-1.470646762847900035e+01 1.907426714897155984e+00 -7.771889567375183105e-01 4.000000000000000000e+00
-3.406587600708007812e+01 4.430430889129638672e+00 -5.996297597885131836e-01 1.900000000000000000e+01
-2.507217168807982954e+00 3.296362459659575861e-01 -6.775882840156555176e-01 1.400000000000000000e+01
-4.478863906860352273e+01 5.896536350250244141e+00 7.885346412658691406e-01 4.900000000000000000e+01
-2.880647659301757812e+00 3.797559738159180243e-01 -6.708040237426757812e-01 1.200000000000000000e+01
-3.421716451644897017e+00 4.516926705837249756e-01 -6.708844304084777832e-01 1.100000000000000000e+01
-4.488264846801757812e+01 5.932822227478027344e+00 3.960879802703856978e+00 5.400000000000000000e+01
-4.251461982727050781e+00 5.627353787422180176e-01 -6.792384386062622070e-01 9.000000000000000000e+00
-4.485985565185546875e+01 5.945742607116699219e+00 5.556267261505126953e+00 7.700000000000000000e+01
-5.537493705749511719e+00 7.349250316619873047e-01 -6.858806610107421875e-01 1.200000000000000000e+01
-8.018601417541503906e+00 1.065636873245239036e+00 -7.077046036720275879e-01 1.000000000000000000e+00
-1.469972038269042969e+01 1.958750247955322044e+00 -7.771889567375183105e-01 4.000000000000000000e+00
-3.405813217163085938e+01 4.550374984741210938e+00 -5.997694134712219238e-01 1.900000000000000000e+01
-2.492650032043457031e+00 3.365764915943145752e-01 -6.739647984504699707e-01 1.400000000000000000e+01
-4.480345535278320312e+01 6.057664394378662109e+00 7.891629338264465332e-01 4.900000000000000000e+01
-2.881235599517821822e+00 3.900704383850098211e-01 -6.712539196014404297e-01 1.300000000000000000e+01
-3.418173551559447798e+00 4.633702337741851807e-01 -6.705027818679809570e-01 1.200000000000000000e+01
-4.484587097167968750e+01 6.087311744689941406e+00 3.959485292434691939e+00 5.400000000000000000e+01
-4.249471664428710938e+00 5.775723457336425781e-01 -6.792384386062622070e-01 9.000000000000000000e+00
-4.489586639404296875e+01 6.110059261322020596e+00 5.563335418701171875e+00 7.700000000000000000e+01
-5.548663139343261719e+00 7.561262845993041992e-01 -6.875868439674377441e-01 1.000000000000000000e+01
-7.983247280120849609e+00 1.089310765266418013e+00 -7.049156427383422852e-01 2.000000000000000000e+00
-3.395288848876953125e+01 4.657004356384277344e+00 -5.981987118721008301e-01 1.300000000000000000e+01
-2.491459846496582031e+00 3.452754318714141846e-01 -6.739647984504699707e-01 1.600000000000000000e+01
-4.481372833251953125e+01 6.218418598175048828e+00 7.897213697433471680e-01 4.900000000000000000e+01
-2.895298242568970171e+00 4.022708833217620850e-01 -6.748531460762023926e-01 1.200000000000000000e+01
-4.487564849853516336e+01 6.242978096008300781e+00 2.374482393264770952e+00 3.500000000000000000e+01
-3.418479681015015093e+00 4.755695760250092108e-01 -6.708844304084777832e-01 1.100000000000000000e+01
-4.482434844970703125e+01 6.243815898895263672e+00 3.959485292434691939e+00 5.400000000000000000e+01
-4.245473384857177734e+00 5.921293497085571289e-01 -6.789255738258361816e-01 9.000000000000000000e+00
-4.488999557495117188e+01 6.268934726715087891e+00 5.565285205841063565e+00 7.800000000000000000e+01
-5.544023990631104404e+00 7.752152085304260254e-01 -6.873431205749511719e-01 1.200000000000000000e+01
-7.971503734588623047e+00 1.116065859794616921e+00 -7.042183876037597656e-01 2.000000000000000000e+00
-3.397404861450195312e+01 4.780787944793701172e+00 -5.988618731498718262e-01 1.900000000000000000e+01
-2.490177631378173828e+00 3.544047474861145020e-01 -6.739647984504699707e-01 1.700000000000000000e+01
-4.476687622070313211e+01 6.379241943359375000e+00 7.893025279045104980e-01 4.900000000000000000e+01
-2.884158372879027876e+00 4.115037024021149237e-01 -6.726036667823791504e-01 1.200000000000000000e+01
-4.484455871582031250e+01 6.406283855438232422e+00 2.374063730239868164e+00 3.500000000000000000e+01
-3.416713714599608931e+00 4.880957305431365967e-01 -6.708844304084777832e-01 1.200000000000000000e+01
-4.486033248901367188e+01 6.416526794433593750e+00 3.964714765548706055e+00 5.400000000000000000e+01
-4.223720073699951172e+00 6.048853993415832520e-01 -6.757968664169311523e-01 7.000000000000000000e+00
-4.490601730346679688e+01 6.439057826995849609e+00 5.570160388946533203e+00 7.800000000000000000e+01
-5.541145324707031250e+00 7.955299019813537598e-01 -6.873431205749511719e-01 1.200000000000000000e+01
-7.951582908630371094e+00 1.143007516860961914e+00 -7.028239369392395020e-01 2.000000000000000000e+00
-3.402952575683593750e+01 4.915855407714843750e+00 -6.001533269882202148e-01 1.900000000000000000e+01
-2.494660139083861861e+00 3.639315664768218994e-01 -6.755176782608032227e-01 1.400000000000000000e+01
-4.477203750610352273e+01 6.539515018463134766e+00 7.897912263870239258e-01 4.900000000000000000e+01
-2.871134996414185014e+00 4.198768734931945801e-01 -6.699042320251464844e-01 1.400000000000000000e+01
-4.482587432861328125e+01 6.563360214233398438e+00 2.374273061752318892e+00 3.500000000000000000e+01
-3.418874263763428178e+00 5.005881786346435547e-01 -6.716476678848266602e-01 1.200000000000000000e+01
-4.485343170166016336e+01 6.575391292572020596e+00 3.966109275817871094e+00 5.400000000000000000e+01
-4.239172935485839844e+00 6.222070455551147461e-01 -6.786127090454101562e-01 9.000000000000000000e+00
-4.488326644897460938e+01 6.595769882202148438e+00 5.570160388946533203e+00 7.800000000000000000e+01
-5.530478954315186435e+00 8.137114048004150391e-01 -6.863681674003601074e-01 1.200000000000000000e+01
-7.931775569915770596e+00 1.168433785438538042e+00 -7.014294266700744629e-01 1.000000000000000000e+00
-3.395677185058593750e+01 5.026412010192871094e+00 -5.991759896278381348e-01 1.900000000000000000e+01
-2.493439674377440962e+00 3.722021579742432196e-01 -6.755176782608032227e-01 1.500000000000000000e+01
-4.478174972534179688e+01 6.692677497863770419e+00 7.903496623039245605e-01 4.900000000000000000e+01
-2.871654033660889116e+00 4.296839833259583075e-01 -6.703541278839111328e-01 1.300000000000000000e+01
-4.481571578979492188e+01 6.713747501373291016e+00 2.374901056289672852e+00 3.500000000000000000e+01
-3.411370754241942915e+00 5.110502243041992188e-01 -6.705027818679809570e-01 1.200000000000000000e+01
-4.489049148559570312e+01 6.732960224151611328e+00 3.971338510513306108e+00 5.400000000000000000e+01
-4.219504833221436435e+00 6.336211562156677246e-01 -6.757968664169311523e-01 7.000000000000000000e+00
-4.487881469726563211e+01 6.747227668762207031e+00 5.572353839874267578e+00 7.800000000000000000e+01
-5.510083198547363281e+00 8.293874263763427734e-01 -6.841744780540466309e-01 1.000000000000000000e+01
-7.943618297576904297e+00 1.197105288505553977e+00 -7.028239369392395020e-01 1.000000000000000000e+00
-1.446581077575683949e+01 2.185165882110596147e+00 -7.667217850685119629e-01 4.000000000000000000e+00
-3.393003082275391336e+01 5.137492179870604581e+00 -5.990014672279357910e-01 1.900000000000000000e+01
-2.482576847076416016e+00 3.794442117214202881e-01 -6.729295253753662109e-01 1.500000000000000000e+01
-4.475416183471679688e+01 6.848349094390869141e+00 7.902798652648925781e-01 4.900000000000000000e+01
-2.875915527343750000e+00 4.405906200408936102e-01 -6.717038750648498535e-01 1.400000000000000000e+01
-4.482754135131835938e+01 6.875592708587645596e+00 2.376785039901732954e+00 3.500000000000000000e+01
-3.405684947967528853e+00 5.223597288131713867e-01 -6.697395443916320801e-01 1.200000000000000000e+01
-4.486671447753906250e+01 6.889616012573242188e+00 3.971338510513306108e+00 5.400000000000000000e+01
-4.217267513275145596e+00 6.483460664749145508e-01 -6.757968664169311523e-01 1.000000000000000000e+01
-4.490600204467772727e+01 6.911694526672363281e+00 5.578691005706787109e+00 7.800000000000000000e+01
-5.505192756652832031e+00 8.483138084411621094e-01 -6.839307546615600586e-01 1.200000000000000000e+01
-7.919700622558593750e+00 1.221788644790648970e+00 -7.010807991027832031e-01 1.000000000000000000e+00
-1.445809555053710938e+01 2.235647678375244141e+00 -7.667217850685119629e-01 4.000000000000000000e+00
-3.395338821411132812e+01 5.262330532073974609e+00 -5.997344851493835449e-01 1.300000000000000000e+01
-2.481304883956909180e+00 3.876746594905853271e-01 -6.729295253753662109e-01 1.700000000000000000e+01
-4.478652572631835938e+01 7.005374431610107422e+00 7.912572026252746582e-01 5.000000000000000000e+01
-2.884064912796020952e+00 4.516325294971466064e-01 -6.739533543586730957e-01 1.200000000000000000e+01
-4.482939910888671875e+01 7.020096302032470703e+00 2.378041267395019975e+00 3.500000000000000000e+01
-3.409752607345581055e+00 5.345627069473266602e-01 -6.708844304084777832e-01 1.200000000000000000e+01
-4.488298797607421875e+01 7.044540405273438388e+00 3.974824905395507812e+00 5.400000000000000000e+01
-4.207288742065429688e+00 6.611009836196899414e-01 -6.745454072952270508e-01 1.000000000000000000e+01
-4.489067840576171875e+01 7.061804294586181641e+00 5.579666137695313388e+00 7.800000000000000000e+01
-5.508232116699218750e+00 8.674914836883544922e-01 -6.846619844436645508e-01 1.200000000000000000e+01
-7.903796672821044922e+00 1.246182799339293990e+00 -7.000349164009094238e-01 1.000000000000000000e+00
-3.391205215454102273e+01 5.371141433715820312e+00 -5.993156433105468750e-01 1.300000000000000000e+01
-2.474213600158690962e+00 3.954190611839293878e-01 -6.713765859603881836e-01 1.600000000000000000e+01
-4.482103729248046875e+01 7.171143531799316406e+00 7.923043370246887207e-01 5.000000000000000000e+01
-2.869001388549805132e+00 4.595395922660828192e-01 -6.708040237426757812e-01 1.400000000000000000e+01
-4.483886337280272727e+01 7.190049648284912109e+00 2.379925251007080078e+00 3.500000000000000000e+01
-3.409804344177246094e+00 5.467725992202758789e-01 -6.712660193443298340e-01 1.200000000000000000e+01
-4.485812377929688211e+01 7.201168060302734375e+00 3.974824905395507812e+00 5.400000000000000000e+01
-4.191302776336669922e+00 6.735889911651611328e-01 -6.723553538322448730e-01 1.000000000000000000e+01
-4.486575317382813211e+01 7.218458652496337891e+00 5.579666137695313388e+00 7.800000000000000000e+01
-5.509089946746826172e+00 8.873448967933654785e-01 -6.851494312286376953e-01 1.200000000000000000e+01
-7.891530513763427734e+00 1.272495865821837935e+00 -6.993376612663269043e-01 1.000000000000000000e+00
-3.388125228881835938e+01 5.487565517425537109e+00 -5.991061925888061523e-01 1.900000000000000000e+01
-2.478467226028441939e+00 4.054204225540161133e-01 -6.729295253753662109e-01 1.400000000000000000e+01
-4.479840087890625000e+01 7.336019039154052734e+00 7.923741340637207031e-01 5.000000000000000000e+01
-2.853836297988892046e+00 4.678450822830200195e-01 -6.676547527313232422e-01 1.200000000000000000e+01
-4.484502792358397727e+01 7.351692199707031250e+00 2.381600141525268999e+00 3.500000000000000000e+01
-3.411652088165283203e+00 5.599023699760437012e-01 -6.720292568206787109e-01 1.200000000000000000e+01
-4.486288452148438211e+01 7.370701313018798828e+00 3.977613687515258789e+00 5.400000000000000000e+01
-4.198551654815673828e+00 6.905493140220642090e-01 -6.739196777343750000e-01 1.000000000000000000e+01
-4.487817001342772727e+01 7.389301776885986328e+00 5.584540843963623047e+00 7.900000000000000000e+01
-5.492090225219726562e+00 9.052708148956298828e-01 -6.834432482719421387e-01 1.200000000000000000e+01
-7.896642684936523438e+00 1.303033113479614036e+00 -7.002092599868774414e-01 2.000000000000000000e+00
-1.423684120178223012e+01 2.354341030120850053e+00 -7.562545537948608398e-01 4.000000000000000000e+00
-3.378989028930664062e+01 5.599939346313476562e+00 -5.978496074676513672e-01 6.000000000000000000e+00
-2.486564159393310991e+00 4.156619906425476074e-01 -6.755176782608032227e-01 1.600000000000000000e+01
-4.481196594238281250e+01 7.498950958251953125e+00 7.930722236633300781e-01 5.000000000000000000e+01
-2.854107856750487837e+00 4.781259596347808838e-01 -6.681046485900878906e-01 1.200000000000000000e+01
-4.484273147583007812e+01 7.512145519256591797e+00 2.382856130599976030e+00 3.600000000000000000e+01
-3.398059606552124023e+00 5.698595643043518066e-01 -6.697395443916320801e-01 1.200000000000000000e+01
-4.484474182128906250e+01 7.528576374053955078e+00 3.978311061859130859e+00 5.400000000000000000e+01
-4.192219734191895419e+00 7.045460343360900879e-01 -6.732939481735229492e-01 1.000000000000000000e+01
-4.489712524414063211e+01 7.553485393524169922e+00 5.590147018432617188e+00 7.900000000000000000e+01
-5.477151393890380859e+00 9.224581718444824219e-01 -6.819808483123779297e-01 1.200000000000000000e+01
-7.882223129272460938e+00 1.328933358192444070e+00 -6.993376612663269043e-01 1.000000000000000000e+00
-1.422853660583495916e+01 2.404022455215454102e+00 -7.562545537948608398e-01 4.000000000000000000e+00
-3.384900283813477273e+01 5.731207370758056641e+00 -5.992458462715148926e-01 1.300000000000000000e+01
-2.471767902374268022e+00 4.220630526542664129e-01 -6.718942523002624512e-01 1.600000000000000000e+01
-4.480522537231445312e+01 7.658697605133056641e+00 7.934213280677795410e-01 5.000000000000000000e+01
-2.862025737762451172e+00 4.897291362285614014e-01 -6.703541278839111328e-01 1.200000000000000000e+01
-4.483458328247070312e+01 7.679823875427246094e+00 2.383902788162231001e+00 3.600000000000000000e+01
-3.392179489135742188e+00 5.810546278953552246e-01 -6.689763665199279785e-01 1.200000000000000000e+01
-4.489673995971679688e+01 7.698536872863770419e+00 3.985283374786376953e+00 5.400000000000000000e+01
-4.197522640228270596e+00 7.205120325088500977e-01 -6.745454072952270508e-01 1.000000000000000000e+01
-4.491157150268554688e+01 7.717219352722167969e+00 5.595265388488770419e+00 7.900000000000000000e+01
-5.473898410797119141e+00 9.415713548660278320e-01 -6.819808483123779297e-01 1.200000000000000000e+01
-7.850047111511229581e+00 1.351706027984618919e+00 -6.968973278999328613e-01 1.000000000000000000e+00
-3.380514526367188211e+01 5.845239162445068359e+00 -5.988269448280334473e-01 1.300000000000000000e+01
-2.466473340988159180e+00 4.300249218940734863e-01 -6.708589792251586914e-01 1.300000000000000000e+01
-4.480185699462891336e+01 7.819176197052001953e+00 7.938401699066162109e-01 5.000000000000000000e+01
-2.867977380752563032e+00 5.010579824447631836e-01 -6.721537709236145020e-01 1.300000000000000000e+01
-4.483247756958007812e+01 7.832583427429199219e+00 2.385158777236938032e+00 3.600000000000000000e+01
-3.384328842163085938e+00 5.918773412704467773e-01 -6.678314805030822754e-01 1.200000000000000000e+01
-4.488136672973632812e+01 7.857270240783691406e+00 3.986329317092895952e+00 5.400000000000000000e+01
-4.179416179656982422e+00 7.324318885803222656e-01 -6.720424890518188477e-01 1.000000000000000000e+01
-4.488436126708983664e+01 7.873942852020263672e+00 5.595265388488770419e+00 7.900000000000000000e+01
-5.466667652130126953e+00 9.599863886833190918e-01 -6.814933419227600098e-01 1.200000000000000000e+01
-7.833507061004638672e+00 1.377029895782470925e+00 -6.958514451980590820e-01 1.000000000000000000e+00
-3.378453826904296875e+01 5.963205337524414062e+00 -5.988269448280334473e-01 1.300000000000000000e+01
-2.467012405395507812e+00 4.381092488765717108e-01 -6.713765859603881836e-01 1.600000000000000000e+01
-4.479676055908203125e+01 7.963386058807373047e+00 7.941892147064208984e-01 5.000000000000000000e+01
-2.852958917617797852e+00 5.076756477355957031e-01 -6.690044403076171875e-01 1.300000000000000000e+01
-4.485877609252929688e+01 7.982487678527832031e+00 2.387880325317382812e+00 3.600000000000000000e+01
-3.394049882888793945e+00 6.045723557472229004e-01 -6.701211929321289062e-01 1.100000000000000000e+01
-4.489961242675781250e+01 8.005924224853515625e+00 3.990164279937744141e+00 5.400000000000000000e+01
