-8.559739112854003906e+00 -2.465709596872329989e-01 -7.491907477378845215e-01 2.000000000000000000e+00
-3.467702102661132812e+01 -9.746739268302917480e-01 -6.055287122726440430e-01 1.300000000000000000e+01
-2.558790922164916992e+00 -6.834501028060913086e-02 -6.858704686164855957e-01 2.300000000000000000e+01
-4.473143768310546875e+01 -1.186959028244018999e+00 7.810649871826171875e-01 4.800000000000000000e+01
-2.968848705291748047e+00 -7.826055586338043213e-02 -6.856508255004882812e-01 2.300000000000000000e+01
-3.552272796630858931e+00 -9.301953762769699097e-02 -6.907285451889038086e-01 1.900000000000000000e+01
-4.482157135009766336e+01 -1.165866017341613992e+00 3.922705650329589844e+00 5.400000000000000000e+01
-4.427317142486572266e+00 -1.143869087100028992e-01 -7.014521360397338867e-01 1.700000000000000000e+01
-5.828323364257813388e+00 -1.485483646392821988e-01 -7.158605456352233887e-01 1.500000000000000000e+01
-8.552580833435058594e+00 -2.164887189865112027e-01 -7.484934926033020020e-01 2.000000000000000000e+00
-3.464022827148438211e+01 -8.526384830474853516e-01 -6.048306226730346680e-01 1.300000000000000000e+01
-2.564797401428223100e+00 -5.999491363763809204e-02 -6.874234080314636230e-01 2.400000000000000000e+01
-4.471113967895507812e+01 -1.038060665130615012e+00 7.806461453437805176e-01 4.800000000000000000e+01
-2.971040010452270952e+00 -6.845996528863906860e-02 -6.861007213592529297e-01 2.100000000000000000e+01
-3.548636198043822798e+00 -8.114949613809585571e-02 -6.899653077125549316e-01 2.000000000000000000e+01
-4.482519149780272727e+01 -1.017225861549376997e+00 3.922705650329589844e+00 5.400000000000000000e+01
-4.427671909332275391e+00 -9.970476478338241577e-02 -7.014521360397338867e-01 1.700000000000000000e+01
-5.806953430175781250e+00 -1.287361532449722012e-01 -7.131794095039367676e-01 1.500000000000000000e+01
-8.537316322326660156e+00 -1.877756565809249878e-01 -7.470990419387817383e-01 5.000000000000000000e+00
-3.466286087036132812e+01 -7.381883859634399414e-01 -6.051796674728393555e-01 1.300000000000000000e+01
-2.555333852767943892e+00 -5.084955692291259766e-02 -6.848351955413818359e-01 2.300000000000000000e+01
-4.474647903442382812e+01 -8.826143741607666016e-01 7.812046408653259277e-01 4.800000000000000000e+01
-2.975157737731934038e+00 -5.816486105322837830e-02 -6.870005130767822266e-01 2.200000000000000000e+01
-3.543009042739868164e+00 -6.864785403013229370e-02 -6.888204813003540039e-01 2.000000000000000000e+01
-4.482846832275391336e+01 -8.607505559921264648e-01 3.922705650329589844e+00 5.400000000000000000e+01
-4.433917999267578125e+00 -8.436143398284912109e-02 -7.023907303810119629e-01 1.500000000000000000e+01
-5.809351921081542969e+00 -1.085023954510689059e-01 -7.134231328964233398e-01 1.500000000000000000e+01
-8.516007423400878906e+00 -1.575682759284972867e-01 -7.451816201210021973e-01 4.000000000000000000e+00
-1.672029495239258168e+01 -3.035305142402648926e-01 -8.764179348945617676e-01 5.000000000000000000e+00
-3.463323593139647727e+01 -6.166183948516845703e-01 -6.046211719512939453e-01 1.300000000000000000e+01
-2.540043115615845171e+00 -4.167592525482177734e-02 -6.806941032409667969e-01 2.000000000000000000e+01
-4.472929382324218750e+01 -7.260900735855102539e-01 7.808555960655212402e-01 4.800000000000000000e+01
-2.979239463806151900e+00 -4.784184694290161133e-02 -6.879003047943115234e-01 1.600000000000000000e+01
-3.543227195739746094e+00 -5.628002434968947670e-02 -6.888204813003540039e-01 1.300000000000000000e+01
-4.483119964599608664e+01 -7.042647600173950195e-01 3.922705650329589844e+00 5.400000000000000000e+01
-4.428260326385498047e+00 -6.879160553216934204e-02 -7.014521360397338867e-01 1.100000000000000000e+01
-5.803740978240966797e+00 -8.813288807868957520e-02 -7.126919031143188477e-01 1.300000000000000000e+01
-8.512520790100097656e+00 -1.277811080217360895e-01 -7.448329925537109375e-01 4.000000000000000000e+00
-1.666134262084960938e+01 -2.442855238914490024e-01 -8.732777833938598633e-01 5.000000000000000000e+00
-3.461917877197266336e+01 -4.954931437969207764e-01 -6.043419241905212402e-01 1.300000000000000000e+01
-2.549831390380858931e+00 -3.293401747941970825e-02 -6.832822561264038086e-01 2.100000000000000000e+01
-4.474355316162108664e+01 -5.701041221618652344e-01 7.810649871826171875e-01 4.800000000000000000e+01
-2.971594095230102983e+00 -3.734411671757698059e-02 -6.861007213592529297e-01 1.500000000000000000e+01
-4.504871368408203125e+01 -5.582649111747741699e-01 2.361084222793579102e+00 3.500000000000000000e+01
-3.535549640655518022e+00 -4.381420090794563293e-02 -6.872940063476562500e-01 1.200000000000000000e+01
-4.483338546752929688e+01 -5.477703809738159180e-01 3.922705650329589844e+00 5.400000000000000000e+01
-4.406745910644531250e+00 -5.307200178503990173e-02 -6.980105638504028320e-01 1.000000000000000000e+01
-5.813937664031982422e+00 -6.798958033323287964e-02 -7.139106392860412598e-01 1.100000000000000000e+01
-8.463109016418457031e+00 -9.749232232570648193e-02 -7.404751777648925781e-01 2.000000000000000000e+00
-3.462070083618164062e+01 -3.746466338634490967e-01 -6.043419241905212402e-01 1.300000000000000000e+01
-2.555726289749145952e+00 -2.408786490559577942e-02 -6.848351955413818359e-01 2.600000000000000000e+01
-4.474526977539063211e+01 -4.139164984226226807e-01 7.810649871826171875e-01 4.800000000000000000e+01
-2.965860366821289062e+00 -2.691803313791751862e-02 -6.847510337829589844e-01 1.400000000000000000e+01
-4.495045852661132812e+01 -4.079686105251312256e-01 2.355850696563721147e+00 3.400000000000000000e+01
-3.551386356353760210e+00 -3.161236271262168884e-02 -6.903469562530517578e-01 1.200000000000000000e+01
-4.483502197265625000e+01 -3.912693262100219727e-01 3.922705650329589844e+00 5.400000000000000000e+01
-4.418756008148193359e+00 -3.779062256217002869e-02 -6.998878121376037598e-01 1.000000000000000000e+01
-5.792304515838623047e+00 -4.751561582088469765e-02 -7.112295031547546387e-01 1.100000000000000000e+01
-8.483320236206054688e+00 -6.810992956161499023e-02 -7.422183156013488770e-01 3.000000000000000000e+00
-3.461379623413085938e+01 -2.537369430065155029e-01 -6.042023301124572754e-01 1.300000000000000000e+01
-2.551931142807006836e+00 -1.514364220201968973e-02 -6.837999224662780762e-01 3.100000000000000000e+01
-4.472644424438477273e+01 -2.576086819171906073e-01 7.807159423828125000e-01 4.800000000000000000e+01
-2.958141326904296875e+00 -1.652155071496963848e-02 -6.829513907432556152e-01 1.400000000000000000e+01
-4.505151367187500000e+01 -2.437545210123062134e-01 2.361084222793579102e+00 3.500000000000000000e+01
-3.551475048065185991e+00 -1.921551674604415894e-02 -6.903469562530517578e-01 1.200000000000000000e+01
-4.481220626831054688e+01 -2.346383184194565097e-01 3.920614004135131836e+00 5.400000000000000000e+01
-4.418860912322998047e+00 -2.236605621874332081e-02 -6.998878121376037598e-01 1.000000000000000000e+01
-5.786479949951171875e+00 -2.726834639906882893e-02 -7.104982733726501465e-01 1.100000000000000000e+01
-8.503430366516113281e+00 -3.858760744333267212e-02 -7.439613938331604004e-01 2.000000000000000000e+00
-3.456647872924804688e+01 -1.327264010906218927e-01 -6.033645868301391602e-01 2.000000000000000000e+01
-2.546171665191649947e+00 -6.665877066552639008e-03 -6.822469830513000488e-01 3.200000000000000000e+01
-4.474705123901367188e+01 -1.093378886580466947e-01 7.810649871826171875e-01 4.800000000000000000e+01
-2.967923641204833984e+00 -6.734016351401805878e-03 -6.852009296417236328e-01 1.300000000000000000e+01
-4.500012969970703125e+01 -1.021022275090218007e-01 2.358362913131713867e+00 3.400000000000000000e+01
-3.535813331604003906e+00 -7.405401207506656647e-03 -6.872940063476562500e-01 1.200000000000000000e+01
-4.483664703369141336e+01 -8.608029037714004517e-02 3.922705650329589844e+00 5.400000000000000000e+01
-4.414960384368895596e+00 -7.705566938966512680e-03 -6.992620825767517090e-01 1.000000000000000000e+01
-5.786538600921630859e+00 -8.079537190496921539e-03 -7.104982733726501465e-01 1.100000000000000000e+01
-8.489564895629882812e+00 -1.037196535617112940e-02 -7.427412271499633789e-01 3.000000000000000000e+00
-3.457872772216796875e+01 -1.810538209974766125e-02 -6.035740375518798828e-01 2.000000000000000000e+01
-2.530724763870238814e+00 2.208474557846785025e-03 -6.781058907508850098e-01 3.300000000000000000e+01
-4.475515747070313211e+01 4.686750844120979309e-02 7.812046408653259277e-01 4.800000000000000000e+01
-2.965980291366577148e+00 3.623630385845900016e-03 -6.847510337829589844e-01 1.400000000000000000e+01
-4.495227813720703125e+01 5.491959303617476723e-02 2.355850696563721147e+00 3.400000000000000000e+01
-3.524038076400756836e+00 4.920488689094781876e-03 -6.850042939186096191e-01 1.200000000000000000e+01
-4.481675338745117188e+01 7.039804756641387939e-02 3.920962572097777876e+00 5.400000000000000000e+01
-4.403108119964599609e+00 7.684880867600440979e-03 -6.973848342895507812e-01 1.000000000000000000e+01
-5.778591156005859375e+00 1.210267003625630985e-02 -7.095233201980590820e-01 1.100000000000000000e+01
-8.427785873413085938e+00 1.912207156419754028e-02 -7.373375892639160156e-01 3.000000000000000000e+00
-3.456258392333983664e+01 1.025495454668998996e-01 -6.032947897911071777e-01 2.000000000000000000e+01
-2.534563302993773970e+00 1.150156185030937021e-02 -6.791411638259887695e-01 3.800000000000000000e+01
-4.469469451904296875e+01 2.106203436851500910e-01 7.801574468612670898e-01 4.800000000000000000e+01
-2.971793174743651900e+00 1.452303677797318025e-02 -6.861007213592529297e-01 1.500000000000000000e+01
-4.495173263549804688e+01 2.275231182575226108e-01 2.355850696563721147e+00 3.400000000000000000e+01
-3.539702177047729048e+00 1.791619695723057140e-02 -6.880572438240051270e-01 1.200000000000000000e+01
-4.483611679077147727e+01 2.347635030746459961e-01 3.922705650329589844e+00 5.400000000000000000e+01
-4.387247562408447266e+00 2.373752370476723064e-02 -6.948819160461425781e-01 1.000000000000000000e+01
-5.782477855682373047e+00 3.330504894256591797e-02 -7.100107669830322266e-01 1.100000000000000000e+01
-8.439613342285156250e+00 5.008225888013839722e-02 -7.383834719657897949e-01 2.000000000000000000e+00
-3.453197860717772727e+01 2.290281206369400024e-01 -6.027712225914001465e-01 2.000000000000000000e+01
-2.538371324539185014e+00 2.037978917360306133e-02 -6.801764369010925293e-01 3.500000000000000000e+01
-4.470968627929688211e+01 3.667638897895812988e-01 7.804366946220397949e-01 4.800000000000000000e+01
-2.946391582489014116e+00 2.468421123921870838e-02 -6.802520155906677246e-01 1.300000000000000000e+01
-4.499866485595703125e+01 3.769887387752532959e-01 2.358362913131713867e+00 3.400000000000000000e+01
-3.531765460968018022e+00 3.020479530096054077e-02 -6.865307688713073730e-01 1.200000000000000000e+01
-4.483502197265625000e+01 3.912693262100219727e-01 3.922705650329589844e+00 5.400000000000000000e+01
-4.402940273284912109e+00 3.919239342212677002e-02 -6.973848342895507812e-01 1.000000000000000000e+01
-5.778356552124023438e+00 5.345273762941359780e-02 -7.095233201980590820e-01 1.100000000000000000e+01
-8.431417465209960938e+00 7.946658879518508911e-02 -7.376862168312072754e-01 2.000000000000000000e+00
-3.454496765136718750e+01 3.497075438499451239e-01 -6.030155420303344727e-01 2.000000000000000000e+01
-2.559538841247559038e+00 2.903829142451285969e-02 -6.858704686164855957e-01 3.600000000000000000e+01
-4.474421310424804688e+01 5.154391527175903320e-01 7.810649871826171875e-01 4.800000000000000000e+01
-2.957985162734984907e+00 3.459138795733451843e-02 -6.829513907432556152e-01 1.400000000000000000e+01
-4.497719573974608664e+01 5.259740948677062988e-01 2.357316255569458008e+00 3.400000000000000000e+01
-3.531645774841309038e+00 4.191638529300689697e-02 -6.865307688713073730e-01 1.200000000000000000e+01
-4.485340118408203125e+01 5.401853919029235840e-01 3.924448728561400923e+00 5.400000000000000000e+01
-4.390934467315673828e+00 5.364805459976196289e-02 -6.955076456069946289e-01 1.000000000000000000e+01
-5.762268066406250000e+00 7.241460680961608887e-02 -7.075734138488769531e-01 1.100000000000000000e+01
-8.415169715881347656e+00 1.072226688265800060e-01 -7.362917065620422363e-01 2.000000000000000000e+00
-3.451962280273438211e+01 4.639383852481842041e-01 -6.025967001914978027e-01 1.300000000000000000e+01
-2.542037010192871094e+00 3.771464526653289795e-02 -6.812117099761962891e-01 2.500000000000000000e+01
-4.475014114379882812e+01 6.717424988746643066e-01 7.812046408653259277e-01 4.800000000000000000e+01
-2.961743593215941939e+00 4.497564956545829773e-02 -6.838511824607849121e-01 1.300000000000000000e+01
-4.499505615234375000e+01 6.832738518714904785e-01 2.358362913131713867e+00 3.400000000000000000e+01
-3.513810873031616211e+00 5.397250503301619790e-02 -6.830962300300598145e-01 1.100000000000000000e+01
-4.483132171630858664e+01 6.964402198791503906e-01 3.922705650329589844e+00 5.400000000000000000e+01
-4.382820129394531250e+00 6.885083764791488647e-02 -6.942561268806457520e-01 9.000000000000000000e+00
-5.759995460510253906e+00 9.249635785818099976e-02 -7.073296904563903809e-01 1.100000000000000000e+01
-8.394823074340820312e+00 1.362730562686919888e-01 -7.345486283302307129e-01 3.000000000000000000e+00
-3.451179504394531250e+01 5.843299627304077148e-01 -6.024919748306274414e-01 2.000000000000000000e+01
-2.532232284545897993e+00 4.641077667474746704e-02 -6.786235570907592773e-01 2.400000000000000000e+01
-4.474752426147460938e+01 8.279455900192260742e-01 7.812046408653259277e-01 4.800000000000000000e+01
-2.959619998931885210e+00 5.527739971876143715e-02 -6.834012866020202637e-01 1.500000000000000000e+01
-4.494447326660156250e+01 8.394366502761840820e-01 2.355850696563721147e+00 3.400000000000000000e+01
-3.521452665328979048e+00 6.638567894697189331e-02 -6.846227049827575684e-01 1.200000000000000000e+01
-4.482861709594727273e+01 8.529264926910400391e-01 3.922705650329589844e+00 5.400000000000000000e+01
-4.382553100585938388e+00 8.414931595325469971e-02 -6.942561268806457520e-01 9.000000000000000000e+00
-5.771545410156250000e+00 1.128347441554069935e-01 -7.087920904159545898e-01 9.000000000000000000e+00
-8.400272369384765625e+00 1.656935065984725952e-01 -7.350715398788452148e-01 3.000000000000000000e+00
-3.449755096435546875e+01 7.045500874519348145e-01 -6.022825241088867188e-01 2.000000000000000000e+01
-2.530123472213745117e+00 5.520749092102050781e-02 -6.781058907508850098e-01 2.500000000000000000e+01
-4.473636245727539062e+01 9.839626550674438477e-01 7.810649871826171875e-01 4.800000000000000000e+01
-2.949667692184447798e+00 6.539210677146911621e-02 -6.811518073081970215e-01 1.400000000000000000e+01
-4.498918914794921875e+01 9.973794221878051758e-01 2.358362913131713867e+00 3.400000000000000000e+01
-3.517273902893065962e+00 7.858972996473312378e-02 -6.838594675064086914e-01 1.100000000000000000e+01
-4.484528732299804688e+01 1.009850978851317915e+00 3.924448728561400923e+00 5.400000000000000000e+01
-4.370383262634277344e+00 9.917787462472915649e-02 -6.923789381980895996e-01 9.000000000000000000e+00
-5.761193752288818359e+00 1.327518671751022061e-01 -7.075734138488769531e-01 1.100000000000000000e+01
-8.389683723449707031e+00 1.947836875915527066e-01 -7.342000007629394531e-01 2.000000000000000000e+00
-1.621923255920410156e+01 3.822273910045623779e-01 -8.502499461174011230e-01 4.000000000000000000e+00
-3.450487518310546875e+01 8.252037167549133301e-01 -6.024570465087890625e-01 1.300000000000000000e+01
-2.541502714157104048e+00 6.433223932981491089e-02 -6.812117099761962891e-01 2.400000000000000000e+01
-4.470466995239257812e+01 1.139402389526366965e+00 7.805763483047485352e-01 4.800000000000000000e+01
-2.945525407791138139e+00 7.558798789978027344e-02 -6.802520155906677246e-01 1.400000000000000000e+01
-4.503714370727539062e+01 1.163607597351073997e+00 2.361084222793579102e+00 3.500000000000000000e+01
-3.534641504287720171e+00 9.132318943738937378e-02 -6.872940063476562500e-01 1.200000000000000000e+01
-4.482157135009766336e+01 1.165866017341613992e+00 3.922705650329589844e+00 5.400000000000000000e+01
-4.377909183502197266e+00 1.146395951509475986e-01 -6.936303973197937012e-01 9.000000000000000000e+00
-5.744820117950438565e+00 1.524401158094406128e-01 -7.056235074996948242e-01 1.100000000000000000e+01
-8.404885292053222656e+00 2.244935482740401944e-01 -7.355944514274597168e-01 2.000000000000000000e+00
-3.450778198242188211e+01 9.458075761795043945e-01 -6.025617718696594238e-01 2.000000000000000000e+01
-2.550917863845825195e+00 7.348147779703140259e-02 -6.837999224662780762e-01 1.700000000000000000e+01
-4.473640060424804688e+01 1.296486616134643999e+00 7.812046408653259277e-01 4.800000000000000000e+01
-2.945243597030640093e+00 8.586932718753814697e-02 -6.802520155906677246e-01 1.400000000000000000e+01
-4.495694351196289062e+01 1.318584322929382102e+00 2.357106685638428178e+00 3.400000000000000000e+01
-3.520564317703247070e+00 1.032579317688941956e-01 -6.846227049827575684e-01 1.200000000000000000e+01
-4.483714294433593750e+01 1.322902917861938032e+00 3.924448728561400923e+00 5.400000000000000000e+01
-4.361686706542968750e+00 1.294518262147902887e-01 -6.911274790763854980e-01 1.000000000000000000e+01
-5.746237277984619141e+00 1.725519448518753052e-01 -7.058672308921813965e-01 1.100000000000000000e+01
-8.392102241516113281e+00 2.534697949886322021e-01 -7.345486283302307129e-01 3.000000000000000000e+00
-3.453025436401367188e+01 1.067059397697448953e+00 -6.030155420303344727e-01 1.300000000000000000e+01
-2.546784162521361861e+00 8.226066082715988159e-02 -6.827646493911743164e-01 1.900000000000000000e+01
-4.475558471679688211e+01 1.453416705131530984e+00 7.816234827041625977e-01 4.800000000000000000e+01
-2.939082860946654829e+00 9.595885127782821655e-02 -6.789022684097290039e-01 1.200000000000000000e+01
-4.502792358398438211e+01 1.477995157241821067e+00 2.361084222793579102e+00 3.500000000000000000e+01
-3.508409261703491211e+00 1.151599213480948986e-01 -6.823329925537109375e-01 1.100000000000000000e+01
-4.485216522216796875e+01 1.480062842369080034e+00 3.926191806793212891e+00 5.400000000000000000e+01
-4.363182544708251953e+00 1.447416692972182950e-01 -6.914403438568115234e-01 1.000000000000000000e+01
-5.749567985534667969e+00 1.927420198917388916e-01 -7.063547372817993164e-01 1.100000000000000000e+01
-8.371253013610839844e+00 2.820911705493927002e-01 -7.328054904937744141e-01 3.000000000000000000e+00
-3.447035980224608664e+01 1.185661196708678977e+00 -6.020382046699523926e-01 2.000000000000000000e+01
-2.538758993148804155e+00 9.087367355823516846e-02 -6.806941032409667969e-01 1.600000000000000000e+01
-4.477821731567382812e+01 1.610640406608581987e+00 7.821121215820312500e-01 4.800000000000000000e+01
-2.952362298965454102e+00 1.067103073000908037e-01 -6.820515990257263184e-01 1.400000000000000000e+01
-4.502248764038085938e+01 1.635162949562072976e+00 2.361084222793579102e+00 3.500000000000000000e+01
-3.509948015213013139e+00 1.274771094322204867e-01 -6.827145814895629883e-01 1.200000000000000000e+01
-4.483876037597656250e+01 1.636326432228087935e+00 3.925494670867919922e+00 5.400000000000000000e+01
-4.366598606109619141e+00 1.601158976554870883e-01 -6.920660734176635742e-01 1.000000000000000000e+01
-5.736957550048828125e+00 2.123699784278869906e-01 -7.048922777175903320e-01 1.100000000000000000e+01
-8.342343330383300781e+00 3.102738559246063232e-01 -7.303650975227355957e-01 3.000000000000000000e+00
-3.445002746582031250e+01 1.305372238159179910e+00 -6.017589569091796875e-01 2.000000000000000000e+01
-2.538460969924927202e+00 9.884896129369735718e-02 -6.806941032409667969e-01 1.600000000000000000e+01
-4.475295639038085938e+01 1.750525474548340066e+00 7.817630767822265625e-01 4.800000000000000000e+01
-2.938381671905518022e+00 1.154493317008017939e-01 -6.789022684097290039e-01 1.300000000000000000e+01
-4.501712799072266336e+01 1.776597023010253906e+00 2.361084222793579102e+00 3.500000000000000000e+01
-3.515415191650391069e+00 1.387355476617813110e-01 -6.838594675064086914e-01 1.100000000000000000e+01
-4.480154800415039062e+01 1.775920629501342995e+00 3.922705650329589844e+00 5.400000000000000000e+01
-4.350283622741699219e+00 1.732044667005538940e-01 -6.895630955696105957e-01 1.000000000000000000e+01
-5.752130031585693359e+00 2.310294061899184903e-01 -7.068421840667724609e-01 1.100000000000000000e+01
-8.353272438049316406e+00 3.369623422622681219e-01 -7.314109802246093750e-01 2.000000000000000000e+00
-1.601076126098633168e+01 6.514555215835571289e-01 -8.397827744483947754e-01 4.000000000000000000e+00
-3.442977142333983664e+01 1.412937641143799050e+00 -6.014797091484069824e-01 1.300000000000000000e+01
-2.547751188278197798e+00 1.081187799572945057e-01 -6.832822561264038086e-01 1.600000000000000000e+01
-4.477054595947266336e+01 1.907753348350524902e+00 7.821819782257080078e-01 4.800000000000000000e+01
-2.934067010879517046e+00 1.255388855934143066e-01 -6.780024766921997070e-01 1.200000000000000000e+01
-4.501065444946289062e+01 1.933725237846374956e+00 2.361084222793579102e+00 3.500000000000000000e+01
-3.514909505844116211e+00 1.510057896375656128e-01 -6.838594675064086914e-01 1.200000000000000000e+01
-4.484682846069335938e+01 1.934528827667236106e+00 3.927237749099731001e+00 5.400000000000000000e+01
-4.359519958496093750e+00 1.888161152601242065e-01 -6.911274790763854980e-01 1.000000000000000000e+01
-5.727489948272705078e+00 2.500676214694976807e-01 -7.039173245429992676e-01 1.100000000000000000e+01
-8.324178695678710938e+00 3.648971021175385077e-01 -7.289706468582153320e-01 2.000000000000000000e+00
-3.443062210083007812e+01 1.533378243446350098e+00 -6.015844345092773438e-01 2.000000000000000000e+01
-2.558937072753905806e+00 1.175433024764060974e-01 -6.863881349563598633e-01 2.100000000000000000e+01
-4.476361465454102273e+01 2.064020156860352007e+00 7.821819782257080078e-01 4.800000000000000000e+01
-2.933610916137694868e+00 1.357799321413039884e-01 -6.780024766921997070e-01 1.300000000000000000e+01
-4.500363159179688211e+01 2.090830087661743164e+00 2.361084222793579102e+00 3.500000000000000000e+01
-3.500633001327515093e+00 1.626364141702651978e-01 -6.811881065368652344e-01 1.200000000000000000e+01
-4.482786178588867188e+01 2.090504884719849077e+00 3.926191806793212891e+00 5.400000000000000000e+01
-4.345021724700927734e+00 2.033859789371489923e-01 -6.889373660087585449e-01 1.000000000000000000e+01
-5.706753253936767578e+00 2.691236734390258789e-01 -7.014799118041992188e-01 1.100000000000000000e+01
-8.346735954284667969e+00 3.950821161270142157e-01 -7.310623526573181152e-01 2.000000000000000000e+00
-1.600582313537598012e+01 7.632149457931518555e-01 -8.397827744483947754e-01 4.000000000000000000e+00
-3.436713409423828125e+01 1.650771856307982954e+00 -6.005722284317016602e-01 1.300000000000000000e+01
-2.552722692489624023e+00 1.261887997388839999e-01 -6.848351955413818359e-01 2.300000000000000000e+01
-4.476013183593750000e+01 2.220459938049315962e+00 7.822517752647399902e-01 4.800000000000000000e+01
-2.938957929611206055e+00 1.463100016117095947e-01 -6.793521642684936523e-01 1.300000000000000000e+01
-3.492200851440430132e+00 1.744630783796309870e-01 -6.796616315841674805e-01 1.200000000000000000e+01
-4.484814834594727273e+01 2.248367071151732954e+00 3.928632259368896040e+00 5.400000000000000000e+01
-4.344285488128662109e+00 2.185516953468323031e-01 -6.889373660087585449e-01 1.000000000000000000e+01
-5.717674732208251953e+00 2.896448969841002863e-01 -7.029423713684082031e-01 1.100000000000000000e+01
-8.321428298950195312e+00 4.230014681816101074e-01 -7.289706468582153320e-01 2.000000000000000000e+00
-3.433320617675781250e+01 1.769284725189208984e+00 -6.000835299491882324e-01 1.900000000000000000e+01
-2.544549942016602007e+00 1.346902400255202970e-01 -6.827646493911743164e-01 2.300000000000000000e+01
-4.475210571289063211e+01 2.376688480377196822e+00 7.822517752647399902e-01 4.800000000000000000e+01
-2.934537410736083984e+00 1.563606113195419034e-01 -6.784523725509643555e-01 1.400000000000000000e+01
-3.493530988693236861e+00 1.867568641901015958e-01 -6.800432801246643066e-01 1.100000000000000000e+01
-4.485992431640625000e+01 2.405969858169556108e+00 3.930375337600708008e+00 5.400000000000000000e+01
-4.343496322631835938e+00 2.337147593498229980e-01 -6.889373660087585449e-01 1.000000000000000000e+01
-5.700771331787109375e+00 3.087427318096160889e-01 -7.009924650192260742e-01 1.100000000000000000e+01
-8.282101631164550781e+00 4.499923288822174072e-01 -7.256587147712707520e-01 3.000000000000000000e+00
-1.580466556549072088e+01 8.642498850822448730e-01 -8.295249342918395996e-01 4.000000000000000000e+00
-3.434678649902343750e+01 1.890218019485474077e+00 -6.004325747489929199e-01 1.300000000000000000e+01
-2.542135715484619141e+00 1.434627026319504062e-01 -6.822469830513000488e-01 2.500000000000000000e+01
-4.475152587890625000e+01 2.533339977264403853e+00 7.823913693428039551e-01 4.800000000000000000e+01
-2.933973789215087891e+00 1.666031032800673883e-01 -6.784523725509643555e-01 1.100000000000000000e+01
-3.498738050460814986e+00 1.992853581905364990e-01 -6.811881065368652344e-01 1.200000000000000000e+01
-4.488307571411132812e+01 2.564363718032836914e+00 3.933164358139038086e+00 5.400000000000000000e+01
-4.324904441833496094e+00 2.478577643632889072e-01 -6.861215829849243164e-01 1.000000000000000000e+01
-5.711549282073974609e+00 3.293258845806121826e-01 -7.024549245834350586e-01 1.100000000000000000e+01
-8.270534515380859375e+00 4.783243238925933838e-01 -7.247871756553649902e-01 3.000000000000000000e+00
-1.580155277252197088e+01 9.194132089614868164e-01 -8.295249342918395996e-01 4.000000000000000000e+00
-3.434996032714843750e+01 2.010683536529541016e+00 -6.006070971488952637e-01 1.900000000000000000e+01
-2.545476198196411133e+00 1.525667011737822931e-01 -6.832822561264038086e-01 2.200000000000000000e+01
-4.474240875244141336e+01 2.689536571502685991e+00 7.823913693428039551e-01 4.800000000000000000e+01
-2.923648357391356978e+00 1.762572079896926880e-01 -6.762028932571411133e-01 1.200000000000000000e+01
-3.492142200469971147e+00 2.111415714025496881e-01 -6.800432801246643066e-01 1.100000000000000000e+01
-4.482214736938477273e+01 2.717884063720703125e+00 3.928632259368896040e+00 5.400000000000000000e+01
-4.322041511535645419e+00 2.628330886363983154e-01 -6.858087182044982910e-01 1.000000000000000000e+01
-5.698476791381835938e+00 3.485337793827056885e-01 -7.009924650192260742e-01 1.100000000000000000e+01
-8.284724235534667969e+00 5.081667900085449219e-01 -7.261816263198852539e-01 3.000000000000000000e+00
-1.579824733734131037e+01 9.745653271675109863e-01 -8.295249342918395996e-01 4.000000000000000000e+00
-3.433075714111328125e+01 2.129832029342650923e+00 -6.003977060317993164e-01 1.900000000000000000e+01
-2.539144039154053178e+00 1.610842049121856967e-01 -6.817293763160705566e-01 1.900000000000000000e+01
-4.475270462036132812e+01 2.846969842910767046e+00 7.827404141426086426e-01 4.800000000000000000e+01
-2.928849458694458008e+00 1.868337541818619052e-01 -6.775525808334350586e-01 1.300000000000000000e+01
-3.503139257431029829e+00 2.240820825099945068e-01 -6.823329925537109375e-01 1.100000000000000000e+01
-4.484419631958007812e+01 2.876366376876831055e+00 3.931421279907227007e+00 5.400000000000000000e+01
-4.325040340423583984e+00 2.781718075275421143e-01 -6.864344477653503418e-01 1.000000000000000000e+01
-5.673453807830811435e+00 3.668858110904694159e-01 -6.980676054954528809e-01 1.000000000000000000e+01
-8.266993522644042969e+00 5.360514521598815918e-01 -7.247871756553649902e-01 2.000000000000000000e+00
-3.432311248779296875e+01 2.249655723571776900e+00 -6.003977060317993164e-01 1.900000000000000000e+01
-2.528928756713867188e+00 1.693012863397597989e-01 -6.791411638259887695e-01 1.400000000000000000e+01
-4.476643753051757812e+01 3.004775762557982954e+00 7.831593155860900879e-01 4.800000000000000000e+01
-2.926235198974608931e+00 1.969253569841384888e-01 -6.771026849746704102e-01 1.200000000000000000e+01
-3.482747793197631836e+00 2.349873185157775879e-01 -6.785168051719665527e-01 1.200000000000000000e+01
-4.485376358032227273e+01 3.034229040145874023e+00 3.933164358139038086e+00 5.400000000000000000e+01
-4.324042797088623047e+00 2.932673096656798761e-01 -6.864344477653503418e-01 1.000000000000000000e+01
-5.672138690948486328e+00 3.866876363754271906e-01 -6.980676054954528809e-01 1.000000000000000000e+01
-8.269047737121582031e+00 5.651770830154418945e-01 -7.251358032226562500e-01 2.000000000000000000e+00
-1.566353416442870916e+01 1.076072454452515093e+00 -8.228259086608886719e-01 4.000000000000000000e+00
-3.432303237915039062e+01 2.370002985000609907e+00 -6.005373001098632812e-01 1.900000000000000000e+01
-2.518687009811400923e+00 1.774490326642990112e-01 -6.765530109405517578e-01 1.500000000000000000e+01
-4.475567626953125000e+01 3.161021471023560014e+00 7.831593155860900879e-01 4.800000000000000000e+01
-2.931361675262451172e+00 2.075515389442444125e-01 -6.784523725509643555e-01 1.200000000000000000e+01
-3.474072933197021040e+00 2.465869486331939975e-01 -6.769903302192687988e-01 1.100000000000000000e+01
-4.487469482421875000e+01 3.193042039871215820e+00 3.935953378677368164e+00 5.400000000000000000e+01
-4.319052219390869141e+00 3.080781698226929266e-01 -6.858087182044982910e-01 1.000000000000000000e+01
-5.686594486236572266e+00 4.076201617717742920e-01 -7.000175118446350098e-01 1.000000000000000000e+01
-8.199457168579101562e+00 5.891828536987304688e-01 -7.192091941833496094e-01 2.000000000000000000e+00
-3.430059051513671875e+01 2.488785505294799805e+00 -6.002929806709289551e-01 1.300000000000000000e+01
-2.518019676208496094e+00 1.866792887449265081e-01 -6.765530109405517578e-01 1.400000000000000000e+01
-4.474378967285156250e+01 3.325037956237792969e+00 7.831593155860900879e-01 4.800000000000000000e+01
-2.918920993804932085e+00 2.174255698919295987e-01 -6.757529377937316895e-01 1.200000000000000000e+01
-3.488808393478393999e+00 2.604878246784210205e-01 -6.800432801246643066e-01 1.100000000000000000e+01
-4.482891464233397727e+01 3.354966878890991211e+00 3.932990074157714844e+00 5.400000000000000000e+01
-4.310014247894287109e+00 3.233151435852050781e-01 -6.845571994781494141e-01 1.000000000000000000e+01
-4.496642684936522727e+01 3.381042480468750000e+00 5.536767959594726562e+00 3.800000000000000000e+01
-5.681103229522705078e+00 4.281614720821381170e-01 -6.995300054550170898e-01 1.000000000000000000e+01
-8.227044105529785156e+00 6.214826703071594238e-01 -7.218238711357116699e-01 3.000000000000000000e+00
-1.558373832702637074e+01 1.182688713073730025e+00 -8.190577030181884766e-01 4.000000000000000000e+00
-3.432313919067382812e+01 2.616919040679932085e+00 -6.008514761924743652e-01 2.000000000000000000e+01
-2.525056838989257812e+00 1.960658878087996881e-01 -6.786235570907592773e-01 1.300000000000000000e+01
-4.474785995483397727e+01 3.482443809509276900e+00 7.834385037422180176e-01 4.800000000000000000e+01
-2.912315845489501953e+00 2.271585613489151001e-01 -6.744032502174377441e-01 1.300000000000000000e+01
-4.491513824462891336e+01 3.511235713958739790e+00 2.361084222793579102e+00 3.500000000000000000e+01
-3.491792440414429155e+00 2.729704678058624268e-01 -6.808065176010131836e-01 1.100000000000000000e+01
-4.484473800659179688e+01 3.513607263565063032e+00 3.935430526733397993e+00 5.400000000000000000e+01
-4.297043800354003906e+00 3.374300599098206122e-01 -6.826800107955932617e-01 1.000000000000000000e+01
-4.490685272216796875e+01 3.534245967864989790e+00 5.530918121337890625e+00 3.800000000000000000e+01
-5.663742542266845703e+00 4.467408657073975164e-01 -6.975800991058349609e-01 1.000000000000000000e+01
-8.187087059020996094e+00 6.472133398056030273e-01 -7.185119390487670898e-01 2.000000000000000000e+00
-3.433971023559570312e+01 2.738780021667480025e+00 -6.013051867485046387e-01 2.000000000000000000e+01
-2.522431612014770952e+00 2.047225087881087979e-01 -6.781058907508850098e-01 1.200000000000000000e+01
-4.470354080200195312e+01 3.636028051376343218e+00 7.828800678253173828e-01 4.800000000000000000e+01
-2.911505222320557085e+00 2.373230606317519864e-01 -6.744032502174377441e-01 1.400000000000000000e+01
-3.479077816009521040e+00 2.841983735561370850e-01 -6.785168051719665527e-01 1.100000000000000000e+01
-4.485602951049804688e+01 3.672073841094971147e+00 3.937522172927856001e+00 5.400000000000000000e+01
-4.295839786529541016e+00 3.524274826049805243e-01 -6.826800107955932617e-01 1.000000000000000000e+01
-4.484280395507813211e+01 3.686749696731566939e+00 5.524580955505371094e+00 3.700000000000000000e+01
-5.642364978790283203e+00 4.648782908916472834e-01 -6.951427459716796875e-01 1.000000000000000000e+01
-8.182791709899902344e+00 6.756237149238586426e-01 -7.183376550674438477e-01 2.000000000000000000e+00
-3.435385513305664062e+01 2.860622406005858931e+00 -6.017240881919860840e-01 2.000000000000000000e+01
-2.523626565933227983e+00 2.136891931295394897e-01 -6.786235570907592773e-01 1.300000000000000000e+01
-4.472245788574218750e+01 3.794755458831787109e+00 7.834385037422180176e-01 4.800000000000000000e+01
-2.922309398651123047e+00 2.484752535820007047e-01 -6.771026849746704102e-01 1.400000000000000000e+01
-3.466327667236328125e+00 2.953408658504486084e-01 -6.762270927429199219e-01 1.200000000000000000e+01
-4.487073135375977273e+01 3.831001281738280806e+00 3.939962625503540039e+00 5.400000000000000000e+01
-4.306392669677734375e+00 3.684309422969818115e-01 -6.845571994781494141e-01 1.000000000000000000e+01
-4.488504028320313211e+01 3.848005533218383789e+00 5.531405925750732422e+00 3.800000000000000000e+01
-5.642685413360595703e+00 4.847408831119536798e-01 -6.953864693641662598e-01 1.000000000000000000e+01
-8.172443389892578125e+00 7.034993767738342285e-01 -7.176403999328613281e-01 2.000000000000000000e+00
-3.427393341064453125e+01 2.974471092224121094e+00 -6.005023717880249023e-01 1.900000000000000000e+01
-2.509471654891968218e+00 2.204330265522002896e-01 -6.750000715255737305e-01 1.300000000000000000e+01
-4.473421859741210938e+01 3.937340259552001953e+00 7.838574051856994629e-01 4.800000000000000000e+01
-2.915690660476685014e+00 2.571411132812500000e-01 -6.757529377937316895e-01 1.500000000000000000e+01
-3.457560062408446822e+00 3.055379390716552734e-01 -6.747006177902221680e-01 1.100000000000000000e+01
-4.488626098632813211e+01 3.974407672882080078e+00 3.942402839660644975e+00 5.400000000000000000e+01
-4.305213928222656250e+00 3.819580376148223877e-01 -6.845571994781494141e-01 1.000000000000000000e+01
-4.487668609619141336e+01 3.989348411560059038e+00 5.531893253326416016e+00 3.800000000000000000e+01
-5.641134738922119141e+00 5.024654865264892578e-01 -6.953864693641662598e-01 1.000000000000000000e+01
-8.140425682067871094e+00 7.265136241912841797e-01 -7.150257229804992676e-01 2.000000000000000000e+00
-3.427636718750000000e+01 3.083205938339232954e+00 -6.007118225097656250e-01 1.300000000000000000e+01
-2.514458417892456055e+00 2.297186553478240967e-01 -6.765530109405517578e-01 1.300000000000000000e+01
-4.470825576782227273e+01 4.092373847961425781e+00 7.836479544639587402e-01 4.800000000000000000e+01
-2.914775371551514116e+00 2.673172056674957275e-01 -6.757529377937316895e-01 1.500000000000000000e+01
-3.468202590942382812e+00 3.186830580234528143e-01 -6.769903302192687988e-01 1.200000000000000000e+01
-4.487211227416992188e+01 4.131065845489501953e+00 3.942402839660644975e+00 5.400000000000000000e+01
-4.290084838867188388e+00 3.957136571407318115e-01 -6.823671460151672363e-01 1.000000000000000000e+01
-4.486248779296875000e+01 4.145972728729248047e+00 5.531893253326416016e+00 3.800000000000000000e+01
-5.647253036499023438e+00 5.228857398033142090e-01 -6.963614225387573242e-01 1.000000000000000000e+01
-8.147759437561035156e+00 7.558447718620300293e-01 -7.158972620964050293e-01 2.000000000000000000e+00
-1.530668258666992010e+01 1.425347208976746050e+00 -8.056597113609313965e-01 4.000000000000000000e+00
-3.432114410400391336e+01 3.208044767379761186e+00 -6.016891598701477051e-01 1.300000000000000000e+01
-2.515564441680908203e+00 2.386768311262131015e-01 -6.770706176757812500e-01 1.500000000000000000e+01
-4.474147415161132812e+01 4.252951622009277344e+00 7.844856977462768555e-01 4.800000000000000000e+01
-2.911884546279906782e+00 2.773053050041198730e-01 -6.753030419349670410e-01 1.400000000000000000e+01
-3.474886655807495117e+00 3.315332531929016113e-01 -6.785168051719665527e-01 1.100000000000000000e+01
-4.482965087890625000e+01 4.285019397735595703e+00 3.939962625503540039e+00 5.400000000000000000e+01
-4.294576644897460938e+00 4.112513363361359198e-01 -6.833057403564453125e-01 1.000000000000000000e+01
-4.485169219970703125e+01 4.302926063537597656e+00 5.532380580902099609e+00 3.800000000000000000e+01
-5.633537769317626953e+00 5.414556264877319336e-01 -6.948990225791931152e-01 1.000000000000000000e+01
-8.133172035217285156e+00 7.831354141235351562e-01 -7.148513793945312500e-01 2.000000000000000000e+00
-3.429580688476563211e+01 3.326477050781250000e+00 -6.014448404312133789e-01 2.000000000000000000e+01
-2.520483732223511186e+00 2.480238974094390869e-01 -6.786235570907592773e-01 1.300000000000000000e+01
-4.475819778442382812e+01 4.412241458892822266e+00 7.850441336631774902e-01 4.900000000000000000e+01
-2.903141498565673828e+00 2.867019176483153742e-01 -6.735034584999084473e-01 1.400000000000000000e+01
-3.465893268585205078e+00 3.428876996040344238e-01 -6.769903302192687988e-01 1.100000000000000000e+01
-4.486597061157227273e+01 4.446587085723876953e+00 3.944494724273682085e+00 5.400000000000000000e+01
-4.281320571899414062e+00 4.250687062740325928e-01 -6.814285516738891602e-01 1.000000000000000000e+01
-4.485220336914063211e+01 4.461033344268798828e+00 5.534330844879150391e+00 3.800000000000000000e+01
-5.603958606719970703e+00 5.583616495132446289e-01 -6.914866566658020020e-01 1.000000000000000000e+01
-8.136336326599121094e+00 8.121143579483032227e-01 -7.153743505477905273e-01 3.000000000000000000e+00
-3.423424148559570312e+01 3.441171646118164062e+00 -6.005722284317016602e-01 1.300000000000000000e+01
-2.513836860656737837e+00 2.562328279018402100e-01 -6.770706176757812500e-01 1.500000000000000000e+01
-4.477833175659179688e+01 4.572105884552001953e+00 7.856724262237548828e-01 4.900000000000000000e+01
-2.906000375747681108e+00 2.972306013107299805e-01 -6.744032502174377441e-01 1.300000000000000000e+01
-3.451004028320312944e+00 3.535831272602080744e-01 -6.743189692497253418e-01 1.100000000000000000e+01
-4.483828353881835938e+01 4.601951122283936435e+00 3.943448781967163086e+00 5.400000000000000000e+01
-4.295531272888183594e+00 4.416269361972808838e-01 -6.839314699172973633e-01 1.000000000000000000e+01
-4.486795043945313211e+01 4.620823383331298828e+00 5.538230419158936435e+00 3.800000000000000000e+01
-5.603950023651123047e+00 5.781234502792358398e-01 -6.917303800582885742e-01 1.200000000000000000e+01
-8.117597579956054688e+00 8.388721346855163574e-01 -7.139798402786254883e-01 2.000000000000000000e+00
-1.514788150787354049e+01 1.570725560188293013e+00 -7.981233596801757812e-01 4.000000000000000000e+00
-3.422997665405272727e+01 3.561478137969971147e+00 -6.007118225097656250e-01 1.300000000000000000e+01
-2.503321170806885210e+00 2.639931738376616877e-01 -6.744824051856994629e-01 1.400000000000000000e+01
-4.477402877807617188e+01 4.729644298553466797e+00 7.858818769454956055e-01 4.900000000000000000e+01
-2.912696838378905806e+00 3.081928193569182794e-01 -6.762028932571411133e-01 1.400000000000000000e+01
-3.455605745315552202e+00 3.662479817867279053e-01 -6.754638552665710449e-01 1.100000000000000000e+01
-4.486553573608397727e+01 4.763065338134765625e+00 3.947283506393433061e+00 5.400000000000000000e+01
-4.268427371978759766e+00 4.539029598236083984e-01 -6.798641681671142578e-01 1.000000000000000000e+01
-4.489694976806641336e+01 4.782249450683593750e+00 5.543836593627929688e+00 7.600000000000000000e+01
-5.611767292022705078e+00 5.987343192100524902e-01 -6.929491162300109863e-01 1.000000000000000000e+01
-8.112638473510742188e+00 8.669909834861755371e-01 -7.138055562973022461e-01 2.000000000000000000e+00
-3.427300643920897727e+01 3.686930179595946822e+00 -6.016891598701477051e-01 1.300000000000000000e+01
-2.506225347518920898e+00 2.731483876705170233e-01 -6.755176782608032227e-01 1.400000000000000000e+01
-4.476519775390625000e+01 4.886774063110351562e+00 7.860214710235595703e-01 4.900000000000000000e+01
-2.901917219161986861e+00 3.172990977764130194e-01 -6.739533543586730957e-01 1.200000000000000000e+01
-3.450402975082397017e+00 3.778806030750275213e-01 -6.747006177902221680e-01 1.100000000000000000e+01
-4.484467315673828125e+01 4.919211387634277344e+00 3.946934938430786133e+00 5.400000000000000000e+01
-4.258962631225585938e+00 4.679368436336516779e-01 -6.786127090454101562e-01 9.000000000000000000e+00
-4.487998199462891336e+01 4.938940048217773438e+00 5.543836593627929688e+00 7.600000000000000000e+01
-5.601750850677490234e+00 6.174494624137878418e-01 -6.919741034507751465e-01 1.000000000000000000e+01
-8.075897216796875000e+00 8.915873169898986816e-01 -7.108422517776489258e-01 2.000000000000000000e+00
-1.503729057312012074e+01 1.665445566177367942e+00 -7.928897142410278320e-01 4.000000000000000000e+00
-3.422415542602539062e+01 3.802567958831787109e+00 -6.010608673095703125e-01 1.300000000000000000e+01
-2.507176399230957031e+00 2.821111083030701239e-01 -6.760353446006774902e-01 1.500000000000000000e+01
-4.478363800048828125e+01 5.047034740447998047e+00 7.866497635841369629e-01 4.900000000000000000e+01
-2.902728557586669922e+00 3.276453018188477118e-01 -6.744032502174377441e-01 1.400000000000000000e+01
-3.454915523529053178e+00 3.905840814113616943e-01 -6.758454442024230957e-01 1.200000000000000000e+01
-4.488662338256835938e+01 5.082443714141845703e+00 3.952164411544799805e+00 5.400000000000000000e+01
-4.261229038238525391e+00 4.832457304000853937e-01 -6.792384386062622070e-01 9.000000000000000000e+00
-4.485655212402343750e+01 5.094898223876953125e+00 5.543105125427246094e+00 7.600000000000000000e+01
-5.599561214447020596e+00 6.369994282722473145e-01 -6.919741034507751465e-01 1.000000000000000000e+01
-8.054919242858886719e+00 9.177421331405639648e-01 -7.092734575271606445e-01 2.000000000000000000e+00
-3.418484497070313211e+01 3.919048547744750977e+00 -6.006070971488952637e-01 1.900000000000000000e+01
-2.513852357864379883e+00 2.917519211769104004e-01 -6.781058907508850098e-01 1.400000000000000000e+01
-4.478163528442382812e+01 5.205174922943115234e+00 7.869290113449096680e-01 4.900000000000000000e+01
-2.901567220687866211e+00 3.377757370471953791e-01 -6.744032502174377441e-01 1.300000000000000000e+01
-3.451581001281737837e+00 4.024142622947692871e-01 -6.754638552665710449e-01 1.200000000000000000e+01
-4.488839721679688211e+01 5.241406917572020596e+00 3.953907489776610884e+00 5.400000000000000000e+01
-4.265402317047119141e+00 4.988055527210236151e-01 -6.801770329475402832e-01 1.000000000000000000e+01
-4.485821151733397727e+01 5.253754615783691406e+00 5.545542716979979581e+00 7.700000000000000000e+01
-5.593360424041748047e+00 6.560791730880737305e-01 -6.914866566658020020e-01 1.000000000000000000e+01
-8.081348419189453125e+00 9.493402838706970215e-01 -7.118881344795227051e-01 2.000000000000000000e+00
-1.492612075805664062e+01 1.758698463439940962e+00 -7.876561284065246582e-01 4.000000000000000000e+00
-3.415904235839843750e+01 4.036943912506104404e+00 -6.003977060317993164e-01 1.900000000000000000e+01
-2.505145788192749023e+00 2.996074855327606201e-01 -6.760353446006774902e-01 1.400000000000000000e+01
-4.478305053710938211e+01 5.363838672637938565e+00 7.872780561447143555e-01 4.900000000000000000e+01
-2.902305364608765093e+00 3.481341302394866943e-01 -6.748531460762023926e-01 1.300000000000000000e+01
-3.430662870407104048e+00 4.121184945106505793e-01 -6.716476678848266602e-01 1.100000000000000000e+01
-4.486982727050781250e+01 5.398064613342285156e+00 3.953907489776610884e+00 5.400000000000000000e+01
-4.263635158538818359e+00 5.136915445327758789e-01 -6.801770329475402832e-01 1.000000000000000000e+01
-4.486324691772460938e+01 5.413160800933837891e+00 5.548467636108398438e+00 7.700000000000000000e+01
-5.577240943908691406e+00 6.739326715469360352e-01 -6.897804737091064453e-01 1.000000000000000000e+01
-8.054249763488769531e+00 9.746713042259216309e-01 -7.097963690757751465e-01 2.000000000000000000e+00
-3.412092208862304688e+01 4.153256893157958984e+00 -5.999788045883178711e-01 1.900000000000000000e+01
-2.490663051605225053e+00 3.066975176334381104e-01 -6.724118590354919434e-01 1.600000000000000000e+01
-4.478390121459960938e+01 5.522575378417968750e+00 7.876271009445190430e-01 4.900000000000000000e+01
-2.901072263717650923e+00 3.582629263401030939e-01 -6.748531460762023926e-01 1.200000000000000000e+01
-3.440893888473511186e+00 4.255369901657103937e-01 -6.739373803138732910e-01 1.200000000000000000e+01
-4.485071182250977273e+01 5.554656982421875000e+00 3.953907489776610884e+00 5.400000000000000000e+01
-4.257895469665527344e+00 5.280850529670715332e-01 -6.795513033866882324e-01 1.000000000000000000e+01
-4.487165832519531250e+01 5.573154926300048828e+00 5.551879882812500000e+00 7.700000000000000000e+01
-5.568944931030273438e+00 6.926617026329040527e-01 -6.890492439270019531e-01 1.000000000000000000e+01
-8.038935661315917969e+00 1.001302361488342063e+00 -7.087504863739013672e-01 3.000000000000000000e+00
-1.481438636779784979e+01 1.850481033325195090e+00 -7.824225425720214844e-01 4.000000000000000000e+00
-3.413994979858397727e+01 4.276561260223388672e+00 -6.005722284317016602e-01 1.300000000000000000e+01
-2.497243642807006836e+00 3.163608908653259277e-01 -6.744824051856994629e-01 1.500000000000000000e+01
-4.478418731689453125e+01 5.681383132934570312e+00 7.879761457443237305e-01 4.900000000000000000e+01
-2.899804115295410156e+00 3.683874011039733887e-01 -6.748531460762023926e-01 1.300000000000000000e+01
-3.441334962844849077e+00 4.377931058406829834e-01 -6.743189692497253418e-01 1.200000000000000000e+01
-4.487057876586914062e+01 5.716216564178466797e+00 3.957393646240233931e+00 5.400000000000000000e+01
-4.238390445709229404e+00 5.406948924064636230e-01 -6.767355203628540039e-01 9.000000000000000000e+00
-4.487949752807617188e+01 5.733273983001708984e+00 5.555292129516601562e+00 7.700000000000000000e+01
-5.578307151794433594e+00 7.136080861091613770e-01 -6.905117034912109375e-01 1.000000000000000000e+01
-8.035391807556152344e+00 1.029357433319092019e+00 -7.087504863739013672e-01 3.000000000000000000e+00
-1.470878696441650035e+01 1.889457941055298074e+00 -7.771889567375183105e-01 4.000000000000000000e+00
-3.410498046875000000e+01 4.393151283264160156e+00 -6.002231836318969727e-01 1.900000000000000000e+01
-2.498039722442626953e+00 3.253254294395446777e-01 -6.750000715255737305e-01 1.500000000000000000e+01
-4.481167221069335938e+01 5.843881130218505859e+00 7.888138890266418457e-01 4.900000000000000000e+01
-2.890771150588988814e+00 3.774980008602141779e-01 -6.730535626411437988e-01 1.300000000000000000e+01
-3.447572708129882812e+00 4.508211910724639893e-01 -6.758454442024230957e-01 1.200000000000000000e+01
-4.485232543945313211e+01 5.873068332672119141e+00 3.957567930221558061e+00 5.400000000000000000e+01
-4.248229026794433594e+00 5.570271611213684082e-01 -6.786127090454101562e-01 9.000000000000000000e+00
-4.487102127075195312e+01 5.891448497772216797e+00 5.556754589080811435e+00 7.700000000000000000e+01
-5.562005519866943359e+00 7.312643527984619141e-01 -6.888055205345153809e-01 1.200000000000000000e+01
-8.023848533630371094e+00 1.056359648704529031e+00 -7.080532312393188477e-01 1.000000000000000000e+00
-1.470210266113281072e+01 1.940789699554442915e+00 -7.771889567375183105e-01 4.000000000000000000e+00
-3.402798080444335938e+01 4.504038810729979581e+00 -5.991411209106445312e-01 1.900000000000000000e+01
-2.496888875961304155e+00 3.340432345867156982e-01 -6.750000715255737305e-01 1.500000000000000000e+01
-4.479496383666992188e+01 6.000798225402832031e+00 7.888836860656738281e-01 4.900000000000000000e+01
