6.703905582427979404e+00 -2.600273609161376953e+00 -6.290901303291320801e-01 4.000000000000000000e+00
1.019915962219237926e+01 -3.960089445114136186e+00 -5.733927488327026367e-01 9.000000000000000000e+00
4.029514312744141336e+01 -1.565373420715332031e+01 9.980178833007812500e+00 1.300000000000000000e+01
2.299945354461669922e+00 -8.976361751556396484e-01 -6.615414619445800781e-01 1.900000000000000000e+01
2.650089025497436968e+00 -1.035358428955077903e+00 -6.568570733070373535e-01 1.300000000000000000e+01
3.130432844161986861e+00 -1.223652839660644975e+00 -6.533300280570983887e-01 1.200000000000000000e+01
3.807895660400391069e+00 -1.489998459815979004e+00 -6.476386785507202148e-01 9.000000000000000000e+00
4.962841510772705078e+00 -1.943917155265808105e+00 -6.544383764266967773e-01 9.000000000000000000e+00
6.707773208618164062e+00 -2.628747463226317915e+00 -6.303103566169738770e-01 3.000000000000000000e+00
1.015924358367919922e+01 -3.985455513000487837e+00 -5.719273090362548828e-01 1.800000000000000000e+01
3.361540603637695312e+01 -1.320081329345702947e+01 -6.303809285163879395e-01 7.000000000000000000e+00
2.300392150878905806e+00 -9.070762991905212402e-01 -6.625767350196838379e-01 1.700000000000000000e+01
2.646458864212036133e+00 -1.044602632522583008e+00 -6.568570733070373535e-01 1.200000000000000000e+01
3.122490406036376953e+00 -1.233130455017090066e+00 -6.525667905807495117e-01 1.300000000000000000e+01
3.806345462799071822e+00 -1.504733800888061968e+00 -6.482644081115722656e-01 9.000000000000000000e+00
4.008843231201171875e+01 -1.585594844818115057e+01 5.293272972106933594e+00 3.100000000000000000e+01
4.941259384155273438e+00 -1.955385446548461914e+00 -6.524884700775146484e-01 9.000000000000000000e+00
6.717081069946289062e+00 -2.659480571746826172e+00 -6.320534348487854004e-01 3.000000000000000000e+00
1.014526939392090021e+01 -4.020893573760986328e+00 -5.719273090362548828e-01 2.100000000000000000e+01
4.389486694335938211e+01 -1.740579795837401988e+01 1.090157794952392933e+01 1.300000000000000000e+01
3.360629653930664062e+01 -1.333282089233398082e+01 -6.310790181159973145e-01 1.500000000000000000e+01
2.290033102035522017e+00 -9.122409820556640625e-01 -6.605061888694763184e-01 1.800000000000000000e+01
2.648226737976074219e+00 -1.055999636650085005e+00 -6.582067608833312988e-01 1.500000000000000000e+01
3.116343498229980025e+00 -1.243294954299926980e+00 -6.521851420402526855e-01 1.300000000000000000e+01
3.804738759994506836e+00 -1.519476532936095969e+00 -6.488901376724243164e-01 9.000000000000000000e+00
4.030934906005858664e+01 -1.610626983642578125e+01 5.329833984375000000e+00 3.200000000000000000e+01
4.960209369659423828e+00 -1.982937932014465110e+00 -6.559008359909057617e-01 9.000000000000000000e+00
6.691107749938964844e+00 -2.676252126693726030e+00 -6.304846405982971191e-01 3.000000000000000000e+00
1.016269302368164062e+01 -4.068902969360351562e+00 -5.737067461013793945e-01 1.500000000000000000e+01
3.362266159057617188e+01 -1.347534084320068004e+01 -6.322658061981201172e-01 7.000000000000000000e+00
2.288627147674560991e+00 -9.209502935409545898e-01 -6.610238552093505859e-01 1.900000000000000000e+01
2.655369997024536133e+00 -1.069605946540832964e+00 -6.609061956405639648e-01 1.500000000000000000e+01
3.111984491348267046e+00 -1.254165410995482954e+00 -6.521851420402526855e-01 1.200000000000000000e+01
3.799411535263061968e+00 -1.532748341560363992e+00 -6.488901376724243164e-01 9.000000000000000000e+00
4.016084289550781250e+01 -1.620972824096680043e+01 5.317646980285645419e+00 3.200000000000000000e+01
4.953257083892822266e+00 -2.000240325927733931e+00 -6.559008359909057617e-01 1.100000000000000000e+01
4.065933227539063211e+01 -1.641918182373046875e+01 6.945064544677734375e+00 1.500000000000000000e+01
6.698350906372070312e+00 -2.706309318542480025e+00 -6.320534348487854004e-01 3.000000000000000000e+00
1.031136608123778942e+01 -4.170249938964843750e+00 -5.829178690910339355e-01 6.000000000000000000e+00
4.410467147827147727e+01 -1.784631156921387074e+01 1.098435974121093928e+01 1.400000000000000000e+01
3.366068267822266336e+01 -1.362714195251465021e+01 -6.338713765144348145e-01 1.500000000000000000e+01
2.278239727020264116e+00 -9.260237812995910645e-01 -6.589533090591430664e-01 1.800000000000000000e+01
2.646205186843872070e+00 -1.076665043830872026e+00 -6.595565080642700195e-01 1.400000000000000000e+01
3.107587575912476030e+00 -1.265020608901977983e+00 -6.521851420402526855e-01 1.200000000000000000e+01
3.794038057327270952e+00 -1.546001434326172097e+00 -6.488901376724243164e-01 9.000000000000000000e+00
4.942568778991699219e+00 -2.016018629074097124e+00 -6.554133296012878418e-01 9.000000000000000000e+00
6.670416355133056641e+00 -2.722146511077880859e+00 -6.303103566169738770e-01 3.000000000000000000e+00
1.040583324432373047e+01 -4.250780105590820312e+00 -5.890935063362121582e-01 9.000000000000000000e+00
3.367954254150391336e+01 -1.377180385589599965e+01 -6.351279616355895996e-01 1.500000000000000000e+01
2.289290428161621094e+00 -9.398400783538818359e-01 -6.630944013595581055e-01 1.700000000000000000e+01
2.635220766067504883e+00 -1.082932591438293013e+00 -6.577568650245666504e-01 1.200000000000000000e+01
3.115863323211669922e+00 -1.281086325645446999e+00 -6.548564434051513672e-01 1.100000000000000000e+01
3.792271852493286133e+00 -1.560739278793334961e+00 -6.495159268379211426e-01 9.000000000000000000e+00
4.931830406188964844e+00 -2.031746864318848100e+00 -6.549258232116699219e-01 9.000000000000000000e+00
6.681136131286621094e+00 -2.753765583038330078e+00 -6.322277784347534180e-01 3.000000000000000000e+00
1.028938579559325994e+01 -4.245181560516357422e+00 -5.833365917205810547e-01 6.000000000000000000e+00
4.360433197021483664e+01 -1.799912452697753906e+01 1.089078044891357067e+01 1.300000000000000000e+01
3.369780349731445312e+01 -1.391676235198974965e+01 -6.363845467567443848e-01 1.500000000000000000e+01
2.286161184310913086e+00 -9.474264383316040039e-01 -6.630944013595581055e-01 1.800000000000000000e+01
2.637015342712401900e+00 -1.093905448913573997e+00 -6.591066122055053711e-01 1.800000000000000000e+01
3.104344844818114790e+00 -1.288401603698730025e+00 -6.533300280570983887e-01 1.100000000000000000e+01
3.787075519561768022e+00 -1.573306322097778098e+00 -6.495159268379211426e-01 9.000000000000000000e+00
4.936063289642333984e+00 -2.052663564682006836e+00 -6.563882827758789062e-01 9.000000000000000000e+00
6.677485942840576172e+00 -2.778201818466186968e+00 -6.327506899833679199e-01 3.000000000000000000e+00
1.012590789794922053e+01 -4.217082500457763672e+00 -5.748581290245056152e-01 9.000000000000000000e+00
4.353361129760742188e+01 -1.813912582397460938e+01 1.088808059692382990e+01 1.300000000000000000e+01
3.371053314208983664e+01 -1.405305385589599965e+01 -6.375014781951904297e-01 2.300000000000000000e+01
2.282840013504027876e+00 -9.554008841514587402e-01 -6.630944013595581055e-01 1.800000000000000000e+01
2.638572931289672852e+00 -1.105362653732300027e+00 -6.604562997817993164e-01 1.700000000000000000e+01
3.099828720092772993e+00 -1.299229860305785911e+00 -6.533300280570983887e-01 1.100000000000000000e+01
3.785203695297241211e+00 -1.588044524192810059e+00 -6.501416563987731934e-01 9.000000000000000000e+00
4.936189174652099609e+00 -2.072955608367919922e+00 -6.573632359504699707e-01 9.000000000000000000e+00
6.682442665100097656e+00 -2.807667970657349077e+00 -6.341452002525329590e-01 4.000000000000000000e+00
1.016819858551025035e+01 -4.276405811309813565e+00 -5.781029462814331055e-01 6.000000000000000000e+00
3.371287918090820312e+01 -1.419236469268799006e+01 -6.384788155555725098e-01 2.300000000000000000e+01
2.273985147476195845e+00 -9.615044593811035156e-01 -6.615414619445800781e-01 1.900000000000000000e+01
2.639887571334838867e+00 -1.117304682731627974e+00 -6.618059873580932617e-01 1.500000000000000000e+01
3.102277278900146040e+00 -1.313644766807555930e+00 -6.548564434051513672e-01 1.200000000000000000e+01
3.788451433181763139e+00 -1.605761766433716042e+00 -6.517059803009033203e-01 1.000000000000000000e+01
4.935868263244628906e+00 -2.094135046005249023e+00 -6.583381891250610352e-01 9.000000000000000000e+00
6.657434940338134766e+00 -2.825913429260253906e+00 -6.327506899833679199e-01 2.000000000000000000e+00
1.024436759948729936e+01 -4.352696895599365234e+00 -5.833365917205810547e-01 9.000000000000000000e+00
4.431017303466796875e+01 -1.883593940734862926e+01 1.111573123931884943e+01 1.400000000000000000e+01
3.369007873535156250e+01 -1.432835578918457031e+01 -6.390373110771179199e-01 1.500000000000000000e+01
2.279498338699340820e+00 -9.732290506362915039e-01 -6.641296744346618652e-01 1.900000000000000000e+01
2.630595684051514116e+00 -1.124215364456176980e+00 -6.604562997817993164e-01 1.400000000000000000e+01
3.101283311843872070e+00 -1.326009392738342063e+00 -6.556196808815002441e-01 1.100000000000000000e+01
3.768294811248778853e+00 -1.612758278846740945e+00 -6.492030024528503418e-01 1.000000000000000000e+01
4.937651634216308594e+00 -2.115260124206542969e+00 -6.595568656921386719e-01 8.000000000000000000e+00
6.665843009948729581e+00 -2.856983900070189986e+00 -6.344938278198242188e-01 3.000000000000000000e+00
1.013550186157226918e+01 -4.348270416259765625e+00 -5.779982805252075195e-01 9.000000000000000000e+00
3.372805404663085938e+01 -1.448374271392822088e+01 -6.407127380371093750e-01 2.300000000000000000e+01
2.274313211441040039e+00 -9.804152846336364746e-01 -6.636120080947875977e-01 1.900000000000000000e+01
2.623076677322388139e+00 -1.131846904754638894e+00 -6.595565080642700195e-01 1.400000000000000000e+01
3.098438262939453125e+00 -1.337604880332946999e+00 -6.560013294219970703e-01 1.000000000000000000e+01
3.773522377014160156e+00 -1.630603671073914018e+00 -6.510802507400512695e-01 1.000000000000000000e+01
4.902908325195313388e+00 -2.120661973953247070e+00 -6.559008359909057617e-01 9.000000000000000000e+00
6.688743114471436435e+00 -2.894477605819702148e+00 -6.376314163208007812e-01 3.000000000000000000e+00
9.396338462829589844e+00 -4.070053577423095703e+00 -5.366529226303100586e-01 2.000000000000000000e+00
3.373966979980468750e+01 -1.462843322753906072e+01 -6.418995261192321777e-01 2.300000000000000000e+01
2.277962446212768999e+00 -9.914319515228271484e-01 -6.656825542449951172e-01 1.900000000000000000e+01
2.619109869003295898e+00 -1.140996217727660911e+00 -6.595565080642700195e-01 1.400000000000000000e+01
3.091950416564940962e+00 -1.347627878189086914e+00 -6.556196808815002441e-01 1.100000000000000000e+01
3.767807483673096147e+00 -1.643765687942505105e+00 -6.510802507400512695e-01 1.000000000000000000e+01
4.693544387817382812e+00 -2.049583673477172852e+00 -6.288458108901977539e-01 7.000000000000000000e+00
6.678598403930664062e+00 -2.917808055877685991e+00 -6.376314163208007812e-01 3.000000000000000000e+00
9.396714210510253906e+00 -4.109230041503906250e+00 -5.374902486801147461e-01 2.000000000000000000e+00
3.375434875488281250e+01 -1.477498435974120916e+01 -6.431561112403869629e-01 1.500000000000000000e+01
2.270950555801392046e+00 -9.978232383728027344e-01 -6.646472811698913574e-01 1.900000000000000000e+01
2.618678808212279829e+00 -1.151700735092163086e+00 -6.604562997817993164e-01 1.400000000000000000e+01
3.080039501190185991e+00 -1.355249881744384988e+00 -6.540932655334472656e-01 9.000000000000000000e+00
3.771085739135742188e+00 -1.660888910293579102e+00 -6.526445746421813965e-01 1.100000000000000000e+01
4.811694622039794922e+00 -2.121206998825072798e+00 -6.456637978553771973e-01 9.000000000000000000e+00
6.688425540924072266e+00 -2.949947118759154829e+00 -6.395488381385803223e-01 3.000000000000000000e+00
9.367695808410644531e+00 -4.135552883148193359e+00 -5.366529226303100586e-01 2.000000000000000000e+00
3.378305053710938211e+01 -1.492828178405762074e+01 -6.446918845176696777e-01 8.000000000000000000e+00
2.260390043258666992e+00 -1.002611041069030984e+00 -6.625767350196838379e-01 1.900000000000000000e+01
2.614642620086669922e+00 -1.160834670066833052e+00 -6.604562997817993164e-01 1.400000000000000000e+01
3.080672740936278853e+00 -1.368383884429932085e+00 -6.552380919456481934e-01 1.000000000000000000e+01
3.763460159301757812e+00 -1.673239827156066895e+00 -6.523317098617553711e-01 1.000000000000000000e+01
4.784310817718505859e+00 -2.129112005233765093e+00 -6.429826617240905762e-01 8.000000000000000000e+00
4.242605972290039062e+01 -1.888929939270019887e+01 7.355548381805419922e+00 1.500000000000000000e+01
6.665346622467041016e+00 -2.967603445053101030e+00 -6.383286714553833008e-01 3.000000000000000000e+00
9.422526359558105469e+00 -4.199120521545410156e+00 -5.406304001808166504e-01 2.000000000000000000e+00
3.385491943359375000e+01 -1.510151004791259943e+01 -6.470654010772705078e-01 8.000000000000000000e+00
2.264106035232543945e+00 -1.013257861137389915e+00 -6.646472811698913574e-01 1.900000000000000000e+01
2.621449708938599077e+00 -1.174278736114501953e+00 -6.631557345390319824e-01 1.400000000000000000e+01
3.076117992401123047e+00 -1.378592133522033913e+00 -6.552380919456481934e-01 1.000000000000000000e+01
3.757890701293944868e+00 -1.685710668563842995e+00 -6.523317098617553711e-01 1.000000000000000000e+01
4.637783050537109375e+00 -2.082356691360474077e+00 -6.242147684097290039e-01 9.000000000000000000e+00
6.684547901153563565e+00 -3.002752780914307085e+00 -6.411176323890686035e-01 4.000000000000000000e+00
9.361187934875488281e+00 -4.209048748016357422e+00 -5.379089713096618652e-01 5.000000000000000000e+00
3.385571289062500000e+01 -1.523667240142822088e+01 -6.480427384376525879e-01 8.000000000000000000e+00
2.262315988540648970e+00 -1.021950244903564009e+00 -6.651649475097656250e-01 1.700000000000000000e+01
2.599577903747559038e+00 -1.175393462181091087e+00 -6.586567163467407227e-01 1.400000000000000000e+01
3.080230951309204102e+00 -1.393367171287537065e+00 -6.571461558341979980e-01 1.000000000000000000e+01
3.746585130691527876e+00 -1.696373581886291948e+00 -6.513931155204772949e-01 9.000000000000000000e+00
4.804061412811279297e+00 -2.177197217941284180e+00 -6.476137042045593262e-01 9.000000000000000000e+00
6.663137912750244141e+00 -3.021131277084351030e+00 -6.400717496871948242e-01 3.000000000000000000e+00
9.410094261169433594e+00 -4.270588397979736328e+00 -5.415724515914916992e-01 7.000000000000000000e+00
3.376590728759766336e+01 -1.533821773529052912e+01 -6.473446488380432129e-01 8.000000000000000000e+00
2.260492563247681108e+00 -1.030642390251159890e+00 -6.656825542449951172e-01 1.900000000000000000e+01
2.604323387145996094e+00 -1.188505768775939941e+00 -6.609061956405639648e-01 1.500000000000000000e+01
3.069990634918212891e+00 -1.401664614677428977e+00 -6.560013294219970703e-01 1.000000000000000000e+01
3.744234085083007812e+00 -1.711083292961121050e+00 -6.520188450813293457e-01 9.000000000000000000e+00
4.623132228851318359e+00 -2.114683628082274947e+00 -6.242147684097290039e-01 7.000000000000000000e+00
6.694221019744873047e+00 -3.063440322875977007e+00 -6.440809369087219238e-01 3.000000000000000000e+00
9.524054527282714844e+00 -4.362463474273681641e+00 -5.490041971206665039e-01 7.000000000000000000e+00
3.359946060180664062e+01 -1.540431880950927912e+01 -6.451805830001831055e-01 8.000000000000000000e+00
2.255126237869263139e+00 -1.037719130516052024e+00 -6.651649475097656250e-01 1.700000000000000000e+01
2.603698968887329102e+00 -1.199219822883605957e+00 -6.618059873580932617e-01 1.300000000000000000e+01
3.059730052947998047e+00 -1.409907460212707964e+00 -6.548564434051513672e-01 1.100000000000000000e+01
3.745413541793822798e+00 -1.727452039718627930e+00 -6.532703042030334473e-01 9.000000000000000000e+00
4.256504058837891336e+01 -1.964077186584473012e+01 5.755888938903808594e+00 4.300000000000000000e+01
4.815779209136962891e+00 -2.223162889480590820e+00 -6.512697935104370117e-01 8.000000000000000000e+00
6.683486461639404297e+00 -3.086788892745972124e+00 -6.440809369087219238e-01 3.000000000000000000e+00
9.398180007934570312e+00 -4.344559669494628906e+00 -5.426191687583923340e-01 1.000000000000000000e+01
3.338577651977539062e+01 -1.544761371612549006e+01 -6.421089172363281250e-01 7.000000000000000000e+00
2.249738216400146040e+00 -1.044770956039428933e+00 -6.646472811698913574e-01 1.900000000000000000e+01
2.608332872390747070e+00 -1.212408185005187988e+00 -6.640555262565612793e-01 1.300000000000000000e+01
3.067251205444335938e+00 -1.426374197006226030e+00 -6.575278043746948242e-01 1.000000000000000000e+01
3.739360809326171875e+00 -1.740515470504760964e+00 -6.532703042030334473e-01 9.000000000000000000e+00
4.267617797851563211e+01 -1.987303161621094105e+01 5.780262947082520419e+00 4.400000000000000000e+01
4.906956672668457031e+00 -2.286066532135010210e+00 -6.646754145622253418e-01 9.000000000000000000e+00
6.678088665008544922e+00 -3.112624883651732954e+00 -6.446038484573364258e-01 3.000000000000000000e+00
9.511466026306152344e+00 -4.437290668487548828e+00 -5.500509142875671387e-01 5.000000000000000000e+00
3.332440567016602273e+01 -1.556067276000976918e+01 -6.419693231582641602e-01 7.000000000000000000e+00
2.258322477340697798e+00 -1.058356165885925071e+00 -6.682707667350769043e-01 1.700000000000000000e+01
2.604084968566894975e+00 -1.221505641937256081e+00 -6.640555262565612793e-01 1.300000000000000000e+01
3.072917222976685014e+00 -1.442076563835144043e+00 -6.598175168037414551e-01 1.000000000000000000e+01
3.736838579177856001e+00 -1.755237340927124023e+00 -6.538960933685302734e-01 9.000000000000000000e+00
4.911521911621093750e+00 -2.309092998504639116e+00 -6.663815975189208984e-01 9.000000000000000000e+00
6.674394607543945312e+00 -3.139308929443358931e+00 -6.453011035919189453e-01 3.000000000000000000e+00
3.327350234985352273e+01 -1.567860698699950994e+01 -6.420391201972961426e-01 7.000000000000000000e+00
2.249375104904174805e+00 -1.063755154609679954e+00 -6.667178869247436523e-01 1.900000000000000000e+01
2.587475538253784180e+00 -1.224751949310302956e+00 -6.609061956405639648e-01 1.300000000000000000e+01
3.066090345382689986e+00 -1.451954007148742898e+00 -6.594358682632446289e-01 9.000000000000000000e+00
3.730688810348511186e+00 -1.768270611763000044e+00 -6.538960933685302734e-01 9.000000000000000000e+00
4.253639984130858664e+01 -2.017048072814941051e+01 5.780262947082520419e+00 4.400000000000000000e+01
4.844246387481688565e+00 -2.298145294189453125e+00 -6.583381891250610352e-01 9.000000000000000000e+00
6.657995700836181641e+00 -3.160024881362915039e+00 -6.447781920433044434e-01 3.000000000000000000e+00
1.010084819793700994e+01 -4.798396110534667969e+00 -5.860580205917358398e-01 6.000000000000000000e+00
2.249135255813599077e+00 -1.073264360427856001e+00 -6.677531599998474121e-01 1.600000000000000000e+01
2.595493793487548828e+00 -1.239655613899230957e+00 -6.640555262565612793e-01 1.400000000000000000e+01
3.053917646408081055e+00 -1.459262013435363992e+00 -6.579093933105468750e-01 9.000000000000000000e+00
3.728057861328125000e+00 -1.782986879348755105e+00 -6.545218229293823242e-01 9.000000000000000000e+00
4.782479286193847656e+00 -2.289327859878540039e+00 -6.510260105133056641e-01 9.000000000000000000e+00
6.684660434722900391e+00 -3.201318264007567915e+00 -6.484387516975402832e-01 3.000000000000000000e+00
1.006602668762207031e+01 -4.824992179870604581e+00 -5.850113034248352051e-01 3.000000000000000000e+00
3.297573089599608664e+01 -1.582055759429931996e+01 -6.384090185165405273e-01 7.000000000000000000e+00
2.243634462356566939e+00 -1.080270767211914062e+00 -6.672354936599731445e-01 1.800000000000000000e+01
2.594661951065063032e+00 -1.250400066375731978e+00 -6.649553179740905762e-01 1.400000000000000000e+01
3.045268535614014116e+00 -1.468208074569701926e+00 -6.571461558341979980e-01 9.000000000000000000e+00
3.734264850616455078e+00 -1.801998972892761008e+00 -6.567118763923645020e-01 9.000000000000000000e+00
4.879922389984130859e+00 -2.356945514678955078e+00 -6.654066443443298340e-01 9.000000000000000000e+00
6.677032947540283203e+00 -3.226366281509398970e+00 -6.487873196601867676e-01 2.000000000000000000e+00
9.459373474121093750e+00 -4.574876785278320312e+00 -5.506789088249206543e-01 2.000000000000000000e+00
2.225948810577393022e+00 -1.081342816352844016e+00 -6.630944013595581055e-01 1.800000000000000000e+01
2.593786478042602983e+00 -1.261153817176819070e+00 -6.658551096916198730e-01 1.400000000000000000e+01
3.052483081817626953e+00 -1.484840512275696023e+00 -6.598175168037414551e-01 1.000000000000000000e+01
3.726175785064696822e+00 -1.814158320426940918e+00 -6.563990116119384766e-01 9.000000000000000000e+00
4.873449802398681641e+00 -2.374834775924683061e+00 -6.656503677368164062e-01 9.000000000000000000e+00
6.662148475646972656e+00 -3.247907638549805132e+00 -6.484387516975402832e-01 3.000000000000000000e+00
9.448731422424316406e+00 -4.610495567321777344e+00 -5.509929656982421875e-01 1.600000000000000000e+01
2.229290008544921875e+00 -1.092117905616760032e+00 -6.651649475097656250e-01 1.800000000000000000e+01
2.584340810775756836e+00 -1.267174363136291948e+00 -6.645054221153259277e-01 1.200000000000000000e+01
3.045779943466186968e+00 -1.494090199470520020e+00 -6.594358682632446289e-01 9.000000000000000000e+00
3.709500312805175781e+00 -1.821281194686890093e+00 -6.545218229293823242e-01 9.000000000000000000e+00
4.897616386413574219e+00 -2.406741619110106978e+00 -6.700376272201538086e-01 9.000000000000000000e+00
6.647765636444091797e+00 -3.268224239349364790e+00 -6.480901241302490234e-01 2.000000000000000000e+00
9.359915733337402344e+00 -4.605649471282958984e+00 -5.467013716697692871e-01 1.300000000000000000e+01
2.234123706817626953e+00 -1.104172706604003906e+00 -6.677531599998474121e-01 1.900000000000000000e+01
2.572915077209473100e+00 -1.272731423377990945e+00 -6.627057790756225586e-01 1.500000000000000000e+01
3.052862882614136186e+00 -1.510808348655700906e+00 -6.621072292327880859e-01 9.000000000000000000e+00
3.699579954147338867e+00 -1.832465052604675071e+00 -6.538960933685302734e-01 9.000000000000000000e+00
4.885628700256347656e+00 -2.422059535980225053e+00 -6.695501804351806641e-01 9.000000000000000000e+00
6.664875507354736328e+00 -3.305573701858520952e+00 -6.508790850639343262e-01 2.000000000000000000e+00
9.347359657287597656e+00 -4.640069961547851562e+00 -5.469107627868652344e-01 1.800000000000000000e+01
2.235247850418090820e+00 -1.114940643310547097e+00 -6.693060398101806641e-01 1.700000000000000000e+01
2.566489458084106001e+00 -1.281282663345336914e+00 -6.622558832168579102e-01 1.300000000000000000e+01
3.038523197174071822e+00 -1.517601370811461958e+00 -6.601991057395935059e-01 9.000000000000000000e+00
3.703440189361571822e+00 -1.851312041282654031e+00 -6.557732820510864258e-01 9.000000000000000000e+00
4.880269050598145419e+00 -2.441726446151732954e+00 -6.700376272201538086e-01 9.000000000000000000e+00
6.645588397979736328e+00 -3.326412200927733931e+00 -6.501818299293518066e-01 2.000000000000000000e+00
9.342790603637695312e+00 -4.680560588836669922e+00 -5.476434230804443359e-01 1.500000000000000000e+01
2.227890968322753906e+00 -1.120999693870543990e+00 -6.682707667350769043e-01 1.700000000000000000e+01
2.572444200515747070e+00 -1.295492768287658913e+00 -6.649553179740905762e-01 1.300000000000000000e+01
3.033207178115845171e+00 -1.528198480606079102e+00 -6.601991057395935059e-01 1.000000000000000000e+01
3.707538127899169922e+00 -1.869564652442931907e+00 -6.576504707336425781e-01 9.000000000000000000e+00
4.882349014282226562e+00 -2.464113235473632812e+00 -6.715000867843627930e-01 1.000000000000000000e+01
6.655279159545898438e+00 -3.360365629196166992e+00 -6.522735953330993652e-01 2.000000000000000000e+00
9.403045654296875000e+00 -4.751880168914794922e+00 -5.521443486213684082e-01 1.100000000000000000e+01
2.215351104736328125e+00 -1.124397873878479004e+00 -6.656825542449951172e-01 1.600000000000000000e+01
2.576593399047852007e+00 -1.308877229690551980e+00 -6.672048568725585938e-01 1.200000000000000000e+01
3.033105134963988814e+00 -1.541445493698119895e+00 -6.613439917564392090e-01 1.100000000000000000e+01
3.700989723205565962e+00 -1.882495045661926047e+00 -6.576504707336425781e-01 9.000000000000000000e+00
4.871949195861816406e+00 -2.480240345001221147e+00 -6.712563633918762207e-01 1.000000000000000000e+01
6.643508434295654297e+00 -3.383576393127440962e+00 -6.522735953330993652e-01 2.000000000000000000e+00
9.395298004150390625e+00 -4.789209365844726562e+00 -5.526676774024963379e-01 1.100000000000000000e+01
2.220010757446289062e+00 -1.136525869369507058e+00 -6.682707667350769043e-01 1.700000000000000000e+01
2.568540334701538086e+00 -1.316085934638977051e+00 -6.663050055503845215e-01 1.300000000000000000e+01
3.029453039169311968e+00 -1.552919149398803933e+00 -6.617255806922912598e-01 1.000000000000000000e+01
3.690880775451660156e+00 -1.893598914146422896e+00 -6.570247411727905273e-01 9.000000000000000000e+00
4.872091293334960938e+00 -2.501765251159667969e+00 -6.724750399589538574e-01 1.000000000000000000e+01
6.635201454162597656e+00 -3.408566713333129883e+00 -6.526222229003906250e-01 2.000000000000000000e+00
9.533056259155273438e+00 -4.901428699493408203e+00 -5.617741346359252930e-01 5.000000000000000000e+00
2.210880279541016069e+00 -1.141609191894531028e+00 -6.667178869247436523e-01 1.500000000000000000e+01
2.555274486541748047e+00 -1.320570349693297896e+00 -6.640555262565612793e-01 1.300000000000000000e+01
3.030989646911621094e+00 -1.567091107368469016e+00 -6.632520556449890137e-01 1.100000000000000000e+01
3.687757253646851030e+00 -1.908286690711975098e+00 -6.576504707336425781e-01 9.000000000000000000e+00
4.803396224975585938e+00 -2.487717390060424805e+00 -6.641879081726074219e-01 9.000000000000000000e+00
6.640953540802001953e+00 -3.440872907638549805e+00 -6.543653011322021484e-01 2.000000000000000000e+00
9.546030998229980469e+00 -4.950306415557861328e+00 -5.635535717010498047e-01 1.700000000000000000e+01
2.218875885009766069e+00 -1.155565857887268066e+00 -6.703413128852844238e-01 1.600000000000000000e+01
2.564474105834960938e+00 -1.336687803268433061e+00 -6.676547527313232422e-01 1.400000000000000000e+01
3.018537759780883789e+00 -1.574030756950377974e+00 -6.617255806922912598e-01 1.000000000000000000e+01
3.677571296691894975e+00 -1.919319868087768999e+00 -6.570247411727905273e-01 9.000000000000000000e+00
4.789404869079589844e+00 -2.501712083816527876e+00 -6.634566783905029297e-01 8.000000000000000000e+00
6.623604774475097656e+00 -3.461265087127685991e+00 -6.538423895835876465e-01 3.000000000000000000e+00
9.569398880004882812e+00 -5.004887580871582031e+00 -5.659610033035278320e-01 5.000000000000000000e+00
2.204768896102904829e+00 -1.157529592514038086e+00 -6.672354936599731445e-01 1.600000000000000000e+01
2.556577205657958984e+00 -1.343371629714966042e+00 -6.667549014091491699e-01 1.300000000000000000e+01
3.015039205551147017e+00 -1.584945440292357954e+00 -6.621072292327880859e-01 1.000000000000000000e+01
3.692164421081542969e+00 -1.942541718482970969e+00 -6.607791781425476074e-01 1.000000000000000000e+01
4.823237419128417969e+00 -2.539777994155883789e+00 -6.693064570426940918e-01 8.000000000000000000e+00
6.657921791076660156e+00 -3.507354497909545898e+00 -6.583744883537292480e-01 3.000000000000000000e+00
9.429077148437500000e+00 -4.971388339996337891e+00 -5.586339831352233887e-01 1.300000000000000000e+01
2.200715065002440962e+00 -1.165218591690063032e+00 -6.672354936599731445e-01 1.600000000000000000e+01
2.560481786727904829e+00 -1.356849908828734907e+00 -6.690044403076171875e-01 1.300000000000000000e+01
3.019896030426024947e+00 -1.600977659225464089e+00 -6.643969416618347168e-01 1.000000000000000000e+01
3.671401500701903853e+00 -1.948011040687561035e+00 -6.582762002944946289e-01 9.000000000000000000e+00
4.786291122436523438e+00 -2.541702508926392046e+00 -6.654066443443298340e-01 8.000000000000000000e+00
6.610448360443115234e+00 -3.511878490447998047e+00 -6.548882722854614258e-01 3.000000000000000000e+00
9.395794868469238281e+00 -4.995832920074462891e+00 -5.576919317245483398e-01 1.600000000000000000e+01
2.198133468627930132e+00 -1.174187064170836958e+00 -6.677531599998474121e-01 1.600000000000000000e+01
2.548617362976074219e+00 -1.362550258636475053e+00 -6.672048568725585938e-01 1.500000000000000000e+01
3.010545253753662109e+00 -1.610183477401732954e+00 -6.636337041854858398e-01 1.000000000000000000e+01
3.679911136627196822e+00 -1.969844579696655051e+00 -6.610920429229736328e-01 1.100000000000000000e+01
4.843435287475585938e+00 -2.594851016998291016e+00 -6.746686697006225586e-01 8.000000000000000000e+00
6.637921810150145596e+00 -3.557730913162231001e+00 -6.588973999023437500e-01 3.000000000000000000e+00
9.245419502258300781e+00 -4.959428310394287109e+00 -5.498415827751159668e-01 1.300000000000000000e+01
6.508249664306640625e+01 -3.494081497192382812e+01 -1.289383769035338911e+00 3.800000000000000000e+01
2.205926895141602007e+00 -1.188265919685363992e+00 -6.713765859603881836e-01 1.700000000000000000e+01
2.538699626922606978e+00 -1.368664026260375977e+00 -6.658551096916198730e-01 1.400000000000000000e+01
3.015274047851562944e+00 -1.626274228096008079e+00 -6.659234166145324707e-01 1.100000000000000000e+01
3.669536113739014116e+00 -1.980801224708556907e+00 -6.604663133621215820e-01 1.000000000000000000e+01
4.818629741668701172e+00 -2.603250026702880859e+00 -6.724750399589538574e-01 1.000000000000000000e+01
6.639484405517578125e+00 -3.588458538055419922e+00 -6.602919101715087891e-01 3.000000000000000000e+00
9.400210380554199219e+00 -5.084794998168945312e+00 -5.600994229316711426e-01 5.000000000000000000e+00
2.208555936813354048e+00 -1.199647188186645952e+00 -6.734471321105957031e-01 1.500000000000000000e+01
2.533906698226929155e+00 -1.377517461776732954e+00 -6.658551096916198730e-01 1.400000000000000000e+01
3.000955581665039062e+00 -1.632099628448486106e+00 -6.640152931213378906e-01 9.000000000000000000e+00
3.664334297180175781e+00 -1.994542598724365012e+00 -6.607791781425476074e-01 1.000000000000000000e+01
4.781621932983398438e+00 -2.604860067367554155e+00 -6.685752272605895996e-01 6.000000000000000000e+00
6.644412517547607422e+00 -3.621147155761719194e+00 -6.620350480079650879e-01 2.000000000000000000e+00
9.147449493408203125e+00 -4.989422321319580078e+00 -5.460733771324157715e-01 1.300000000000000000e+01
2.190800189971923828e+00 -1.199925065040587935e+00 -6.693060398101806641e-01 1.700000000000000000e+01
2.541044712066649947e+00 -1.392911076545715110e+00 -6.690044403076171875e-01 1.200000000000000000e+01
2.993518829345703125e+00 -1.641620993614196999e+00 -6.636337041854858398e-01 1.000000000000000000e+01
3.657349824905395952e+00 -2.007321357727050781e+00 -6.607791781425476074e-01 1.000000000000000000e+01
4.807297706604003906e+00 -2.640649557113647017e+00 -6.734499931335449219e-01 1.000000000000000000e+01
6.636970520019531250e+00 -3.647197008132935014e+00 -6.625579595565795898e-01 3.000000000000000000e+00
9.087975502014160156e+00 -4.998222827911376953e+00 -5.435612201690673828e-01 7.000000000000000000e+00
2.188289403915404829e+00 -1.208498954772948997e+00 -6.698237061500549316e-01 1.600000000000000000e+01
2.537872552871704102e+00 -1.402715206146240012e+00 -6.694543361663818359e-01 1.200000000000000000e+01
2.984333992004394975e+00 -1.650160312652587891e+00 -6.628704667091369629e-01 1.100000000000000000e+01
3.653777360916138139e+00 -2.021988630294799805e+00 -6.614049077033996582e-01 1.000000000000000000e+01
4.770266056060791016e+00 -2.642025470733643022e+00 -6.695501804351806641e-01 9.000000000000000000e+00
6.625941753387451172e+00 -3.671307802200316939e+00 -6.627322435379028320e-01 3.000000000000000000e+00
9.054753303527832031e+00 -5.021197795867919922e+00 -5.426191687583923340e-01 7.000000000000000000e+00
2.182369709014893022e+00 -1.215190410614013894e+00 -6.693060398101806641e-01 1.700000000000000000e+01
2.539769649505614790e+00 -1.415359973907470925e+00 -6.712539196014404297e-01 1.400000000000000000e+01
2.993988752365111861e+00 -1.669171452522278054e+00 -6.663050055503845215e-01 1.100000000000000000e+01
3.650147199630736861e+00 -2.036655426025391069e+00 -6.620306372642517090e-01 1.000000000000000000e+01
4.627560615539550781e+00 -2.584136962890625000e+00 -6.507822871208190918e-01 1.300000000000000000e+01
6.646133899688720703e+00 -3.712876558303833008e+00 -6.660441756248474121e-01 3.000000000000000000e+00
9.460788726806640625e+00 -5.289623260498046875e+00 -5.680544972419738770e-01 5.000000000000000000e+00
2.181483745574951172e+00 -1.224692225456238015e+00 -6.703413128852844238e-01 1.600000000000000000e+01
2.519523382186890093e+00 -1.415625691413878950e+00 -6.672048568725585938e-01 1.300000000000000000e+01
2.994989633560181108e+00 -1.683460235595702903e+00 -6.678314805030822754e-01 1.100000000000000000e+01
3.643015623092650923e+00 -2.049384355545043945e+00 -6.620306372642517090e-01 1.000000000000000000e+01
4.807058334350585938e+00 -2.706427812576293945e+00 -6.773498058319091797e-01 1.000000000000000000e+01
6.617509365081787109e+00 -3.727253437042235884e+00 -6.644753813743591309e-01 3.000000000000000000e+00
9.410948753356933594e+00 -5.304961204528808594e+00 -5.661703944206237793e-01 5.000000000000000000e+00
2.187282800674438032e+00 -1.238009095191956010e+00 -6.734471321105957031e-01 1.600000000000000000e+01
2.516262054443358931e+00 -1.425372362136841042e+00 -6.676547527313232422e-01 1.300000000000000000e+01
2.980554819107056108e+00 -1.689064741134643999e+00 -6.659234166145324707e-01 1.000000000000000000e+01
3.635839700698852983e+00 -2.062088251113892046e+00 -6.620306372642517090e-01 1.000000000000000000e+01
4.764780998229979581e+00 -2.704572677612305132e+00 -6.727187633514404297e-01 8.000000000000000000e+00
6.611388683319091797e+00 -3.754265308380126953e+00 -6.651726365089416504e-01 3.000000000000000000e+00
9.399319648742675781e+00 -5.341726779937744141e+00 -5.665890574455261230e-01 5.000000000000000000e+00
2.178131341934204102e+00 -1.242384195327759011e+00 -6.718942523002624512e-01 1.600000000000000000e+01
2.523368358612060991e+00 -1.440471529960632102e+00 -6.708040237426757812e-01 1.500000000000000000e+01
2.974937200546265093e+00 -1.698939323425292969e+00 -6.659234166145324707e-01 1.000000000000000000e+01
3.635841846466064009e+00 -2.078054666519165039e+00 -6.632821559906005859e-01 1.000000000000000000e+01
4.676522731781005859e+00 -2.675019025802611861e+00 -6.615067720413208008e-01 8.000000000000000000e+00
6.598902702331542969e+00 -3.776168823242187944e+00 -6.651726365089416504e-01 2.000000000000000000e+00
9.405817985534667969e+00 -5.386763095855712891e+00 -5.680544972419738770e-01 5.000000000000000000e+00
2.160383462905883789e+00 -1.242275595664978027e+00 -6.677531599998474121e-01 1.600000000000000000e+01
2.514946699142456055e+00 -1.447326898574829102e+00 -6.699042320251464844e-01 1.200000000000000000e+01
2.979197263717650923e+00 -1.715190649032592995e+00 -6.682131290435791016e-01 1.000000000000000000e+01
3.638835430145264116e+00 -2.096650838851929155e+00 -6.651593446731567383e-01 1.100000000000000000e+01
4.737662792205811435e+00 -2.731984376907349077e+00 -6.715000867843627930e-01 8.000000000000000000e+00
6.592584609985351562e+00 -3.803162813186645952e+00 -6.658698916435241699e-01 3.000000000000000000e+00
9.463063240051269531e+00 -5.463502407073974609e+00 -5.726600289344787598e-01 3.000000000000000000e+00
2.162719488143920898e+00 -1.253684639930725098e+00 -6.698237061500549316e-01 1.600000000000000000e+01
2.516621828079224077e+00 -1.460008502006530984e+00 -6.717038750648498535e-01 1.300000000000000000e+01
2.974889993667602983e+00 -1.726565122604369895e+00 -6.685947179794311523e-01 1.000000000000000000e+01
3.617829322814940962e+00 -2.101402521133422852e+00 -6.626563668251037598e-01 1.000000000000000000e+01
4.664598464965820312e+00 -2.711592435836791992e+00 -6.624817252159118652e-01 8.000000000000000000e+00
6.606825828552246094e+00 -3.842177629470825195e+00 -6.686588525772094727e-01 2.000000000000000000e+00
9.395601272583007812e+00 -5.468370437622070312e+00 -5.697292089462280273e-01 5.000000000000000000e+00
2.163333892822266069e+00 -1.264150261878967063e+00 -6.713765859603881836e-01 1.600000000000000000e+01
2.503099203109741211e+00 -1.463865399360656960e+00 -6.694543361663818359e-01 1.200000000000000000e+01
2.963761329650878906e+00 -1.733964681625365989e+00 -6.674498915672302246e-01 1.000000000000000000e+01
3.624109506607056108e+00 -2.122003316879272017e+00 -6.651593446731567383e-01 1.000000000000000000e+01
4.542067050933837891e+00 -2.661619186401367188e+00 -6.463949680328369141e-01 1.400000000000000000e+01
6.589936256408691406e+00 -3.863201141357421875e+00 -6.683102250099182129e-01 2.000000000000000000e+00
9.390237808227539062e+00 -5.509219646453857422e+00 -5.705665946006774902e-01 3.000000000000000000e+00
2.162237167358397993e+00 -1.273654937744141069e+00 -6.724118590354919434e-01 1.700000000000000000e+01
2.503010272979735884e+00 -1.475562810897826926e+00 -6.708040237426757812e-01 1.300000000000000000e+01
2.961072683334351030e+00 -1.746294140815735085e+00 -6.682131290435791016e-01 1.000000000000000000e+01
3.613277912139893022e+00 -2.132632732391356978e+00 -6.645336151123046875e-01 1.000000000000000000e+01
4.561804771423339844e+00 -2.694620847702025923e+00 -6.505385637283325195e-01 1.300000000000000000e+01
6.610716819763183594e+00 -3.906453132629394975e+00 -6.717964410781860352e-01 2.000000000000000000e+00
2.157778024673461914e+00 -1.281194806098937988e+00 -6.724118590354919434e-01 1.500000000000000000e+01
2.507895946502685991e+00 -1.490263938903809038e+00 -6.735034584999084473e-01 1.200000000000000000e+01
2.949896335601807085e+00 -1.753610014915466087e+00 -6.670682430267333984e-01 1.000000000000000000e+01
3.626183271408081055e+00 -2.157352447509766069e+00 -6.682880520820617676e-01 1.000000000000000000e+01
4.542137145996093750e+00 -2.704434633255004883e+00 -6.490761041641235352e-01 1.700000000000000000e+01
6.590193748474121094e+00 -3.925426721572875977e+00 -6.710992455482482910e-01 2.000000000000000000e+00
2.148319721221923828e+00 -1.285742878913878950e+00 -6.708589792251586914e-01 1.600000000000000000e+01
2.494319677352904829e+00 -1.494002342224121094e+00 -6.712539196014404297e-01 1.200000000000000000e+01
2.948809385299683061e+00 -1.766923666000365989e+00 -6.682131290435791016e-01 1.000000000000000000e+01
3.608465909957886186e+00 -2.163901567459106001e+00 -6.664108037948608398e-01 1.000000000000000000e+01
4.536073207855224609e+00 -2.722316265106201172e+00 -6.495636105537414551e-01 1.400000000000000000e+01
6.596949100494384766e+00 -3.960713386535644975e+00 -6.731909513473510742e-01 2.000000000000000000e+00
2.152089357376099077e+00 -1.298223376274109109e+00 -6.734471321105957031e-01 1.700000000000000000e+01
2.492426156997681108e+00 -1.504714369773864968e+00 -6.721537709236145020e-01 1.400000000000000000e+01
2.945984601974486861e+00 -1.779236078262329102e+00 -6.689763665199279785e-01 1.000000000000000000e+01
3.583985090255736861e+00 -2.166265964508057085e+00 -6.632821559906005859e-01 1.000000000000000000e+01
4.597880840301513672e+00 -2.781286001205443892e+00 -6.598006486892700195e-01 9.000000000000000000e+00
6.583083629608154297e+00 -3.983716964721680132e+00 -6.731909513473510742e-01 1.000000000000000000e+00
2.144243240356444868e+00 -1.303720355033874956e+00 -6.724118590354919434e-01 1.600000000000000000e+01
2.490488052368164062e+00 -1.515431404113769975e+00 -6.730535626411437988e-01 1.200000000000000000e+01
2.941432952880858931e+00 -1.790529489517211914e+00 -6.693579554557800293e-01 1.100000000000000000e+01
3.593271255493164062e+00 -2.189040422439575195e+00 -6.664108037948608398e-01 1.000000000000000000e+01
4.638991832733154297e+00 -2.828319787979125977e+00 -6.671127676963806152e-01 9.000000000000000000e+00
6.562333583831787109e+00 -4.002521991729736328e+00 -6.724936962127685547e-01 1.000000000000000000e+00
2.147915363311768022e+00 -1.316244244575500044e+00 -6.750000715255737305e-01 1.500000000000000000e+01
2.485183000564575195e+00 -1.524115562438965066e+00 -6.730535626411437988e-01 1.300000000000000000e+01
2.935164928436278853e+00 -1.800786018371582031e+00 -6.693579554557800293e-01 1.200000000000000000e+01
3.594025135040283203e+00 -2.206737995147705078e+00 -6.679751873016357422e-01 9.000000000000000000e+00
4.580042839050292969e+00 -2.814356565475463867e+00 -6.600443720817565918e-01 1.100000000000000000e+01
6.602637290954589844e+00 -4.058793067932128906e+00 -6.780716776847839355e-01 2.000000000000000000e+00
2.138376712799071822e+00 -1.320688366889954057e+00 -6.734471321105957031e-01 1.600000000000000000e+01
2.479847669601439986e+00 -1.532781243324280007e+00 -6.730535626411437988e-01 1.400000000000000000e+01
2.930531024932860884e+00 -1.812053203582763894e+00 -6.697395443916320801e-01 1.200000000000000000e+01
3.593019485473632812e+00 -2.223427772521973100e+00 -6.692266464233398438e-01 1.000000000000000000e+01
4.632634639739990234e+00 -2.868998289108275923e+00 -6.690626740455627441e-01 9.000000000000000000e+00
6.574879646301270419e+00 -4.073421478271484375e+00 -6.766771674156188965e-01 2.000000000000000000e+00
8.736805915832519531e+00 -5.417048931121826172e+00 -5.387463569641113281e-01 2.000000000000000000e+00
4.538962173461914062e+01 -2.816469764709473012e+01 -9.324122667312622070e-01 1.400000000000000000e+01
2.123913049697875977e+00 -1.322019457817078081e+00 -6.703413128852844238e-01 1.600000000000000000e+01
2.477790355682373047e+00 -1.543488860130310059e+00 -6.739533543586730957e-01 1.100000000000000000e+01
2.919189214706420898e+00 -1.819156646728516069e+00 -6.685947179794311523e-01 1.100000000000000000e+01
3.581883907318114790e+00 -2.233865737915039062e+00 -6.686009168624877930e-01 9.000000000000000000e+00
4.593963623046875000e+00 -2.867283582687377930e+00 -6.649191379547119141e-01 1.100000000000000000e+01
6.569070816040039062e+00 -4.101623058319091797e+00 -6.775487661361694336e-01 2.000000000000000000e+00
2.126296997070312944e+00 -1.332789421081542969e+00 -6.724118590354919434e-01 1.500000000000000000e+01
2.476230621337891069e+00 -1.553336620330810991e+00 -6.748531460762023926e-01 1.200000000000000000e+01
2.918448686599731001e+00 -1.831449270248413086e+00 -6.697395443916320801e-01 1.200000000000000000e+01
3.568157196044921875e+00 -2.240905046463013139e+00 -6.673493981361389160e-01 1.000000000000000000e+01
4.539554595947265625e+00 -2.853180646896361861e+00 -6.583381891250610352e-01 1.300000000000000000e+01
6.557839393615722656e+00 -4.123301029205322266e+00 -6.777230501174926758e-01 1.000000000000000000e+00
2.126531362533568892e+00 -1.343298673629760964e+00 -6.739647984504699707e-01 1.600000000000000000e+01
2.462557554244995117e+00 -1.556764245033263938e+00 -6.726036667823791504e-01 1.200000000000000000e+01
2.923652887344359907e+00 -1.848970890045166016e+00 -6.724109053611755371e-01 1.200000000000000000e+01
3.565320730209351030e+00 -2.256515979766846147e+00 -6.682880520820617676e-01 1.000000000000000000e+01
4.527890205383300781e+00 -2.867947101593018022e+00 -6.580944657325744629e-01 1.600000000000000000e+01
6.560235977172851562e+00 -4.156830787658691406e+00 -6.794661879539489746e-01 2.000000000000000000e+00
4.516297531127929688e+01 -2.866129684448241832e+01 -9.336688518524169922e-01 1.400000000000000000e+01
2.129977941513061968e+00 -1.355900526046752930e+00 -6.765530109405517578e-01 1.500000000000000000e+01
2.462038993835449219e+00 -1.568491816520690918e+00 -6.739533543586730957e-01 1.200000000000000000e+01
2.913869857788085938e+00 -1.857054829597472922e+00 -6.716476678848266602e-01 1.100000000000000000e+01
3.554091215133666992e+00 -2.266822814941405806e+00 -6.676623225212097168e-01 1.000000000000000000e+01
4.517851829528808594e+00 -2.883734941482543945e+00 -6.580944657325744629e-01 1.600000000000000000e+01
6.550724029541015625e+00 -4.182921886444091797e+00 -6.799890995025634766e-01 2.000000000000000000e+00
2.121979951858520952e+00 -1.361241102218627930e+00 -6.755176782608032227e-01 1.600000000000000000e+01
2.456548929214477983e+00 -1.577076435089111106e+00 -6.739533543586730957e-01 1.200000000000000000e+01
2.902413845062255859e+00 -1.864032030105591042e+00 -6.705027818679809570e-01 1.100000000000000000e+01
3.569421291351317915e+00 -2.294167995452880859e+00 -6.720424890518188477e-01 1.000000000000000000e+01
4.527792453765869141e+00 -2.912374019622803178e+00 -6.610193252563476562e-01 2.200000000000000000e+01
5.267737865447998047e+00 -3.389622688293457031e+00 -5.480353236198425293e-01 3.000000000000000000e+00
2.102613925933837891e+00 -1.359200954437256081e+00 -6.708589792251586914e-01 1.600000000000000000e+01
2.459209918975830078e+00 -1.590934276580810991e+00 -6.762028932571411133e-01 1.200000000000000000e+01
2.895889520645142046e+00 -1.874151945114135964e+00 -6.705027818679809570e-01 1.200000000000000000e+01
3.554759502410889116e+00 -2.302318096160889116e+00 -6.707909703254699707e-01 1.000000000000000000e+01
4.539254188537597656e+00 -2.942197561264038086e+00 -6.641879081726074219e-01 4.500000000000000000e+01
6.514675140380859375e+00 -4.224216461181640625e+00 -6.792918443679809570e-01 3.000000000000000000e+00
1.327771949768066051e+01 -8.616064071655273438e+00 -8.295249342918395996e-01 4.000000000000000000e+00
2.105950117111206055e+00 -1.371804356575011985e+00 -6.734471321105957031e-01 1.600000000000000000e+01
2.458539009094237837e+00 -1.602701425552367942e+00 -6.775525808334350586e-01 1.100000000000000000e+01
2.902485609054564986e+00 -1.892828464508057085e+00 -6.735557317733764648e-01 1.200000000000000000e+01
3.540084123611450195e+00 -2.310394048690795898e+00 -6.695395112037658691e-01 1.000000000000000000e+01
4.522308349609375000e+00 -2.953682422637939009e+00 -6.632129549980163574e-01 1.400000000000000000e+01
6.496554374694824219e+00 -4.244751453399658203e+00 -6.789432168006896973e-01 3.000000000000000000e+00
1.332780075073242010e+01 -8.714825630187988281e+00 -8.345491290092468262e-01 4.000000000000000000e+00
2.109223842620850053e+00 -1.384447455406188965e+00 -6.760353446006774902e-01 1.400000000000000000e+01
2.439899444580078125e+00 -1.602714419364928977e+00 -6.739533543586730957e-01 1.200000000000000000e+01
2.894220113754272017e+00 -1.901870369911194070e+00 -6.731741428375244141e-01 1.200000000000000000e+01
3.541900634765625000e+00 -2.329249620437622070e+00 -6.714166998863220215e-01 1.000000000000000000e+01
4.521919727325438565e+00 -2.975998163223267046e+00 -6.646754145622253418e-01 1.700000000000000000e+01
6.498339176177979404e+00 -4.278358936309813565e+00 -6.806863546371459961e-01 2.000000000000000000e+00
2.105989694595336914e+00 -1.392867326736449973e+00 -6.765530109405517578e-01 1.500000000000000000e+01
2.437540054321289062e+00 -1.613372683525085005e+00 -6.748531460762023926e-01 1.100000000000000000e+01
2.885926723480225053e+00 -1.910877585411071999e+00 -6.727924942970275879e-01 1.200000000000000000e+01
3.540335178375244141e+00 -2.345963478088378906e+00 -6.726682186126708984e-01 1.000000000000000000e+01
4.503232002258300781e+00 -2.986279010772705078e+00 -6.634566783905029297e-01 1.700000000000000000e+01
6.508269309997558594e+00 -4.317537307739257812e+00 -6.833010315895080566e-01 3.000000000000000000e+00
2.094684600830078125e+00 -1.395924806594849077e+00 -6.744824051856994629e-01 1.900000000000000000e+01
2.435136079788208008e+00 -1.624033927917480025e+00 -6.757529377937316895e-01 1.200000000000000000e+01
2.872706413269042969e+00 -1.916581392288208008e+00 -6.712660193443298340e-01 1.200000000000000000e+01
3.532124757766724077e+00 -2.358307123184204102e+00 -6.726682186126708984e-01 1.000000000000000000e+01
4.502683639526367188e+00 -3.008597135543822798e+00 -6.649191379547119141e-01 2.600000000000000000e+01
6.453404426574707031e+00 -4.313656330108642578e+00 -6.791175603866577148e-01 3.000000000000000000e+00
1.348482131958007990e+01 -9.020485877990722656e+00 -8.502499461174011230e-01 4.000000000000000000e+00
2.088195323944091797e+00 -1.402151226997375044e+00 -6.739647984504699707e-01 2.200000000000000000e+01
2.439157247543334961e+00 -1.639045596122741921e+00 -6.784523725509643555e-01 1.100000000000000000e+01
2.877403974533081055e+00 -1.934264302253722922e+00 -6.739373803138732910e-01 1.100000000000000000e+01
