3.641533279418945312e+01 1.564526176452637074e+01 6.277402400970458984e+00 1.400000000000000000e+01
5.424037933349609375e+00 2.330350637435913086e+00 -5.164849162101745605e-01 8.000000000000000000e+00
7.794685363769531250e+00 3.345638513565063032e+00 -4.445416033267974854e-01 1.000000000000000000e+00
1.308551502227783025e+01 5.611162185668945312e+00 -2.485222667455672940e-01 2.000000000000000000e+00
3.509453964233397727e+01 1.504878902435302912e+01 1.023163414001465021e+01 8.000000000000000000e+00
2.103448867797852007e+00 8.984990119934082031e-01 -6.128835082054138184e-01 1.600000000000000000e+01
2.408931255340576172e+00 1.027993202209473100e+00 -6.046684384346008301e-01 1.600000000000000000e+01
2.795445919036864790e+00 1.192358732223510964e+00 -5.907446742057800293e-01 1.700000000000000000e+01
3.331045627593994141e+00 1.419437289237976074e+00 -5.734887719154357910e-01 1.100000000000000000e+01
4.173492908477783203e+00 1.776702761650085005e+00 -5.569428801536560059e-01 1.500000000000000000e+01
5.437639236450195312e+00 2.313743114471435991e+00 -5.170078873634338379e-01 9.000000000000000000e+00
7.795288085937500000e+00 3.313721418380736861e+00 -4.439135789871215820e-01 2.000000000000000000e+00
1.306820964813232067e+01 5.549818038940429688e+00 -2.478241771459578913e-01 2.000000000000000000e+00
3.514685440063477273e+01 1.492619514465332031e+01 1.023163414001465021e+01 8.000000000000000000e+00
2.111754179000854048e+00 8.937777280807495117e-01 -6.144363880157470703e-01 1.600000000000000000e+01
2.401557683944702148e+00 1.015445709228516069e+00 -6.019690036773681641e-01 1.400000000000000000e+01
2.812043190002440962e+00 1.188431978225708008e+00 -5.934159755706787109e-01 1.500000000000000000e+01
3.333914518356322798e+00 1.407614946365356001e+00 -5.731759071350097656e-01 1.100000000000000000e+01
4.170216560363770419e+00 1.758995771408081055e+00 -5.557242035865783691e-01 1.200000000000000000e+01
5.456297397613525391e+00 2.300342559814453125e+00 -5.180537104606628418e-01 9.000000000000000000e+00
7.813596248626708984e+00 3.290954113006591797e+00 -4.443322718143463135e-01 2.000000000000000000e+00
1.318607330322265980e+01 5.548331737518311435e+00 -2.497090250253677091e-01 2.000000000000000000e+00
3.514532089233397727e+01 1.478095054626465021e+01 1.021610546112061080e+01 8.000000000000000000e+00
2.116642713546752930e+00 8.871476054191589355e-01 -6.149540543556213379e-01 1.500000000000000000e+01
2.415872812271118164e+00 1.011572480201720969e+00 -6.046684384346008301e-01 1.400000000000000000e+01
2.799875020980834961e+00 1.171787381172179954e+00 -5.899814367294311523e-01 1.300000000000000000e+01
3.346097707748413086e+00 1.399016857147217019e+00 -5.744273662567138672e-01 1.100000000000000000e+01
4.174499034881591797e+00 1.743663191795348899e+00 -5.554804801940917969e-01 1.100000000000000000e+01
5.466132164001464844e+00 2.282050132751464844e+00 -5.182280540466308594e-01 9.000000000000000000e+00
7.843470096588134766e+00 3.271347761154174805e+00 -4.453789889812468927e-01 2.000000000000000000e+00
3.324905014038085938e+01 1.386067485809325994e+01 8.316440582275390625e+00 1.000000000000000000e+01
1.323489379882813033e+01 5.514575958251953125e+00 -2.502675056457520086e-01 2.000000000000000000e+00
3.750438690185546875e+01 1.561925029754639027e+01 1.088592910766601918e+01 1.000000000000000000e+01
2.112589359283446822e+00 8.767915964126586914e-01 -6.128835082054138184e-01 1.600000000000000000e+01
2.413988590240478960e+00 1.000894188880919966e+00 -6.033187508583068848e-01 1.500000000000000000e+01
2.794879913330078125e+00 1.158248662948607954e+00 -5.880733132362365723e-01 1.300000000000000000e+01
3.356436014175415039e+00 1.389595150947571023e+00 -5.753659605979919434e-01 1.000000000000000000e+01
3.640438461303710938e+01 1.506430339813232067e+01 4.837481498718261719e+00 2.000000000000000000e+01
4.195235252380371094e+00 1.735150456428528054e+00 -5.574303865432739258e-01 1.100000000000000000e+01
3.552969360351563211e+01 1.469509124755859020e+01 6.089680671691895419e+00 1.400000000000000000e+01
5.468541145324707031e+00 2.260672330856322798e+00 -5.177050828933715820e-01 9.000000000000000000e+00
7.869609355926513672e+00 3.250048160552978960e+00 -4.462163746356964111e-01 2.000000000000000000e+00
3.307026672363281250e+01 1.365084171295166016e+01 8.259753227233886719e+00 1.000000000000000000e+01
1.328363990783691051e+01 5.480546474456787109e+00 -2.508259713649749756e-01 2.000000000000000000e+00
3.765869522094727273e+01 1.552948379516601918e+01 1.091491699218750000e+01 1.000000000000000000e+01
2.115637063980102983e+00 8.694119453430175781e-01 -6.128835082054138184e-01 1.800000000000000000e+01
3.862812042236328125e+01 1.586618041992188033e+01 7.289171814918518066e-01 3.900000000000000000e+01
2.437297821044921875e+00 1.000602722167968972e+00 -6.082676649093627930e-01 1.700000000000000000e+01
2.809803724288939986e+00 1.152957439422606978e+00 -5.903630256652832031e-01 1.400000000000000000e+01
3.363094091415404829e+00 1.378619790077209029e+00 -5.756788253784179688e-01 1.100000000000000000e+01
3.658900070190429688e+01 1.499132537841797053e+01 4.855031013488770419e+00 2.000000000000000000e+01
4.212288856506347656e+00 1.725009560585021973e+00 -5.588927865028381348e-01 1.100000000000000000e+01
5.465335369110107422e+00 2.237041473388671875e+00 -5.166592597961425781e-01 9.000000000000000000e+00
7.869814395904541016e+00 3.218022823333739790e+00 -4.455883204936981201e-01 1.000000000000000000e+00
3.336304473876953125e+01 1.363558864593506037e+01 8.320939064025878906e+00 1.000000000000000000e+01
1.330268955230713068e+01 5.434144496917724609e+00 -2.508259713649749756e-01 2.000000000000000000e+00
3.764471054077147727e+01 1.537018680572509943e+01 1.089524650573729936e+01 1.000000000000000000e+01
2.115080356597899947e+00 8.605656027793884277e-01 -6.118482351303100586e-01 1.600000000000000000e+01
2.433554410934447798e+00 9.891536831855773926e-01 -6.064680218696594238e-01 1.600000000000000000e+01
2.826543331146239790e+00 1.148314952850342019e+00 -5.930343866348266602e-01 1.300000000000000000e+01
3.356903553009033203e+00 1.362414717674254927e+00 -5.738016366958618164e-01 1.100000000000000000e+01
4.031644058227539062e+01 1.635441780090332031e+01 5.342020988464354581e+00 3.300000000000000000e+01
4.212765693664550781e+00 1.708057761192321999e+00 -5.581616163253784180e-01 1.100000000000000000e+01
5.487883090972900391e+00 2.223936557769774947e+00 -5.180537104606628418e-01 9.000000000000000000e+00
7.892107009887695312e+00 3.195029258728026900e+00 -4.462163746356964111e-01 2.000000000000000000e+00
1.335494613647460938e+01 5.401171684265136719e+00 -2.514542639255524237e-01 2.000000000000000000e+00
3.759876251220703125e+01 1.520615482330322088e+01 1.086729431152343928e+01 9.000000000000000000e+00
2.121655225753784180e+00 8.546209931373596191e-01 -6.128835082054138184e-01 1.600000000000000000e+01
2.427953243255614790e+00 9.770155549049377441e-01 -6.042185425758361816e-01 1.500000000000000000e+01
2.828712940216064009e+00 1.137708902359009011e+00 -5.926527380943298340e-01 1.300000000000000000e+01
3.363471746444702148e+00 1.351425170898437944e+00 -5.741145014762878418e-01 1.100000000000000000e+01
4.218702316284179688e+00 1.693342089653014915e+00 -5.581616163253784180e-01 1.100000000000000000e+01
5.503009319305419922e+00 2.207734107971190962e+00 -5.187509655952453613e-01 9.000000000000000000e+00
7.903211593627929688e+00 3.167461156845093218e+00 -4.462163746356964111e-01 2.000000000000000000e+00
3.470563507080078125e+01 1.390234661102294922e+01 8.631371498107910156e+00 1.100000000000000000e+01
1.342198562622069957e+01 5.373846530914306641e+00 -2.523618042469025213e-01 2.000000000000000000e+00
3.756097793579102273e+01 1.503092384338379084e+01 1.084037685394286932e+01 9.000000000000000000e+00
2.131654739379882812e+00 8.504440784454345703e-01 -6.149540543556213379e-01 1.500000000000000000e+01
2.432990074157714844e+00 9.696802496910095215e-01 -6.046684384346008301e-01 1.400000000000000000e+01
2.839765787124633789e+00 1.131228446960448997e+00 -5.941792130470275879e-01 1.500000000000000000e+01
3.373440980911254883e+00 1.342455148696898970e+00 -5.750530958175659180e-01 1.100000000000000000e+01
4.024237442016602273e+01 1.600625038146973012e+01 5.317646980285645419e+00 3.200000000000000000e+01
4.233517646789550781e+00 1.683009743690490945e+00 -5.593802928924560547e-01 1.100000000000000000e+01
3.508645629882813211e+01 1.394841098785400035e+01 5.980176925659179688e+00 1.300000000000000000e+01
5.521409511566162109e+00 2.193887710571289062e+00 -5.197968482971191406e-01 9.000000000000000000e+00
7.921097278594970703e+00 3.144183158874512163e+00 -4.466350376605988104e-01 2.000000000000000000e+00
3.641802597045897727e+01 1.444833469390868963e+01 9.045282363891601562e+00 1.200000000000000000e+01
1.348434448242188033e+01 5.346998691558837891e+00 -2.531995177268981934e-01 2.000000000000000000e+00
3.769062042236328125e+01 1.494560527801514027e+01 1.086418819427490057e+01 9.000000000000000000e+00
2.131016969680786133e+00 8.415788412094116211e-01 -6.139187812805175781e-01 1.800000000000000000e+01
2.445423841476439986e+00 9.647574424743652344e-01 -6.069179177284240723e-01 1.600000000000000000e+01
2.832738876342772993e+00 1.116987824440001997e+00 -5.918895006179809570e-01 1.800000000000000000e+01
3.390971899032593218e+00 1.335739374160767046e+00 -5.772431492805480957e-01 1.100000000000000000e+01
4.235672473907470703e+00 1.666767954826354980e+00 -5.588927865028381348e-01 1.100000000000000000e+01
5.525325775146484375e+00 2.173142433166503906e+00 -5.194482207298278809e-01 9.000000000000000000e+00
7.943178176879882812e+00 3.120896577835083008e+00 -4.472630918025969904e-01 2.000000000000000000e+00
1.358110809326172053e+01 5.330583095550537109e+00 -2.546655237674713135e-01 2.000000000000000000e+00
3.749336624145507812e+01 1.470858955383300959e+01 1.079171848297118963e+01 9.000000000000000000e+00
2.126744508743286133e+00 8.313217759132385254e-01 -6.118482351303100586e-01 1.600000000000000000e+01
2.450591802597045898e+00 9.569243192672729492e-01 -6.073678731918334961e-01 1.400000000000000000e+01
2.843936204910277876e+00 1.109948158264159934e+00 -5.934159755706787109e-01 1.400000000000000000e+01
3.397454261779785156e+00 1.324612140655518022e+00 -5.775560736656188965e-01 1.100000000000000000e+01
4.035313415527343750e+01 1.572491741180419922e+01 5.317646980285645419e+00 3.200000000000000000e+01
4.247013568878173828e+00 1.654133915901184082e+00 -5.596240162849426270e-01 1.100000000000000000e+01
3.527501296997070312e+01 1.373896884918213068e+01 5.995820045471191406e+00 1.300000000000000000e+01
5.525451183319091797e+00 2.150951147079468218e+00 -5.187509655952453613e-01 9.000000000000000000e+00
7.961469650268554688e+00 3.096046209335327148e+00 -4.476817548274993896e-01 1.000000000000000000e+00
3.556623077392578125e+01 1.382380485534667969e+01 8.809533119201660156e+00 1.200000000000000000e+01
1.355116844177245916e+01 5.264316558837890625e+00 -2.537579834461212158e-01 2.000000000000000000e+00
3.760676193237304688e+01 1.460935974121093928e+01 1.081035423278808949e+01 9.000000000000000000e+00
2.135038375854492188e+00 8.259841203689575195e-01 -6.134011149406433105e-01 1.600000000000000000e+01
2.450281620025635210e+00 9.469593167304992676e-01 -6.064680218696594238e-01 1.300000000000000000e+01
2.853287458419799805e+00 1.102136373519897017e+00 -5.945608019828796387e-01 1.400000000000000000e+01
3.396528482437133789e+00 1.310611248016356978e+00 -5.766174197196960449e-01 1.000000000000000000e+01
4.249057292938232422e+00 1.637871026992798074e+00 -5.591365694999694824e-01 1.100000000000000000e+01
5.536643981933593750e+00 2.133083105087279829e+00 -5.190995931625366211e-01 9.000000000000000000e+00
7.957316398620604581e+00 3.062497615814208984e+00 -4.468443989753723145e-01 2.000000000000000000e+00
3.565064620971679688e+01 1.371356391906737926e+01 8.818531036376953125e+00 1.200000000000000000e+01
1.356946182250976918e+01 5.216981887817382812e+00 -2.537579834461212158e-01 2.000000000000000000e+00
3.717316818237304688e+01 1.428433132171631037e+01 1.067059135437012074e+01 9.000000000000000000e+00
2.143034458160399947e+00 8.213467001914978027e-01 -6.149540543556213379e-01 1.600000000000000000e+01
2.451424598693848100e+00 9.385600686073303223e-01 -6.060181260108947754e-01 1.200000000000000000e+01
2.853068590164185014e+00 1.091763854026793990e+00 -5.937975645065307617e-01 1.400000000000000000e+01
3.408009767532349077e+00 1.302755713462830034e+00 -5.778689384460449219e-01 1.000000000000000000e+01
3.582435226440429688e+01 1.368715476989745916e+01 4.708787918090820312e+00 2.000000000000000000e+01
4.261600017547607422e+00 1.627346754074096902e+00 -5.601115226745605469e-01 1.100000000000000000e+01
5.558209419250488281e+00 2.121362209320067915e+00 -5.204941034317016602e-01 9.000000000000000000e+00
7.966897964477539062e+00 3.037483692169189009e+00 -4.468443989753723145e-01 2.000000000000000000e+00
3.626534652709960938e+01 1.381938743591308949e+01 8.959800720214843750e+00 1.200000000000000000e+01
1.362315940856933949e+01 5.188561439514160156e+00 -2.544560730457305908e-01 2.000000000000000000e+00
3.755479049682617188e+01 1.430324077606200994e+01 1.076790714263916016e+01 9.000000000000000000e+00
2.147694826126099077e+00 8.145461678504943848e-01 -6.154716610908508301e-01 1.500000000000000000e+01
2.445574283599853960e+00 9.265452027320861816e-01 -6.037686467170715332e-01 1.400000000000000000e+01
2.862370252609252930e+00 1.083883881568908913e+00 -5.949424505233764648e-01 1.300000000000000000e+01
3.408841371536254883e+00 1.289453744888306108e+00 -5.772431492805480957e-01 1.000000000000000000e+01
4.254255771636962891e+00 1.607549309730530007e+00 -5.584053397178649902e-01 1.100000000000000000e+01
5.582355499267578125e+00 2.108283042907714844e+00 -5.220628976821899414e-01 9.000000000000000000e+00
3.717228317260742188e+01 1.403140830993651988e+01 7.723185062408447266e+00 6.300000000000000000e+01
7.984927177429199219e+00 3.012475728988647017e+00 -4.472630918025969904e-01 1.000000000000000000e+00
3.555482482910156250e+01 1.340668964385985973e+01 8.772641181945800781e+00 1.100000000000000000e+01
1.363370323181151988e+01 5.138155460357666016e+00 -2.543164789676666260e-01 2.000000000000000000e+00
3.734301376342772727e+01 1.406607818603515980e+01 1.069233226776123047e+01 9.000000000000000000e+00
2.150525093078612837e+00 8.070443868637084961e-01 -6.154716610908508301e-01 1.600000000000000000e+01
2.463391542434691939e+00 9.234753847122192383e-01 -6.073678731918334961e-01 1.300000000000000000e+01
2.860620975494385210e+00 1.071819186210632102e+00 -5.937975645065307617e-01 1.300000000000000000e+01
3.420721769332886186e+00 1.280316591262816939e+00 -5.784946680068969727e-01 1.100000000000000000e+01
4.353455734252929688e+01 1.628556632995605113e+01 5.707141399383544922e+00 4.200000000000000000e+01
4.269138336181640625e+00 1.596165418624877930e+00 -5.596240162849426270e-01 1.100000000000000000e+01
5.582215309143066406e+00 2.085994482040404829e+00 -5.213656425476074219e-01 9.000000000000000000e+00
8.002878189086914062e+00 2.987378597259521040e+00 -4.476817548274993896e-01 1.000000000000000000e+00
3.550646209716796875e+01 1.324707603454590021e+01 8.749246597290039062e+00 1.100000000000000000e+01
1.366654491424561080e+01 5.096122741699218750e+00 -2.545956969261168878e-01 2.000000000000000000e+00
2.140651702880858931e+00 7.948256134986877441e-01 -6.118482351303100586e-01 1.500000000000000000e+01
2.472081422805786133e+00 9.169039130210876465e-01 -6.087175607681274414e-01 1.600000000000000000e+01
2.868026494979857954e+00 1.063192009925842063e+00 -5.945608019828796387e-01 1.300000000000000000e+01
3.428874969482421875e+00 1.269740223884582964e+00 -5.791203975677490234e-01 1.100000000000000000e+01
4.300748825073242188e+00 1.590895414352416992e+00 -5.630363821983337402e-01 1.100000000000000000e+01
5.583856582641601562e+00 2.064423322677611861e+00 -5.208427309989929199e-01 9.000000000000000000e+00
8.035740852355957031e+00 2.967728376388549805e+00 -4.489378333091735840e-01 1.000000000000000000e+00
3.562195968627929688e+01 1.314869785308838068e+01 8.766342163085937500e+00 1.100000000000000000e+01
1.374803829193115057e+01 5.071918964385986328e+00 -2.557824552059174139e-01 2.000000000000000000e+00
2.147039890289307085e+00 7.886807322502136230e-01 -6.128835082054138184e-01 1.600000000000000000e+01
2.480755329132080078e+00 9.102830886840820312e-01 -6.100672483444213867e-01 1.700000000000000000e+01
2.884622812271118164e+00 1.057906150817871094e+00 -5.972321629524230957e-01 1.300000000000000000e+01
3.431431531906127930e+00 1.257084012031554954e+00 -5.788075327873229980e-01 1.100000000000000000e+01
4.300683498382568359e+00 1.573826670646667036e+00 -5.623051524162292480e-01 1.100000000000000000e+01
5.596642494201660156e+00 2.046972751617432085e+00 -5.213656425476074219e-01 9.000000000000000000e+00
8.042299270629882812e+00 2.938289642333983931e+00 -4.487285017967224121e-01 2.000000000000000000e+00
1.379947185516357067e+01 5.036238670349121094e+00 -2.564107477664948065e-01 2.000000000000000000e+00
3.702855682373046875e+01 1.351389789581299006e+01 1.056188774108887074e+01 9.000000000000000000e+00
2.158858299255371094e+00 7.844802737236022949e-01 -6.154716610908508301e-01 1.400000000000000000e+01
2.460104227066040039e+00 8.929742574691772461e-01 -6.042185425758361816e-01 1.600000000000000000e+01
2.888298034667969194e+00 1.047830462455749956e+00 -5.972321629524230957e-01 1.300000000000000000e+01
3.437655687332152876e+00 1.245771408081054910e+00 -5.791203975677490234e-01 1.000000000000000000e+01
4.296818256378173828e+00 1.555426478385925071e+00 -5.610864758491516113e-01 1.100000000000000000e+01
5.601880073547363281e+00 2.026746511459351030e+00 -5.211913585662841797e-01 9.000000000000000000e+00
8.044993400573730469e+00 2.907483339309691939e+00 -4.483098089694976807e-01 1.000000000000000000e+00
3.951052856445313211e+01 1.427142143249512074e+01 9.698539733886718750e+00 1.300000000000000000e+01
1.386210823059082031e+01 5.004335403442382812e+00 -2.572484612464904785e-01 2.000000000000000000e+00
3.683201599121093750e+01 1.329666137695313033e+01 1.049252414703368963e+01 9.000000000000000000e+00
2.168855428695679155e+00 7.795534729957580566e-01 -6.175422668457031250e-01 1.400000000000000000e+01
2.470542669296265093e+00 8.870154619216918945e-01 -6.060181260108947754e-01 1.300000000000000000e+01
2.882698535919189009e+00 1.034426569938659890e+00 -5.953240394592285156e-01 1.200000000000000000e+01
3.455000162124633789e+00 1.238429903984070046e+00 -5.813104510307312012e-01 9.000000000000000000e+00
4.300352573394775391e+00 1.539749145507812944e+00 -5.608426928520202637e-01 1.100000000000000000e+01
5.612672328948974609e+00 2.008522510528564009e+00 -5.215399861335754395e-01 9.000000000000000000e+00
8.055092811584472656e+00 2.879383325576781782e+00 -4.483098089694976807e-01 1.000000000000000000e+00
3.655781555175781250e+01 1.306080627441406072e+01 8.962499618530273438e+00 1.200000000000000000e+01
1.387949275970458984e+01 4.955916881561279297e+00 -2.572484612464904785e-01 2.000000000000000000e+00
3.714019012451171875e+01 1.326155948638916016e+01 1.056706428527832031e+01 9.000000000000000000e+00
2.167922973632812944e+00 7.706838250160217285e-01 -6.165069937705993652e-01 1.500000000000000000e+01
2.475460290908813032e+00 8.790383934974670410e-01 -6.064680218696594238e-01 1.300000000000000000e+01
2.880741357803345171e+00 1.022387862205504927e+00 -5.941792130470275879e-01 1.300000000000000000e+01
3.459301948547362837e+00 1.226362228393554910e+00 -5.813104510307312012e-01 9.000000000000000000e+00
4.315057277679443359e+00 1.528041958808898926e+00 -5.620614290237426758e-01 1.100000000000000000e+01
5.619648933410645419e+00 1.988918423652648926e+00 -5.215399861335754395e-01 9.000000000000000000e+00
8.095223426818847656e+00 2.861899852752685991e+00 -4.499845504760742188e-01 1.000000000000000000e+00
3.653703689575195312e+01 1.290974426269531072e+01 8.946303367614746094e+00 1.200000000000000000e+01
1.391933441162109020e+01 4.915428638458251953e+00 -2.576673328876494806e-01 2.000000000000000000e+00
3.698451614379882812e+01 1.305333328247069957e+01 1.050908851623534979e+01 9.000000000000000000e+00
2.161354780197143999e+00 7.602851986885070801e-01 -6.139187812805175781e-01 1.500000000000000000e+01
2.493070125579833984e+00 8.759927153587341309e-01 -6.100672483444213867e-01 1.400000000000000000e+01
2.893377542495727983e+00 1.016081809997559038e+00 -5.960872769355773926e-01 1.300000000000000000e+01
3.467077732086182085e+00 1.216191768646240012e+00 -5.819361805915832520e-01 9.000000000000000000e+00
4.335087776184082031e+00 1.518975734710692915e+00 -5.640113353729248047e-01 1.100000000000000000e+01
5.614931106567382812e+00 1.966320872306823953e+00 -5.204941034317016602e-01 6.000000000000000000e+00
8.131063461303710938e+00 2.844271898269652876e+00 -4.514499604701995850e-01 2.000000000000000000e+00
3.651710128784179688e+01 1.276664543151854936e+01 8.931006431579589844e+00 1.200000000000000000e+01
1.395821094512938920e+01 4.877159118652343750e+00 -2.580861747264862061e-01 2.000000000000000000e+00
2.165820121765137163e+00 7.533707618713378906e-01 -6.144363880157470703e-01 1.600000000000000000e+01
2.490590333938599077e+00 8.653661608695983887e-01 -6.087175607681274414e-01 1.300000000000000000e+01
3.860074615478516336e+01 1.340444374084473012e+01 2.141482591629027876e+00 2.500000000000000000e+01
2.898761272430419922e+00 1.006619930267333984e+00 -5.964689254760742188e-01 1.300000000000000000e+01
3.456371545791625977e+00 1.198903083801269975e+00 -5.794332623481750488e-01 9.000000000000000000e+00
4.332860946655273438e+00 1.501234650611876997e+00 -5.630363821983337402e-01 1.100000000000000000e+01
5.633057117462158203e+00 1.950620889663696067e+00 -5.215399861335754395e-01 3.000000000000000000e+00
8.140941619873046875e+00 2.815871715545653853e+00 -4.514499604701995850e-01 2.000000000000000000e+00
3.649513626098632812e+01 1.261617851257324041e+01 8.914810180664062500e+00 1.200000000000000000e+01
1.398271083831786932e+01 4.831017971038818359e+00 -2.582257986068726141e-01 2.000000000000000000e+00
2.174177885055541992e+00 7.469320893287658691e-01 -6.159893274307250977e-01 1.500000000000000000e+01
2.480992078781127930e+00 8.513690233230590820e-01 -6.055682301521301270e-01 1.100000000000000000e+01
2.908176183700561968e+00 9.973928332328796387e-01 -5.976137518882751465e-01 1.300000000000000000e+01
3.472162008285522017e+00 1.189463853836060014e+00 -5.813104510307312012e-01 9.000000000000000000e+00
4.346106052398681641e+00 1.487157344818115012e+00 -5.640113353729248047e-01 1.100000000000000000e+01
5.651816368103027344e+00 1.932845354080199973e+00 -5.225858092308044434e-01 8.000000000000000000e+00
8.132793426513671875e+00 2.778135776519774947e+00 -4.504032433032990057e-01 2.000000000000000000e+00
1.401629829406737926e+01 4.782458782196044922e+00 -2.585050463676453192e-01 2.000000000000000000e+00
2.180430412292480025e+00 7.405807971954345703e-01 -6.170246005058288574e-01 1.600000000000000000e+01
2.487639665603638139e+00 8.439556956291198730e-01 -6.064680218696594238e-01 1.300000000000000000e+01
2.906062364578247070e+00 9.853440523147583008e-01 -5.964689254760742188e-01 1.300000000000000000e+01
3.483776807785034180e+00 1.179871201515197976e+00 -5.825619697570800781e-01 9.000000000000000000e+00
3.632551193237304688e+01 1.229550743103026988e+01 4.708787918090820312e+00 2.000000000000000000e+01
4.338108062744140625e+00 1.467524647712707964e+00 -5.623051524162292480e-01 1.100000000000000000e+01
5.673628330230712891e+00 1.918210148811340110e+00 -5.239803194999694824e-01 9.000000000000000000e+00
8.138657569885253906e+00 2.748452186584473100e+00 -4.501938819885253906e-01 1.000000000000000000e+00
3.923069763183593750e+01 1.324071311950683949e+01 9.559069633483886719e+00 1.200000000000000000e+01
1.404427528381348012e+01 4.737338542938232422e+00 -2.587144672870635986e-01 2.000000000000000000e+00
2.184577465057373047e+00 7.343426942825317383e-01 -6.175422668457031250e-01 1.500000000000000000e+01
2.486583948135375977e+00 8.348958492279052734e-01 -6.055682301521301270e-01 1.100000000000000000e+01
2.899837255477904829e+00 9.730866551399230957e-01 -5.945608019828796387e-01 1.300000000000000000e+01
3.489339351654053178e+00 1.169548511505126953e+00 -5.828748345375061035e-01 8.000000000000000000e+00
4.348343849182128906e+00 1.455779552459717019e+00 -5.630363821983337402e-01 1.100000000000000000e+01
5.679626464843750000e+00 1.900376439094543013e+00 -5.239803194999694824e-01 9.000000000000000000e+00
8.177559852600097656e+00 2.732999563217163086e+00 -4.518686532974243164e-01 2.000000000000000000e+00
3.915380859375000000e+01 1.307788848876952947e+01 9.530276298522949219e+00 1.200000000000000000e+01
1.410461235046387074e+01 4.708390235900878906e+00 -2.595521807670593262e-01 2.000000000000000000e+00
2.177960872650146040e+00 7.236669063568115234e-01 -6.149540543556213379e-01 1.600000000000000000e+01
2.502429962158203125e+00 8.305077552795410156e-01 -6.087175607681274414e-01 1.300000000000000000e+01
2.914396762847899947e+00 9.666668772697448730e-01 -5.968505144119262695e-01 1.300000000000000000e+01
3.495275735855102983e+00 1.157982587814331055e+00 -5.831876993179321289e-01 9.000000000000000000e+00
3.810229110717772727e+01 1.261588478088379084e+01 4.928152561187744141e+00 2.200000000000000000e+01
4.360937595367431641e+00 1.443086624145508035e+00 -5.640113353729248047e-01 1.100000000000000000e+01
5.659742832183837891e+00 1.871780991554260032e+00 -5.215399861335754395e-01 9.000000000000000000e+00
8.206014633178710938e+00 2.710702419281005859e+00 -4.529153704643250067e-01 1.000000000000000000e+00
3.901416778564453125e+01 1.288004493713379084e+01 9.485285758972167969e+00 1.200000000000000000e+01
1.412475967407226918e+01 4.660380363464354581e+00 -2.596220076084136963e-01 2.000000000000000000e+00
3.525313949584960938e+01 1.163156414031982067e+01 9.946933746337890625e+00 8.000000000000000000e+00
2.180348634719849077e+00 7.164404988288879395e-01 -6.149540543556213379e-01 1.600000000000000000e+01
2.512576580047606978e+00 8.246355652809143066e-01 -6.105171442031860352e-01 1.300000000000000000e+01
2.915720939636230025e+00 9.563851952552795410e-01 -5.964689254760742188e-01 1.300000000000000000e+01
3.491587638854980025e+00 1.143925428390502930e+00 -5.819361805915832520e-01 9.000000000000000000e+00
4.363812446594238281e+00 1.427999973297118919e+00 -5.637676119804382324e-01 1.100000000000000000e+01
5.664024829864501953e+00 1.852383017539978027e+00 -5.213656425476074219e-01 9.000000000000000000e+00
8.214958190917968750e+00 2.683475494384766069e+00 -4.529153704643250067e-01 2.000000000000000000e+00
3.924191665649414062e+01 1.281107616424561080e+01 9.530276298522949219e+00 1.200000000000000000e+01
1.416294860839843928e+01 4.620958805084229404e+00 -2.600408494472504217e-01 2.000000000000000000e+00
3.676286697387695312e+01 1.198755550384520951e+01 1.036104393005370916e+01 8.000000000000000000e+00
2.184673786163330078e+00 7.094219923019409180e-01 -6.154716610908508301e-01 1.500000000000000000e+01
2.496902942657471147e+00 8.098478317260742188e-01 -6.060181260108947754e-01 1.200000000000000000e+01
2.922776699066162109e+00 9.474123120307922363e-01 -5.972321629524230957e-01 1.300000000000000000e+01
3.495559453964232954e+00 1.131730556488037109e+00 -5.819361805915832520e-01 9.000000000000000000e+00
3.658190155029296875e+01 1.183678817749023082e+01 4.720974445343017578e+00 2.000000000000000000e+01
4.366881847381591797e+00 1.412147879600524902e+00 -5.635238289833068848e-01 1.100000000000000000e+01
5.698894023895263672e+00 1.841791152954102007e+00 -5.239803194999694824e-01 9.000000000000000000e+00
8.231878280639648438e+00 2.657237768173218218e+00 -4.533340632915496826e-01 1.000000000000000000e+00
1.427034759521484020e+01 4.600946426391601562e+00 -2.617162764072418213e-01 2.000000000000000000e+00
3.680448532104492188e+01 1.185915660858153942e+01 1.036104393005370916e+01 8.000000000000000000e+00
2.200012922286986861e+00 7.059233784675598145e-01 -6.190951466560363770e-01 1.500000000000000000e+01
2.508993387222290039e+00 8.041008114814758301e-01 -6.082676649093627930e-01 1.300000000000000000e+01
2.922326564788817915e+00 9.360064268112182617e-01 -5.964689254760742188e-01 1.300000000000000000e+01
3.508895874023437944e+00 1.122531294822693093e+00 -5.835005640983581543e-01 1.000000000000000000e+01
3.662299728393554688e+01 1.170902156829833984e+01 4.720974445343017578e+00 2.000000000000000000e+01
4.375566005706787109e+00 1.398104429244994895e+00 -5.640113353729248047e-01 1.100000000000000000e+01
5.705288410186767578e+00 1.821887016296386941e+00 -5.239803194999694824e-01 9.000000000000000000e+00
8.267743110656738281e+00 2.636983394622803178e+00 -4.547994732856749933e-01 2.000000000000000000e+00
1.427869892120360973e+01 4.548677921295166016e+00 -2.615766823291779120e-01 2.000000000000000000e+00
3.752307510375977273e+01 1.194628334045409979e+01 1.055153465270995916e+01 9.000000000000000000e+00
2.191414594650268999e+00 6.947367191314697266e-01 -6.159893274307250977e-01 1.600000000000000000e+01
2.522932052612305132e+00 7.988674640655517578e-01 -6.109670400619506836e-01 1.300000000000000000e+01
2.916217327117919922e+00 9.228383302688598633e-01 -5.945608019828796387e-01 1.300000000000000000e+01
3.522210597991942915e+00 1.113252758979796919e+00 -5.850648880004882812e-01 9.000000000000000000e+00
3.675828933715820312e+01 1.161100769042968928e+01 4.733161449432373047e+00 2.000000000000000000e+01
4.378526687622070312e+00 1.382224678993225098e+00 -5.637676119804382324e-01 1.000000000000000000e+01
5.715413570404052734e+00 1.803159713745116965e+00 -5.243289470672607422e-01 8.000000000000000000e+00
8.261657714843750000e+00 2.603305578231811968e+00 -4.539620876312255859e-01 2.000000000000000000e+00
3.918804550170897727e+01 1.234090614318848012e+01 9.485285758972167969e+00 1.200000000000000000e+01
1.428686046600341975e+01 4.496407032012938565e+00 -2.614370584487915039e-01 2.000000000000000000e+00
3.478922271728516336e+01 1.094230365753174006e+01 9.771971702575683594e+00 7.000000000000000000e+00
2.186571598052978960e+00 6.843919157981872559e-01 -6.139187812805175781e-01 1.700000000000000000e+01
2.522123098373413086e+00 7.884522080421447754e-01 -6.100672483444213867e-01 1.100000000000000000e+01
2.938319206237792969e+00 9.179982542991638184e-01 -5.983769893646240234e-01 1.200000000000000000e+01
3.518724441528319868e+00 1.097982048988342063e+00 -5.838134288787841797e-01 1.000000000000000000e+01
4.385458469390869141e+00 1.366757988929748979e+00 -5.640113353729248047e-01 1.100000000000000000e+01
5.699156761169433594e+00 1.775089740753174050e+00 -5.222371816635131836e-01 8.000000000000000000e+00
8.305472373962402344e+00 2.583686351776123047e+00 -4.558461904525756836e-01 2.000000000000000000e+00
3.886083602905272727e+01 1.208148574829101918e+01 9.395305633544921875e+00 1.200000000000000000e+01
1.431852149963379084e+01 4.448759078979492188e+00 -2.617162764072418213e-01 2.000000000000000000e+00
3.397488403320313211e+01 1.055598354339599965e+01 9.532822608947753906e+00 7.000000000000000000e+00
2.190793037414550781e+00 6.773257851600646973e-01 -6.144363880157470703e-01 1.500000000000000000e+01
2.528584003448485884e+00 7.807934880256652832e-01 -6.109670400619506836e-01 1.100000000000000000e+01
2.939629793167113814e+00 9.071570634841918945e-01 -5.979954004287719727e-01 1.200000000000000000e+01
3.520647764205933061e+00 1.085110902786255105e+00 -5.835005640983581543e-01 1.000000000000000000e+01
4.395894527435302734e+00 1.353193640708922896e+00 -5.647425651550292969e-01 1.300000000000000000e+01
5.724361419677734375e+00 1.761043548583983931e+00 -5.239803194999694824e-01 9.000000000000000000e+00
8.306803703308105469e+00 2.552332878112792969e+00 -4.554274976253510077e-01 2.000000000000000000e+00
3.904062652587891336e+01 1.198809242248534979e+01 9.428598403930664062e+00 1.200000000000000000e+01
1.435690402984618963e+01 4.405791282653808594e+00 -2.621351480484008789e-01 2.000000000000000000e+00
3.370306015014647727e+01 1.033622837066650035e+01 9.445859909057617188e+00 7.000000000000000000e+00
2.198686838150023970e+00 6.713668704032897949e-01 -6.159893274307250977e-01 1.600000000000000000e+01
2.508926153182982954e+00 7.651408314704895020e-01 -6.055682301521301270e-01 1.200000000000000000e+01
2.946534395217895952e+00 8.980350494384765625e-01 -5.987586379051208496e-01 1.300000000000000000e+01
3.528193712234497070e+00 1.073965430259705034e+00 -5.841262936592102051e-01 1.000000000000000000e+01
3.707163619995117188e+01 1.127736091613770064e+01 4.757779121398925781e+00 2.000000000000000000e+01
4.400591373443604404e+00 1.337840795516967995e+00 -5.647425651550292969e-01 1.000000000000000000e+01
5.745724678039550781e+00 1.745684623718261941e+00 -5.253748297691345215e-01 9.000000000000000000e+00
8.327129364013671875e+00 2.526800632476807085e+00 -4.560555219650269110e-01 1.000000000000000000e+00
3.923888397216796875e+01 1.189924621582031072e+01 9.466390609741210938e+00 1.200000000000000000e+01
1.439133262634276988e+01 4.361449241638183594e+00 -2.624841928482056219e-01 2.000000000000000000e+00
3.386286926269531250e+01 1.026250839233398082e+01 9.481059074401855469e+00 7.000000000000000000e+00
2.210264921188354048e+00 6.664765477180480957e-01 -6.185775399208068848e-01 1.400000000000000000e+01
2.519045591354370117e+00 7.586261630058288574e-01 -6.073678731918334961e-01 1.200000000000000000e+01
2.940251350402832031e+00 8.849152326583862305e-01 -5.968505144119262695e-01 1.200000000000000000e+01
3.533812761306763139e+00 1.062211751937865989e+00 -5.844391584396362305e-01 1.000000000000000000e+01
4.409037113189697266e+00 1.323613286018372026e+00 -5.652300119400024414e-01 1.000000000000000000e+01
5.753691673278808594e+00 1.726190209388732910e+00 -5.255491137504577637e-01 9.000000000000000000e+00
8.328246116638183594e+00 2.495425224304199219e+00 -4.556368291378021240e-01 1.000000000000000000e+00
3.935858917236328125e+01 1.178568363189697088e+01 9.485285758972167969e+00 1.200000000000000000e+01
1.443712139129639027e+01 4.320360183715820312e+00 -2.630426585674285889e-01 2.000000000000000000e+00
3.427042770385742188e+01 1.024903011322020951e+01 9.584587097167968750e+00 7.000000000000000000e+00
2.208760023117064986e+00 6.580402255058288574e-01 -6.175422668457031250e-01 1.400000000000000000e+01
2.536489963531494141e+00 7.547146081924438477e-01 -6.109670400619506836e-01 1.200000000000000000e+01
2.943169832229613814e+00 8.751601576805114746e-01 -5.968505144119262695e-01 1.200000000000000000e+01
3.539209365844727007e+00 1.051049828529357910e+00 -5.847520232200622559e-01 1.100000000000000000e+01
3.717037582397460938e+01 1.103154087066650035e+01 4.760704040527343750e+00 2.000000000000000000e+01
4.421014785766601562e+00 1.311242938041687012e+00 -5.662049651145935059e-01 1.000000000000000000e+01
5.761294364929199219e+00 1.707666993141174094e+00 -5.257234573364257812e-01 9.000000000000000000e+00
8.336475372314453125e+00 2.467793941497803178e+00 -4.556368291378021240e-01 1.000000000000000000e+00
3.937129592895507812e+01 1.164736080169677912e+01 9.478987693786621094e+00 1.200000000000000000e+01
1.442068672180175959e+01 4.263390064239501953e+00 -2.624841928482056219e-01 2.000000000000000000e+00
3.452476501464843750e+01 1.020704078674316051e+01 9.646703720092773438e+00 7.000000000000000000e+00
2.198070049285889116e+00 6.465103626251220703e-01 -6.139187812805175781e-01 1.600000000000000000e+01
2.542848348617554155e+00 7.469544410705566406e-01 -6.118668913841247559e-01 1.300000000000000000e+01
2.942439079284667969e+00 8.637752532958984375e-01 -5.960872769355773926e-01 1.200000000000000000e+01
3.550439119338988814e+00 1.040912270545959029e+00 -5.860034823417663574e-01 1.100000000000000000e+01
3.731152725219727273e+01 1.093186473846436080e+01 4.773865699768066406e+00 2.000000000000000000e+01
4.425564765930175781e+00 1.295802712440490945e+00 -5.662049651145935059e-01 1.000000000000000000e+01
5.763395786285400391e+00 1.686426758766174094e+00 -5.253748297691345215e-01 9.000000000000000000e+00
8.383380889892578125e+00 2.449883699417113814e+00 -4.577302634716033936e-01 1.000000000000000000e+00
3.981201934814453125e+01 1.162676525115966975e+01 9.575266838073730469e+00 1.200000000000000000e+01
1.447771263122558949e+01 4.225351810455322266e+00 -2.632521092891693115e-01 2.000000000000000000e+00
3.712126541137695312e+01 1.082689094543457031e+01 1.036104393005370916e+01 8.000000000000000000e+00
2.205767393112183061e+00 6.408346295356750488e-01 -6.154716610908508301e-01 1.400000000000000000e+01
2.539696693420410156e+00 7.368888854980468750e-01 -6.105171442031860352e-01 1.200000000000000000e+01
2.954715251922606978e+00 8.567467331886291504e-01 -5.979954004287719727e-01 1.200000000000000000e+01
3.542486906051636186e+00 1.025836110115051047e+00 -5.841262936592102051e-01 1.000000000000000000e+01
3.733232116699218750e+01 1.080366039276123047e+01 4.771915912628173828e+00 2.000000000000000000e+01
4.437465190887451172e+00 1.283325910568237083e+00 -5.671799182891845703e-01 1.100000000000000000e+01
5.780440807342529297e+00 1.670624613761902078e+00 -5.264207124710083008e-01 9.000000000000000000e+00
8.387620925903320312e+00 2.420962333679199219e+00 -4.575209319591522217e-01 1.000000000000000000e+00
3.891415405273438211e+01 1.122463607788085938e+01 9.350315093994140625e+00 1.200000000000000000e+01
1.452238750457764027e+01 4.186181068420410156e+00 -2.638105750083922785e-01 2.000000000000000000e+00
2.219132900238037109e+00 6.363261342048645020e-01 -6.185775399208068848e-01 1.500000000000000000e+01
2.534759759902954102e+00 7.258732318878173828e-01 -6.087175607681274414e-01 1.200000000000000000e+01
2.963350296020507812e+00 8.480480909347534180e-01 -5.991402268409729004e-01 1.200000000000000000e+01
3.561240673065185991e+00 1.017806887626647949e+00 -5.866292715072631836e-01 1.000000000000000000e+01
3.783172607421875000e+01 1.080521106719971058e+01 4.830900669097900391e+00 2.000000000000000000e+01
4.459097385406494141e+00 1.272732019424438032e+00 -5.693735480308532715e-01 1.100000000000000000e+01
5.790069103240966797e+00 1.651529908180237038e+00 -5.267692804336547852e-01 9.000000000000000000e+00
8.407545089721679688e+00 2.394952297210692915e+00 -4.581489562988281250e-01 3.000000000000000000e+00
1.458691978454590021e+01 4.149689197540283203e+00 -2.647181153297423761e-01 2.000000000000000000e+00
3.437889862060546875e+01 9.773628234863281250e+00 9.576822280883789062e+00 1.400000000000000000e+01
2.234352588653564009e+00 6.322580575942993164e-01 -6.222009658813476562e-01 1.500000000000000000e+01
2.539153337478638139e+00 7.175507545471191406e-01 -6.091674566268920898e-01 1.200000000000000000e+01
2.962513923645019975e+00 8.366317749023437500e-01 -5.983769893646240234e-01 1.200000000000000000e+01
3.564771890640258789e+00 1.005369663238524947e+00 -5.866292715072631836e-01 1.100000000000000000e+01
4.450137615203857422e+00 1.253391861915587935e+00 -5.676674246788024902e-01 1.000000000000000000e+01
5.799634456634520596e+00 1.632388353347778098e+00 -5.271179080009460449e-01 9.000000000000000000e+00
8.404317855834960938e+00 2.362347126007080078e+00 -4.575209319591522217e-01 1.000000000000000000e+00
3.979079818725585938e+01 1.117719650268555043e+01 9.541974067687988281e+00 1.200000000000000000e+01
1.460131645202637074e+01 4.098745822906494141e+00 -2.647181153297423761e-01 2.000000000000000000e+00
3.445576095581054688e+01 9.672101020812988281e+00 9.589245796203613281e+00 1.400000000000000000e+01
2.219799757003784180e+00 6.197792291641235352e-01 -6.175422668457031250e-01 1.400000000000000000e+01
2.539765596389770952e+00 7.081596851348876953e-01 -6.087175607681274414e-01 1.200000000000000000e+01
2.955960035324097124e+00 8.236507773399353027e-01 -5.964689254760742188e-01 1.200000000000000000e+01
3.572065591812133789e+00 9.939792156219482422e-01 -5.872550010681152344e-01 1.000000000000000000e+01
3.784120941162108664e+01 1.052275180816650035e+01 4.822613716125488281e+00 2.000000000000000000e+01
4.454485893249511719e+00 1.237850308418273926e+00 -5.676674246788024902e-01 1.000000000000000000e+01
5.816815376281738281e+00 1.615332603454590066e+00 -5.281637907028198242e-01 9.000000000000000000e+00
8.439456939697265625e+00 2.340468645095825195e+00 -4.589863419532775879e-01 1.000000000000000000e+00
1.461938858032226918e+01 4.048820018768311435e+00 -2.647879123687744141e-01 2.000000000000000000e+00
3.425079727172852273e+01 9.479276657104492188e+00 9.522470474243164062e+00 7.000000000000000000e+00
2.220087289810181108e+00 6.115139126777648926e-01 -6.170246005058288574e-01 1.500000000000000000e+01
2.549737691879272017e+00 7.013573050498962402e-01 -6.105171442031860352e-01 1.600000000000000000e+01
2.964496374130249023e+00 8.148885965347290039e-01 -5.976137518882751465e-01 1.100000000000000000e+01
3.573608636856079102e+00 9.809814095497131348e-01 -5.869421362876892090e-01 1.100000000000000000e+01
3.761735916137695312e+01 1.031917762756348012e+01 4.789465427398681641e+00 2.000000000000000000e+01
4.474095344543457031e+00 1.226492285728455034e+00 -5.696173310279846191e-01 1.000000000000000000e+01
5.803202629089354581e+00 1.589754104614258035e+00 -5.264207124710083008e-01 9.000000000000000000e+00
8.447575569152832031e+00 2.310995101928710938e+00 -4.589863419532775879e-01 1.000000000000000000e+00
1.466043853759765980e+01 4.005142211914063388e+00 -2.652765810489655096e-01 2.000000000000000000e+00
3.439944839477539062e+01 9.397719383239746094e+00 9.555081367492675781e+00 7.000000000000000000e+00
2.225936889648437944e+00 6.047736406326293945e-01 -6.180598735809326172e-01 1.400000000000000000e+01
2.554051160812377930e+00 6.929631233215332031e-01 -6.109670400619506836e-01 1.600000000000000000e+01
2.974902153015137163e+00 8.065906167030334473e-01 -5.991402268409729004e-01 1.200000000000000000e+01
3.578917741775513139e+00 9.690175056457519531e-01 -5.872550010681152344e-01 1.000000000000000000e+01
3.742320632934570312e+01 1.012558937072754084e+01 4.760216712951660156e+00 2.000000000000000000e+01
4.503261089324951172e+00 1.217602968215941939e+00 -5.727859139442443848e-01 8.000000000000000000e+00
5.820257186889648438e+00 1.572605729103087935e+00 -5.274665355682373047e-01 9.000000000000000000e+00
8.455591201782226562e+00 2.281493425369263139e+00 -4.589863419532775879e-01 1.000000000000000000e+00
1.472839355468750000e+01 3.968510627746582031e+00 -2.662539184093474787e-01 2.000000000000000000e+00
3.440219879150391336e+01 9.269543647766113281e+00 9.546799659729003906e+00 7.000000000000000000e+00
2.233632326126099077e+00 5.985000133514404297e-01 -6.196128129959106445e-01 1.500000000000000000e+01
3.995227050781250000e+01 1.069770526885985973e+01 7.219362258911132812e-01 3.800000000000000000e+01
2.547041893005371094e+00 6.815249919891357422e-01 -6.087175607681274414e-01 1.500000000000000000e+01
2.989079236984252930e+00 7.992441654205322266e-01 -6.014299392700195312e-01 1.200000000000000000e+01
3.716326904296875000e+01 9.930066108703613281e+00 3.365431785583496094e+00 5.000000000000000000e+01
3.574644565582274947e+00 9.544804692268371582e-01 -5.860034823417663574e-01 1.000000000000000000e+01
3.732406234741210938e+01 9.959073066711425781e+00 4.743155002593994141e+00 2.000000000000000000e+01
4.526664733886718750e+00 1.206990599632262962e+00 -5.752233266830444336e-01 8.000000000000000000e+00
5.837262630462645596e+00 1.555357456207274947e+00 -5.285124182701110840e-01 9.000000000000000000e+00
8.448062896728515625e+00 2.247855663299560991e+00 -4.581489562988281250e-01 1.000000000000000000e+00
3.849660110473632812e+01 1.023596000671387074e+01 9.196449279785156250e+00 1.200000000000000000e+01
1.478467464447020951e+01 3.928371906280518022e+00 -2.670218050479888916e-01 2.000000000000000000e+00
3.415428543090820312e+01 9.074987411499023438e+00 9.469153404235839844e+00 7.000000000000000000e+00
2.237575769424438032e+00 5.911930203437805176e-01 -6.201304197311401367e-01 1.400000000000000000e+01
5.930444717407227273e+01 1.565783882141112926e+01 1.070635318756103960e+00 5.900000000000000000e+01
2.558826684951781782e+00 6.751157045364379883e-01 -6.109670400619506836e-01 1.400000000000000000e+01
2.980460643768310991e+00 7.858023643493652344e-01 -5.991402268409729004e-01 1.100000000000000000e+01
3.581774950027465820e+00 9.430026412010192871e-01 -5.866292715072631836e-01 1.000000000000000000e+01
3.737779617309570312e+01 9.833777427673339844e+00 4.745592117309570312e+00 2.000000000000000000e+01
4.515491485595703125e+00 1.187144398689270020e+00 -5.732734203338623047e-01 8.000000000000000000e+00
5.846509933471679688e+00 1.535984754562377930e+00 -5.288610458374023438e-01 9.000000000000000000e+00
8.455857276916503906e+00 2.218352794647216797e+00 -4.581489562988281250e-01 1.000000000000000000e+00
3.590812301635742188e+01 9.413620948791503906e+00 8.570185661315917969e+00 1.100000000000000000e+01
1.478669071197509943e+01 3.873699188232421875e+00 -2.668123841285706122e-01 2.000000000000000000e+00
3.498719406127929688e+01 9.159141540527343750e+00 9.690702438354492188e+00 7.000000000000000000e+00
2.228408813476562944e+00 5.804570317268371582e-01 -6.170246005058288574e-01 1.500000000000000000e+01
5.935874176025391336e+01 1.545073223114014027e+01 1.070635318756103960e+00 5.900000000000000000e+01
2.564939737319945845e+00 6.671607494354248047e-01 -6.118668913841247559e-01 1.300000000000000000e+01
2.981285333633422852e+00 7.748999595642089844e-01 -5.987586379051208496e-01 1.200000000000000000e+01
3.604165077209473100e+00 9.354568123817443848e-01 -5.897579193115234375e-01 1.000000000000000000e+01
3.731582260131835938e+01 9.678326606750488281e+00 4.733405113220214844e+00 2.000000000000000000e+01
4.540745258331298828e+00 1.176853537559509055e+00 -5.759544968605041504e-01 1.000000000000000000e+01
5.851836204528808594e+00 1.515567183494568093e+00 -5.288610458374023438e-01 9.000000000000000000e+00
8.475151062011718750e+00 2.191823244094849077e+00 -4.587769806385039728e-01 3.000000000000000000e+00
1.478850460052490057e+01 3.819060564041138139e+00 -2.666029632091522217e-01 2.000000000000000000e+00
3.524183273315429688e+01 9.101034164428710938e+00 9.752819061279296875e+00 7.000000000000000000e+00
2.232292652130126953e+00 5.731553435325622559e-01 -6.175422668457031250e-01 1.500000000000000000e+01
5.941231536865233664e+01 1.524343681335449041e+01 1.070635318756103960e+00 5.900000000000000000e+01
2.572916030883789062e+00 6.596552729606628418e-01 -6.132165789604187012e-01 1.200000000000000000e+01
2.987775802612305132e+00 7.654631137847900391e-01 -5.995218753814697266e-01 1.300000000000000000e+01
3.594012260437012163e+00 9.194431304931640625e-01 -5.875678658485412598e-01 9.000000000000000000e+00
3.711858749389647727e+01 9.489011764526367188e+00 4.704156875610351562e+00 2.000000000000000000e+01
4.552518844604492188e+00 1.162961483001708984e+00 -5.769294500350952148e-01 1.000000000000000000e+01
3.868960952758789062e+01 9.876241683959960938e+00 6.324332714080811435e+00 1.400000000000000000e+01
5.837785720825195312e+00 1.490203380584717019e+00 -5.271179080009460449e-01 9.000000000000000000e+00
8.459526062011718750e+00 2.156306266784667969e+00 -4.575209319591522217e-01 1.000000000000000000e+00
1.484825515747069957e+01 3.779253721237183061e+00 -2.674406766891478937e-01 2.000000000000000000e+00
3.500005340576171875e+01 8.908390998840332031e+00 9.677244186401367188e+00 7.000000000000000000e+00
2.239898204803466797e+00 5.667814016342163086e-01 -6.190951466560363770e-01 1.500000000000000000e+01
2.575202941894530806e+00 6.506701111793518066e-01 -6.132165789604187012e-01 1.200000000000000000e+01
2.998043537139893022e+00 7.569515705108642578e-01 -6.010483503341674805e-01 1.200000000000000000e+01
3.585707187652587891e+00 9.039946794509887695e-01 -5.856906175613403320e-01 9.000000000000000000e+00
4.573875904083251953e+00 1.151424527168273926e+00 -5.791231393814086914e-01 9.000000000000000000e+00
3.881792831420897727e+01 9.771999359130859375e+00 6.339975833892822266e+00 1.400000000000000000e+01
5.858409881591796875e+00 1.473704934120178001e+00 -5.285124182701110840e-01 9.000000000000000000e+00
