3.886961460113524947e+00 -6.846767067909240723e-01 -6.251121163368225098e-01 9.000000000000000000e+00
3.847115325927733664e+01 -6.783502101898193359e+00 4.796533584594726562e+00 2.000000000000000000e+01
4.975154399871826172e+00 -8.781493306159973145e-01 -6.203149557113647461e-01 9.000000000000000000e+00
6.627635002136229581e+00 -1.171016335487365945e+00 -5.888242125511169434e-01 6.000000000000000000e+00
1.042533683776854936e+01 -1.845773577690124956e+00 -5.548658370971679688e-01 2.000000000000000000e+00
3.440285110473632812e+01 -6.097111701965332031e+00 8.066294670104980469e+00 1.000000000000000000e+01
2.089056777954101918e+01 -3.706131696701049805e+00 -3.703400790691375732e-01 3.000000000000000000e+00
3.472755432128906250e+01 -6.160909175872802734e+00 9.450518608093261719e+00 7.000000000000000000e+00
2.378998041152954102e+00 -4.254778623580933172e-01 -6.475652456283569336e-01 1.700000000000000000e+01
2.746836423873900923e+00 -4.922544062137603760e-01 -6.442598104476928711e-01 1.400000000000000000e+01
3.213594675064086914e+00 -5.764799714088439941e-01 -6.346307396888732910e-01 1.200000000000000000e+01
3.874826669692993164e+00 -6.964932084083557129e-01 -6.235477924346923828e-01 1.100000000000000000e+01
3.834955215454102273e+01 -6.900173664093017578e+00 4.784346580505371094e+00 2.000000000000000000e+01
4.983780860900878906e+00 -8.976217508316040039e-01 -6.217774152755737305e-01 9.000000000000000000e+00
6.625467777252197266e+00 -1.194497466087341087e+00 -5.889984965324401855e-01 6.000000000000000000e+00
1.044634628295898082e+01 -1.887124419212341087e+00 -5.563312172889709473e-01 2.000000000000000000e+00
3.422795104980468750e+01 -6.189421653747558594e+00 8.030303001403808594e+00 1.000000000000000000e+01
2.074566650390625000e+01 -3.755167007446289062e+00 -3.680014312267302912e-01 1.000000000000000000e+01
3.531303024291992188e+01 -6.398366451263427734e+00 9.616163253784179688e+00 7.000000000000000000e+00
2.388977289199829102e+00 -4.354430437088013250e-01 -6.506710648536682129e-01 1.900000000000000000e+01
2.735603809356689009e+00 -4.996099770069121759e-01 -6.420103311538696289e-01 1.300000000000000000e+01
3.223252773284912109e+00 -5.892518162727355957e-01 -6.369204521179199219e-01 1.100000000000000000e+01
3.884153842926024947e+00 -7.114742398262023926e-01 -6.254249811172485352e-01 1.100000000000000000e+01
4.980776786804199219e+00 -9.141436219215393066e-01 -6.217774152755737305e-01 1.000000000000000000e+01
6.676338672637938565e+00 -1.226541996002197044e+00 -5.938792228698730469e-01 5.000000000000000000e+00
1.046360206604004084e+01 -1.926094174385071023e+00 -5.575872659683227539e-01 2.000000000000000000e+00
3.332182312011718750e+01 -6.139748573303222656e+00 7.822447776794433594e+00 9.000000000000000000e+00
2.086092376708984020e+01 -3.847517013549805132e+00 -3.702702522277832031e-01 3.000000000000000000e+00
3.522246170043945312e+01 -6.496309280395507812e+00 9.597010612487792969e+00 1.400000000000000000e+01
2.387442827224731001e+00 -4.437794983386992853e-01 -6.506710648536682129e-01 1.900000000000000000e+01
5.971589660644531250e+01 -1.111081409454346058e+01 1.060233712196350098e+00 6.100000000000000000e+01
2.737674951553345171e+00 -5.098695755004882812e-01 -6.429101228713989258e-01 1.300000000000000000e+01
3.217316389083861861e+00 -5.997799038887023926e-01 -6.361572146415710449e-01 1.200000000000000000e+01
3.893297433853148970e+00 -7.272043228149414062e-01 -6.273022294044494629e-01 1.400000000000000000e+01
4.965848445892333984e+00 -9.293332695960998535e-01 -6.203149557113647461e-01 1.000000000000000000e+01
6.670058250427246094e+00 -1.249472379684448020e+00 -5.937049388885498047e-01 5.000000000000000000e+00
1.045681571960449041e+01 -1.962607264518738015e+00 -5.575872659683227539e-01 2.000000000000000000e+00
3.319676589965820312e+01 -6.236596107482910156e+00 7.798153400421142578e+00 9.000000000000000000e+00
1.979988861083984020e+01 -3.723335266113280806e+00 -3.516660034656525213e-01 1.300000000000000000e+01
3.534080123901367188e+01 -6.652163982391357422e+00 9.635832786560058594e+00 7.000000000000000000e+00
2.382082939147949219e+00 -4.513911604881287176e-01 -6.496357917785644531e-01 1.900000000000000000e+01
2.743536472320557085e+00 -5.208767056465148926e-01 -6.447097063064575195e-01 1.300000000000000000e+01
3.211345672607421875e+00 -6.102737188339233398e-01 -6.353939771652221680e-01 1.200000000000000000e+01
3.892675876617432085e+00 -7.411594986915588379e-01 -6.276150941848754883e-01 1.100000000000000000e+01
4.989872932434082031e+00 -9.518691897392272949e-01 -6.237273216247558594e-01 1.000000000000000000e+01
3.815577697753906250e+01 -7.278603553771972656e+00 6.152254581451416016e+00 1.400000000000000000e+01
6.657827854156494141e+00 -1.271252989768981934e+00 -5.930076837539672852e-01 6.000000000000000000e+00
1.044990062713623047e+01 -1.999096393585205078e+00 -5.575872659683227539e-01 2.000000000000000000e+00
3.322072982788085938e+01 -6.361232280731201172e+00 7.808950901031494141e+00 1.900000000000000000e+01
1.976909637451171875e+01 -3.789039373397827148e+00 -3.513518571853638250e-01 6.000000000000000000e+00
2.371008872985839844e+00 -4.578719437122344971e-01 -6.470476388931274414e-01 1.900000000000000000e+01
2.755094528198242188e+00 -5.330414175987243652e-01 -6.478590369224548340e-01 1.400000000000000000e+01
3.213050603866577148e+00 -6.222262382507324219e-01 -6.361572146415710449e-01 1.100000000000000000e+01
3.890065193176269975e+00 -7.547429800033569336e-01 -6.276150941848754883e-01 1.100000000000000000e+01
4.974828243255615234e+00 -9.670086503028869629e-01 -6.222648620605468750e-01 9.000000000000000000e+00
3.603470230102539062e+01 -7.010963916778563565e+00 5.814356327056884766e+00 1.300000000000000000e+01
6.670951366424561435e+00 -1.297909975051880105e+00 -5.945764780044555664e-01 6.000000000000000000e+00
1.048990726470947088e+01 -2.044732093811035156e+00 -5.600994229316711426e-01 2.000000000000000000e+00
3.327865219116210938e+01 -6.492828845977783203e+00 7.827847003936767578e+00 9.000000000000000000e+00
2.081163978576660156e+01 -4.064223766326904297e+00 -3.701306283473969061e-01 1.000000000000000000e+01
2.378955364227294922e+00 -4.675949215888977051e-01 -6.496357917785644531e-01 1.800000000000000000e+01
2.741839647293090820e+00 -5.399156212806701660e-01 -6.451596021652221680e-01 1.400000000000000000e+01
3.199412345886230025e+00 -6.305997371673583984e-01 -6.338675022125244141e-01 1.100000000000000000e+01
3.885602951049805132e+00 -7.672560811042785645e-01 -6.273022294044494629e-01 1.000000000000000000e+01
3.755212020874022727e+01 -7.421898841857910156e+00 4.700013160705566406e+00 2.000000000000000000e+01
4.998857021331787109e+00 -9.888937473297119141e-01 -6.256772279739379883e-01 1.000000000000000000e+01
3.771778488159179688e+01 -7.461481571197509766e+00 6.089680671691895419e+00 1.400000000000000000e+01
6.654883861541748047e+00 -1.317702531814574973e+00 -5.935305953025817871e-01 6.000000000000000000e+00
1.051441478729248047e+01 -2.085724592208861861e+00 -5.617741346359252930e-01 2.000000000000000000e+00
3.360099792480468750e+01 -6.671461582183837891e+00 7.908829212188720703e+00 9.000000000000000000e+00
2.035478591918944957e+01 -4.045125484466552734e+00 -3.622421622276306152e-01 6.000000000000000000e+00
3.659801101684570312e+01 -7.273157119750976562e+00 9.998179435729980469e+00 8.000000000000000000e+00
2.373520135879517046e+00 -4.751377701759337824e-01 -6.486005187034606934e-01 1.900000000000000000e+01
2.724652528762816939e+00 -5.464177131652832031e-01 -6.415604352951049805e-01 1.400000000000000000e+01
3.227989435195922852e+00 -6.479458808898925781e-01 -6.399733424186706543e-01 1.200000000000000000e+01
3.879027843475341797e+00 -7.800357937812805176e-01 -6.266764402389526367e-01 1.100000000000000000e+01
3.762328720092772727e+01 -7.572519302368164062e+00 4.712200164794921875e+00 2.000000000000000000e+01
4.991482734680175781e+00 -1.005552887916564941e+00 -6.251897215843200684e-01 9.000000000000000000e+00
6.683446407318115234e+00 -1.347619175910949929e+00 -5.964938998222351074e-01 5.000000000000000000e+00
1.047574710845947088e+01 -2.116086721420288086e+00 -5.600994229316711426e-01 2.000000000000000000e+00
3.365772628784179688e+01 -6.804930210113525391e+00 7.927724838256835938e+00 9.000000000000000000e+00
1.972119140625000000e+01 -3.990819454193114790e+00 -3.512122333049774170e-01 6.000000000000000000e+00
3.524572372436522727e+01 -7.138798713684082031e+00 9.635832786560058594e+00 7.000000000000000000e+00
2.385182380676269975e+00 -4.857043921947479248e-01 -6.522240042686462402e-01 2.100000000000000000e+01
2.732372760772705078e+00 -5.573975443840026855e-01 -6.438099145889282227e-01 1.500000000000000000e+01
3.220052480697631836e+00 -6.574684381484985352e-01 -6.388285160064697266e-01 1.200000000000000000e+01
3.884160995483397993e+00 -7.944782376289367676e-01 -6.279279589653015137e-01 1.000000000000000000e+01
3.760963821411132812e+01 -7.699629783630371094e+00 4.713662624359130859e+00 2.000000000000000000e+01
4.980341911315917969e+00 -1.020505785942078081e+00 -6.242147684097290039e-01 9.000000000000000000e+00
6.698458194732666016e+00 -1.373777747154236062e+00 -5.982370376586914062e-01 5.000000000000000000e+00
1.053518962860107067e+01 -2.164479970932006836e+00 -5.636582374572753906e-01 2.000000000000000000e+00
1.815268707275390980e+01 -3.736117839813231978e+00 -3.234978020191193182e-01 6.000000000000000000e+00
3.560156250000000000e+01 -7.327379703521729404e+00 9.739360809326171875e+00 7.000000000000000000e+00
2.381580829620360884e+00 -4.936351776123046875e-01 -6.517063379287719727e-01 2.000000000000000000e+01
2.732318401336669922e+00 -5.673280954360961914e-01 -6.442598104476928711e-01 1.400000000000000000e+01
3.213893413543701172e+00 -6.679056286811828613e-01 -6.380652785301208496e-01 1.300000000000000000e+01
3.892967700958251953e+00 -8.104472756385803223e-01 -6.298051476478576660e-01 1.000000000000000000e+01
3.703061676025391336e+01 -7.715866088867188388e+00 4.644440650939941406e+00 1.900000000000000000e+01
4.976749420166015625e+00 -1.037884235382080078e+00 -6.242147684097290039e-01 9.000000000000000000e+00
6.687770843505859375e+00 -1.395930051803589089e+00 -5.977140665054321289e-01 7.000000000000000000e+00
1.055884933471680043e+01 -2.207782030105590820e+00 -5.653330087661743164e-01 2.000000000000000000e+00
1.801427268981933949e+01 -3.773222684860229048e+00 -3.212639093399047852e-01 3.000000000000000000e+00
3.550391769409179688e+01 -7.436558246612548828e+00 9.719690322875976562e+00 7.000000000000000000e+00
2.362743854522705078e+00 -4.987696409225463867e-01 -6.470476388931274414e-01 2.200000000000000000e+01
2.737847089767456055e+00 -5.789514183998107910e-01 -6.460594534873962402e-01 1.400000000000000000e+01
3.215265274047852007e+00 -6.804936528205871582e-01 -6.388285160064697266e-01 1.300000000000000000e+01
3.888038635253905806e+00 -8.243005871772766113e-01 -6.294922828674316406e-01 1.000000000000000000e+01
3.732055282592772727e+01 -7.919113636016845703e+00 4.684413909912109375e+00 2.000000000000000000e+01
4.986504554748535156e+00 -1.059004664421081987e+00 -6.259209513664245605e-01 1.000000000000000000e+01
6.668967723846436435e+00 -1.417532920837401900e+00 -5.964938998222351074e-01 6.000000000000000000e+00
1.048817539215088068e+01 -2.233157396316527876e+00 -5.619835257530212402e-01 2.000000000000000000e+00
4.189834594726563211e+01 -8.928700447082519531e+00 9.890197753906250000e+00 1.300000000000000000e+01
1.795338630676269887e+01 -3.829211950302124023e+00 -3.204261958599091131e-01 6.000000000000000000e+00
3.734310531616210938e+01 -7.964774608612061435e+00 1.023111724853515980e+01 8.000000000000000000e+00
2.372321128845214844e+00 -5.094478130340576172e-01 -6.501534581184387207e-01 2.100000000000000000e+01
2.737714529037476030e+00 -5.889145731925964355e-01 -6.465093493461608887e-01 1.500000000000000000e+01
3.207112550735474077e+00 -6.904732584953308105e-01 -6.376836895942687988e-01 1.200000000000000000e+01
3.877413511276245117e+00 -8.362016081809997559e-01 -6.282408237457275391e-01 1.000000000000000000e+01
3.749836730957031250e+01 -8.093733787536621094e+00 4.710249900817871094e+00 2.000000000000000000e+01
4.998300075531005859e+00 -1.079757690429687944e+00 -6.278708577156066895e-01 1.000000000000000000e+01
6.683453083038330078e+00 -1.445013642311095969e+00 -5.982370376586914062e-01 6.000000000000000000e+00
1.059353256225585938e+01 -2.294273853302001953e+00 -5.680544972419738770e-01 2.000000000000000000e+00
1.807279777526855113e+01 -3.920686244964600053e+00 -3.227997124195098877e-01 3.000000000000000000e+00
2.372415781021118164e+00 -5.181378126144409180e-01 -6.506710648536682129e-01 2.000000000000000000e+01
2.726123571395874023e+00 -5.963850617408752441e-01 -6.442598104476928711e-01 1.400000000000000000e+01
3.221943140029906782e+00 -7.054430842399597168e-01 -6.411182284355163574e-01 1.200000000000000000e+01
3.876400709152222124e+00 -8.501543998718261719e-01 -6.285536885261535645e-01 1.000000000000000000e+01
3.697351837158203125e+01 -8.115626335144042969e+00 4.647852897644042969e+00 1.900000000000000000e+01
5.000317573547363281e+00 -1.098476171493530051e+00 -6.286020874977111816e-01 9.000000000000000000e+00
6.691989421844482422e+00 -1.471329331398010032e+00 -5.994572043418884277e-01 5.000000000000000000e+00
1.053474617004395064e+01 -2.320069551467895952e+00 -5.653330087661743164e-01 2.000000000000000000e+00
3.628947067260742188e+01 -7.998679637908936435e+00 8.579183578491210938e+00 1.100000000000000000e+01
1.915644645690917969e+01 -4.225840091705322266e+00 -3.424162268638610840e-01 6.000000000000000000e+00
4.202546691894531250e+01 -9.270661354064941406e+00 1.153142356872558949e+01 1.100000000000000000e+01
2.374364376068114790e+00 -5.272535085678100586e-01 -6.517063379287719727e-01 2.000000000000000000e+01
2.727829694747924805e+00 -6.067435741424560547e-01 -6.451596021652221680e-01 1.300000000000000000e+01
3.206046581268310991e+00 -7.136992812156677246e-01 -6.384469270706176758e-01 1.100000000000000000e+01
3.884977579116820845e+00 -8.662598133087158203e-01 -6.304308772087097168e-01 1.100000000000000000e+01
4.992577552795410156e+00 -1.115058422088623047e+00 -6.281145811080932617e-01 9.000000000000000000e+00
6.682924270629882812e+00 -1.493810534477234109e+00 -5.991085767745971680e-01 5.000000000000000000e+00
1.059674739837645951e+01 -2.372537851333618164e+00 -5.691012144088745117e-01 2.000000000000000000e+00
1.866938018798828125e+01 -4.186788082122802734e+00 -3.339692354202271063e-01 6.000000000000000000e+00
3.772890853881835938e+01 -8.461071014404296875e+00 1.036052608489990057e+01 8.000000000000000000e+00
2.368740558624268022e+00 -5.346876382827758789e-01 -6.506710648536682129e-01 1.900000000000000000e+01
4.580066299438477273e+01 -1.034682750701903942e+01 8.195999264717102051e-01 5.400000000000000000e+01
2.729496717453002930e+00 -6.171212792396545410e-01 -6.460594534873962402e-01 1.400000000000000000e+01
3.195876359939575195e+00 -7.231529951095581055e-01 -6.369204521179199219e-01 1.200000000000000000e+01
3.895415782928466797e+00 -8.828721046447753906e-01 -6.326209902763366699e-01 1.100000000000000000e+01
4.994462490081787109e+00 -1.133797407150268999e+00 -6.288458108901977539e-01 1.000000000000000000e+01
3.614628601074218750e+01 -8.205600738525390625e+00 5.870672702789306641e+00 1.300000000000000000e+01
6.697097778320313388e+00 -1.521543264389038086e+00 -6.008517146110534668e-01 7.000000000000000000e+00
3.568423461914063211e+01 -8.113808631896972656e+00 7.113359451293945312e+00 6.100000000000000000e+01
1.066630077362061080e+01 -2.427239656448363814e+00 -5.732880830764770508e-01 3.000000000000000000e+00
1.867024993896484020e+01 -4.255486011505126953e+00 -3.342484831809998114e-01 3.000000000000000000e+00
3.793270492553710938e+01 -8.645952224731445312e+00 1.042471313476563033e+01 8.000000000000000000e+00
2.357445001602172852e+00 -5.407931208610534668e-01 -6.480829119682312012e-01 1.900000000000000000e+01
2.736822128295897993e+00 -6.288271546363830566e-01 -6.483089327812194824e-01 1.500000000000000000e+01
3.200985908508300781e+00 -7.360641360282897949e-01 -6.384469270706176758e-01 1.200000000000000000e+01
3.882685184478760210e+00 -8.942474722862243652e-01 -6.310566067695617676e-01 1.000000000000000000e+01
4.996277332305908203e+00 -1.152563095092772993e+00 -6.295770406723022461e-01 1.000000000000000000e+01
3.597738647460938211e+01 -8.306034088134765625e+00 5.848145961761474609e+00 1.300000000000000000e+01
6.658743381500244141e+00 -1.537292003631592019e+00 -5.978884100914001465e-01 5.000000000000000000e+00
1.061106109619140980e+01 -2.453658103942871094e+00 -5.707759261131286621e-01 3.000000000000000000e+00
1.806305122375487926e+01 -4.183468341827392578e+00 -3.236374258995056152e-01 9.000000000000000000e+00
3.792710876464843750e+01 -8.791031837463378906e+00 1.043196010589599965e+01 8.000000000000000000e+00
2.363164901733397993e+00 -5.503605008125305176e-01 -6.501534581184387207e-01 2.100000000000000000e+01
2.729028463363647017e+00 -6.365712881088256836e-01 -6.469592452049255371e-01 1.300000000000000000e+01
3.198527574539185014e+00 -7.466749548912048340e-01 -6.384469270706176758e-01 1.200000000000000000e+01
3.868157625198363814e+00 -9.044196009635925293e-01 -6.291794180870056152e-01 1.100000000000000000e+01
4.992427825927734375e+00 -1.169124960899353027e+00 -6.295770406723022461e-01 1.000000000000000000e+01
3.595734024047852273e+01 -8.427097320556640625e+00 5.849397659301757812e+00 1.300000000000000000e+01
6.657488346099854404e+00 -1.560274004936218040e+00 -5.982370376586914062e-01 5.000000000000000000e+00
1.057953262329101918e+01 -2.483355283737183061e+00 -5.695198774337768555e-01 2.000000000000000000e+00
3.788312530517578125e+01 -8.899359703063964844e+00 8.984095573425292969e+00 1.200000000000000000e+01
1.807049179077148082e+01 -4.248378753662109375e+00 -3.240213692188262939e-01 1.200000000000000000e+01
2.370629072189331055e+00 -5.608298778533935547e-01 -6.527416110038757324e-01 1.900000000000000000e+01
2.721101045608520952e+00 -6.447456479072570801e-01 -6.456094980239868164e-01 1.500000000000000000e+01
3.205452919006348100e+00 -7.601002454757690430e-01 -6.403549909591674805e-01 1.200000000000000000e+01
3.876508474349976030e+00 -9.206551313400268555e-01 -6.310566067695617676e-01 1.100000000000000000e+01
4.248646163940429688e+01 -1.009819698333740057e+01 5.362007141113281250e+00 3.300000000000000000e+01
5.001834869384765625e+00 -1.189760208129883035e+00 -6.312832236289978027e-01 1.000000000000000000e+01
3.615446090698242188e+01 -8.606539726257324219e+00 5.886315822601318359e+00 1.300000000000000000e+01
6.692704200744628906e+00 -1.593192696571350098e+00 -6.018975377082824707e-01 5.000000000000000000e+00
1.061742687225341975e+01 -2.531386375427246094e+00 -5.720319747924804688e-01 3.000000000000000000e+00
3.778927993774414062e+01 -9.016616821289062500e+00 8.969248771667480469e+00 2.400000000000000000e+01
1.795441055297851918e+01 -4.287279605865479404e+00 -3.222063183784484863e-01 9.000000000000000000e+00
3.641360473632813211e+01 -8.695095062255859375e+00 1.003130817413330078e+01 8.000000000000000000e+00
2.376170635223389116e+00 -5.709066987037658691e-01 -6.548121571540832520e-01 2.000000000000000000e+01
2.720728635787963867e+00 -6.546960473060607910e-01 -6.460594534873962402e-01 1.300000000000000000e+01
3.200871467590332031e+00 -7.708250880241394043e-01 -6.399733424186706543e-01 1.200000000000000000e+01
3.880952358245850053e+00 -9.360336661338806152e-01 -6.323081254959106445e-01 1.100000000000000000e+01
4.997651576995849609e+00 -1.207212686538696067e+00 -6.312832236289978027e-01 1.000000000000000000e+01
6.665799617767333984e+00 -1.611395239830017090e+00 -5.999801158905029297e-01 5.000000000000000000e+00
1.066676139831542969e+01 -2.582531929016112837e+00 -5.751721858978271484e-01 3.000000000000000000e+00
3.775000000000000000e+01 -9.146635055541992188e+00 8.967449188232421875e+00 2.400000000000000000e+01
2.014507102966308949e+01 -4.884772300720214844e+00 -3.618232905864716131e-01 3.000000000000000000e+00
3.698225021362304688e+01 -8.974282264709472656e+00 1.019695281982422053e+01 8.000000000000000000e+00
2.364779233932495117e+00 -5.769082903861999512e-01 -6.522240042686462402e-01 2.100000000000000000e+01
2.720319747924805132e+00 -6.646516919136047363e-01 -6.465093493461608887e-01 1.500000000000000000e+01
3.198161363601685014e+00 -7.819935083389282227e-01 -6.399733424186706543e-01 1.200000000000000000e+01
3.885336160659790039e+00 -9.514544606208801270e-01 -6.335595846176147461e-01 1.000000000000000000e+01
5.010758399963378906e+00 -1.228905916213989036e+00 -6.334768533706665039e-01 9.000000000000000000e+00
6.685288906097412109e+00 -1.640827298164367898e+00 -6.022461652755737305e-01 5.000000000000000000e+00
1.068095588684082031e+01 -2.625471115112305132e+00 -5.764282345771789551e-01 3.000000000000000000e+00
3.770837783813477273e+01 -9.276024818420410156e+00 8.965199470520019531e+00 1.200000000000000000e+01
3.915659713745117188e+01 -9.646773338317871094e+00 1.080569553375243963e+01 9.000000000000000000e+00
2.353476762771606001e+00 -5.824266076087951660e-01 -6.496357917785644531e-01 1.900000000000000000e+01
2.729449748992919922e+00 -6.764817237854003906e-01 -6.492087244987487793e-01 1.500000000000000000e+01
3.189834117889403853e+00 -7.911768555641174316e-01 -6.388285160064697266e-01 1.000000000000000000e+01
3.878325462341309038e+00 -9.633810520172119141e-01 -6.329338550567626953e-01 1.000000000000000000e+01
5.002802848815917969e+00 -1.244556903839111106e+00 -6.329893469810485840e-01 9.000000000000000000e+00
6.675943851470947266e+00 -1.662024855613708052e+00 -6.018975377082824707e-01 3.000000000000000000e+00
1.071094989776610973e+01 -2.670539617538452148e+00 -5.785216689109802246e-01 3.000000000000000000e+00
3.596815490722656250e+01 -8.974535942077636719e+00 8.558487892150878906e+00 1.100000000000000000e+01
3.915813064575195312e+01 -9.784998893737792969e+00 1.081501293182373047e+01 9.000000000000000000e+00
2.362671136856079102e+00 -5.934619903564453125e-01 -6.527416110038757324e-01 1.900000000000000000e+01
2.728961706161499023e+00 -6.864805817604064941e-01 -6.496586203575134277e-01 1.600000000000000000e+01
3.192764520645142046e+00 -8.037444353103637695e-01 -6.399733424186706543e-01 1.100000000000000000e+01
3.867277145385742188e+00 -9.749814271926879883e-01 -6.316823959350585938e-01 1.100000000000000000e+01
3.634173202514647727e+01 -9.168881416320800781e+00 4.602030277252197266e+00 1.900000000000000000e+01
5.002277851104736328e+00 -1.262984275817871094e+00 -6.334768533706665039e-01 9.000000000000000000e+00
6.695213794708251953e+00 -1.691663026809691939e+00 -6.041635870933532715e-01 3.000000000000000000e+00
1.070156288146973012e+01 -2.707911729812622070e+00 -5.785216689109802246e-01 3.000000000000000000e+00
3.586482238769531250e+01 -9.081855773925781250e+00 8.541391372680664062e+00 1.100000000000000000e+01
1.808937263488769887e+01 -4.584034442901611328e+00 -3.257317245006560724e-01 3.000000000000000000e+00
2.358713150024414062e+00 -6.012284755706787109e-01 -6.522240042686462402e-01 1.900000000000000000e+01
2.720884323120117188e+00 -6.945562362670898438e-01 -6.483089327812194824e-01 1.500000000000000000e+01
3.208961009979248047e+00 -8.197435736656188965e-01 -6.437895298004150391e-01 1.100000000000000000e+01
3.707551574707031250e+01 -9.478000640869140625e+00 3.348000764846802202e+00 4.900000000000000000e+01
3.877246379852294922e+00 -9.919019341468811035e-01 -6.338724493980407715e-01 1.100000000000000000e+01
5.015145301818847656e+00 -1.284871816635132058e+00 -6.356704831123352051e-01 1.000000000000000000e+01
6.706637382507324219e+00 -1.719476699829102007e+00 -6.057324409484863281e-01 5.000000000000000000e+00
1.066109275817870916e+01 -2.737303495407104048e+00 -5.768468976020812988e-01 3.000000000000000000e+00
3.568945693969727273e+01 -9.170134544372558594e+00 8.507199287414550781e+00 1.100000000000000000e+01
1.645030975341796875e+01 -4.229842662811279297e+00 -2.964814901351929266e-01 2.000000000000000000e+00
3.639639282226563211e+01 -9.358548164367675781e+00 1.006961345672607067e+01 8.000000000000000000e+00
2.371562719345093218e+00 -6.133278012275695801e-01 -6.563650965690612793e-01 1.900000000000000000e+01
4.236358261108397727e+01 -1.096385669708251953e+01 7.638220191001892090e-01 4.500000000000000000e+01
2.718443155288695845e+00 -7.040497064590454102e-01 -6.483089327812194824e-01 1.500000000000000000e+01
3.202279329299927202e+00 -8.299548029899597168e-01 -6.430262923240661621e-01 1.200000000000000000e+01
3.885232686996459961e+00 -1.008407592773437944e+00 -6.357496380805969238e-01 1.100000000000000000e+01
3.598094940185546875e+01 -9.345517158508300781e+00 4.564494609832763672e+00 1.900000000000000000e+01
4.985653400421142578e+00 -1.295878291130065918e+00 -6.325019001960754395e-01 9.000000000000000000e+00
3.644752120971679688e+01 -9.473491668701171875e+00 5.964533329010009766e+00 1.300000000000000000e+01
6.710235595703125000e+00 -1.745384454727173074e+00 -6.066039800643920898e-01 3.000000000000000000e+00
1.068239688873291016e+01 -2.782556056976317915e+00 -5.785216689109802246e-01 3.000000000000000000e+00
3.564968490600585938e+01 -9.292692184448242188e+00 8.505399703979492188e+00 1.100000000000000000e+01
3.629081726074218750e+01 -9.473342895507812500e+00 1.004994392395020064e+01 8.000000000000000000e+00
2.361932992935181108e+00 -6.196414828300476074e-01 -6.542945504188537598e-01 1.900000000000000000e+01
2.723508119583129883e+00 -7.155151963233947754e-01 -6.501085758209228516e-01 1.500000000000000000e+01
3.191767692565917969e+00 -8.391310572624206543e-01 -6.414998173713684082e-01 1.200000000000000000e+01
3.889330148696898970e+00 -1.023975133895874023e+00 -6.370011568069458008e-01 1.100000000000000000e+01
3.598266220092772727e+01 -9.480159759521484375e+00 4.568881511688232422e+00 1.900000000000000000e+01
5.000294685363770419e+00 -1.318334341049193892e+00 -6.349392533302307129e-01 9.000000000000000000e+00
3.603220748901367188e+01 -9.499938964843750000e+00 5.901959419250488281e+00 1.300000000000000000e+01
6.700249671936035156e+00 -1.767780423164367898e+00 -6.062553524971008301e-01 5.000000000000000000e+00
1.071123886108398082e+01 -2.830031394958496094e+00 -5.806151032447814941e-01 3.000000000000000000e+00
3.652813339233397727e+01 -9.664791107177734375e+00 1.012448310852050959e+01 1.600000000000000000e+01
2.352288007736206055e+00 -6.258954405784606934e-01 -6.522240042686462402e-01 1.900000000000000000e+01
4.238262939453125000e+01 -1.128506660461425959e+01 7.655672430992126465e-01 4.500000000000000000e+01
2.720993995666503906e+00 -7.250176668167114258e-01 -6.501085758209228516e-01 1.500000000000000000e+01
3.194509983062744141e+00 -8.517847061157226562e-01 -6.426447033882141113e-01 1.200000000000000000e+01
3.874280929565430132e+00 -1.034487605094909890e+00 -6.351239085197448730e-01 1.100000000000000000e+01
3.601839065551757812e+01 -9.624153137207031250e+00 4.577656269073486328e+00 1.900000000000000000e+01
4.993744850158691406e+00 -1.335267782211303933e+00 -6.346955299377441406e-01 1.000000000000000000e+01
3.573762512207031250e+01 -9.562499046325683594e+00 5.859409332275390625e+00 1.300000000000000000e+01
6.699811935424804688e+00 -1.792702913284301980e+00 -6.067782640457153320e-01 5.000000000000000000e+00
1.068586158752441051e+01 -2.863267898559569868e+00 -5.797777175903320312e-01 3.000000000000000000e+00
3.608199691772460938e+01 -9.688393592834472656e+00 1.001060295104979936e+01 8.000000000000000000e+00
2.350088834762572798e+00 -6.341026425361633301e-01 -6.522240042686462402e-01 1.900000000000000000e+01
4.229664230346679688e+01 -1.142043018341063920e+01 7.647295594215393066e-01 4.500000000000000000e+01
2.716565370559691939e+00 -7.340029478073120117e-01 -6.496586203575134277e-01 1.400000000000000000e+01
3.187726974487305132e+00 -8.619055747985839844e-01 -6.418814659118652344e-01 1.200000000000000000e+01
3.863019466400146040e+00 -1.045940041542053001e+00 -6.338724493980407715e-01 1.200000000000000000e+01
3.649806976318358664e+01 -9.888949394226074219e+00 4.642978191375732422e+00 1.900000000000000000e+01
5.008212566375732422e+00 -1.357885718345642090e+00 -6.371329426765441895e-01 1.000000000000000000e+01
6.689667701721191406e+00 -1.815035223960876021e+00 -6.064296364784240723e-01 5.000000000000000000e+00
1.070278549194335938e+01 -2.907882452011107954e+00 -5.812431573867797852e-01 3.000000000000000000e+00
3.677293777465820312e+01 -1.000477123260498047e+01 1.021144676208495916e+01 8.000000000000000000e+00
2.351587772369385210e+00 -6.433216333389282227e-01 -6.532592773437500000e-01 1.900000000000000000e+01
2.702709674835205078e+00 -7.403918504714965820e-01 -6.469592452049255371e-01 1.400000000000000000e+01
3.196059226989746094e+00 -8.761418461799621582e-01 -6.441711783409118652e-01 1.200000000000000000e+01
3.870774269104003906e+00 -1.062555551528931108e+00 -6.357496380805969238e-01 1.200000000000000000e+01
3.640590286254882812e+01 -1.000051689147949041e+01 4.635665893554688388e+00 1.900000000000000000e+01
4.995785713195800781e+00 -1.373254776000977007e+00 -6.361579895019531250e-01 1.000000000000000000e+01
6.717869758605957031e+00 -1.847887039184570090e+00 -6.095672845840454102e-01 6.000000000000000000e+00
3.622925567626953125e+01 -9.972396850585937500e+00 7.304168224334716797e+00 6.200000000000000000e+01
1.069256973266601918e+01 -2.945224285125731978e+00 -5.812431573867797852e-01 3.000000000000000000e+00
3.575649261474608664e+01 -9.869125366210937500e+00 9.939168930053710938e+00 8.000000000000000000e+00
2.353164911270142046e+00 -6.521481275558471680e-01 -6.542945504188537598e-01 1.900000000000000000e+01
2.709628582000731978e+00 -7.519558072090148926e-01 -6.492087244987487793e-01 1.600000000000000000e+01
3.191244602203369141e+00 -8.862102031707763672e-01 -6.437895298004150391e-01 1.200000000000000000e+01
3.600683975219727273e+01 -1.000588607788085938e+01 3.269560575485229048e+00 4.700000000000000000e+01
3.863423109054564986e+00 -1.074327230453490989e+00 -6.351239085197448730e-01 1.200000000000000000e+01
5.000765800476074219e+00 -1.392476320266724077e+00 -6.373766660690307617e-01 9.000000000000000000e+00
3.799107742309570312e+01 -1.057871437072754084e+01 6.246115207672119141e+00 1.400000000000000000e+01
6.694431781768798828e+00 -1.865341067314147949e+00 -6.079984903335571289e-01 5.000000000000000000e+00
1.076354312896729049e+01 -3.003210306167602983e+00 -5.856393575668334961e-01 3.000000000000000000e+00
3.549087905883789062e+01 -9.915908813476562500e+00 9.873946189880371094e+00 7.000000000000000000e+00
2.356453895568848100e+00 -6.619255542755126953e-01 -6.558474898338317871e-01 1.900000000000000000e+01
2.718242883682250977e+00 -7.645755410194396973e-01 -6.519081592559814453e-01 1.600000000000000000e+01
3.188131809234619141e+00 -8.973443508148193359e-01 -6.437895298004150391e-01 1.200000000000000000e+01
3.886267900466918945e+00 -1.095308661460876021e+00 -6.395040750503540039e-01 1.100000000000000000e+01
3.663885498046875000e+01 -1.033322620391846058e+01 4.674176692962645596e+00 2.000000000000000000e+01
4.992053985595703125e+00 -1.408845424652100053e+00 -6.368891596794128418e-01 9.000000000000000000e+00
6.701301574707031250e+00 -1.892488002777100053e+00 -6.092186570167541504e-01 5.000000000000000000e+00
1.076068210601806996e+01 -3.042937517166138139e+00 -5.860580205917358398e-01 3.000000000000000000e+00
3.808166503906250000e+01 -1.077602577209473012e+01 9.137062072753906250e+00 1.200000000000000000e+01
2.674426460266112926e+01 -7.572906017303466797e+00 -4.851768910884857178e-01 4.000000000000000000e+00
3.861776733398438211e+01 -1.094228744506835938e+01 1.075496673583984020e+01 9.000000000000000000e+00
2.337406635284423828e+00 -6.653867363929748535e-01 -6.511887311935424805e-01 1.900000000000000000e+01
2.719305515289307085e+00 -7.751277089118957520e-01 -6.528079509735107422e-01 1.500000000000000000e+01
3.192531824111938032e+00 -9.106215834617614746e-01 -6.453160047531127930e-01 1.300000000000000000e+01
3.874823093414307085e+00 -1.106697559356689009e+00 -6.382526159286499023e-01 1.100000000000000000e+01
3.693085479736328125e+01 -1.055488300323485973e+01 4.716099739074707031e+00 2.000000000000000000e+01
5.004282951354979581e+00 -1.431174874305725098e+00 -6.390828490257263184e-01 1.000000000000000000e+01
6.694654464721679688e+00 -1.915868401527405007e+00 -6.092186570167541504e-01 3.000000000000000000e+00
3.511300277709960938e+01 -1.005522823333740057e+01 7.099621295928955078e+00 6.100000000000000000e+01
1.080375385284424006e+01 -3.095885992050170898e+00 -5.889888405799865723e-01 3.000000000000000000e+00
3.749311447143554688e+01 -1.075805950164794922e+01 1.045163059234618963e+01 8.000000000000000000e+00
2.335069656372069868e+00 -6.735417842864990234e-01 -6.511887311935424805e-01 1.900000000000000000e+01
2.716583251953125000e+00 -7.846151590347290039e-01 -6.528079509735107422e-01 1.500000000000000000e+01
3.189333677291870117e+00 -9.217600226402282715e-01 -6.453160047531127930e-01 1.300000000000000000e+01
3.863346338272095171e+00 -1.118020057678223100e+00 -6.370011568069458008e-01 1.100000000000000000e+01
3.639802932739257812e+01 -1.054016971588134943e+01 4.652727603912354404e+00 1.900000000000000000e+01
5.012603282928466797e+00 -1.452501773834228960e+00 -6.407890319824218750e-01 1.100000000000000000e+01
6.697494029998779297e+00 -1.941999673843384011e+00 -6.100901961326599121e-01 3.000000000000000000e+00
1.079288101196289062e+01 -3.133579254150391069e+00 -5.889888405799865723e-01 3.000000000000000000e+00
3.842171859741210938e+01 -1.117708587646484020e+01 1.072183799743651988e+01 9.000000000000000000e+00
2.345684528350830078e+00 -6.854817867279052734e-01 -6.548121571540832520e-01 1.900000000000000000e+01
2.698865413665771040e+00 -7.897148132324218750e-01 -6.492087244987487793e-01 1.600000000000000000e+01
3.184212684631348100e+00 -9.323356151580810547e-01 -6.449344158172607422e-01 1.200000000000000000e+01
3.863211393356322798e+00 -1.132610321044922097e+00 -6.376268863677978516e-01 1.100000000000000000e+01
3.626577758789063211e+01 -1.063921833038330078e+01 4.640541076660156250e+00 1.900000000000000000e+01
4.996074199676513672e+00 -1.466635346412658913e+00 -6.393265724182128906e-01 1.000000000000000000e+01
6.709790706634520596e+00 -1.970981836318969949e+00 -6.118333339691162109e-01 3.000000000000000000e+00
3.520393753051757812e+01 -1.034773063659667969e+01 7.132440090179443359e+00 6.100000000000000000e+01
1.078187751770020064e+01 -3.171234369277954102e+00 -5.889888405799865723e-01 3.000000000000000000e+00
2.716607475280762074e+01 -8.000562667846679688e+00 -4.943219721317291260e-01 4.000000000000000000e+00
2.352539300918579102e+00 -6.964073181152343750e-01 -6.574003696441650391e-01 2.100000000000000000e+01
2.697960853576660156e+00 -7.996845841407775879e-01 -6.496586203575134277e-01 1.400000000000000000e+01
3.177174329757689986e+00 -9.423283934593200684e-01 -6.441711783409118652e-01 1.200000000000000000e+01
3.859234333038330078e+00 -1.146088480949402078e+00 -6.376268863677978516e-01 1.100000000000000000e+01
3.630453109741210938e+01 -1.078836250305175959e+01 4.650290489196777344e+00 1.900000000000000000e+01
4.994729995727539062e+00 -1.485197544097899947e+00 -6.398140788078308105e-01 9.000000000000000000e+00
3.647525787353516336e+01 -1.084602546691895064e+01 6.027107238769531250e+00 1.300000000000000000e+01
6.721966266632080078e+00 -2.000073432922362837e+00 -6.135764122009277344e-01 2.000000000000000000e+00
1.077074241638183949e+01 -3.208850860595703125e+00 -5.889888405799865723e-01 3.000000000000000000e+00
3.880755996704102273e+01 -1.157641124725341975e+01 1.085124683380126953e+01 9.000000000000000000e+00
2.352067708969116211e+00 -7.047592997550964355e-01 -6.579180359840393066e-01 1.900000000000000000e+01
2.706493377685546875e+00 -8.119869232177734375e-01 -6.523580551147460938e-01 1.300000000000000000e+01
3.166510581970214844e+00 -9.506011605262756348e-01 -6.426447033882141113e-01 1.200000000000000000e+01
3.864871263504027876e+00 -1.161723136901855025e+00 -6.391912102699279785e-01 1.100000000000000000e+01
4.993578910827636719e+00 -1.502896666526793990e+00 -6.403015255928039551e-01 9.000000000000000000e+00
6.709573745727539062e+00 -2.020629644393920898e+00 -6.130535006523132324e-01 3.000000000000000000e+00
1.079828643798827947e+01 -3.256082296371459961e+00 -5.910822749137878418e-01 3.000000000000000000e+00
3.842496871948242188e+01 -1.160118198394775035e+01 1.075496673583984020e+01 9.000000000000000000e+00
2.340350151062012163e+00 -7.101604938507080078e-01 -6.553298234939575195e-01 1.900000000000000000e+01
2.703642606735229048e+00 -8.214293718338012695e-01 -6.523580551147460938e-01 1.400000000000000000e+01
3.174443244934082031e+00 -9.650748372077941895e-01 -6.449344158172607422e-01 1.300000000000000000e+01
3.872131109237670898e+00 -1.178658366203308105e+00 -6.410684585571289062e-01 1.100000000000000000e+01
5.003493309020996094e+00 -1.524948239326477051e+00 -6.422514319419860840e-01 9.000000000000000000e+00
6.704385280609130859e+00 -2.044619321823120117e+00 -6.132277846336364746e-01 5.000000000000000000e+00
1.082505798339843928e+01 -3.305421113967895952e+00 -5.931757092475891113e-01 3.000000000000000000e+00
3.894923400878906250e+01 -1.190054321289063033e+01 9.402503967285156250e+00 1.200000000000000000e+01
3.924304962158203125e+01 -1.200529479980468928e+01 1.099618625640868963e+01 1.000000000000000000e+01
2.339703559875487837e+00 -7.188929319381713867e-01 -6.558474898338317871e-01 1.900000000000000000e+01
2.708209037780762163e+00 -8.331539034843444824e-01 -6.541576385498046875e-01 1.400000000000000000e+01
3.180437088012694868e+00 -9.790378212928771973e-01 -6.468424797058105469e-01 1.200000000000000000e+01
3.862329959869385210e+00 -1.190421938896178977e+00 -6.401298046112060547e-01 1.100000000000000000e+01
5.003830432891845703e+00 -1.544160485267638938e+00 -6.429826617240905762e-01 1.100000000000000000e+01
3.584252166748046875e+01 -1.106769943237305043e+01 5.941380977630615234e+00 1.300000000000000000e+01
6.712436676025390625e+00 -2.072712182998656782e+00 -6.146222949028015137e-01 3.000000000000000000e+00
1.079437255859375000e+01 -3.337288141250609907e+00 -5.921289920806884766e-01 3.000000000000000000e+00
3.912182235717772727e+01 -1.211022758483887074e+01 1.097340965270995916e+01 1.000000000000000000e+01
2.337179899215697798e+00 -7.270556092262268066e-01 -6.558474898338317871e-01 1.900000000000000000e+01
2.694120883941649947e+00 -8.391252160072326660e-01 -6.514582633972167969e-01 1.400000000000000000e+01
3.178874492645264116e+00 -9.907178282737731934e-01 -6.472241282463073730e-01 1.200000000000000000e+01
3.854379653930664062e+00 -1.202719926834106001e+00 -6.395040750503540039e-01 1.100000000000000000e+01
4.985146522521972656e+00 -1.557473897933959961e+00 -6.412764787673950195e-01 9.000000000000000000e+00
6.705160617828369141e+00 -2.096130371093750000e+00 -6.146222949028015137e-01 3.000000000000000000e+00
1.079790687561034979e+01 -3.379719972610474077e+00 -5.929663777351379395e-01 3.000000000000000000e+00
1.375041675567626953e+01 -4.309119701385498047e+00 -2.515240907669066828e-01 2.000000000000000000e+00
3.908300018310546875e+01 -1.224786949157715021e+01 1.097444534301757990e+01 1.000000000000000000e+01
2.343969821929932085e+00 -7.377017736434936523e-01 -6.584356427192687988e-01 1.900000000000000000e+01
2.693181991577147993e+00 -8.486402630805969238e-01 -6.519081592559814453e-01 1.500000000000000000e+01
3.173699378967285156e+00 -1.000663518905640093e+00 -6.468424797058105469e-01 1.300000000000000000e+01
3.857905149459838867e+00 -1.217873573303223100e+00 -6.407555937767028809e-01 1.100000000000000000e+01
3.548625946044921875e+01 -1.120920562744140980e+01 4.569369316101074219e+00 1.900000000000000000e+01
4.972383022308349609e+00 -1.571603655815124956e+00 -6.403015255928039551e-01 9.000000000000000000e+00
6.690574169158936435e+00 -2.115950822830200195e+00 -6.139250397682189941e-01 3.000000000000000000e+00
3.470261001586914062e+01 -1.098165702819824041e+01 7.075197696685791016e+00 6.100000000000000000e+01
1.082852935791015980e+01 -3.428772449493408203e+00 -5.952691435813903809e-01 3.000000000000000000e+00
3.879490280151367188e+01 -1.229156494140625000e+01 9.395305633544921875e+00 1.200000000000000000e+01
3.990400314331054688e+01 -1.265062999725341975e+01 1.121669960021973012e+01 1.000000000000000000e+01
2.334017753601074219e+00 -7.435337305068969727e-01 -6.563650965690612793e-01 1.900000000000000000e+01
2.701342821121215820e+00 -8.615890145301818848e-01 -6.546075940132141113e-01 1.500000000000000000e+01
3.166446447372436968e+00 -1.010541915893554910e+00 -6.460792422294616699e-01 1.200000000000000000e+01
3.864920377731322798e+00 -1.234940171241760032e+00 -6.426327824592590332e-01 1.100000000000000000e+01
4.989554882049561435e+00 -1.596209168434143066e+00 -6.432263851165771484e-01 9.000000000000000000e+00
6.690737724304199219e+00 -2.141721963882445845e+00 -6.146222949028015137e-01 2.000000000000000000e+00
1.081649494171142933e+01 -3.466550350189208984e+00 -5.952691435813903809e-01 3.000000000000000000e+00
2.325761079788208008e+00 -7.503039240837097168e-01 -6.548121571540832520e-01 1.900000000000000000e+01
2.705584526062012163e+00 -8.738799691200256348e-01 -6.564071774482727051e-01 1.500000000000000000e+01
3.162721157073975053e+00 -1.022140741348267046e+00 -6.460792422294616699e-01 1.100000000000000000e+01
3.858488798141479048e+00 -1.248489379882812944e+00 -6.423199176788330078e-01 1.000000000000000000e+01
4.983671188354492188e+00 -1.614486098289489968e+00 -6.432263851165771484e-01 9.000000000000000000e+00
6.682842731475830078e+00 -2.166230440139770952e+00 -6.146222949028015137e-01 2.000000000000000000e+00
1.081511497497558949e+01 -3.509870529174805132e+00 -5.958971977233886719e-01 3.000000000000000000e+00
2.326800823211669922e+00 -7.596168518066406250e-01 -6.558474898338317871e-01 2.000000000000000000e+01
2.691403627395629883e+00 -8.796863555908203125e-01 -6.537077426910400391e-01 1.500000000000000000e+01
3.170330047607421875e+00 -1.036836028099060059e+00 -6.483689546585083008e-01 1.200000000000000000e+01
3.848475217819213867e+00 -1.260106325149535911e+00 -6.413813233375549316e-01 1.100000000000000000e+01
4.985550403594970703e+00 -1.634346008300781028e+00 -6.442013382911682129e-01 9.000000000000000000e+00
6.692278861999511719e+00 -2.195133447647095171e+00 -6.161910891532897949e-01 3.000000000000000000e+00
1.082936286926270064e+01 -3.556325197219849077e+00 -5.973625779151916504e-01 3.000000000000000000e+00
4.058189010620117188e+01 -1.334264659881591975e+01 1.144653129577637074e+01 1.100000000000000000e+01
2.329638242721558061e+00 -7.695521712303161621e-01 -6.574003696441650391e-01 1.900000000000000000e+01
2.684616327285767046e+00 -8.878519535064697266e-01 -6.528079509735107422e-01 1.500000000000000000e+01
3.174146890640258789e+00 -1.050363302230834961e+00 -6.498954296112060547e-01 1.200000000000000000e+01
3.842178106307982954e+00 -1.272911071777343972e+00 -6.410684585571289062e-01 1.100000000000000000e+01
3.872723007202147727e+01 -1.283780670166015980e+01 5.009561061859130859e+00 2.400000000000000000e+01
4.983583450317382812e+00 -1.652988672256469949e+00 -6.446888446807861328e-01 9.000000000000000000e+00
6.694030761718750000e+00 -2.221618413925170898e+00 -6.170626878738403320e-01 3.000000000000000000e+00
1.085479068756104049e+01 -3.606700420379639116e+00 -5.994560718536376953e-01 3.000000000000000000e+00
4.044106674194335938e+01 -1.346079158782958984e+01 1.142064952850341975e+01 1.100000000000000000e+01
2.336098909378052202e+00 -7.807411551475524902e-01 -6.599885821342468262e-01 1.900000000000000000e+01
2.685196876525878906e+00 -8.984543085098266602e-01 -6.537077426910400391e-01 1.600000000000000000e+01
3.166737794876099077e+00 -1.060190200805664062e+00 -6.491321921348571777e-01 1.300000000000000000e+01
3.847076177597045898e+00 -1.289453983306884988e+00 -6.426327824592590332e-01 1.100000000000000000e+01
4.966491222381591797e+00 -1.666585445404052956e+00 -6.432263851165771484e-01 9.000000000000000000e+00
6.690012454986572266e+00 -2.246239662170410156e+00 -6.174112558364868164e-01 5.000000000000000000e+00
1.077398109436034979e+01 -3.621658802032471147e+00 -5.956878662109375000e-01 3.000000000000000000e+00
2.326313495635985884e+00 -7.856039404869079590e-01 -6.579180359840393066e-01 2.000000000000000000e+01
2.682361125946044922e+00 -9.068856239318847656e-01 -6.537077426910400391e-01 1.500000000000000000e+01
3.150373458862305132e+00 -1.065729737281799094e+00 -6.464608907699584961e-01 1.200000000000000000e+01
3.841135263442993164e+00 -1.300899863243103027e+00 -6.423199176788330078e-01 1.000000000000000000e+01
4.963110923767089844e+00 -1.682817339897155984e+00 -6.434701085090637207e-01 1.100000000000000000e+01
6.686696052551270419e+00 -2.268526077270507812e+00 -6.177598834037780762e-01 5.000000000000000000e+00
1.079280853271484020e+01 -3.665765762329102007e+00 -5.973625779151916504e-01 3.000000000000000000e+00
4.005827713012695312e+01 -1.362914848327637074e+01 1.133782672882080078e+01 1.100000000000000000e+01
2.314416408538817915e+00 -7.905970811843872070e-01 -6.553298234939575195e-01 2.100000000000000000e+01
2.688398599624633789e+00 -9.193962216377258301e-01 -6.559572815895080566e-01 1.400000000000000000e+01
3.159636735916138139e+00 -1.081169366836548074e+00 -6.491321921348571777e-01 1.300000000000000000e+01
3.836570978164672852e+00 -1.314299941062927024e+00 -6.423199176788330078e-01 1.100000000000000000e+01
4.962840080261229581e+00 -1.702063560485840066e+00 -6.442013382911682129e-01 9.000000000000000000e+00
6.691928386688232422e+00 -2.296380043029785156e+00 -6.189801096916198730e-01 5.000000000000000000e+00
1.054572296142577947e+01 -3.622950553894042969e+00 -5.843833088874816895e-01 3.000000000000000000e+00
4.032822418212891336e+01 -1.386250591278075994e+01 9.845208168029785156e+00 1.300000000000000000e+01
4.008352661132813211e+01 -1.379404067993164062e+01 1.135853290557860973e+01 1.100000000000000000e+01
2.313328981399536133e+00 -7.997057437896728516e-01 -6.558474898338317871e-01 2.000000000000000000e+01
2.696060180664062944e+00 -9.330675601959228516e-01 -6.586567163467407227e-01 1.400000000000000000e+01
3.153797626495360884e+00 -1.092100381851196067e+00 -6.487506031990051270e-01 1.200000000000000000e+01
3.835460901260375977e+00 -1.329646944999695046e+00 -6.429456472396850586e-01 1.000000000000000000e+01
4.979072570800781250e+00 -1.728052258491515891e+00 -6.471261978149414062e-01 9.000000000000000000e+00
6.679702758789063388e+00 -2.319584608078002930e+00 -6.186314821243286133e-01 5.000000000000000000e+00
1.049275684356688920e+01 -3.647805452346802202e+00 -5.821851491928100586e-01 9.000000000000000000e+00
4.033070373535156250e+01 -1.403674411773681996e+01 1.144239044189452947e+01 1.100000000000000000e+01
2.323288679122924805e+00 -8.122387528419494629e-01 -6.594709157943725586e-01 2.100000000000000000e+01
2.679911375045775923e+00 -9.379665255546569824e-01 -6.555073857307434082e-01 1.500000000000000000e+01
4.007409667968750000e+01 -1.402589797973632990e+01 2.225115537643433061e+00 2.900000000000000000e+01
3.161083698272705078e+00 -1.106995820999145952e+00 -6.510403156280517578e-01 1.300000000000000000e+01
3.821475505828856978e+00 -1.339759349822998047e+00 -6.413813233375549316e-01 1.000000000000000000e+01
4.965517997741699219e+00 -1.742792248725890891e+00 -6.461512446403503418e-01 9.000000000000000000e+00
6.701642513275145596e+00 -2.353449344635010210e+00 -6.214204430580139160e-01 5.000000000000000000e+00
1.083984375000000000e+01 -3.810933113098144975e+00 -6.021775007247924805e-01 3.000000000000000000e+00
4.000739288330078125e+01 -1.407313251495360973e+01 9.791219711303710938e+00 1.300000000000000000e+01
4.011134719848632812e+01 -1.412543487548827947e+01 1.139476680755615057e+01 1.100000000000000000e+01
2.329402446746826172e+00 -8.239697217941284180e-01 -6.620591282844543457e-01 1.800000000000000000e+01
2.680129528045653853e+00 -9.490836262702941895e-01 -6.564071774482727051e-01 1.500000000000000000e+01
3.160706281661986861e+00 -1.119885683059691939e+00 -6.518035531044006348e-01 1.200000000000000000e+01
