-2.433671236038208008e+00 5.453280806541442871e-01 -6.682707667350769043e-01 1.500000000000000000e+01
-2.823633193969727007e+00 6.337444782257080078e-01 -6.681046485900878906e-01 1.400000000000000000e+01
-3.331094980239868164e+00 7.482514381408691406e-01 -6.636337041854858398e-01 1.300000000000000000e+01
-4.108789920806884766e+00 9.244487881660461426e-01 -6.670365333557128906e-01 1.000000000000000000e+01
-5.352558135986328125e+00 1.206251025199889915e+00 -6.736937165260314941e-01 1.200000000000000000e+01
-7.626561641693115234e+00 1.720118641853332964e+00 -6.839982867240905762e-01 1.000000000000000000e+00
-3.368709182739257812e+01 7.622611045837402344e+00 -6.028759479522705078e-01 1.300000000000000000e+01
-2.424218416213988814e+00 5.521038770675659180e-01 -6.662002205848693848e-01 1.600000000000000000e+01
-2.819503784179687944e+00 6.431635618209838867e-01 -6.676547527313232422e-01 1.300000000000000000e+01
-3.330376863479613814e+00 7.603115439414978027e-01 -6.640152931213378906e-01 1.200000000000000000e+01
-4.090132236480712891e+00 9.352628588676452637e-01 -6.645336151123046875e-01 1.000000000000000000e+01
-5.340575218200683594e+00 1.223154902458190918e+00 -6.727187633514404297e-01 1.200000000000000000e+01
-7.604974746704101562e+00 1.743168711662292036e+00 -6.826037764549255371e-01 1.000000000000000000e+00
-3.357063293457031250e+01 7.719540596008300781e+00 -6.012703180313110352e-01 1.300000000000000000e+01
-2.422276258468627930e+00 5.605626106262207031e-01 -6.662002205848693848e-01 1.900000000000000000e+01
-2.800155878067017046e+00 6.490412950515747070e-01 -6.636056303977966309e-01 1.300000000000000000e+01
-3.335352420806885210e+00 7.737066149711608887e-01 -6.655417680740356445e-01 1.300000000000000000e+01
-4.086842536926270419e+00 9.495344161987304688e-01 -6.645336151123046875e-01 1.000000000000000000e+01
-5.340139865875244141e+00 1.242689490318297896e+00 -6.732062697410583496e-01 1.200000000000000000e+01
-7.591081619262695312e+00 1.767896771430969016e+00 -6.819065213203430176e-01 1.000000000000000000e+00
-3.355321884155272727e+01 7.838951587677001953e+00 -6.014448404312133789e-01 2.000000000000000000e+01
-2.424066066741942915e+00 5.698987841606140137e-01 -6.672354936599731445e-01 2.200000000000000000e+01
-2.797873258590697798e+00 6.588116884231567383e-01 -6.636056303977966309e-01 1.400000000000000000e+01
-3.323076963424683061e+00 7.830929160118103027e-01 -6.636337041854858398e-01 1.200000000000000000e+01
-4.087348461151123047e+00 9.647018909454345703e-01 -6.651593446731567383e-01 1.000000000000000000e+01
-5.328042030334472656e+00 1.259495735168457031e+00 -6.722313165664672852e-01 1.200000000000000000e+01
-7.586802959442138672e+00 1.794842481613158958e+00 -6.820808649063110352e-01 2.000000000000000000e+00
-3.363655471801757812e+01 7.982344627380371094e+00 -6.034343838691711426e-01 1.300000000000000000e+01
-2.422061920166016069e+00 5.783568620681762695e-01 -6.672354936599731445e-01 2.100000000000000000e+01
-2.806928396224976030e+00 6.712937355041503906e-01 -6.663050055503845215e-01 1.400000000000000000e+01
-3.303139209747314009e+00 7.905750274658203125e-01 -6.601991057395935059e-01 1.300000000000000000e+01
-4.103165626525878906e+00 9.835682511329650879e-01 -6.682880520820617676e-01 1.000000000000000000e+01
-5.319752693176270419e+00 1.277159571647644043e+00 -6.717438101768493652e-01 1.200000000000000000e+01
-7.559182167053222656e+00 1.816194415092468040e+00 -6.801634430885314941e-01 1.000000000000000000e+00
-3.358515930175781250e+01 8.094087600708007812e+00 -6.030155420303344727e-01 1.300000000000000000e+01
-2.410641193389893022e+00 5.845317244529724121e-01 -6.646472811698913574e-01 2.000000000000000000e+01
-2.808355331420897993e+00 6.820073723793029785e-01 -6.672048568725585938e-01 1.100000000000000000e+01
-3.313713550567626953e+00 8.053457736968994141e-01 -6.628704667091369629e-01 1.300000000000000000e+01
-4.080513954162597656e+00 9.932132363319396973e-01 -6.651593446731567383e-01 1.000000000000000000e+01
-5.307547569274902344e+00 1.293840646743773970e+00 -6.707688570022583008e-01 1.200000000000000000e+01
-7.587637424468994141e+00 1.851069688796997070e+00 -6.833010315895080566e-01 0.000000000000000000e+00
-3.356835556030272727e+01 8.214123725891113281e+00 -6.032249927520751953e-01 1.300000000000000000e+01
-2.404834270477294922e+00 5.920192599296569824e-01 -6.636120080947875977e-01 1.900000000000000000e+01
-2.802173376083374023e+00 6.908732652664184570e-01 -6.663050055503845215e-01 1.300000000000000000e+01
-3.314694166183472124e+00 8.178485035896301270e-01 -6.636337041854858398e-01 1.300000000000000000e+01
-4.063598155975341797e+00 1.004133701324462891e+00 -6.629692912101745605e-01 1.000000000000000000e+01
-5.314560890197753906e+00 1.315220832824707031e+00 -6.722313165664672852e-01 1.200000000000000000e+01
-7.532780647277832031e+00 1.865570068359375000e+00 -6.789432168006896973e-01 2.000000000000000000e+00
-1.323040485382080078e+01 3.281546831130981001e+00 -7.143858075141906738e-01 4.000000000000000000e+00
-3.364039230346679688e+01 8.356317520141601562e+00 -6.050400137901306152e-01 1.300000000000000000e+01
-2.408375740051269975e+00 6.018151044845581055e-01 -6.651649475097656250e-01 1.900000000000000000e+01
-2.784621238708496094e+00 6.968656778335571289e-01 -6.627057790756225586e-01 1.200000000000000000e+01
-3.313723802566527876e+00 8.298909068107604980e-01 -6.640152931213378906e-01 1.200000000000000000e+01
-4.060068607330322266e+00 1.018312215805053933e+00 -6.629692912101745605e-01 9.000000000000000000e+00
-5.290684700012207031e+00 1.328928112983704057e+00 -6.697939038276672363e-01 1.100000000000000000e+01
-7.528154850006104404e+00 1.892338752746582031e+00 -6.791175603866577148e-01 2.000000000000000000e+00
-1.312202739715575994e+01 3.303330659866333008e+00 -7.091522216796875000e-01 4.000000000000000000e+00
-3.368857955932617188e+01 8.493247032165527344e+00 -6.064361929893493652e-01 1.300000000000000000e+01
-2.406366825103760210e+00 6.097982525825500488e-01 -6.651649475097656250e-01 1.900000000000000000e+01
-2.793628215789794922e+00 7.089721560478210449e-01 -6.654052138328552246e-01 1.400000000000000000e+01
-3.303342103958129883e+00 8.389419913291931152e-01 -6.624888181686401367e-01 1.400000000000000000e+01
-4.060498237609863281e+00 1.032744050025939941e+00 -6.635950207710266113e-01 1.000000000000000000e+01
-5.263164520263671875e+00 1.340585589408874956e+00 -6.668690443038940430e-01 1.300000000000000000e+01
-7.533422470092773438e+00 1.920245289802551047e+00 -6.801634430885314941e-01 2.000000000000000000e+00
-1.301424121856688920e+01 3.322126865386962891e+00 -7.039186358451843262e-01 4.000000000000000000e+00
-3.371060180664063211e+01 8.617793083190917969e+00 -6.073437333106994629e-01 1.300000000000000000e+01
-2.404223680496215820e+00 6.181943416595458984e-01 -6.651649475097656250e-01 1.900000000000000000e+01
-2.787362098693848100e+00 7.177475094795227051e-01 -6.645054221153259277e-01 1.400000000000000000e+01
-3.302294731140137163e+00 8.509576320648193359e-01 -6.628704667091369629e-01 1.400000000000000000e+01
-4.060693740844726562e+00 1.047898769378662109e+00 -6.642207503318786621e-01 9.000000000000000000e+00
-6.094198989868164062e+01 1.573797702789306996e+01 7.728222370147705078e+00 6.300000000000000000e+01
-5.262296676635742188e+00 1.359942674636841042e+00 -6.673565506935119629e-01 1.100000000000000000e+01
-7.491952896118164062e+00 1.937550783157349077e+00 -6.770257949829101562e-01 1.000000000000000000e+00
-1.300256538391112926e+01 3.367534875869750977e+00 -7.039186358451843262e-01 4.000000000000000000e+00
-3.373838424682617188e+01 8.750473976135253906e+00 -6.083908677101135254e-01 1.300000000000000000e+01
-2.400181770324707031e+00 6.260952949523925781e-01 -6.646472811698913574e-01 1.900000000000000000e+01
-2.790496110916138139e+00 7.289504408836364746e-01 -6.658551096916198730e-01 1.300000000000000000e+01
-3.282209396362305132e+00 8.580107688903808594e-01 -6.594358682632446289e-01 1.200000000000000000e+01
-4.053189277648925781e+00 1.061066269874572976e+00 -6.635950207710266113e-01 9.000000000000000000e+00
-6.088668060302733664e+01 1.595060825347900035e+01 7.728222370147705078e+00 6.300000000000000000e+01
-5.265198230743408203e+00 1.380316853523253950e+00 -6.683315038681030273e-01 1.100000000000000000e+01
-7.435037136077880859e+00 1.950545549392699973e+00 -6.724936962127685547e-01 1.000000000000000000e+00
-1.299073123931884943e+01 3.412901639938354048e+00 -7.039186358451843262e-01 4.000000000000000000e+00
-3.375404739379882812e+01 8.880399703979492188e+00 -6.092286109924316406e-01 1.300000000000000000e+01
-2.397981643676757812e+00 6.344696879386901855e-01 -6.646472811698913574e-01 1.900000000000000000e+01
-2.786050796508789062e+00 7.381875514984130859e-01 -6.654052138328552246e-01 1.400000000000000000e+01
-3.290580272674560991e+00 8.724815845489501953e-01 -6.617255806922912598e-01 1.400000000000000000e+01
-4.039914608001708984e+00 1.072673439979553001e+00 -6.620306372642517090e-01 1.000000000000000000e+01
-5.248837471008300781e+00 1.395626783370971902e+00 -6.668690443038940430e-01 1.100000000000000000e+01
-7.447437286376953125e+00 1.981609821319580078e+00 -6.742368340492248535e-01 1.000000000000000000e+00
-1.283592414855957031e+01 3.420173645019530806e+00 -6.961728930473327637e-01 4.000000000000000000e+00
-3.373443603515625000e+01 9.001262664794921875e+00 -6.094380617141723633e-01 1.400000000000000000e+01
-2.397618293762207031e+00 6.433369517326354980e-01 -6.651649475097656250e-01 1.900000000000000000e+01
-2.777811050415039062e+00 7.463911175727844238e-01 -6.640555262565612793e-01 1.500000000000000000e+01
-3.296994447708129883e+00 8.865114450454711914e-01 -6.636337041854858398e-01 1.400000000000000000e+01
-4.036145687103270596e+00 1.086768865585326926e+00 -6.620306372642517090e-01 1.000000000000000000e+01
-5.220934391021729404e+00 1.407738685607909934e+00 -6.639441847801208496e-01 1.100000000000000000e+01
-7.444322109222412109e+00 2.008632183074951172e+00 -6.745854616165161133e-01 1.000000000000000000e+00
-3.371439361572266336e+01 9.122097015380859375e+00 -6.096474528312683105e-01 1.400000000000000000e+01
-2.400950193405150923e+00 6.532237529754638672e-01 -6.667178869247436523e-01 1.700000000000000000e+01
-2.769548177719116211e+00 7.545462250709533691e-01 -6.627057790756225586e-01 1.400000000000000000e+01
-3.288197517395019975e+00 8.964654803276062012e-01 -6.624888181686401367e-01 1.300000000000000000e+01
-4.028516292572020596e+00 1.099810481071471946e+00 -6.614049077033996582e-01 1.000000000000000000e+01
-5.217903137207031250e+00 1.426478028297424094e+00 -6.641879081726074219e-01 9.000000000000000000e+00
-7.433421611785888672e+00 2.033554077148437944e+00 -6.742368340492248535e-01 1.000000000000000000e+00
-1.276165103912354049e+01 3.495981216430664062e+00 -6.934514045715332031e-01 4.000000000000000000e+00
-3.378262329101563211e+01 9.267234802246093750e+00 -6.114625334739685059e-01 7.000000000000000000e+00
-2.396908521652222124e+00 6.606686711311340332e-01 -6.662002205848693848e-01 1.900000000000000000e+01
-2.767030715942382812e+00 7.637262344360351562e-01 -6.627057790756225586e-01 1.400000000000000000e+01
-3.266282558441162109e+00 9.021378755569458008e-01 -6.586726307868957520e-01 1.300000000000000000e+01
-4.032462596893311435e+00 1.115269780158997026e+00 -6.626563668251037598e-01 1.000000000000000000e+01
-5.211231231689453125e+00 1.443243503570557085e+00 -6.639441847801208496e-01 1.300000000000000000e+01
-7.403596878051757812e+00 2.051807641983031782e+00 -6.721450686454772949e-01 2.000000000000000000e+00
-1.274998760223389027e+01 3.538281202316284180e+00 -6.934514045715332031e-01 4.000000000000000000e+00
-3.368234634399414062e+01 9.359936714172363281e+00 -6.102059483528137207e-01 1.400000000000000000e+01
-2.383424043655395952e+00 6.659123897552490234e-01 -6.630944013595581055e-01 2.000000000000000000e+01
-2.775608062744141069e+00 7.765305042266845703e-01 -6.654052138328552246e-01 1.400000000000000000e+01
-3.266894817352294922e+00 9.145923852920532227e-01 -6.594358682632446289e-01 1.300000000000000000e+01
-4.005720615386962891e+00 1.122940421104430930e+00 -6.589019894599914551e-01 9.000000000000000000e+00
-5.211894989013671875e+00 1.463034868240356001e+00 -6.646754145622253418e-01 9.000000000000000000e+00
-7.373372077941895419e+00 2.071172952651977983e+00 -6.700533628463745117e-01 2.000000000000000000e+00
-1.273755931854248047e+01 3.582765340805054155e+00 -6.934514045715332031e-01 4.000000000000000000e+00
-3.356477737426757812e+01 9.453599929809570312e+00 -6.086701154708862305e-01 1.300000000000000000e+01
-2.377249956130981001e+00 6.735903024673461914e-01 -6.620591282844543457e-01 2.000000000000000000e+01
-2.759620189666748047e+00 7.829750180244445801e-01 -6.622558832168579102e-01 1.300000000000000000e+01
-3.272963762283325195e+00 9.292410612106323242e-01 -6.613439917564392090e-01 1.500000000000000000e+01
-3.997777700424193892e+00 1.136534214019774947e+00 -6.582762002944946289e-01 9.000000000000000000e+00
-5.200770378112792969e+00 1.480497002601623979e+00 -6.639441847801208496e-01 1.100000000000000000e+01
-7.354234218597412109e+00 2.094908714294434038e+00 -6.690074801445007324e-01 2.000000000000000000e+00
-1.262830924987792969e+01 3.602034807205200195e+00 -6.882178187370300293e-01 4.000000000000000000e+00
-3.357989501953125000e+01 9.590835571289062500e+00 -6.095776557922363281e-01 1.400000000000000000e+01
-2.374884366989136186e+00 6.818843483924865723e-01 -6.620591282844543457e-01 1.900000000000000000e+01
-2.754997253417969194e+00 7.920646667480468750e-01 -6.618059873580932617e-01 1.400000000000000000e+01
-3.273473501205443892e+00 9.417457580566406250e-01 -6.621072292327880859e-01 1.400000000000000000e+01
-3.997582435607910156e+00 1.151575684547424094e+00 -6.589019894599914551e-01 9.000000000000000000e+00
-5.184126853942871094e+00 1.495341181755065918e+00 -6.624817252159118652e-01 1.100000000000000000e+01
-7.339220046997070312e+00 2.118356943130493164e+00 -6.683102250099182129e-01 2.000000000000000000e+00
-1.259647178649901988e+01 3.640548467636107954e+00 -6.871711015701293945e-01 4.000000000000000000e+00
-3.361920547485352273e+01 9.729116439819335938e+00 -6.109040379524230957e-01 7.000000000000000000e+00
-2.380030155181885210e+00 6.919131875038146973e-01 -6.641296744346618652e-01 2.000000000000000000e+01
-2.752355575561522993e+00 8.011962175369262695e-01 -6.618059873580932617e-01 1.400000000000000000e+01
-3.262792825698852983e+00 9.503995776176452637e-01 -6.605807542800903320e-01 1.300000000000000000e+01
-4.001327037811279297e+00 1.167038202285767046e+00 -6.601534485816955566e-01 9.000000000000000000e+00
-5.165801048278808594e+00 1.508628726005553977e+00 -6.607756018638610840e-01 9.000000000000000000e+00
-7.339804649353027344e+00 2.144918441772460938e+00 -6.690074801445007324e-01 2.000000000000000000e+00
-1.250765514373778942e+01 3.659863948822021040e+00 -6.829842329025268555e-01 4.000000000000000000e+00
-3.348696899414063211e+01 9.811311721801757812e+00 -6.090889573097229004e-01 6.000000000000000000e+00
-2.377600431442261186e+00 7.002168297767639160e-01 -6.641296744346618652e-01 1.900000000000000000e+01
-2.757018804550170898e+00 8.130035996437072754e-01 -6.636056303977966309e-01 1.300000000000000000e+01
-3.248157501220703125e+00 9.584493637084960938e-01 -6.582910418510437012e-01 1.200000000000000000e+01
-3.989651441574097124e+00 1.178759574890136941e+00 -6.589019894599914551e-01 9.000000000000000000e+00
-5.158599853515625000e+00 1.526088356971740945e+00 -6.605318188667297363e-01 1.100000000000000000e+01
-7.313168048858642578e+00 2.164870738983153853e+00 -6.672643423080444336e-01 2.000000000000000000e+00
-1.249480342864990057e+01 3.703501462936400923e+00 -6.829842329025268555e-01 4.000000000000000000e+00
-3.349852752685546875e+01 9.941797256469726562e+00 -6.099267005920410156e-01 7.000000000000000000e+00
-2.365762472152709961e+00 7.061637043952941895e-01 -6.615414619445800781e-01 2.100000000000000000e+01
-2.752153396606444868e+00 8.225451111793518066e-01 -6.631557345390319824e-01 1.500000000000000000e+01
-3.240860939025878906e+00 9.692229628562927246e-01 -6.575278043746948242e-01 1.200000000000000000e+01
-6.087973022460938211e+01 1.821847534179687855e+01 5.559664726257324219e+00 5.200000000000000000e+01
-3.987196683883666992e+00 1.193940997123718040e+00 -6.592148542404174805e-01 9.000000000000000000e+00
-5.149168968200683594e+00 1.543845176696776900e+00 -6.600443720817565918e-01 1.100000000000000000e+01
-7.270833969116210938e+00 2.181354761123656782e+00 -6.641267538070678711e-01 2.000000000000000000e+00
-1.248114490509033025e+01 3.749272346496582031e+00 -6.829842329025268555e-01 4.000000000000000000e+00
-3.344654464721679688e+01 1.005990123748778942e+01 -6.096474528312683105e-01 7.000000000000000000e+00
-2.365132331848144975e+00 7.149764299392700195e-01 -6.620591282844543457e-01 1.900000000000000000e+01
-2.745535135269165039e+00 8.310177922248840332e-01 -6.622558832168579102e-01 1.500000000000000000e+01
-3.231821060180664062e+00 9.788225293159484863e-01 -6.563829183578491211e-01 1.200000000000000000e+01
-3.975443124771118164e+00 1.205558657646178977e+00 -6.579633355140686035e-01 8.000000000000000000e+00
-5.139949321746826172e+00 1.560656189918518066e+00 -6.595568656921386719e-01 1.100000000000000000e+01
-7.266988277435302734e+00 2.207879781723022017e+00 -6.644753813743591309e-01 2.000000000000000000e+00
-1.246798229217528942e+01 3.792816877365111861e+00 -6.829842329025268555e-01 4.000000000000000000e+00
-3.348391723632813211e+01 1.019873142242431996e+01 -6.109738349914550781e-01 7.000000000000000000e+00
-2.362748146057128906e+00 7.228155732154846191e-01 -6.620591282844543457e-01 1.900000000000000000e+01
-2.737174272537231001e+00 8.384055495262145996e-01 -6.609061956405639648e-01 1.400000000000000000e+01
-3.245451211929320845e+00 9.947120547294616699e-01 -6.598175168037414551e-01 1.200000000000000000e+01
-3.965758085250854048e+00 1.216996550559998003e+00 -6.570247411727905273e-01 9.000000000000000000e+00
-5.129053115844726562e+00 1.575943231582642046e+00 -6.588256955146789551e-01 1.100000000000000000e+01
-7.278670787811279297e+00 2.237820863723754883e+00 -6.662185192108154297e-01 3.000000000000000000e+00
-1.241715908050536932e+01 3.822389125823975053e+00 -6.808907985687255859e-01 4.000000000000000000e+00
-3.364101028442382812e+01 1.036861038208007990e+01 -6.144643425941467285e-01 7.000000000000000000e+00
-2.374973535537720171e+00 7.356314063072204590e-01 -6.662002205848693848e-01 1.900000000000000000e+01
-2.736092329025268999e+00 8.485321998596191406e-01 -6.613560914993286133e-01 1.500000000000000000e+01
-3.228833675384521040e+00 1.001961708068848100e+00 -6.571461558341979980e-01 1.200000000000000000e+01
-3.957713127136230025e+00 1.229659914970397949e+00 -6.563990116119384766e-01 9.000000000000000000e+00
-5.117834568023681641e+00 1.592068433761596902e+00 -6.580944657325744629e-01 1.100000000000000000e+01
-7.244181632995604581e+00 2.254924535751343218e+00 -6.637781262397766113e-01 2.000000000000000000e+00
-1.240373992919922053e+01 3.865710020065308061e+00 -6.808907985687255859e-01 4.000000000000000000e+00
-3.368860626220703125e+01 1.051218605041504084e+01 -6.160001158714294434e-01 2.100000000000000000e+01
-2.357644557952880859e+00 7.392929196357727051e-01 -6.620591282844543457e-01 2.000000000000000000e+01
-2.733113765716553178e+00 8.580777645111083984e-01 -6.613560914993286133e-01 1.500000000000000000e+01
-3.215951681137084961e+00 1.010284304618835005e+00 -6.552380919456481934e-01 1.200000000000000000e+01
-3.966587305068970171e+00 1.247616291046143022e+00 -6.585891246795654297e-01 8.000000000000000000e+00
-5.112246036529541016e+00 1.609923243522644043e+00 -6.580944657325744629e-01 1.100000000000000000e+01
-7.209662437438964844e+00 2.271814584732056108e+00 -6.613377928733825684e-01 2.000000000000000000e+00
-1.230636310577392933e+01 3.882543087005614790e+00 -6.762852072715759277e-01 3.000000000000000000e+00
-3.365551757812500000e+01 1.063092136383056996e+01 -6.160699725151062012e-01 1.400000000000000000e+01
-2.355049610137939009e+00 7.475181221961975098e-01 -6.620591282844543457e-01 2.000000000000000000e+01
-2.735673427581787109e+00 8.693835139274597168e-01 -6.627057790756225586e-01 1.400000000000000000e+01
-3.227372884750366211e+00 1.026263475418091042e+00 -6.582910418510437012e-01 1.200000000000000000e+01
-3.954679012298583984e+00 1.259057641029357910e+00 -6.573376059532165527e-01 8.000000000000000000e+00
-5.114160537719726562e+00 1.630169987678528054e+00 -6.590694189071655273e-01 1.100000000000000000e+01
-7.209281444549561435e+00 2.299388885498046875e+00 -6.620350480079650879e-01 1.000000000000000000e+00
-1.241450309753417969e+01 3.964360713958739790e+00 -6.829842329025268555e-01 4.000000000000000000e+00
-3.356868362426757812e+01 1.073250293731688920e+01 -6.151624321937561035e-01 1.400000000000000000e+01
-2.348747253417969194e+00 7.545524835586547852e-01 -6.610238552093505859e-01 1.800000000000000000e+01
-2.721491336822510210e+00 8.753473758697509766e-01 -6.600064039230346680e-01 1.400000000000000000e+01
-3.214426755905150923e+00 1.034515500068664995e+00 -6.563829183578491211e-01 1.100000000000000000e+01
-6.086753463745117188e+01 1.960103607177734020e+01 5.594527244567871094e+00 5.000000000000000000e+01
-3.942739248275756836e+00 1.270431041717529075e+00 -6.560861468315124512e-01 8.000000000000000000e+00
-5.104660511016845703e+00 1.646792888641356978e+00 -6.585819125175476074e-01 1.100000000000000000e+01
-7.189834594726563388e+00 2.320867538452147993e+00 -6.609891653060913086e-01 2.000000000000000000e+00
-3.361092376708983664e+01 1.087547016143799006e+01 -6.166284084320068359e-01 1.400000000000000000e+01
-2.357122421264647993e+00 7.663303017616271973e-01 -6.641296744346618652e-01 2.000000000000000000e+01
-6.080009841918945312e+01 1.977861595153808949e+01 1.116011619567871094e+00 5.100000000000000000e+01
-2.712859869003295898e+00 8.830323219299316406e-01 -6.586567163467407227e-01 1.500000000000000000e+01
-3.216396331787108931e+00 1.047553539276123047e+00 -6.575278043746948242e-01 1.200000000000000000e+01
-3.923256158828734907e+00 1.279286861419677956e+00 -6.535831689834594727e-01 8.000000000000000000e+00
-5.087558746337890625e+00 1.660905122756958008e+00 -6.571195125579833984e-01 1.100000000000000000e+01
-7.193052768707275391e+00 2.349662542343140093e+00 -6.620350480079650879e-01 2.000000000000000000e+00
-1.219669246673583984e+01 3.988849639892578125e+00 -6.725170612335205078e-01 3.000000000000000000e+00
-3.359556198120117188e+01 1.100019454956055043e+01 -6.170473098754882812e-01 1.400000000000000000e+01
-2.350897789001464844e+00 7.729358077049255371e-01 -6.630944013595581055e-01 2.000000000000000000e+01
-2.708065748214722124e+00 8.914143443107604980e-01 -6.582067608833312988e-01 1.400000000000000000e+01
-3.196122407913208008e+00 1.052686214447021040e+00 -6.540932655334472656e-01 1.100000000000000000e+01
-3.934000253677368164e+00 1.297238707542418990e+00 -6.560861468315124512e-01 8.000000000000000000e+00
-5.074482917785645419e+00 1.675277590751647949e+00 -6.561445593833923340e-01 1.100000000000000000e+01
-7.177654266357421875e+00 2.371002912521361861e+00 -6.613377928733825684e-01 2.000000000000000000e+00
-3.350194931030272727e+01 1.109268474578857067e+01 -6.160001158714294434e-01 1.400000000000000000e+01
-2.340852975845336914e+00 7.786981463432312012e-01 -6.610238552093505859e-01 2.000000000000000000e+01
-6.085379791259766336e+01 2.025516128540039062e+01 1.119502067565917969e+00 5.000000000000000000e+01
-2.710484266281127930e+00 9.027091264724731445e-01 -6.595565080642700195e-01 1.500000000000000000e+01
-3.192428350448607954e+00 1.063836336135864036e+00 -6.540932655334472656e-01 1.200000000000000000e+01
-3.935069561004639116e+00 1.312838554382323997e+00 -6.570247411727905273e-01 9.000000000000000000e+00
-5.068603992462158203e+00 1.692980647087096946e+00 -6.561445593833923340e-01 1.100000000000000000e+01
-7.180672168731688565e+00 2.399832487106322798e+00 -6.623836159706115723e-01 2.000000000000000000e+00
-1.216925811767577947e+01 4.071776866912841797e+00 -6.725170612335205078e-01 3.000000000000000000e+00
-3.343647766113281250e+01 1.120066833496093928e+01 -6.155114769935607910e-01 1.400000000000000000e+01
-2.332627773284912109e+00 7.850159406661987305e-01 -6.594709157943725586e-01 1.900000000000000000e+01
-6.078272247314453125e+01 2.046745681762694957e+01 1.119502067565917969e+00 5.000000000000000000e+01
-2.705470085144042969e+00 9.115427136421203613e-01 -6.591066122055053711e-01 1.400000000000000000e+01
-3.184974670410155806e+00 1.073719263076782005e+00 -6.533300280570983887e-01 1.200000000000000000e+01
-3.924848079681396040e+00 1.324671387672424094e+00 -6.560861468315124512e-01 9.000000000000000000e+00
-5.070186138153076172e+00 1.713204979896544966e+00 -6.571195125579833984e-01 1.100000000000000000e+01
-7.096754074096679688e+00 2.399358034133911133e+00 -6.554111838340759277e-01 1.000000000000000000e+00
-1.215497112274169922e+01 4.114230632781982422e+00 -6.725170612335205078e-01 3.000000000000000000e+00
-3.335929870605468750e+01 1.130447959899901988e+01 -6.148133873939514160e-01 1.400000000000000000e+01
-2.331701993942261186e+00 7.937761545181274414e-01 -6.599885821342468262e-01 1.900000000000000000e+01
-6.080554962158203125e+01 2.071174049377441051e+01 1.121247291564940962e+00 5.000000000000000000e+01
-2.693048954010010210e+00 9.178377389907836914e-01 -6.568570733070373535e-01 1.500000000000000000e+01
-3.186781644821166992e+00 1.086731314659119096e+00 -6.544748544692993164e-01 1.200000000000000000e+01
-3.914592027664185014e+00 1.336448907852173074e+00 -6.551475524902343750e-01 9.000000000000000000e+00
-5.060418128967285156e+00 1.729608654975890891e+00 -6.566320061683654785e-01 1.100000000000000000e+01
-7.107187271118164062e+00 2.430562734603881836e+00 -6.571543216705322266e-01 2.000000000000000000e+00
-1.214053630828857067e+01 4.156634330749511719e+00 -6.725170612335205078e-01 3.000000000000000000e+00
-3.327045059204102273e+01 1.140399837493895951e+01 -6.139058470726013184e-01 7.000000000000000000e+00
-2.332570314407349077e+00 8.031683564186096191e-01 -6.610238552093505859e-01 1.900000000000000000e+01
-6.082741546630858664e+01 2.095643424987792969e+01 1.122992515563965066e+00 5.000000000000000000e+01
-2.686143875122069868e+00 9.259625077247619629e-01 -6.559572815895080566e-01 1.500000000000000000e+01
-3.181113004684447798e+00 1.097208499908447044e+00 -6.540932655334472656e-01 1.200000000000000000e+01
-3.896832704544066939e+00 1.345592021942138894e+00 -6.529574394226074219e-01 8.000000000000000000e+00
-5.054349899291992188e+00 1.747262358665466087e+00 -6.566320061683654785e-01 1.100000000000000000e+01
-7.087362289428710938e+00 2.451448917388916016e+00 -6.561084389686584473e-01 1.000000000000000000e+00
-3.329090118408203125e+01 1.154102420806884943e+01 -6.150227785110473633e-01 7.000000000000000000e+00
-2.335225582122803178e+00 8.132116198539733887e-01 -6.625767350196838379e-01 2.100000000000000000e+01
-2.690255880355834961e+00 9.378992915153503418e-01 -6.577568650245666504e-01 1.600000000000000000e+01
-3.175409793853760210e+00 1.107659339904784934e+00 -6.537116169929504395e-01 1.300000000000000000e+01
-3.899571657180786133e+00 1.361791372299193892e+00 -6.542089581489562988e-01 8.000000000000000000e+00
-6.088779449462891336e+01 2.127489471435546875e+01 7.919313907623291016e+00 6.300000000000000000e+01
-5.027607440948486328e+00 1.757688283920288086e+00 -6.539508700370788574e-01 1.300000000000000000e+01
-7.093807220458984375e+00 2.481436491012572798e+00 -6.575029492378234863e-01 1.000000000000000000e+00
-3.333344268798828125e+01 1.168627071380615057e+01 -6.165586113929748535e-01 7.000000000000000000e+00
-2.319617748260498047e+00 8.168663382530212402e-01 -6.589533090591430664e-01 2.000000000000000000e+01
-6.080033874511718750e+01 2.142310714721680043e+01 1.125226497650146040e+00 4.900000000000000000e+01
-2.690641403198242188e+00 9.485802054405212402e-01 -6.586567163467407227e-01 1.500000000000000000e+01
-6.080919647216796875e+01 2.145009422302246094e+01 3.379332780838013139e+00 4.900000000000000000e+01
-3.162266969680786133e+00 1.115471363067626953e+00 -6.518035531044006348e-01 1.200000000000000000e+01
-3.892931699752808061e+00 1.374737381935120073e+00 -6.538960933685302734e-01 9.000000000000000000e+00
-6.087680053710938211e+01 2.150978660583496094e+01 7.927600860595703125e+00 6.300000000000000000e+01
-5.023313045501708984e+00 1.775888919830322044e+00 -6.541946530342102051e-01 1.100000000000000000e+01
-7.077588558197020596e+00 2.503525495529174805e+00 -6.568056941032409668e-01 2.000000000000000000e+00
-1.200220775604248047e+01 4.250204563140869141e+00 -6.672834157943725586e-01 3.000000000000000000e+00
-3.332637405395507812e+01 1.181458187103270951e+01 -6.171869039535522461e-01 1.400000000000000000e+01
-2.309472560882567915e+00 8.223661184310913086e-01 -6.568827629089355469e-01 1.700000000000000000e+01
-2.679971456527709961e+00 9.553491473197937012e-01 -6.568570733070373535e-01 1.500000000000000000e+01
-3.158353805541992188e+00 1.126502990722656028e+00 -6.518035531044006348e-01 1.300000000000000000e+01
-3.888109207153319868e+00 1.388317823410033958e+00 -6.538960933685302734e-01 9.000000000000000000e+00
-5.017083168029785156e+00 1.793412685394287109e+00 -6.541946530342102051e-01 1.100000000000000000e+01
-7.005022525787354404e+00 2.505402803421020952e+00 -6.508790850639343262e-01 2.000000000000000000e+00
-3.328493118286132812e+01 1.193084049224854049e+01 -6.171869039535522461e-01 7.000000000000000000e+00
-2.315675973892211914e+00 8.336946368217468262e-01 -6.594709157943725586e-01 1.900000000000000000e+01
-2.676620244979857954e+00 9.646981358528137207e-01 -6.568570733070373535e-01 1.500000000000000000e+01
-3.161789655685424805e+00 1.140184760093688965e+00 -6.533300280570983887e-01 1.100000000000000000e+01
-3.873949289321898970e+00 1.398527622222899947e+00 -6.523317098617553711e-01 8.000000000000000000e+00
-5.021994113922119141e+00 1.814962863922118919e+00 -6.556570529937744141e-01 1.100000000000000000e+01
-7.003728866577148438e+00 2.532549619674683061e+00 -6.515763401985168457e-01 2.000000000000000000e+00
-1.187834358215332031e+01 4.299900531768798828e+00 -6.620498299598693848e-01 3.000000000000000000e+00
-3.325436019897460938e+01 1.205104160308838068e+01 -6.173963546752929688e-01 7.000000000000000000e+00
-2.309121131896973100e+00 8.404513597488403320e-01 -6.584356427192687988e-01 1.900000000000000000e+01
-6.082820510864257812e+01 2.215167999267578125e+01 1.129973530769347922e+00 4.900000000000000000e+01
-2.665912628173828125e+00 9.713668227195739746e-01 -6.550574898719787598e-01 1.500000000000000000e+01
-3.159635066986083984e+00 1.151887059211730957e+00 -6.537116169929504395e-01 1.200000000000000000e+01
-3.865332603454589844e+00 1.410687208175658958e+00 -6.517059803009033203e-01 8.000000000000000000e+00
-5.004440784454345703e+00 1.828394532203674094e+00 -6.541946530342102051e-01 1.100000000000000000e+01
-6.987360954284667969e+00 2.554245471954346147e+00 -6.508790850639343262e-01 2.000000000000000000e+00
-1.186326217651367010e+01 4.341337203979492188e+00 -6.620498299598693848e-01 3.000000000000000000e+00
-3.321960449218750000e+01 1.216979885101318004e+01 -6.175359487533569336e-01 7.000000000000000000e+00
-2.317348957061768022e+00 8.517000675201416016e-01 -6.615414619445800781e-01 1.900000000000000000e+01
-6.075831604003906250e+01 2.234266853332519887e+01 1.129973530769347922e+00 4.900000000000000000e+01
-2.661018848419189009e+00 9.790643453598022461e-01 -6.546075940132141113e-01 1.400000000000000000e+01
-3.141261577606201172e+00 1.156381726264954057e+00 -6.506586670875549316e-01 1.200000000000000000e+01
-3.870149374008179155e+00 1.426238894462585005e+00 -6.532703042030334473e-01 9.000000000000000000e+00
-4.978185653686523438e+00 1.836549639701843040e+00 -6.515135169029235840e-01 9.000000000000000000e+00
-6.968087196350097656e+00 2.572044849395751953e+00 -6.498332023620605469e-01 1.000000000000000000e+00
-1.184956455230713068e+01 4.378585338592529297e+00 -6.620498299598693848e-01 3.000000000000000000e+00
-3.312119293212891336e+01 1.225190067291259943e+01 -6.164190173149108887e-01 1.400000000000000000e+01
-2.312550783157349077e+00 8.591111898422241211e-01 -6.610238552093505859e-01 1.900000000000000000e+01
-6.086739349365233664e+01 2.262428855895996094e+01 1.133463978767395020e+00 4.800000000000000000e+01
-2.663064718246459961e+00 9.903848767280578613e-01 -6.559572815895080566e-01 1.300000000000000000e+01
-3.137205839157104048e+00 1.167339801788330078e+00 -6.506586670875549316e-01 1.200000000000000000e+01
-3.855891704559326172e+00 1.436291933059691939e+00 -6.517059803009033203e-01 8.000000000000000000e+00
-4.962444782257080078e+00 1.850447654724121094e+00 -6.502948403358459473e-01 3.000000000000000000e+00
-6.985200405120849609e+00 2.606102466583251953e+00 -6.522735953330993652e-01 2.000000000000000000e+00
-1.183420848846436080e+01 4.419921398162841797e+00 -6.620498299598693848e-01 3.000000000000000000e+00
-3.314190673828125000e+01 1.239125156402588068e+01 -6.176057457923889160e-01 1.400000000000000000e+01
-2.295069456100463867e+00 8.617456555366516113e-01 -6.568827629089355469e-01 1.900000000000000000e+01
-6.078805160522460938e+01 2.283661842346191051e+01 1.133463978767395020e+00 4.800000000000000000e+01
-2.654119014739989790e+00 9.976177811622619629e-01 -6.546075940132141113e-01 1.100000000000000000e+01
-3.131274461746215820e+00 1.177592515945435014e+00 -6.502770781517028809e-01 1.300000000000000000e+01
-3.847157239913939986e+00 1.448350787162780984e+00 -6.510802507400512695e-01 8.000000000000000000e+00
-5.013539314270020419e+00 1.889460444450377974e+00 -6.578507423400878906e-01 6.000000000000000000e+00
-6.923861503601074219e+00 2.610786676406859907e+00 -6.473928689956665039e-01 2.000000000000000000e+00
-1.181870746612549006e+01 4.461203575134277344e+00 -6.620498299598693848e-01 3.000000000000000000e+00
-3.310593414306641336e+01 1.250969028472900035e+01 -6.177453994750976562e-01 7.000000000000000000e+00
-2.290241241455078125e+00 8.690662980079650879e-01 -6.563650965690612793e-01 1.900000000000000000e+01
-6.079769897460938211e+01 2.308273887634276988e+01 1.135139465332031028e+00 4.800000000000000000e+01
-2.652442216873168945e+00 1.007568240165710005e+00 -6.550574898719787598e-01 1.000000000000000000e+01
-3.125309705734252930e+00 1.187817931175231934e+00 -6.498954296112060547e-01 1.200000000000000000e+01
-3.836539268493651900e+00 1.459663748741149902e+00 -6.501416563987731934e-01 9.000000000000000000e+00
-5.001348018646240234e+00 1.904829859733581987e+00 -6.571195125579833984e-01 1.100000000000000000e+01
-6.940771102905273438e+00 2.644872188568114790e+00 -6.498332023620605469e-01 2.000000000000000000e+00
-3.301723098754882812e+01 1.260805416107177912e+01 -6.169076561927795410e-01 7.000000000000000000e+00
-2.292451381683350053e+00 8.795306086540222168e-01 -6.579180359840393066e-01 1.700000000000000000e+01
-2.634177923202515093e+00 1.011693716049193892e+00 -6.514582633972167969e-01 9.000000000000000000e+00
-3.130098104476929155e+00 1.202785849571228027e+00 -6.518035531044006348e-01 1.200000000000000000e+01
-3.829319953918457031e+00 1.473006367683411089e+00 -6.498287916183471680e-01 8.000000000000000000e+00
-5.003595352172851562e+00 1.926714539527893066e+00 -6.583381891250610352e-01 9.000000000000000000e+00
-6.897565364837645596e+00 2.657400608062744141e+00 -6.466956138610839844e-01 2.000000000000000000e+00
-1.169330787658691051e+01 4.509727478027343750e+00 -6.568162441253662109e-01 3.000000000000000000e+00
-3.313122940063477273e+01 1.279092216491699041e+01 -6.199094653129577637e-01 1.400000000000000000e+01
-2.296572208404541016e+00 8.903205990791320801e-01 -6.599885821342468262e-01 1.900000000000000000e+01
-6.081740570068358664e+01 2.358951759338378906e+01 1.138629913330077903e+00 4.700000000000000000e+01
-2.637897491455078125e+00 1.023702740669250044e+00 -6.532578468322753906e-01 9.000000000000000000e+00
-3.113069534301757812e+00 1.208730459213257058e+00 -6.491321921348571777e-01 1.000000000000000000e+01
-3.827837228775023970e+00 1.487795472145081010e+00 -6.504545211791992188e-01 8.000000000000000000e+00
-4.963539600372313565e+00 1.931212306022644043e+00 -6.539508700370788574e-01 9.000000000000000000e+00
-6.899387359619140625e+00 2.685797929763793945e+00 -6.477414965629577637e-01 2.000000000000000000e+00
-1.158444690704346058e+01 4.514257907867431641e+00 -6.515826582908630371e-01 3.000000000000000000e+00
-3.305657196044921875e+01 1.289486598968506037e+01 -6.193510293960571289e-01 1.400000000000000000e+01
-2.286411523818970171e+00 8.951143622398376465e-01 -6.579180359840393066e-01 1.900000000000000000e+01
-6.083194351196289062e+01 2.382752990722655895e+01 1.140375137329102007e+00 4.700000000000000000e+01
-2.638117074966431108e+00 1.033866763114928977e+00 -6.541576385498046875e-01 6.000000000000000000e+00
-3.109044075012207031e+00 1.219047069549560991e+00 -6.491321921348571777e-01 1.100000000000000000e+01
-3.811849594116210938e+00 1.496150374412537065e+00 -6.485772728919982910e-01 8.000000000000000000e+00
-4.960803031921386719e+00 1.949113249778748003e+00 -6.544383764266967773e-01 9.000000000000000000e+00
-6.886734485626220703e+00 2.707204580307006836e+00 -6.473928689956665039e-01 3.000000000000000000e+00
-1.156941318511963068e+01 4.552648544311523438e+00 -6.515826582908630371e-01 3.000000000000000000e+00
-3.296153259277343750e+01 1.298389339447020951e+01 -6.183736920356750488e-01 7.000000000000000000e+00
-2.274291038513184038e+00 8.995373249053955078e-01 -6.553298234939575195e-01 1.900000000000000000e+01
-2.632680177688599077e+00 1.042351841926574929e+00 -6.537077426910400391e-01 7.000000000000000000e+00
-3.113896369934082031e+00 1.233507513999938965e+00 -6.510403156280517578e-01 1.100000000000000000e+01
-3.810276508331298828e+00 1.510903477668761985e+00 -6.492030024528503418e-01 8.000000000000000000e+00
-4.948433876037597656e+00 1.964220643043518066e+00 -6.537071466445922852e-01 1.100000000000000000e+01
-6.866132259368895596e+00 2.726814746856689009e+00 -6.463469862937927246e-01 2.000000000000000000e+00
-1.155345153808593928e+01 4.593005657196044922e+00 -6.515826582908630371e-01 3.000000000000000000e+00
-3.295688629150391336e+01 1.311513805389403942e+01 -6.191415786743164062e-01 7.000000000000000000e+00
-2.272772550582886186e+00 9.085840582847595215e-01 -6.558474898338317871e-01 1.800000000000000000e+01
-6.084555053710938211e+01 2.433648300170898082e+01 1.143865585327147993e+00 4.600000000000000000e+01
-2.632460594177246094e+00 1.053442120552062988e+00 -6.546075940132141113e-01 8.000000000000000000e+00
-3.098418712615966797e+00 1.240533828735352007e+00 -6.487506031990051270e-01 1.100000000000000000e+01
-3.797378778457642046e+00 1.521919131278991921e+00 -6.479515433311462402e-01 9.000000000000000000e+00
-4.955940723419188565e+00 1.988257408142090066e+00 -6.556570529937744141e-01 1.100000000000000000e+01
-6.841300010681152344e+00 2.746024847030640093e+00 -6.449524760246276855e-01 4.000000000000000000e+00
-1.146982192993164062e+01 4.608513832092285156e+00 -6.478144526481628418e-01 3.000000000000000000e+00
-3.291601562500000000e+01 1.323882770538330078e+01 -6.192811727523803711e-01 1.400000000000000000e+01
-2.273169755935668945e+00 9.179587364196777344e-01 -6.568827629089355469e-01 1.900000000000000000e+01
-6.085293197631835938e+01 2.458618164062500000e+01 1.145610809326172097e+00 4.600000000000000000e+01
-2.614313602447510210e+00 1.056782126426696999e+00 -6.510083675384521484e-01 1.100000000000000000e+01
-3.097709655761719194e+00 1.252813935279845969e+00 -6.495138406753540039e-01 1.100000000000000000e+01
-3.786550045013428178e+00 1.532941460609436035e+00 -6.470129489898681641e-01 9.000000000000000000e+00
-4.925053119659423828e+00 1.995852589607238992e+00 -6.524884700775146484e-01 9.000000000000000000e+00
-6.824287414550781250e+00 2.766894102096558061e+00 -6.442552208900451660e-01 2.000000000000000000e+00
-1.144626331329346058e+01 4.645518302917479581e+00 -6.473957896232604980e-01 3.000000000000000000e+00
-3.291777420043945312e+01 1.337321472167968928e+01 -6.201887130737304688e-01 1.400000000000000000e+01
-2.266374111175537109e+00 9.244287610054016113e-01 -6.558474898338317871e-01 1.700000000000000000e+01
-6.085931396484375000e+01 2.483622550964355113e+01 1.147356152534485085e+00 4.600000000000000000e+01
-2.617825508117675781e+00 1.068847775459289995e+00 -6.528079509735107422e-01 1.400000000000000000e+01
-3.089682817459106001e+00 1.262134432792664018e+00 -6.487506031990051270e-01 1.100000000000000000e+01
-3.784832715988159180e+00 1.547644853591918945e+00 -6.476386785507202148e-01 9.000000000000000000e+00
-4.903358936309813565e+00 2.007016181945800781e+00 -6.505385637283325195e-01 9.000000000000000000e+00
-6.833024978637695312e+00 2.798249244689940962e+00 -6.459983587265014648e-01 2.000000000000000000e+00
-1.131909656524658025e+01 4.639992237091063565e+00 -6.411154866218566895e-01 3.000000000000000000e+00
-3.291159057617188211e+01 1.350473785400390980e+01 -6.209565997123718262e-01 1.400000000000000000e+01
-2.266705989837646040e+00 9.338059425354003906e-01 -6.568827629089355469e-01 1.900000000000000000e+01
-2.610475301742554155e+00 1.076493382453918013e+00 -6.519081592559814453e-01 1.400000000000000000e+01
-3.070739269256591797e+00 1.266921639442444070e+00 -6.456976532936096191e-01 1.200000000000000000e+01
-3.786710739135742188e+00 1.563863158226012962e+00 -6.488901376724243164e-01 9.000000000000000000e+00
-4.896323204040527344e+00 2.024119853973389116e+00 -6.505385637283325195e-01 9.000000000000000000e+00
-6.797440052032470703e+00 2.811423063278197798e+00 -6.435580253601074219e-01 2.000000000000000000e+00
-1.130283069610596058e+01 4.679474830627441406e+00 -6.411154866218566895e-01 3.000000000000000000e+00
-3.283838653564453125e+01 1.360882091522216975e+01 -6.204679608345031738e-01 1.400000000000000000e+01
-2.252894163131713867e+00 9.368668198585510254e-01 -6.537768840789794922e-01 1.800000000000000000e+01
-2.608690261840819868e+00 1.085893034934998003e+00 -6.523580551147460938e-01 1.500000000000000000e+01
-3.081020116806029829e+00 1.283135890960692915e+00 -6.487506031990051270e-01 1.200000000000000000e+01
-3.777857303619385210e+00 1.574891567230225053e+00 -6.482644081115722656e-01 9.000000000000000000e+00
-4.896912097930908203e+00 2.043403387069702148e+00 -6.515135169029235840e-01 1.100000000000000000e+01
-6.777048110961914062e+00 2.829343080520629883e+00 -6.425121426582336426e-01 3.000000000000000000e+00
-3.282997512817382812e+01 1.373307609558104936e+01 -6.211660504341125488e-01 1.400000000000000000e+01
-2.256734848022460938e+00 9.477171897888183594e-01 -6.558474898338317871e-01 1.900000000000000000e+01
-2.612069845199584961e+00 1.098013043403625044e+00 -6.541576385498046875e-01 1.600000000000000000e+01
-3.080141782760620117e+00 1.295405030250549094e+00 -6.495138406753540039e-01 1.200000000000000000e+01
-3.754130601882935014e+00 1.580404758453368919e+00 -6.451357603073120117e-01 9.000000000000000000e+00
-4.869626998901367188e+00 2.052005052566527876e+00 -6.488323807716369629e-01 1.100000000000000000e+01
-6.767130374908447266e+00 2.852982044219971147e+00 -6.425121426582336426e-01 3.000000000000000000e+00
-1.127071666717528942e+01 4.756301879882813388e+00 -6.411154866218566895e-01 3.000000000000000000e+00
-3.277815246582031250e+01 1.384603404998778942e+01 -6.210962533950805664e-01 7.000000000000000000e+00
-2.257137060165404829e+00 9.567033648490905762e-01 -6.568827629089355469e-01 1.900000000000000000e+01
-6.088377380371093750e+01 2.581855201721191051e+01 1.154337048530579057e+00 4.400000000000000000e+01
-2.588680744171143022e+00 1.098296642303467019e+00 -6.492087244987487793e-01 1.400000000000000000e+01
-3.068600416183472124e+00 1.302543640136718972e+00 -6.479873657226562500e-01 1.100000000000000000e+01
-3.754323482513428178e+00 1.595162630081176980e+00 -6.460743546485900879e-01 9.000000000000000000e+00
-4.862795829772949219e+00 2.068141937255858931e+00 -6.488323807716369629e-01 1.100000000000000000e+01
-6.744799137115479404e+00 2.869946479797362837e+00 -6.412919759750366211e-01 3.000000000000000000e+00
-1.125488281250000000e+01 4.793650627136229581e+00 -6.411154866218566895e-01 3.000000000000000000e+00
-3.282403182983397727e+01 1.399386596679688033e+01 -6.228414773941040039e-01 7.000000000000000000e+00
-2.253783702850341797e+00 9.645764231681823730e-01 -6.568827629089355469e-01 1.700000000000000000e+01
-6.079328155517578125e+01 2.603091812133789062e+01 1.154337048530579057e+00 4.400000000000000000e+01
-2.583039999008179155e+00 1.106558799743651900e+00 -6.487588286399841309e-01 1.300000000000000000e+01
-3.058621406555175781e+00 1.310926914215087891e+00 -6.468424797058105469e-01 1.100000000000000000e+01
-3.736024856567382812e+00 1.602806210517883079e+00 -6.438842415809631348e-01 9.000000000000000000e+00
-4.840954780578613281e+00 2.078837394714355025e+00 -6.468824744224548340e-01 1.100000000000000000e+01
-6.738401412963867188e+00 2.895045757293701172e+00 -6.416406035423278809e-01 3.000000000000000000e+00
-1.123808097839354936e+01 4.832908153533936435e+00 -6.411154866218566895e-01 3.000000000000000000e+00
-3.280437469482421875e+01 1.412100791931151988e+01 -6.233999729156494141e-01 1.400000000000000000e+01
-2.246856212615966797e+00 9.709051251411437988e-01 -6.558474898338317871e-01 1.700000000000000000e+01
-2.586316108703612837e+00 1.118663072586060014e+00 -6.505584716796875000e-01 1.500000000000000000e+01
-3.045017957687377930e+00 1.317696928977966087e+00 -6.449344158172607422e-01 1.100000000000000000e+01
-3.744908332824707031e+00 1.622118830680846946e+00 -6.463872194290161133e-01 9.000000000000000000e+00
-4.817276954650878906e+00 2.088616132736206055e+00 -6.446888446807861328e-01 9.000000000000000000e+00
-6.708148479461669922e+00 2.909827947616577148e+00 -6.397231221199035645e-01 2.000000000000000000e+00
-1.122114276885985973e+01 4.872107028961181641e+00 -6.411154866218566895e-01 3.000000000000000000e+00
-3.274021148681641336e+01 1.422905445098876953e+01 -6.231207251548767090e-01 1.400000000000000000e+01
-2.231058835983275923e+00 9.733347892761230469e-01 -6.522240042686462402e-01 1.900000000000000000e+01
-2.582395553588867188e+00 1.127684116363524947e+00 -6.505584716796875000e-01 1.500000000000000000e+01
-3.047595977783203125e+00 1.331461906433105025e+00 -6.464608907699584961e-01 1.200000000000000000e+01
-3.735603570938109907e+00 1.633598089218140093e+00 -6.457614898681640625e-01 9.000000000000000000e+00
-6.096290588378906250e+01 2.667206001281737926e+01 8.170364379882812500e+00 6.300000000000000000e+01
-4.826323986053466797e+00 2.112582683563231978e+00 -6.468824744224548340e-01 1.100000000000000000e+01
-6.683350086212158203e+00 2.926831960678101030e+00 -6.383286714553833008e-01 2.000000000000000000e+00
-1.120406723022460938e+01 4.911246299743652344e+00 -6.411154866218566895e-01 3.000000000000000000e+00
-3.275992584228516336e+01 1.437378311157226918e+01 -6.244471073150634766e-01 7.000000000000000000e+00
-2.229244232177733931e+00 9.822844266891479492e-01 -6.527416110038757324e-01 1.800000000000000000e+01
-6.087865829467772727e+01 2.683799552917480113e+01 1.161318063735961914e+00 4.300000000000000000e+01
-2.585376977920531782e+00 1.140287160873413086e+00 -6.523580551147460938e-01 1.500000000000000000e+01
-6.093399810791016336e+01 2.688780021667480113e+01 3.490494251251221147e+00 4.300000000000000000e+01
-3.040899276733397993e+00 1.341830492019653098e+00 -6.460792422294616699e-01 1.100000000000000000e+01
-3.724169969558715820e+00 1.644884467124938965e+00 -6.448228359222412109e-01 1.000000000000000000e+01
-6.095189285278320312e+01 2.693383407592773082e+01 8.182064056396484375e+00 6.300000000000000000e+01
-4.820363998413085938e+00 2.131060600280762163e+00 -6.471261978149414062e-01 9.000000000000000000e+00
-6.672577857971191406e+00 2.951308012008666992e+00 -6.383286714553833008e-01 2.000000000000000000e+00
-1.118599128723145064e+01 4.952278614044188565e+00 -6.411154866218566895e-01 3.000000000000000000e+00
