9.053317904472351074e-01 2.047820091247559038e+00 -5.999425649642944336e-01 1.700000000000000000e+01
1.025157451629638894e+00 2.316673517227172852e+00 -5.848727226257324219e-01 1.200000000000000000e+01
1.185001134872436968e+00 2.676629304885863814e+00 -5.689924359321594238e-01 1.000000000000000000e+01
1.417344093322753906e+00 3.198418855667113814e+00 -5.540908575057983398e-01 9.000000000000000000e+00
1.744168281555176003e+00 3.932233095169066939e+00 -5.281817317008972168e-01 9.000000000000000000e+00
2.266870498657227007e+00 5.108261108398438388e+00 -4.889437258243560791e-01 9.000000000000000000e+00
3.264954328536986861e+00 7.350463867187500000e+00 -4.215137958526610773e-01 2.000000000000000000e+00
5.763114452362061435e+00 1.296242809295653942e+01 -2.476147413253783902e-01 2.000000000000000000e+00
9.108999371528625488e-01 2.041119098663330078e+00 -5.989072918891906738e-01 1.700000000000000000e+01
1.039596319198607954e+00 2.327315330505371094e+00 -5.884719491004943848e-01 1.100000000000000000e+01
1.191933989524841087e+00 2.667099237442017046e+00 -5.678475499153137207e-01 9.000000000000000000e+00
1.422853827476501021e+00 3.180829524993896040e+00 -5.519008040428161621e-01 9.000000000000000000e+00
1.761128544807434082e+00 3.933367967605590820e+00 -5.291566848754882812e-01 9.000000000000000000e+00
2.285502195358275923e+00 5.102135658264160156e+00 -4.891180396080017090e-01 9.000000000000000000e+00
3.298763513565063032e+00 7.357246398925781250e+00 -4.225605130195618231e-01 2.000000000000000000e+00
5.788676261901854581e+00 1.289844703674316051e+01 -2.467770278453826904e-01 2.000000000000000000e+00
9.149292707443237305e-01 2.032962322235106978e+00 -5.973543524742126465e-01 1.500000000000000000e+01
1.045301914215087891e+00 2.320484161376953125e+00 -5.875721573829650879e-01 1.100000000000000000e+01
1.205953717231750044e+00 2.675870656967163086e+00 -5.705189108848571777e-01 1.000000000000000000e+01
1.436088681221008079e+00 3.183546304702758789e+00 -5.531522631645202637e-01 9.000000000000000000e+00
1.777561306953429954e+00 3.936861991882324219e+00 -5.303753614425659180e-01 1.000000000000000000e+01
2.299879312515258789e+00 5.091298580169677734e+00 -4.887694120407103937e-01 9.000000000000000000e+00
3.318569421768188032e+00 7.339567661285400391e+00 -4.221418201923369806e-01 2.000000000000000000e+00
5.812679290771484375e+00 1.284376144409180043e+01 -2.460789233446120938e-01 2.000000000000000000e+00
9.268139600753784180e-01 2.040309667587279829e+00 -6.004601716995239258e-01 1.500000000000000000e+01
1.048556089401244895e+00 2.306177377700806108e+00 -5.848727226257324219e-01 1.100000000000000000e+01
1.220164299011230025e+00 2.682367086410522017e+00 -5.728086233139038086e-01 1.000000000000000000e+01
1.448829770088196023e+00 3.182109832763671875e+00 -5.537779927253723145e-01 9.000000000000000000e+00
1.789646267890929954e+00 3.927020311355590820e+00 -5.298879146575927734e-01 1.000000000000000000e+01
2.320943593978881836e+00 5.090491294860839844e+00 -4.894666373729705811e-01 9.000000000000000000e+00
3.339193820953369141e+00 7.317036628723145419e+00 -4.215137958526610773e-01 1.000000000000000000e+00
5.874094009399414062e+00 1.285977172851563033e+01 -2.467770278453826904e-01 2.000000000000000000e+00
9.379558563232421875e-01 2.045842409133911133e+00 -6.030483841896057129e-01 1.500000000000000000e+01
1.059850811958312988e+00 2.309587717056273970e+00 -5.866723656654357910e-01 1.000000000000000000e+01
1.222967028617859109e+00 2.663817882537841797e+00 -5.697556734085083008e-01 1.000000000000000000e+01
1.455804467201232910e+00 3.168058395385742188e+00 -5.522136688232421875e-01 9.000000000000000000e+00
1.795877695083617942e+00 3.904518127441405806e+00 -5.276942849159240723e-01 9.000000000000000000e+00
2.340364217758179155e+00 5.085978507995604581e+00 -4.898152649402617853e-01 9.000000000000000000e+00
3.369727849960327148e+00 7.316220760345458984e+00 -4.221418201923369806e-01 2.000000000000000000e+00
5.918947219848632812e+00 1.283918857574463068e+01 -2.467770278453826904e-01 2.000000000000000000e+00
9.410352706909179688e-01 2.033789634704589844e+00 -6.004601716995239258e-01 1.600000000000000000e+01
1.066268444061279075e+00 2.302337646484375000e+00 -5.857725739479064941e-01 1.100000000000000000e+01
1.231432676315308061e+00 2.657751560211182085e+00 -5.693740248680114746e-01 9.000000000000000000e+00
1.472671747207642046e+00 3.175501585006713867e+00 -5.544037222862243652e-01 9.000000000000000000e+00
1.809496045112610085e+00 3.898225545883179155e+00 -5.276942849159240723e-01 1.000000000000000000e+01
2.362299203872681108e+00 5.086812973022460938e+00 -4.906868338584899902e-01 9.000000000000000000e+00
3.415450572967528853e+00 7.347881317138671875e+00 -4.246539473533629816e-01 2.000000000000000000e+00
5.977224349975585938e+00 1.284745883941650035e+01 -2.473355084657669067e-01 2.000000000000000000e+00
9.456767439842224121e-01 2.025241136550902876e+00 -5.989072918891906738e-01 1.800000000000000000e+01
1.080899477005005105e+00 2.312725067138671875e+00 -5.893717408180236816e-01 1.100000000000000000e+01
1.241533994674683061e+00 2.655215263366699219e+00 -5.697556734085083008e-01 1.000000000000000000e+01
1.483747243881226030e+00 3.170341730117797852e+00 -5.544037222862243652e-01 9.000000000000000000e+00
1.826460719108581987e+00 3.899075984954833984e+00 -5.286692380905151367e-01 9.000000000000000000e+00
2.372431755065917969e+00 5.062299251556395596e+00 -4.891180396080017090e-01 9.000000000000000000e+00
3.429203987121582031e+00 7.310599803924561435e+00 -4.231885373592377264e-01 2.000000000000000000e+00
5.972743034362792969e+00 1.272152900695800959e+01 -2.453110218048095981e-01 2.000000000000000000e+00
9.535638689994812012e-01 2.023675203323363814e+00 -5.994248986244201660e-01 1.900000000000000000e+01
1.085640788078308105e+00 2.301887750625609907e+00 -5.875721573829650879e-01 1.100000000000000000e+01
1.250794887542725053e+00 2.650865316390991211e+00 -5.697556734085083008e-01 1.000000000000000000e+01
1.486369132995605025e+00 3.147281169891356978e+00 -5.512750744819641113e-01 9.000000000000000000e+00
1.843453288078308105e+00 3.899855613708496094e+00 -5.296441912651062012e-01 9.000000000000000000e+00
2.390088081359862837e+00 5.053987026214599609e+00 -4.891180396080017090e-01 9.000000000000000000e+00
3.446156978607178178e+00 7.280532360076904297e+00 -4.221418201923369806e-01 2.000000000000000000e+00
6.023962020874023438e+00 1.271506023406982067e+01 -2.455902695655823031e-01 2.000000000000000000e+00
9.655992984771728516e-01 2.030802488327025923e+00 -6.025307178497314453e-01 1.600000000000000000e+01
1.086969852447509988e+00 2.284007072448730025e+00 -5.839729309082031250e-01 1.100000000000000000e+01
1.265948295593261941e+00 2.658891201019287109e+00 -5.724269747734069824e-01 1.000000000000000000e+01
1.497346162796020952e+00 3.142073631286621094e+00 -5.512750744819641113e-01 1.000000000000000000e+01
1.860473513603210005e+00 3.900563716888428178e+00 -5.306191444396972656e-01 9.000000000000000000e+00
2.406857252120972124e+00 5.043815135955811435e+00 -4.889437258243560791e-01 9.000000000000000000e+00
3.466385126113892046e+00 7.257645606994628906e+00 -4.215137958526610773e-01 1.000000000000000000e+00
6.076933860778808594e+00 1.271199607849120916e+01 -2.459393143653869906e-01 2.000000000000000000e+00
9.735178947448730469e-01 2.029161214828491211e+00 -6.030483841896057129e-01 1.800000000000000000e+01
1.099997282028198020e+00 2.290739059448242188e+00 -5.866723656654357910e-01 1.100000000000000000e+01
1.267570495605468972e+00 2.638529300689696822e+00 -5.689924359321594238e-01 1.100000000000000000e+01
1.513440966606139915e+00 3.147509336471558061e+00 -5.531522631645202637e-01 9.000000000000000000e+00
1.860303997993469016e+00 3.865426301956177202e+00 -5.267193317413330078e-01 9.000000000000000000e+00
2.421855688095093218e+00 5.029997825622558594e+00 -4.884207844734191895e-01 9.000000000000000000e+00
3.477824687957764116e+00 7.216713428497313565e+00 -4.198390543460845947e-01 2.000000000000000000e+00
6.119532585144042969e+00 1.268710422515868963e+01 -2.458695024251937866e-01 2.000000000000000000e+00
9.784225225448608398e-01 2.020363569259643999e+00 -6.014954447746276855e-01 1.600000000000000000e+01
1.108385801315308061e+00 2.286691904067993164e+00 -5.866723656654357910e-01 1.100000000000000000e+01
1.277232646942138894e+00 2.633865594863892046e+00 -5.689924359321594238e-01 1.000000000000000000e+01
1.528417229652405007e+00 3.149049520492554155e+00 -5.544037222862243652e-01 9.000000000000000000e+00
1.876193761825561968e+00 3.862153053283690962e+00 -5.272067785263061523e-01 9.000000000000000000e+00
2.448984384536743164e+00 5.039006710052490234e+00 -4.901638925075531006e-01 9.000000000000000000e+00
3.511241197586060014e+00 7.218286514282226562e+00 -4.206764101982117254e-01 2.000000000000000000e+00
6.136229991912841797e+00 1.260346031188965021e+01 -2.446827441453933993e-01 2.000000000000000000e+00
9.803804755210876465e-01 2.006521463394165039e+00 -5.983896255493164062e-01 1.900000000000000000e+01
1.118073344230652078e+00 2.286310434341431108e+00 -5.875721573829650879e-01 1.100000000000000000e+01
1.287281513214111106e+00 2.631154775619506836e+00 -5.693740248680114746e-01 9.000000000000000000e+00
1.537662625312804954e+00 3.140146970748900923e+00 -5.537779927253723145e-01 9.000000000000000000e+00
1.892284750938415971e+00 3.860927820205688032e+00 -5.279380083084106445e-01 1.000000000000000000e+01
2.464804649353026900e+00 5.026849746704101562e+00 -4.898152649402617853e-01 9.000000000000000000e+00
3.564574003219604048e+00 7.263361454010009766e+00 -4.240259230136870783e-01 1.000000000000000000e+00
6.206635475158691406e+00 1.263580989837645951e+01 -2.457298785448074063e-01 2.000000000000000000e+00
9.887366294860839844e-01 2.006725072860718218e+00 -5.994248986244201660e-01 1.600000000000000000e+01
1.125648856163024902e+00 2.282590150833129883e+00 -5.875721573829650879e-01 1.100000000000000000e+01
1.300342917442321999e+00 2.635674715042113814e+00 -5.712821483612060547e-01 1.000000000000000000e+01
1.547192692756653054e+00 3.133259534835814986e+00 -5.534651279449462891e-01 8.000000000000000000e+00
1.913872957229614036e+00 3.872427701950072798e+00 -5.303753614425659180e-01 1.000000000000000000e+01
2.472629785537720171e+00 5.000788688659667969e+00 -4.880721569061278742e-01 7.000000000000000000e+00
3.553205966949462891e+00 7.179898738861083984e+00 -4.198390543460845947e-01 1.000000000000000000e+00
6.230751991271972656e+00 1.257931995391846058e+01 -2.450317889451980868e-01 2.000000000000000000e+00
9.991748929023742676e-01 2.010181188583374023e+00 -6.014954447746276855e-01 1.600000000000000000e+01
1.130137681961060014e+00 2.271667957305908203e+00 -5.857725739479064941e-01 1.200000000000000000e+01
1.309535145759582964e+00 2.631119489669799805e+00 -5.712821483612060547e-01 1.000000000000000000e+01
1.555477976799011008e+00 3.122535228729248047e+00 -5.525265336036682129e-01 9.000000000000000000e+00
1.921178340911865012e+00 3.853287696838378906e+00 -5.286692380905151367e-01 9.000000000000000000e+00
2.500742435455321822e+00 5.013522148132324219e+00 -4.901638925075531006e-01 9.000000000000000000e+00
3.583599328994750977e+00 7.178173542022705078e+00 -4.204670786857604980e-01 1.000000000000000000e+00
6.267473697662354404e+00 1.254318332672118963e+01 -2.447525411844254095e-01 2.000000000000000000e+00
1.005835413932800071e+00 2.006856918334960938e+00 -6.014954447746276855e-01 1.600000000000000000e+01
1.139412164688109907e+00 2.271391391754149947e+00 -5.866723656654357910e-01 1.100000000000000000e+01
1.316491842269897017e+00 2.623253107070922852e+00 -5.705189108848571777e-01 1.000000000000000000e+01
1.564937472343445046e+00 3.115594863891602007e+00 -5.522136688232421875e-01 8.000000000000000000e+00
1.932162523269653098e+00 3.843348503112792969e+00 -5.281817317008972168e-01 9.000000000000000000e+00
2.520935058593750000e+00 5.012321472167968750e+00 -4.908611476421356201e-01 9.000000000000000000e+00
3.612771511077880859e+00 7.176954746246337891e+00 -4.210951030254364014e-01 2.000000000000000000e+00
6.292838096618652344e+00 1.249018573760985973e+01 -2.441242635250092108e-01 2.000000000000000000e+00
1.011091232299804910e+00 1.999885559082031028e+00 -6.004601716995239258e-01 1.500000000000000000e+01
1.149093627929687944e+00 2.270878076553345171e+00 -5.875721573829650879e-01 1.100000000000000000e+01
1.323867321014404075e+00 2.615138530731201172e+00 -5.697556734085083008e-01 1.000000000000000000e+01
1.580267429351807085e+00 3.118923664093018022e+00 -5.537779927253723145e-01 9.000000000000000000e+00
1.941975235939026101e+00 3.829498767852783203e+00 -5.272067785263061523e-01 1.000000000000000000e+01
2.533007383346558061e+00 4.992830276489257812e+00 -4.898152649402617853e-01 9.000000000000000000e+00
3.632376194000244141e+00 7.153614997863770419e+00 -4.204670786857604980e-01 1.000000000000000000e+00
6.336398601531982422e+00 1.246814346313476918e+01 -2.441242635250092108e-01 2.000000000000000000e+00
1.013677716255187988e+00 1.987739086151123047e+00 -5.978720188140869141e-01 1.600000000000000000e+01
1.157013416290282981e+00 2.266853094100952148e+00 -5.875721573829650879e-01 1.100000000000000000e+01
1.331202149391174094e+00 2.607004404067993164e+00 -5.689924359321594238e-01 1.000000000000000000e+01
1.589347004890441895e+00 3.109870433807373047e+00 -5.531522631645202637e-01 9.000000000000000000e+00
1.958946824073791948e+00 3.829766035079956055e+00 -5.281817317008972168e-01 1.000000000000000000e+01
2.548604965209960938e+00 4.980410575866699219e+00 -4.894666373729705811e-01 9.000000000000000000e+00
3.650041341781616211e+00 7.126670360565186435e+00 -4.196296930313109796e-01 2.000000000000000000e+00
6.379882335662841797e+00 1.244594955444335938e+01 -2.441242635250092108e-01 2.000000000000000000e+00
1.022377371788024902e+00 1.987624406814574973e+00 -5.989072918891906738e-01 2.100000000000000000e+01
1.166703104972838911e+00 2.266265869140625000e+00 -5.884719491004943848e-01 1.000000000000000000e+01
1.342092037200927956e+00 2.605832576751708984e+00 -5.697556734085083008e-01 1.000000000000000000e+01
1.598382592201232910e+00 3.100792169570922852e+00 -5.525265336036682129e-01 9.000000000000000000e+00
1.977764248847960982e+00 3.833489418029785156e+00 -5.296441912651062012e-01 9.000000000000000000e+00
2.563232898712158203e+00 4.966172695159912109e+00 -4.889437258243560791e-01 9.000000000000000000e+00
3.678562402725220171e+00 7.120984077453613281e+00 -4.200483858585358221e-01 2.000000000000000000e+00
6.401246070861816406e+00 1.238097190856933949e+01 -2.432865500450134000e-01 2.000000000000000000e+00
1.034647107124329057e+00 1.994332432746886985e+00 -6.020131111145019531e-01 2.100000000000000000e+01
1.171014666557312012e+00 2.255261421203612837e+00 -5.866723656654357910e-01 1.100000000000000000e+01
1.353894948959351030e+00 2.606358528137207031e+00 -5.709004998207092285e-01 9.000000000000000000e+00
1.611019015312195046e+00 3.098699092864989790e+00 -5.531522631645202637e-01 9.000000000000000000e+00
1.989300966262816939e+00 3.823040485382080078e+00 -5.291566848754882812e-01 9.000000000000000000e+00
2.577792406082152876e+00 4.951893329620361328e+00 -4.884207844734191895e-01 9.000000000000000000e+00
3.697859764099121094e+00 7.097472667694091797e+00 -4.194203615188599188e-01 2.000000000000000000e+00
6.429631233215332031e+00 1.233018207550049006e+01 -2.427280694246292114e-01 2.000000000000000000e+00
1.046080350875854048e+00 1.999267101287842019e+00 -6.046012639999389648e-01 1.900000000000000000e+01
1.174359679222106934e+00 2.242528438568114790e+00 -5.844228267669677734e-01 1.200000000000000000e+01
1.367540001869202104e+00 2.610311985015869141e+00 -5.728086233139038086e-01 1.000000000000000000e+01
1.623660326004028098e+00 3.096555709838867188e+00 -5.537779927253723145e-01 1.000000000000000000e+01
1.995254158973694070e+00 3.802011251449584961e+00 -5.272067785263061523e-01 1.000000000000000000e+01
2.602471351623535156e+00 4.956977367401123047e+00 -4.898152649402617853e-01 9.000000000000000000e+00
3.722612142562866211e+00 7.084521293640136719e+00 -4.194203615188599188e-01 2.000000000000000000e+00
6.487524986267089844e+00 1.233598136901854936e+01 -2.432865500450134000e-01 2.000000000000000000e+00
1.042790293693542036e+00 1.976991295814513938e+00 -5.989072918891906738e-01 1.900000000000000000e+01
1.188158035278320090e+00 2.250684976577758789e+00 -5.875721573829650879e-01 1.100000000000000000e+01
1.364269495010375977e+00 2.583194494247436968e+00 -5.678475499153137207e-01 9.000000000000000000e+00
1.639458656311034934e+00 3.101632833480834961e+00 -5.556552410125732422e-01 9.000000000000000000e+00
2.016205549240111861e+00 3.811166048049927202e+00 -5.294004082679748535e-01 1.000000000000000000e+01
2.625418901443481001e+00 4.960646629333496094e+00 -4.910354614257813055e-01 8.000000000000000000e+00
3.755433559417725053e+00 7.089787006378173828e+00 -4.204670786857604980e-01 1.000000000000000000e+00
6.517157077789306641e+00 1.229319858551025035e+01 -2.428676933050155917e-01 2.000000000000000000e+00
1.051499366760253906e+00 1.976750373840332031e+00 -5.999425649642944336e-01 2.100000000000000000e+01
1.196923017501831055e+00 2.248244047164916992e+00 -5.880220532417297363e-01 1.200000000000000000e+01
1.377892732620239036e+00 2.587080717086791992e+00 -5.697556734085083008e-01 9.000000000000000000e+00
1.646558642387389915e+00 3.088918447494506836e+00 -5.544037222862243652e-01 9.000000000000000000e+00
2.041643857955933061e+00 3.826873540878295898e+00 -5.325690507888793945e-01 1.000000000000000000e+01
2.634275436401367188e+00 4.935632705688476562e+00 -4.894666373729705811e-01 9.000000000000000000e+00
3.789569139480590820e+00 7.094251632690429688e+00 -4.215137958526610773e-01 2.000000000000000000e+00
6.571342468261718750e+00 1.229153633117675959e+01 -2.432865500450134000e-01 2.000000000000000000e+00
1.057479977607727051e+00 1.971365451812743919e+00 -5.994248986244201660e-01 1.900000000000000000e+01
1.201998233795166016e+00 2.238901376724243164e+00 -5.866723656654357910e-01 1.100000000000000000e+01
1.384128093719481978e+00 2.577066421508789062e+00 -5.686107873916625977e-01 9.000000000000000000e+00
1.647978067398071067e+00 3.065752744674683061e+00 -5.512750744819641113e-01 9.000000000000000000e+00
2.045584678649901900e+00 3.802242040634154829e+00 -5.301316380500793457e-01 9.000000000000000000e+00
2.647711038589477983e+00 4.919389724731445312e+00 -4.887694120407103937e-01 9.000000000000000000e+00
3.802943229675292969e+00 7.059879779815673828e+00 -4.202577173709868830e-01 2.000000000000000000e+00
6.602820396423339844e+00 1.224740123748778942e+01 -2.428676933050155917e-01 2.000000000000000000e+00
1.067112207412719949e+00 1.972759723663330078e+00 -6.009778380393981934e-01 1.900000000000000000e+01
1.206094980239867942e+00 2.227837324142456055e+00 -5.848727226257324219e-01 1.100000000000000000e+01
1.400595188140868919e+00 2.586029767990111861e+00 -5.716637372970581055e-01 9.000000000000000000e+00
1.666200280189513938e+00 3.073874711990356001e+00 -5.537779927253723145e-01 9.000000000000000000e+00
2.060737609863280806e+00 3.798568010330200195e+00 -5.306191444396972656e-01 9.000000000000000000e+00
2.670568943023682085e+00 4.920624256134033203e+00 -4.898152649402617853e-01 9.000000000000000000e+00
3.823750495910644975e+00 7.039542198181152344e+00 -4.198390543460845947e-01 2.000000000000000000e+00
6.641711235046386719e+00 1.221725082397460938e+01 -2.427280694246292114e-01 2.000000000000000000e+00
1.073992013931273970e+00 1.969022870063781960e+00 -6.009778380393981934e-01 1.900000000000000000e+01
1.215731739997863992e+00 2.227034568786621094e+00 -5.857725739479064941e-01 1.100000000000000000e+01
1.406790494918823020e+00 2.575955867767333984e+00 -5.705189108848571777e-01 1.000000000000000000e+01
1.675025105476378950e+00 3.064573287963867188e+00 -5.531522631645202637e-01 9.000000000000000000e+00
2.070173978805541992e+00 3.784385442733765093e+00 -5.296441912651062012e-01 1.000000000000000000e+01
2.691555023193358931e+00 4.918263435363770419e+00 -4.905125200748444159e-01 9.000000000000000000e+00
3.842543125152587891e+00 7.015641212463378906e+00 -4.192110002040863037e-01 2.000000000000000000e+00
6.699696540832520419e+00 1.222204875946044922e+01 -2.432865500450134000e-01 2.000000000000000000e+00
1.081789612770081010e+00 1.966954588890075906e+00 -6.014954447746276855e-01 1.900000000000000000e+01
1.227257013320923074e+00 2.229606151580810991e+00 -5.875721573829650879e-01 1.100000000000000000e+01
1.415773749351501021e+00 2.571029424667357954e+00 -5.705189108848571777e-01 1.100000000000000000e+01
1.689526081085205078e+00 3.065627813339232954e+00 -5.544037222862243652e-01 9.000000000000000000e+00
2.083371162414550781e+00 3.777136087417602983e+00 -5.296441912651062012e-01 9.000000000000000000e+00
2.699080705642700195e+00 4.891393661499023438e+00 -4.887694120407103937e-01 9.000000000000000000e+00
3.872802019119263139e+00 7.012675762176513672e+00 -4.198390543460845947e-01 2.000000000000000000e+00
6.742318630218505859e+00 1.219858837127686080e+01 -2.432865500450134000e-01 2.000000000000000000e+00
1.086775183677672896e+00 1.959787607192992942e+00 -6.004601716995239258e-01 2.000000000000000000e+01
1.240706205368041992e+00 2.235532045364379883e+00 -5.902715921401977539e-01 1.300000000000000000e+01
1.419974684715270996e+00 2.557489633560181108e+00 -5.686107873916625977e-01 1.100000000000000000e+01
1.695419430732727051e+00 3.051078081130981001e+00 -5.528393983840942383e-01 8.000000000000000000e+00
2.098472833633422852e+00 3.773310422897338867e+00 -5.301316380500793457e-01 1.000000000000000000e+01
2.718075752258300781e+00 4.885424613952636719e+00 -4.891180396080017090e-01 9.000000000000000000e+00
3.899200677871704102e+00 7.002604484558104581e+00 -4.200483858585358221e-01 2.000000000000000000e+00
6.755655288696289062e+00 1.212257575988770064e+01 -2.422394007444381991e-01 2.000000000000000000e+00
1.092666745185852051e+00 1.954295873641967995e+00 -5.999425649642944336e-01 1.900000000000000000e+01
1.241840958595276101e+00 2.219283342361450195e+00 -5.871222615242004395e-01 1.300000000000000000e+01
1.433688282966613992e+00 2.561083078384398970e+00 -5.705189108848571777e-01 1.000000000000000000e+01
1.708955883979796919e+00 3.050311326980590820e+00 -5.537779927253723145e-01 9.000000000000000000e+00
2.117456674575806108e+00 3.776351451873778853e+00 -5.315940976142883301e-01 9.000000000000000000e+00
2.735112428665161133e+00 4.875906944274902344e+00 -4.891180396080017090e-01 9.000000000000000000e+00
3.925575971603393999e+00 6.992434024810791016e+00 -4.202577173709868830e-01 2.000000000000000000e+00
6.788134574890136719e+00 1.208148670196533025e+01 -2.418903559446335116e-01 2.000000000000000000e+00
1.101986408233643022e+00 1.955710887908935991e+00 -6.014954447746276855e-01 1.900000000000000000e+01
1.244407296180725098e+00 2.206665754318236861e+00 -5.848727226257324219e-01 1.100000000000000000e+01
1.445067286491394043e+00 2.561444282531737837e+00 -5.716637372970581055e-01 1.100000000000000000e+01
1.721004128456115945e+00 3.048067808151245117e+00 -5.544037222862243652e-01 9.000000000000000000e+00
2.122154951095581055e+00 3.755482912063599077e+00 -5.296441912651062012e-01 9.000000000000000000e+00
2.756168842315673828e+00 4.875482082366943359e+00 -4.899895787239075262e-01 8.000000000000000000e+00
3.940874099731444868e+00 6.965471744537354404e+00 -4.194203615188599188e-01 2.000000000000000000e+00
6.855749130249023438e+00 1.210763263702392933e+01 -2.428676933050155917e-01 2.000000000000000000e+00
1.111669063568115012e+00 1.956891536712646040e+00 -6.030483841896057129e-01 1.900000000000000000e+01
1.257881402969359907e+00 2.212473154067993164e+00 -5.875721573829650879e-01 1.100000000000000000e+01
1.450116991996764915e+00 2.549558401107788086e+00 -5.701372623443603516e-01 1.100000000000000000e+01
1.729678988456726074e+00 3.038608312606811968e+00 -5.537779927253723145e-01 9.000000000000000000e+00
2.127390146255493164e+00 3.734253644943236861e+00 -5.276942849159240723e-01 9.000000000000000000e+00
2.778103351593018022e+00 4.874486923217773438e+00 -4.908611476421356201e-01 9.000000000000000000e+00
3.965164184570312944e+00 6.951673030853270596e+00 -4.194203615188599188e-01 2.000000000000000000e+00
6.838488578796386719e+00 1.197942924499512074e+01 -2.407733947038651068e-01 2.000000000000000000e+00
1.113692760467529075e+00 1.944617152214050071e+00 -6.004601716995239258e-01 1.900000000000000000e+01
1.265596747398376021e+00 2.208068847656250000e+00 -5.875721573829650879e-01 1.100000000000000000e+01
1.455101490020751953e+00 2.537668466567993164e+00 -5.686107873916625977e-01 1.100000000000000000e+01
1.742241501808166948e+00 3.035978794097899947e+00 -5.544037222862243652e-01 9.000000000000000000e+00
2.142389297485352007e+00 3.730247735977172852e+00 -5.281817317008972168e-01 9.000000000000000000e+00
2.790138721466064009e+00 4.856122016906738281e+00 -4.899895787239075262e-01 8.000000000000000000e+00
3.987414598464965820e+00 6.934326648712158203e+00 -4.192110002040863037e-01 2.000000000000000000e+00
6.888242721557617188e+00 1.196935081481933949e+01 -2.410526424646378119e-01 2.000000000000000000e+00
1.118542075157165971e+00 1.937371730804442915e+00 -5.994248986244201660e-01 2.000000000000000000e+01
1.275246500968933105e+00 2.207012176513671875e+00 -5.884719491004943848e-01 1.100000000000000000e+01
1.464933276176453081e+00 2.534273386001586914e+00 -5.689924359321594238e-01 1.000000000000000000e+01
1.754806876182555930e+00 3.033298492431641069e+00 -5.550295114517211914e-01 9.000000000000000000e+00
2.164349079132080078e+00 3.738208055496215820e+00 -5.303753614425659180e-01 1.000000000000000000e+01
2.808071374893188032e+00 4.848076820373535156e+00 -4.901638925075531006e-01 9.000000000000000000e+00
4.009592533111572266e+00 6.916909694671630859e+00 -4.190016686916350763e-01 2.000000000000000000e+00
6.929981231689453125e+00 1.194523334503174006e+01 -2.410526424646378119e-01 2.000000000000000000e+00
1.123354434967041016e+00 1.930116176605225053e+00 -5.983896255493164062e-01 1.700000000000000000e+01
1.284904360771178977e+00 2.205915212631226030e+00 -5.893717408180236816e-01 1.100000000000000000e+01
1.479701280593872070e+00 2.539322137832642046e+00 -5.712821483612060547e-01 1.000000000000000000e+01
1.757423162460326926e+00 3.013503313064575195e+00 -5.525265336036682129e-01 9.000000000000000000e+00
2.182387828826903853e+00 3.739202499389647993e+00 -5.315940976142883301e-01 9.000000000000000000e+00
2.817945003509521040e+00 4.826201438903808594e+00 -4.889437258243560791e-01 9.000000000000000000e+00
4.043789386749267578e+00 6.920115947723388672e+00 -4.200483858585358221e-01 2.000000000000000000e+00
6.963559627532958984e+00 1.190716075897216975e+01 -2.407733947038651068e-01 2.000000000000000000e+00
1.132040143013000044e+00 1.929515719413757102e+00 -5.994248986244201660e-01 1.800000000000000000e+01
1.291609883308411089e+00 2.199736118316649947e+00 -5.889218449592590332e-01 1.200000000000000000e+01
1.492533564567565918e+00 2.540912866592406782e+00 -5.728086233139038086e-01 1.000000000000000000e+01
1.773938179016113059e+00 3.017567873001099077e+00 -5.544037222862243652e-01 9.000000000000000000e+00
2.191400289535522017e+00 3.724717855453491211e+00 -5.306191444396972656e-01 9.000000000000000000e+00
2.839827537536621094e+00 4.824920654296875000e+00 -4.898152649402617853e-01 9.000000000000000000e+00
4.053728580474854404e+00 6.881865501403808594e+00 -4.185829758644104004e-01 2.000000000000000000e+00
7.001019001007080078e+00 1.187589073181151988e+01 -2.406337857246398926e-01 2.000000000000000000e+00
1.142702102661133035e+00 1.932203650474547896e+00 -6.014954447746276855e-01 1.600000000000000000e+01
1.296302795410156028e+00 2.190183162689208984e+00 -5.875721573829650879e-01 1.000000000000000000e+01
1.492391586303710938e+00 2.520483493804932085e+00 -5.693740248680114746e-01 1.200000000000000000e+01
1.784460544586182085e+00 3.011357307434082031e+00 -5.544037222862243652e-01 9.000000000000000000e+00
2.191225290298461914e+00 3.694849491119385210e+00 -5.274505019187927246e-01 1.000000000000000000e+01
2.855635643005371094e+00 4.813264846801757812e+00 -4.896409511566162109e-01 9.000000000000000000e+00
4.061411380767822266e+00 6.840196132659912109e+00 -4.169082343578339178e-01 2.000000000000000000e+00
7.052646160125732422e+00 1.186857032775879084e+01 -2.409828305244446078e-01 2.000000000000000000e+00
1.145483016967772993e+00 1.921565651893615945e+00 -5.994248986244201660e-01 1.200000000000000000e+01
1.303940057754517046e+00 2.185644865036011186e+00 -5.875721573829650879e-01 1.200000000000000000e+01
1.500174403190613015e+00 2.513572692871094194e+00 -5.689924359321594238e-01 1.000000000000000000e+01
1.799013137817383035e+00 3.011893510818481001e+00 -5.556552410125732422e-01 9.000000000000000000e+00
2.205127716064453125e+00 3.688881874084473100e+00 -5.276942849159240723e-01 9.000000000000000000e+00
2.875487327575684038e+00 4.808397769927979404e+00 -4.901638925075531006e-01 9.000000000000000000e+00
4.099622726440429688e+00 6.849970340728759766e+00 -4.183736443519591730e-01 2.000000000000000000e+00
7.071426868438720703e+00 1.180613899230957031e+01 -2.402149289846420011e-01 2.000000000000000000e+00
1.147870063781738059e+00 1.911132097244262917e+00 -5.973543524742126465e-01 1.100000000000000000e+01
1.314192652702331987e+00 2.186319351196289062e+00 -5.889218449592590332e-01 1.200000000000000000e+01
1.510524988174438032e+00 2.511949300765991211e+00 -5.697556734085083008e-01 1.100000000000000000e+01
1.803898215293884055e+00 2.997448682785034180e+00 -5.540908575057983398e-01 8.000000000000000000e+00
2.231687068939208984e+00 3.705355882644652876e+00 -5.311065912246704102e-01 9.000000000000000000e+00
2.886275529861450195e+00 4.790302753448486328e+00 -4.892923533916472834e-01 9.000000000000000000e+00
4.114064693450927734e+00 6.822654724121093750e+00 -4.175362586975098211e-01 2.000000000000000000e+00
7.110538482666015625e+00 1.178262424468993963e+01 -2.402149289846420011e-01 2.000000000000000000e+00
1.156535148620605025e+00 1.910418868064879927e+00 -5.983896255493164062e-01 9.000000000000000000e+00
1.322826147079467995e+00 2.183385372161864790e+00 -5.893717408180236816e-01 1.100000000000000000e+01
1.521319389343261941e+00 2.510019063949584961e+00 -5.705189108848571777e-01 1.100000000000000000e+01
1.813325762748718040e+00 2.989444732666016069e+00 -5.537779927253723145e-01 9.000000000000000000e+00
2.244607448577880859e+00 3.697543382644652876e+00 -5.311065912246704102e-01 9.000000000000000000e+00
2.905047655105590820e+00 4.783604621887207031e+00 -4.896409511566162109e-01 9.000000000000000000e+00
4.125407218933104581e+00 6.787771701812744141e+00 -4.162802100181580145e-01 2.000000000000000000e+00
7.139153957366943359e+00 1.173723030090332031e+01 -2.397960573434829989e-01 2.000000000000000000e+00
1.168227791786194070e+00 1.914615750312804954e+00 -6.009778380393981934e-01 8.000000000000000000e+00
1.322314620018004927e+00 2.165449142456055132e+00 -5.857725739479064941e-01 1.200000000000000000e+01
1.531095147132873979e+00 2.506368637084960938e+00 -5.709004998207092285e-01 1.000000000000000000e+01
1.815506935119628906e+00 2.969613790512084961e+00 -5.512750744819641113e-01 9.000000000000000000e+00
2.249212503433227983e+00 3.676139354705810991e+00 -5.291566848754882812e-01 9.000000000000000000e+00
2.919647693634033203e+00 4.770036220550537109e+00 -4.892923533916472834e-01 8.000000000000000000e+00
4.155335426330566406e+00 6.783548355102539062e+00 -4.169082343578339178e-01 2.000000000000000000e+00
7.196803092956542969e+00 1.173951625823974965e+01 -2.403545379638671875e-01 2.000000000000000000e+00
1.174903988838196023e+00 1.910526156425476074e+00 -6.009778380393981934e-01 8.000000000000000000e+00
1.334972500801085982e+00 2.169118404388428178e+00 -5.880220532417297363e-01 1.200000000000000000e+01
1.538805365562438965e+00 2.499337196350098100e+00 -5.705189108848571777e-01 1.000000000000000000e+01
1.838296651840209961e+00 2.983439683914185014e+00 -5.550295114517211914e-01 9.000000000000000000e+00
2.262030839920043945e+00 3.668265819549560991e+00 -5.291566848754882812e-01 9.000000000000000000e+00
2.941510677337646040e+00 4.768294334411621094e+00 -4.901638925075531006e-01 8.000000000000000000e+00
4.172693729400634766e+00 6.758805751800537109e+00 -4.162802100181580145e-01 2.000000000000000000e+00
7.220920562744140625e+00 1.168710422515868963e+01 -2.397960573434829989e-01 2.000000000000000000e+00
1.171058773994446023e+00 1.890197396278380904e+00 -5.958014130592346191e-01 8.000000000000000000e+00
1.348319530487060991e+00 2.174616813659667969e+00 -5.907214879989624023e-01 1.200000000000000000e+01
1.545015335083008035e+00 2.490883827209473100e+00 -5.697556734085083008e-01 1.000000000000000000e+01
1.839845418930053933e+00 2.963900566101074219e+00 -5.525265336036682129e-01 9.000000000000000000e+00
2.280467987060546875e+00 3.670861721038817915e+00 -5.306191444396972656e-01 1.000000000000000000e+01
2.958358287811278853e+00 4.760205745697020596e+00 -4.903382062911986750e-01 9.000000000000000000e+00
4.209851741790770596e+00 6.768674850463867188e+00 -4.177455902099608820e-01 2.000000000000000000e+00
7.268090724945068359e+00 1.167667579650879084e+01 -2.400753051042557040e-01 2.000000000000000000e+00
1.170487523078918013e+00 1.874627470970154031e+00 -5.921779870986938477e-01 9.000000000000000000e+00
1.350738763809204102e+00 2.161633968353271040e+00 -5.884719491004943848e-01 1.100000000000000000e+01
1.552660107612610085e+00 2.483810663223267046e+00 -5.693740248680114746e-01 1.000000000000000000e+01
1.858561515808105025e+00 2.970857620239257812e+00 -5.550295114517211914e-01 9.000000000000000000e+00
2.295374631881713867e+00 3.666244029998778853e+00 -5.311065912246704102e-01 9.000000000000000000e+00
2.968611240386962891e+00 4.739718914031982422e+00 -4.892923533916472834e-01 8.000000000000000000e+00
4.237696170806884766e+00 6.760707855224609375e+00 -4.181642830371857245e-01 2.000000000000000000e+00
7.300304412841796875e+00 1.163768291473389027e+01 -2.397960573434829989e-01 2.000000000000000000e+00
1.182496309280395952e+00 1.878499269485474077e+00 -5.947661399841308594e-01 1.000000000000000000e+01
1.360729932785033958e+00 2.159966468811035156e+00 -5.893717408180236816e-01 1.000000000000000000e+01
1.564893484115601030e+00 2.483086109161376953e+00 -5.705189108848571777e-01 1.000000000000000000e+01
1.861007452011107954e+00 2.950659275054932085e+00 -5.525265336036682129e-01 9.000000000000000000e+00
2.310915708541870117e+00 3.661163806915283203e+00 -5.315940976142883301e-01 9.000000000000000000e+00
2.989154338836669922e+00 4.733860492706298828e+00 -4.898152649402617853e-01 9.000000000000000000e+00
4.258179187774658203e+00 6.738377094268798828e+00 -4.177455902099608820e-01 2.000000000000000000e+00
7.355735778808593750e+00 1.163112831115723012e+01 -2.402149289846420011e-01 2.000000000000000000e+00
1.197325110435486062e+00 1.887410521507262962e+00 -5.989072918891906738e-01 1.600000000000000000e+01
1.361994504928589089e+00 2.145332336425780806e+00 -5.866723656654357910e-01 1.200000000000000000e+01
1.579866766929626021e+00 2.487551927566527876e+00 -5.728086233139038086e-01 1.100000000000000000e+01
1.871295809745789018e+00 2.944145202636719194e+00 -5.525265336036682129e-01 9.000000000000000000e+00
2.313027381896973100e+00 3.636325359344481978e+00 -5.291566848754882812e-01 9.000000000000000000e+00
2.999242782592772993e+00 4.713312149047851562e+00 -4.887694120407103937e-01 9.000000000000000000e+00
4.285965919494628906e+00 6.730210781097412109e+00 -4.181642830371857245e-01 2.000000000000000000e+00
7.383394241333007812e+00 1.158514499664306996e+01 -2.397960573434829989e-01 2.000000000000000000e+00
1.208448529243469016e+00 1.891779899597167969e+00 -6.014954447746276855e-01 1.900000000000000000e+01
1.372926115989685059e+00 2.147610425949097124e+00 -5.884719491004943848e-01 1.100000000000000000e+01
1.583442926406859907e+00 2.475960731506348100e+00 -5.712821483612060547e-01 1.000000000000000000e+01
1.889054656028748003e+00 2.951562166213988814e+00 -5.550295114517211914e-01 9.000000000000000000e+00
2.324439764022827148e+00 3.629040718078612837e+00 -5.291566848754882812e-01 1.000000000000000000e+01
3.028008937835692915e+00 4.725674629211425781e+00 -4.910354614257813055e-01 9.000000000000000000e+00
4.304932117462158203e+00 6.713350296020507812e+00 -4.179549515247344971e-01 3.000000000000000000e+00
7.393833160400390625e+00 1.152150154113770064e+01 -2.389583438634871881e-01 2.000000000000000000e+00
1.216090440750122070e+00 1.889174580574036089e+00 -6.020131111145019531e-01 2.200000000000000000e+01
1.378303527832031028e+00 2.139528512954711914e+00 -5.875721573829650879e-01 1.200000000000000000e+01
1.589949011802672896e+00 2.467117786407471147e+00 -5.705189108848571777e-01 1.000000000000000000e+01
1.897204756736754927e+00 2.941629886627196822e+00 -5.544037222862243652e-01 9.000000000000000000e+00
2.339246273040771040e+00 3.624240636825561968e+00 -5.296441912651062012e-01 9.000000000000000000e+00
3.043405532836914062e+00 4.713402271270751953e+00 -4.908611476421356201e-01 9.000000000000000000e+00
4.333759784698486328e+00 6.706669807434082031e+00 -4.184783101081848145e-01 3.000000000000000000e+00
7.449208259582520419e+00 1.151913070678710938e+01 -2.394470125436783114e-01 2.000000000000000000e+00
1.213868379592895952e+00 1.869907855987549050e+00 -5.973543524742126465e-01 2.000000000000000000e+01
1.392878413200377974e+00 2.144025325775146040e+00 -5.902715921401977539e-01 1.200000000000000000e+01
1.599410295486449973e+00 2.460994720458983931e+00 -5.705189108848571777e-01 1.000000000000000000e+01
1.908485770225524902e+00 2.934323549270629883e+00 -5.544037222862243652e-01 9.000000000000000000e+00
2.357476711273192915e+00 3.621886730194091797e+00 -5.306191444396972656e-01 1.000000000000000000e+01
3.057132482528686968e+00 4.695003509521484375e+00 -4.901638925075531006e-01 9.000000000000000000e+00
4.348575115203857422e+00 6.673246383666992188e+00 -4.174315929412841797e-01 4.000000000000000000e+00
7.491198539733886719e+00 1.148709297180175959e+01 -2.393772006034851074e-01 2.000000000000000000e+00
1.225675821304321067e+00 1.873742699623107910e+00 -5.999425649642944336e-01 2.100000000000000000e+01
1.396084666252136008e+00 2.132628440856934038e+00 -5.884719491004943848e-01 1.100000000000000000e+01
1.607990980148314986e+00 2.455396652221680132e+00 -5.705189108848571777e-01 1.100000000000000000e+01
1.912220120429992898e+00 2.917730808258057085e+00 -5.525265336036682129e-01 9.000000000000000000e+00
2.374459981918334961e+00 3.620275020599364790e+00 -5.315940976142883301e-01 9.000000000000000000e+00
3.077874422073363814e+00 4.690966606140136719e+00 -4.908611476421356201e-01 9.000000000000000000e+00
4.368554115295410156e+00 6.653017997741699219e+00 -4.171175658702849787e-01 4.000000000000000000e+00
7.526857852935791016e+00 1.145418834686278942e+01 -2.392375916242598932e-01 2.000000000000000000e+00
1.231556296348571999e+00 1.869882822036742942e+00 -5.999425649642944336e-01 2.100000000000000000e+01
1.393125414848328081e+00 2.113588333129882812e+00 -5.844228267669677734e-01 1.200000000000000000e+01
1.620019793510437012e+00 2.456889152526855025e+00 -5.720453858375549316e-01 1.200000000000000000e+01
1.919201016426085982e+00 2.908411502838135210e+00 -5.519008040428161621e-01 1.000000000000000000e+01
2.385821580886840820e+00 3.612797737121582031e+00 -5.315940976142883301e-01 9.000000000000000000e+00
3.096989154815673828e+00 4.687923908233642578e+00 -4.915584027767180841e-01 9.000000000000000000e+00
4.387230396270751953e+00 6.635929107666015625e+00 -4.169082343578339178e-01 4.000000000000000000e+00
7.547357082366943359e+00 1.140713787078857067e+01 -2.387489229440689087e-01 2.000000000000000000e+00
1.242348790168761985e+00 1.872011065483093040e+00 -6.020131111145019531e-01 2.100000000000000000e+01
1.404807329177856001e+00 2.115205764770507812e+00 -5.862224698066711426e-01 1.200000000000000000e+01
1.624240279197693093e+00 2.444678306579589844e+00 -5.705189108848571777e-01 1.100000000000000000e+01
1.934810161590575950e+00 2.909919261932373047e+00 -5.534651279449462891e-01 8.000000000000000000e+00
2.387421131134033203e+00 3.587920904159545898e+00 -5.291566848754882812e-01 9.000000000000000000e+00
3.114438295364379883e+00 4.678743362426757812e+00 -4.917326867580413818e-01 9.000000000000000000e+00
4.410367488861083984e+00 6.620573997497558594e+00 -4.169082343578339178e-01 5.000000000000000000e+00
7.573818683624267578e+00 1.136075687408447088e+01 -2.383300662040709894e-01 2.000000000000000000e+00
1.244580507278441939e+00 1.861239433288573997e+00 -5.999425649642944336e-01 2.100000000000000000e+01
1.415433526039123979e+00 2.115147829055786133e+00 -5.875721573829650879e-01 1.200000000000000000e+01
1.631671786308289018e+00 2.437362194061278853e+00 -5.701372623443603516e-01 1.100000000000000000e+01
1.946055412292480025e+00 2.904788970947266069e+00 -5.537779927253723145e-01 9.000000000000000000e+00
2.403247117996215820e+00 3.584511995315552202e+00 -5.298879146575927734e-01 7.000000000000000000e+00
3.129641294479370117e+00 4.666188716888427734e+00 -4.915584027767180841e-01 6.000000000000000000e+00
4.425659179687500000e+00 6.593530654907226562e+00 -4.161755144596099854e-01 6.000000000000000000e+00
7.620119094848632812e+00 1.134421062469482067e+01 -2.385394871234894076e-01 2.000000000000000000e+00
1.247831463813781960e+00 1.852077364921570046e+00 -5.983896255493164062e-01 2.300000000000000000e+01
1.429344892501831055e+00 2.119888782501221147e+00 -5.902715921401977539e-01 1.400000000000000000e+01
1.637974143028259055e+00 2.428396463394165039e+00 -5.693740248680114746e-01 1.200000000000000000e+01
1.958393454551696999e+00 2.901252746582030806e+00 -5.544037222862243652e-01 9.000000000000000000e+00
2.421300888061522993e+00 3.584325790405272993e+00 -5.311065912246704102e-01 9.000000000000000000e+00
3.138101339340209961e+00 4.643680095672607422e+00 -4.903382062911986750e-01 8.000000000000000000e+00
4.465430736541748047e+00 6.602858543395996094e+00 -4.177455902099608820e-01 5.000000000000000000e+00
7.655188083648681641e+00 1.131091785430908025e+01 -2.383998781442641934e-01 2.000000000000000000e+00
1.249948740005492942e+00 1.841316819190979004e+00 -5.963190793991088867e-01 2.000000000000000000e+01
1.432355642318726030e+00 2.108438730239868164e+00 -5.884719491004943848e-01 1.200000000000000000e+01
1.648647904396056907e+00 2.425911664962768999e+00 -5.701372623443603516e-01 1.200000000000000000e+01
1.959621667861938032e+00 2.881331682205200195e+00 -5.519008040428161621e-01 9.000000000000000000e+00
2.440499305725098100e+00 3.585698366165161133e+00 -5.325690507888793945e-01 9.000000000000000000e+00
3.156534194946289062e+00 4.635991573333740234e+00 -4.906868338584899902e-01 8.000000000000000000e+00
4.495199680328369141e+00 6.597134113311767578e+00 -4.183736443519591730e-01 6.000000000000000000e+00
7.683358192443847656e+00 1.126760578155517933e+01 -2.380508184432983121e-01 2.000000000000000000e+00
1.267274498939513938e+00 1.852888107299804910e+00 -6.014954447746276855e-01 2.300000000000000000e+01
1.439706683158874956e+00 2.103425979614257812e+00 -5.884719491004943848e-01 1.400000000000000000e+01
1.662651777267456055e+00 2.428241491317749023e+00 -5.720453858375549316e-01 1.100000000000000000e+01
1.970784068107604980e+00 2.876103401184082031e+00 -5.522136688232421875e-01 9.000000000000000000e+00
2.448510169982910156e+00 3.570609092712401900e+00 -5.315940976142883301e-01 9.000000000000000000e+00
3.179460048675537109e+00 4.634802818298339844e+00 -4.917326867580413818e-01 8.000000000000000000e+00
4.529504776000976562e+00 6.597868442535400391e+00 -4.194203615188599188e-01 5.000000000000000000e+00
7.722642421722412109e+00 1.124071693420409979e+01 -2.380508184432983121e-01 2.000000000000000000e+00
1.277023077011107954e+00 1.853225469589232954e+00 -6.030483841896057129e-01 2.200000000000000000e+01
1.444827675819396973e+00 2.095179319381713867e+00 -5.875721573829650879e-01 1.400000000000000000e+01
1.668888092041016069e+00 2.419191122055054155e+00 -5.712821483612060547e-01 1.000000000000000000e+01
1.985300540924072044e+00 2.875708818435668945e+00 -5.534651279449462891e-01 9.000000000000000000e+00
2.456445693969727007e+00 3.555507659912108931e+00 -5.306191444396972656e-01 9.000000000000000000e+00
3.197884798049927202e+00 4.626954078674316406e+00 -4.920813143253325861e-01 8.000000000000000000e+00
4.560461044311523438e+00 6.593515872955322266e+00 -4.201530516147614081e-01 3.000000000000000000e+00
7.775490283966063565e+00 1.123342227935791016e+01 -2.384696751832962036e-01 2.000000000000000000e+00
1.275772333145142046e+00 1.837648153305053933e+00 -5.994248986244201660e-01 2.000000000000000000e+01
1.452132463455199973e+00 2.090122938156127930e+00 -5.875721573829650879e-01 1.400000000000000000e+01
1.672840714454651101e+00 2.406902313232421875e+00 -5.697556734085083008e-01 1.000000000000000000e+01
2.000966310501099077e+00 2.876869916915893999e+00 -5.550295114517211914e-01 9.000000000000000000e+00
2.466573715209960938e+00 3.543652772903441939e+00 -5.301316380500793457e-01 9.000000000000000000e+00
3.207185268402100053e+00 4.605952739715576172e+00 -4.910354614257813055e-01 8.000000000000000000e+00
4.605144500732421875e+00 6.608691215515136719e+00 -4.221418201923369806e-01 3.000000000000000000e+00
7.766613960266113281e+00 1.113732147216797053e+01 -2.370036840438843051e-01 2.000000000000000000e+00
1.276324391365051047e+00 1.825491189956665039e+00 -5.968367457389831543e-01 2.100000000000000000e+01
1.465758681297302024e+00 2.094876289367675781e+00 -5.902715921401977539e-01 1.300000000000000000e+01
1.690945148468018022e+00 2.415817260742187944e+00 -5.731902122497558594e-01 1.100000000000000000e+01
2.003695487976074219e+00 2.860511064529418945e+00 -5.531522631645202637e-01 9.000000000000000000e+00
2.482869148254394975e+00 3.541955947875977007e+00 -5.311065912246704102e-01 9.000000000000000000e+00
3.222441673278809038e+00 4.595292091369628906e+00 -4.910354614257813055e-01 9.000000000000000000e+00
4.647685527801513672e+00 6.622810840606688565e+00 -4.240259230136870783e-01 2.000000000000000000e+00
7.814996719360351562e+00 1.112787055969237926e+01 -2.373527288436889926e-01 2.000000000000000000e+00
1.287138700485229048e+00 1.827342391014098899e+00 -5.989072918891906738e-01 2.200000000000000000e+01
1.474184989929198997e+00 2.091339826583861861e+00 -5.907214879989624023e-01 1.300000000000000000e+01
1.694842100143433061e+00 2.403482198715209961e+00 -5.716637372970581055e-01 1.100000000000000000e+01
2.006834506988524947e+00 2.843815565109252930e+00 -5.512750744819641113e-01 9.000000000000000000e+00
2.502088308334351030e+00 3.542996406555175781e+00 -5.325690507888793945e-01 9.000000000000000000e+00
3.247659444808959961e+00 4.597033977508544922e+00 -4.924299418926239014e-01 9.000000000000000000e+00
4.663856983184813565e+00 6.596762180328369141e+00 -4.233978986740111750e-01 1.000000000000000000e+00
7.883821487426757812e+00 1.114296627044677912e+01 -2.382602542638778964e-01 2.000000000000000000e+00
1.296064019203186035e+00 1.825763106346129927e+00 -5.999425649642944336e-01 2.100000000000000000e+01
1.477325916290282981e+00 2.079568147659302202e+00 -5.889218449592590332e-01 1.500000000000000000e+01
1.701365351676940918e+00 2.394053697586060014e+00 -5.709004998207092285e-01 1.100000000000000000e+01
2.020678758621215820e+00 2.841270446777344194e+00 -5.522136688232421875e-01 9.000000000000000000e+00
2.517359495162963867e+00 3.537036657333374023e+00 -5.330564975738525391e-01 9.000000000000000000e+00
3.263330936431885210e+00 4.583476543426513672e+00 -4.922556281089783270e-01 8.000000000000000000e+00
4.694957733154296875e+00 6.589383602142333984e+00 -4.240259230136870783e-01 2.000000000000000000e+00
7.901390552520751953e+00 1.108143138885498047e+01 -2.375621497631072998e-01 2.000000000000000000e+00
1.309171795845031960e+00 1.830656170845031960e+00 -6.030483841896057129e-01 2.200000000000000000e+01
1.483441829681396040e+00 2.072813749313354048e+00 -5.884719491004943848e-01 1.400000000000000000e+01
1.707426071166991965e+00 2.384907484054564986e+00 -5.701372623443603516e-01 1.100000000000000000e+01
