1.128686070442199985e-01 -1.722042202949523926e+00 -3.012285381555556904e-02 7.100000000000000000e+01
1.047434434294701039e-01 -1.598076105117798074e+00 4.291219711303710938e-01 1.000000000000000000e+02
1.083763688802718977e-01 -1.694278717041016069e+00 2.963418699800968170e-02 6.600000000000000000e+01
2.055667489767074863e-01 -3.222512483596802202e+00 -7.454878091812133789e-01 1.200000000000000000e+01
1.070589423179626049e-01 -1.678280949592590110e+00 8.813375234603881836e-02 9.300000000000000000e+01
2.469150871038436890e-01 -3.881361007690430132e+00 -7.559852600097656250e-01 1.100000000000000000e+01
1.059612110257149020e-01 -1.670249342918395996e+00 1.464216411113739014e-01 5.900000000000000000e+01
3.095627129077910822e-01 -4.893102645874023438e+00 -7.765406966209411621e-01 9.000000000000000000e+00
1.036173328757285933e-01 -1.642376184463500977e+00 2.020593732595444003e-01 9.800000000000000000e+01
4.421157240867614746e-01 -7.027228355407714844e+00 -8.645411133766174316e-01 1.000000000000000000e+00
1.009644344449042996e-01 -1.604783654212952104e+00 2.546752989292144775e-01 8.300000000000000000e+01
1.107834279537201067e-01 -1.765769958496093972e+00 -1.547885984182358066e-01 7.800000000000000000e+01
9.942033141851425171e-02 -1.589092254638672097e+00 3.094922006130219061e-01 1.000000000000000000e+02
1.081977412104607045e-01 -1.734243512153625044e+00 -9.106456488370895386e-02 6.700000000000000000e+01
9.898174554109573364e-02 -1.590993404388427956e+00 3.680199384689331055e-01 1.000000000000000000e+02
1.074759736657143055e-01 -1.732404947280884011e+00 -3.029737807810306896e-02 6.900000000000000000e+01
9.940371662378311157e-02 -1.602288246154784934e+00 4.301572442054749090e-01 1.000000000000000000e+02
1.037891060113906999e-01 -1.716603279113769975e+00 3.001813963055611004e-02 7.400000000000000000e+01
1.941995620727539062e-01 -3.221265077590941939e+00 -7.450379133224487305e-01 1.100000000000000000e+01
1.011466979980469028e-01 -1.682649374008178933e+00 8.834309130907058716e-02 9.600000000000000000e+01
2.331295013427734097e-01 -3.878279924392700195e+00 -7.552220225334167480e-01 1.100000000000000000e+01
9.905748814344406128e-02 -1.652709722518920898e+00 1.448528468608855924e-01 6.700000000000000000e+01
2.937769591808319092e-01 -4.915843486785888672e+00 -7.799822688102722168e-01 9.000000000000000000e+00
9.811989217996597290e-02 -1.646690964698791948e+00 2.025468498468399048e-01 7.800000000000000000e+01
4.166415929794312079e-01 -7.012876033782958984e+00 -8.625912070274353027e-01 1.000000000000000000e+00
9.438107907772064209e-02 -1.593311429023742898e+00 2.527981102466583252e-01 8.500000000000000000e+01
1.049725115299224992e-01 -1.772112607955933061e+00 -1.553115397691726962e-01 6.400000000000000000e+01
9.398850798606872559e-02 -1.591389417648314986e+00 3.098738193511962891e-01 1.000000000000000000e+02
1.035523191094397943e-01 -1.758536219596863015e+00 -9.232062846422195435e-02 6.900000000000000000e+01
9.388440102338790894e-02 -1.599110722541809082e+00 3.698195219039916992e-01 9.700000000000000000e+01
1.014280989766121049e-01 -1.732769608497620073e+00 -3.029737807810306896e-02 6.900000000000000000e+01
9.353036433458328247e-02 -1.602641820907592995e+00 4.301572442054749090e-01 1.000000000000000000e+02
9.791012853384017944e-02 -1.718951582908629927e+00 3.005304373800754894e-02 8.600000000000000000e+01
1.835064589977264127e-01 -3.231651306152344194e+00 -7.472873926162719727e-01 1.300000000000000000e+01
9.624565392732620239e-02 -1.694939851760864036e+00 8.897112309932708740e-02 9.600000000000000000e+01
2.194793969392775934e-01 -3.877109766006470171e+00 -7.548403739929199219e-01 1.100000000000000000e+01
9.261429309844970703e-02 -1.641110062599181907e+00 1.438069790601730069e-01 8.400000000000000000e+01
2.761718630790709894e-01 -4.908950328826904297e+00 -7.787307500839233398e-01 9.000000000000000000e+00
9.292705357074737549e-02 -1.656933307647705078e+00 2.037655413150787076e-01 6.900000000000000000e+01
3.937109112739562988e-01 -7.042035579681395596e+00 -8.660035729408264160e-01 1.000000000000000000e+00
8.881881088018417358e-02 -1.593631148338318093e+00 2.527981102466583252e-01 9.000000000000000000e+01
1.000056192278862000e-01 -1.794350504875183105e+00 -1.572289615869522095e-01 1.100000000000000000e+01
8.843294531106948853e-02 -1.591707825660706010e+00 3.098738193511962891e-01 1.000000000000000000e+02
9.851770848035812378e-02 -1.778829097747802956e+00 -9.336734563112258911e-02 8.500000000000000000e+01
8.862415701150894165e-02 -1.605266094207763894e+00 3.711692392826079767e-01 8.700000000000000000e+01
9.658770263195037842e-02 -1.755076527595520020e+00 -3.068133071064949036e-02 8.800000000000000000e+01
8.725989609956741333e-02 -1.585582733154297097e+00 4.254985153675078791e-01 1.000000000000000000e+02
9.148228168487548828e-02 -1.711295485496520996e+00 2.991342544555664062e-02 9.100000000000000000e+01
1.720174103975296021e-01 -3.228380441665648970e+00 -7.463876008987426758e-01 1.200000000000000000e+01
9.064743667840957642e-02 -1.701248764991760032e+00 8.928514271974563599e-02 8.200000000000000000e+01
2.062567770481109897e-01 -3.883733749389647993e+00 -7.559852600097656250e-01 1.200000000000000000e+01
8.741176128387451172e-02 -1.651371359825134055e+00 1.446785330772399902e-01 9.700000000000000000e+01
2.570573687553405762e-01 -4.872404098510742188e+00 -7.727862596511840820e-01 9.000000000000000000e+00
8.630880713462829590e-02 -1.641388773918152078e+00 2.018156349658966064e-01 9.300000000000000000e+01
3.692311048507689875e-01 -7.045349597930908203e+00 -8.662472963333129883e-01 3.000000000000000000e+00
8.325545489788055420e-02 -1.593931555747986062e+00 2.527981102466583252e-01 9.000000000000000000e+01
8.216185867786407471e-02 -1.578282594680785911e+00 3.072024881839752197e-01 1.000000000000000000e+02
9.220434725284576416e-02 -1.777167558670043945e+00 -9.326267242431640625e-02 4.000000000000000000e+01
8.342272043228149414e-02 -1.613350152969359907e+00 3.729688525199890137e-01 7.200000000000000000e+01
9.087240695953369141e-02 -1.763391137123107910e+00 -3.082094900310039867e-02 1.000000000000000000e+02
8.182407170534133911e-02 -1.587806940078734907e+00 4.260161519050598145e-01 1.000000000000000000e+02
8.560716360807418823e-02 -1.719608187675476074e+00 3.005304373800754894e-02 8.400000000000000000e+01
1.599905341863631925e-01 -3.225096464157104048e+00 -7.454878091812133789e-01 1.200000000000000000e+01
8.381862193346023560e-02 -1.695599794387816939e+00 8.897112309932708740e-02 7.100000000000000000e+01
1.926023811101912897e-01 -3.896228790283203125e+00 -7.582749724388122559e-01 1.200000000000000000e+01
8.194673061370849609e-02 -1.663620471954345925e+00 1.457244008779526034e-01 9.700000000000000000e+01
2.408436983823775968e-01 -4.906854629516601562e+00 -7.781050205230712891e-01 9.000000000000000000e+00
7.990435510873794556e-02 -1.633763194084167036e+00 2.008406817913054865e-01 9.000000000000000000e+01
3.433095216751099188e-01 -7.044672489166259766e+00 -8.660035729408264160e-01 1.000000000000000000e+00
7.807569950819015503e-02 -1.602104544639586958e+00 2.540495693683624268e-01 8.700000000000000000e+01
7.656636834144592285e-02 -1.582495093345642090e+00 3.079657256603240967e-01 1.000000000000000000e+02
7.657396793365478516e-02 -1.594180226325988992e+00 3.684698343276978094e-01 6.900000000000000000e+01
8.536457270383834839e-02 -1.783686399459839089e+00 -3.116999752819538116e-02 6.000000000000000000e+01
7.609479874372482300e-02 -1.595828056335448997e+00 4.280866980552672785e-01 1.000000000000000000e+02
3.424838557839394310e-02 -7.371721863746643066e-01 -1.977377533912658969e-01 7.000000000000000000e+00
8.006636798381805420e-02 -1.729884266853332964e+00 3.022756800055503845e-02 7.300000000000000000e+01
1.490011513233185092e-01 -3.231475353240966797e+00 -7.468374967575073242e-01 1.300000000000000000e+01
7.764338701963424683e-02 -1.683897614479064941e+00 8.834309130907058716e-02 7.200000000000000000e+01
1.787305623292922974e-01 -3.890993833541870117e+00 -7.571300864219665527e-01 1.100000000000000000e+01
7.641233503818511963e-02 -1.669867277145385964e+00 1.462473422288894931e-01 8.600000000000000000e+01
2.246136367321014127e-01 -4.927398681640625000e+00 -7.812337279319763184e-01 9.000000000000000000e+00
7.429102063179016113e-02 -1.636015295982361062e+00 2.010844200849533081e-01 8.500000000000000000e+01
7.202532887458801270e-02 -1.598433256149291992e+00 2.534238398075103760e-01 8.500000000000000000e+01
7.112999260425567627e-02 -1.584713935852051003e+00 3.083473443984984796e-01 1.000000000000000000e+02
7.048855721950531006e-02 -1.582756876945496050e+00 3.657703995704650879e-01 8.000000000000000000e+01
7.922644913196563721e-02 -1.785971283912658913e+00 -3.120490349829196930e-02 6.100000000000000000e+01
7.086496055126190186e-02 -1.603803873062134011e+00 4.301572442054749090e-01 1.000000000000000000e+02
3.080458007752895008e-02 -7.141210436820983887e-01 -1.915261000394820889e-01 7.000000000000000000e+00
7.493024319410324097e-02 -1.744125247001647949e+00 3.047190234065055847e-02 6.600000000000000000e+01
1.380344629287720004e-01 -3.226110696792602983e+00 -7.454878091812133789e-01 6.000000000000000000e+00
7.222970575094223022e-02 -1.688136696815490945e+00 8.855243772268295288e-02 6.800000000000000000e+01
1.654922515153884888e-01 -3.883719205856322798e+00 -7.556036114692687988e-01 1.000000000000000000e+01
7.070548832416534424e-02 -1.666130304336548074e+00 1.458987146615982056e-01 8.600000000000000000e+01
2.075218856334686002e-01 -4.910354137420654297e+00 -7.784178853034973145e-01 7.000000000000000000e+00
6.911581009626388550e-02 -1.642202615737915039e+00 2.018156349658966064e-01 9.300000000000000000e+01
6.634159386157989502e-02 -1.582862496376038042e+00 2.509208917617797852e-01 8.700000000000000000e+01
6.628214567899703979e-02 -1.594748973846435991e+00 3.102554380893707275e-01 1.000000000000000000e+02
7.416731864213943481e-02 -1.792004466056823953e+00 -9.399537742137908936e-02 1.000000000000000000e+01
6.620250642299652100e-02 -1.606346964836121050e+00 3.711692392826079767e-01 8.000000000000000000e+01
7.281155139207839966e-02 -1.774236083030700906e+00 -3.099547326564789165e-02 6.700000000000000000e+01
6.507290899753570557e-02 -1.592448592185973899e+00 4.270514249801635742e-01 7.400000000000000000e+01
2.984200417995452881e-02 -7.528309226036071777e-01 -2.018788605928421021e-01 6.000000000000000000e+00
6.828965246677398682e-02 -1.730389237403870073e+00 3.022756800055503845e-02 5.400000000000000000e+01
7.505354285240173340e-02 -1.910240173339843972e+00 -4.413539767265319824e-01 1.000000000000000000e+00
6.766957789659500122e-02 -1.722305774688720925e+00 9.033185988664627075e-02 5.800000000000000000e+01
1.519345343112946112e-01 -3.884273290634154829e+00 -7.556036114692687988e-01 8.000000000000000000e+00
6.442402303218841553e-02 -1.654421687126159890e+00 1.448528468608855924e-01 8.800000000000000000e+01
1.933645457029342929e-01 -4.988030433654785156e+00 -7.906197905540466309e-01 1.000000000000000000e+00
6.353612989187240601e-02 -1.646401166915893999e+00 2.023031115531921109e-01 9.300000000000000000e+01
6.111928820610045693e-02 -1.590980052947998047e+00 2.521723508834838867e-01 8.300000000000000000e+01
6.837011128664016724e-02 -1.787858843803405984e+00 -1.565317213535309115e-01 6.000000000000000000e+00
6.026694551110268333e-02 -1.583199620246886985e+00 3.079657256603240967e-01 8.300000000000000000e+01
6.813848018646240234e-02 -1.798239946365356001e+00 -9.430938959121704102e-02 4.800000000000000000e+01
5.971352756023406982e-02 -1.583199977874756081e+00 3.657703995704650879e-01 7.100000000000000000e+01
6.631778180599212646e-02 -1.766486287117003950e+00 -3.085585497319697987e-02 6.700000000000000000e+01
5.872030928730964661e-02 -1.571430563926696999e+00 4.213573932647705078e-01 7.700000000000000000e+01
2.569369226694107056e-02 -7.143231630325317383e-01 -1.915261000394820889e-01 7.000000000000000000e+00
6.108861416578292847e-02 -1.706646919250488059e+00 2.980870939791202892e-02 6.800000000000000000e+01
6.576246023178100586e-02 -1.846234798431396040e+00 -4.265072047710419256e-01 1.600000000000000000e+01
6.043229624629020691e-02 -1.696594238281250000e+00 8.897112309932708740e-02 5.600000000000000000e+01
5.857051536440849304e-02 -1.660620212554932085e+00 1.453757733106612882e-01 7.500000000000000000e+01
5.750133842229843140e-02 -1.646622896194458008e+00 2.023031115531921109e-01 9.300000000000000000e+01
6.445185840129852295e-02 -1.854941964149475098e+00 -2.278956770896911899e-01 1.000000000000000000e+00
5.487607419490814209e-02 -1.579348325729369895e+00 2.502951323986052912e-01 8.300000000000000000e+01
6.195449829101563194e-02 -1.792079806327820046e+00 -1.568803340196608942e-01 4.900000000000000000e+01
5.358646437525749207e-02 -1.557902693748473899e+00 3.030046820640563965e-01 9.300000000000000000e+01
6.100066751241683960e-02 -1.782508850097656028e+00 -9.347201883792877197e-02 6.000000000000000000e+01
5.417564883828163147e-02 -1.591198682785033958e+00 3.675700128078461248e-01 7.700000000000000000e+01
5.957205966114997864e-02 -1.758723258972167969e+00 -3.071623481810092926e-02 6.900000000000000000e+01
5.336543545126914978e-02 -1.575487375259398970e+00 4.223926961421967108e-01 9.000000000000000000e+01
2.395251765847206116e-02 -7.375785112380981445e-01 -1.977377533912658969e-01 7.000000000000000000e+00
5.513093248009681702e-02 -1.706849694252013938e+00 2.980870939791202892e-02 8.600000000000000000e+01
5.900463834404944680e-02 -1.836714386940001997e+00 -4.242576956748961847e-01 4.700000000000000000e+01
5.399667844176291726e-02 -1.680824995040893999e+00 8.813375234603881836e-02 7.400000000000000000e+01
5.880767852067946694e-02 -1.840593338012695090e+00 -3.579576611518859863e-01 1.000000000000000000e+00
5.271023511886596680e-02 -1.658823132514954057e+00 1.452014744281769076e-01 7.000000000000000000e+01
5.125437676906585693e-02 -1.630940675735474077e+00 2.003532052040100098e-01 9.300000000000000000e+01
5.624031648039817810e-02 -1.799600124359131081e+00 -2.210709899663924893e-01 2.200000000000000000e+01
4.948619380593299866e-02 -1.583479046821594016e+00 2.509208917617797852e-01 9.200000000000000000e+01
5.538915842771530151e-02 -1.782328009605407937e+00 -1.560087800025939941e-01 5.600000000000000000e+01
4.851188138127326965e-02 -1.569854140281677024e+00 3.052943944931030273e-01 1.000000000000000000e+02
5.373537167906761169e-02 -1.748773574829102007e+00 -9.169259667396545410e-02 5.800000000000000000e+01
4.850197583436965942e-02 -1.587482452392577903e+00 3.666702210903167725e-01 8.300000000000000000e+01
5.337189137935637734e-02 -1.756921768188477007e+00 -3.068133071064949036e-02 5.600000000000000000e+01
4.782391339540482261e-02 -1.583396315574645996e+00 4.244632422924041748e-01 1.000000000000000000e+02
2.160159312188624989e-02 -7.453817725181579590e-01 -1.998082995414733887e-01 6.000000000000000000e+00
4.934531822800636292e-02 -1.713028430938720925e+00 2.991342544555664062e-02 8.400000000000000000e+01
5.242563411593437195e-02 -1.831065416336060014e+00 -4.229079782962799072e-01 6.300000000000000000e+01
4.760853573679924011e-02 -1.673025846481323020e+00 8.771505951881408691e-02 7.200000000000000000e+01
5.210322514176368713e-02 -1.830975174903870073e+00 -3.560495972633361816e-01 1.800000000000000000e+01
4.703219234943389893e-02 -1.662980198860168013e+00 1.455500870943068903e-01 8.600000000000000000e+01
5.155985802412033081e-02 -1.834400534629821999e+00 -2.906552255153656006e-01 1.300000000000000000e+01
4.561644420027732849e-02 -1.633093953132628950e+00 2.005969434976578036e-01 8.500000000000000000e+01
4.918706417083740234e-02 -1.772004842758178933e+00 -2.176586538553237915e-01 5.100000000000000000e+01
4.395851865410804749e-02 -1.583642125129699929e+00 2.509208917617797852e-01 9.200000000000000000e+01
4.905746504664421082e-02 -1.778527259826659934e+00 -1.556601524353027066e-01 6.700000000000000000e+01
4.324693232774733803e-02 -1.577863931655884011e+00 3.068208694458007812e-01 1.000000000000000000e+02
4.757631197571753762e-02 -1.746953964233397993e+00 -9.158792346715927124e-02 6.200000000000000000e+01
4.296033084392548301e-02 -1.587642073631287065e+00 3.666702210903167725e-01 7.200000000000000000e+01
4.697005450725554726e-02 -1.747102499008178933e+00 -3.050680644810200084e-02 5.300000000000000000e+01
4.288442805409430764e-02 -1.595133066177367942e+00 4.275690615177155096e-01 9.500000000000000000e+01
1.791671477258205067e-02 -7.029657363891601562e-01 -1.884202659130095880e-01 7.000000000000000000e+00
4.356783628463745117e-02 -1.721186399459839089e+00 3.005304373800754894e-02 7.500000000000000000e+01
4.573987051844596863e-02 -1.819548487663269043e+00 -4.202085733413695734e-01 5.600000000000000000e+01
4.156892374157906273e-02 -1.665195345878601074e+00 8.729637414216995239e-02 7.500000000000000000e+01
4.512368142604827881e-02 -1.807594180107116921e+00 -3.514701724052429199e-01 4.100000000000000000e+01
4.093077778816223145e-02 -1.651183605194092019e+00 1.445042192935943881e-01 8.800000000000000000e+01
4.462161287665367126e-02 -1.812846660614013894e+00 -2.872136831283568781e-01 3.600000000000000000e+01
4.030360653996468284e-02 -1.649119257926940918e+00 2.025468498468399048e-01 8.200000000000000000e+01
4.314577579498291016e-02 -1.778119325637816939e+00 -2.183898687362670898e-01 5.200000000000000000e+01
3.786844387650489807e-02 -1.571943759918212891e+00 2.490436732769011896e-01 9.400000000000000000e+01
4.289693012833595276e-02 -1.780679464340209961e+00 -1.558344662189483920e-01 7.900000000000000000e+01
3.773889318108558655e-02 -1.578005313873291016e+00 3.068208694458007812e-01 1.000000000000000000e+02
4.147801175713539124e-02 -1.747109413146973100e+00 -9.158792346715927124e-02 6.400000000000000000e+01
3.732634335756301880e-02 -1.583885908126831055e+00 3.657703995704650879e-01 6.900000000000000000e+01
4.059066250920295715e-02 -1.735260963439940962e+00 -3.029737807810306896e-02 5.100000000000000000e+01
3.685832396149635315e-02 -1.587554216384887917e+00 4.254985153675078791e-01 9.500000000000000000e+01
1.559023838490248073e-02 -7.088181376457214355e-01 -1.899731755256653110e-01 2.300000000000000000e+01
3.742863982915878296e-02 -1.715330362319946067e+00 2.994832955300807953e-02 7.000000000000000000e+01
3.938818350434303284e-02 -1.819697022438049094e+00 -4.202085733413695734e-01 6.000000000000000000e+01
3.605616465210915306e-02 -1.679307818412780984e+00 8.802907913923263550e-02 8.200000000000000000e+01
3.885586932301521301e-02 -1.809703469276428001e+00 -3.518517911434174139e-01 5.600000000000000000e+01
3.486987575888633728e-02 -1.637372851371764915e+00 1.432840377092360895e-01 7.500000000000000000e+01
3.804304078221321106e-02 -1.801141858100890891e+00 -2.853364646434783936e-01 5.100000000000000000e+01
3.458843380212783813e-02 -1.651234626770019975e+00 2.027905881404876987e-01 8.700000000000000000e+01
3.685626387596129677e-02 -1.774289727210998979e+00 -2.179023921489716131e-01 5.600000000000000000e+01
3.265548124909400940e-02 -1.572060704231261985e+00 2.490436732769011896e-01 9.400000000000000000e+01
3.643475472927094200e-02 -1.768866539001465066e+00 -1.547885984182358066e-01 7.800000000000000000e+01
3.219031170010566711e-02 -1.576164603233336958e+00 3.064392507076262873e-01 1.000000000000000000e+02
3.541964292526245117e-02 -1.749240398406981978e+00 -9.169259667396545410e-02 6.300000000000000000e+01
3.191465511918067932e-02 -1.589851617813109907e+00 3.671201169490814209e-01 7.400000000000000000e+01
3.441387042403221130e-02 -1.729394197463989036e+00 -3.019266389310359955e-02 5.900000000000000000e+01
3.147829696536064148e-02 -1.581873297691344993e+00 4.239456057548522949e-01 9.700000000000000000e+01
1.322312094271183014e-02 -7.146627902984619141e-01 -1.915261000394820889e-01 7.000000000000000000e+00
3.111099451780318867e-02 -1.697456359863281028e+00 2.963418699800968170e-02 6.300000000000000000e+01
3.285916149616240761e-02 -1.810081362724303977e+00 -4.179590642452239990e-01 5.800000000000000000e+01
3.022996895015240063e-02 -1.681420445442199929e+00 8.813375234603881836e-02 7.500000000000000000e+01
3.257387876510620117e-02 -1.811790943145751953e+00 -3.522334098815917969e-01 6.800000000000000000e+01
2.926056832075119019e-02 -1.643460750579833984e+00 1.438069790601730069e-01 8.800000000000000000e+01
3.154673054814338684e-02 -1.789413213729857954e+00 -2.834592461585999090e-01 6.500000000000000000e+01
2.889362722635269165e-02 -1.655314803123473899e+00 2.032780647277832031e-01 9.300000000000000000e+01
3.059401735663414001e-02 -1.770437955856323020e+00 -2.174149155616759976e-01 5.400000000000000000e+01
2.702851407229900013e-02 -1.580070137977600098e+00 2.502951323986052912e-01 9.200000000000000000e+01
3.019188344478606831e-02 -1.764998793601989968e+00 -1.544399708509444913e-01 7.900000000000000000e+01
2.662180177867412914e-02 -1.572341442108154075e+00 3.056760132312775213e-01 9.600000000000000000e+01
2.907920069992541920e-02 -1.735374569892883079e+00 -9.095989167690277100e-02 6.400000000000000000e+01
2.646177075803279877e-02 -1.595798730850219949e+00 3.684698343276978094e-01 7.700000000000000000e+01
2.818011492490768086e-02 -1.717507123947143999e+00 -2.998323366045951843e-02 6.500000000000000000e+01
2.593107521533966064e-02 -1.597430825233459029e+00 4.280866980552672785e-01 1.000000000000000000e+02
1.072840113192797054e-02 -7.147045731544494629e-01 -1.915261000394820889e-01 7.000000000000000000e+00
2.521524205803871155e-02 -1.699554085731505904e+00 2.966909110546112061e-02 5.900000000000000000e+01
2.631204761564731945e-02 -1.794596791267395020e+00 -4.143598377704619806e-01 4.700000000000000000e+01
2.436053194105625153e-02 -1.681515693664551003e+00 8.813375234603881836e-02 7.200000000000000000e+01
2.619247138500213970e-02 -1.807967543601989968e+00 -3.514701724052429199e-01 8.100000000000000000e+01
2.352364175021648060e-02 -1.643552899360656960e+00 1.438069790601730069e-01 9.200000000000000000e+01
2.524447068572044026e-02 -1.785562038421631081e+00 -2.828335165977478027e-01 6.600000000000000000e+01
2.286587841808795929e-02 -1.637541532516479048e+00 2.010844200849533081e-01 8.200000000000000000e+01
2.422226034104824066e-02 -1.756639719009398970e+00 -2.157087326049804965e-01 5.700000000000000000e+01
2.195207960903644909e-02 -1.592002272605895996e+00 2.521723508834838867e-01 9.000000000000000000e+01
2.397645823657513012e-02 -1.761108994483947976e+00 -1.540913581848145086e-01 7.900000000000000000e+01
2.115952782332896839e-02 -1.574387788772583008e+00 3.060576319694519043e-01 9.100000000000000000e+01
2.286248467862606049e-02 -1.723482966423034890e+00 -9.033185988664627075e-02 6.400000000000000000e+01
2.106978930532931935e-02 -1.609521389007567915e+00 3.716191351413726807e-01 8.900000000000000000e+01
2.239133417606354107e-02 -1.733591318130492942e+00 -3.026247210800648083e-02 7.300000000000000000e+01
2.065861038863658905e-02 -1.599439740180969016e+00 4.286043345928192139e-01 1.000000000000000000e+02
8.634102530777454376e-03 -7.495087385177612305e-01 -2.008435726165770929e-01 6.000000000000000000e+00
1.921448111534118999e-02 -1.693632960319519043e+00 2.956437692046165119e-02 5.600000000000000000e+01
2.002580836415290833e-02 -1.792729020118712935e+00 -4.139099419116973877e-01 5.600000000000000000e+01
1.831511408090591084e-02 -1.665613412857056108e+00 8.729637414216995239e-02 6.800000000000000000e+01
1.970863342285155903e-02 -1.792342901229857954e+00 -3.484172224998474121e-01 8.500000000000000000e+01
1.791578345000743866e-02 -1.655578613281250000e+00 1.448528468608855924e-01 9.000000000000000000e+01
1.905360259115695953e-02 -1.789589881896973100e+00 -2.834592461585999090e-01 6.300000000000000000e+01
1.729516498744488109e-02 -1.651506185531615989e+00 2.027905881404876987e-01 8.700000000000000000e+01
1.792676746845245014e-02 -1.740833640098571999e+00 -2.137588262557983121e-01 6.400000000000000000e+01
1.603696681559085846e-02 -1.584170937538146973e+00 2.509208917617797852e-01 9.200000000000000000e+01
1.790956966578960072e-02 -1.769151091575623003e+00 -1.547885984182358066e-01 7.900000000000000000e+01
1.578094437718391072e-02 -1.586230993270874023e+00 3.083473443984984796e-01 1.000000000000000000e+02
1.682674698531628002e-02 -1.721555113792418990e+00 -9.022718667984008789e-02 7.000000000000000000e+01
1.537655852735042919e-02 -1.601790547370911089e+00 3.698195219039916992e-01 9.700000000000000000e+01
1.618906296789646149e-02 -1.717662096023560014e+00 -2.998323366045951843e-02 7.100000000000000000e+01
1.495706103742122997e-02 -1.616890668869018999e+00 4.332630932331085205e-01 1.000000000000000000e+02
5.831659305840730667e-03 -7.263528108596801758e-01 -1.946319192647933960e-01 7.000000000000000000e+00
1.331818755716084914e-02 -1.695689439773560014e+00 2.959928102791309010e-02 5.900000000000000000e+01
1.375292986631393086e-02 -1.790839314460753950e+00 -4.134600460529326837e-01 7.100000000000000000e+01
1.253090426325798035e-02 -1.669661521911621094e+00 8.750572055578231812e-02 6.900000000000000000e+01
1.339313387870788921e-02 -1.784547924995421919e+00 -3.468907475471497137e-01 8.500000000000000000e+01
1.213662698864937002e-02 -1.655631065368651900e+00 1.448528468608855924e-01 9.000000000000000000e+01
1.276424713432789022e-02 -1.783719420433043990e+00 -2.825206518173217773e-01 5.800000000000000000e+01
1.161337736994027918e-02 -1.663466811180114968e+00 2.042530179023742953e-01 9.000000000000000000e+01
1.187703944742679943e-02 -1.744855761528014915e+00 -2.142463028430938998e-01 6.100000000000000000e+01
1.072979532182216991e-02 -1.576314091682434082e+00 2.496694028377532959e-01 9.400000000000000000e+01
1.170754153281449925e-02 -1.765218138694762962e+00 -1.544399708509444913e-01 8.200000000000000000e+01
1.037064939737319946e-02 -1.605908632278441939e+00 3.121635019779204767e-01 1.000000000000000000e+02
1.084239315241575068e-02 -1.725597739219665971e+00 -9.043653309345245361e-02 6.700000000000000000e+01
9.808979928493499756e-03 -1.605731964111327903e+00 3.707193434238433838e-01 9.400000000000000000e+01
1.014573965221642927e-02 -1.709709405899048074e+00 -2.984361536800861012e-02 7.300000000000000000e+01
9.572248905897140503e-03 -1.613067746162414995e+00 4.322278201580048163e-01 1.000000000000000000e+02
3.243580926209688187e-03 -7.147777676582336426e-01 -1.915261000394820889e-01 7.000000000000000000e+00
7.320517674088478088e-03 -1.677728414535522017e+00 2.928513847291469921e-02 6.400000000000000000e+01
7.517975289374589920e-03 -1.794773936271667036e+00 -4.143598377704619806e-01 8.600000000000000000e+01
6.686586886644363403e-03 -1.665700674057007058e+00 8.729637414216995239e-02 6.700000000000000000e+01
7.179579231888055801e-03 -1.788510322570801003e+00 -3.476539850234984796e-01 9.100000000000000000e+01
6.296120584011077881e-03 -1.639724373817444070e+00 1.434583514928818027e-01 9.000000000000000000e+01
6.552306469529867172e-03 -1.787703871726989968e+00 -2.831463813781737726e-01 5.600000000000000000e+01
5.834441166371107101e-03 -1.671437501907349077e+00 2.052279710769653043e-01 8.700000000000000000e+01
5.812615156173706055e-03 -1.752826809883117898e+00 -2.152212560176849088e-01 5.700000000000000000e+01
4.952243063598871231e-03 -1.576342821121216042e+00 2.496694028377532959e-01 9.400000000000000000e+01
5.489375907927752408e-03 -1.747316837310791016e+00 -1.528711766004562100e-01 8.300000000000000000e+01
4.759093746542930603e-03 -1.603971719741821067e+00 3.117819130420684814e-01 1.000000000000000000e+02
4.818866960704326630e-03 -1.725625157356261985e+00 -9.043653309345245361e-02 6.900000000000000000e+01
4.203869961202144623e-03 -1.605756402015686035e+00 3.707193434238433838e-01 9.400000000000000000e+01
4.187449812889099121e-03 -1.713733792304992898e+00 -2.991342544555664062e-02 7.800000000000000000e+01
3.638079622760415077e-03 -1.603432774543761985e+00 4.296396076679229736e-01 1.000000000000000000e+02
7.889816770330071449e-04 -7.534217238426208496e-01 -2.018788605928421021e-01 6.000000000000000000e+00
1.450147479772567966e-03 -1.661746263504028098e+00 2.900590002536774029e-02 6.600000000000000000e+01
1.247557578608394103e-03 -1.786994218826293945e+00 -4.125602245330811102e-01 7.700000000000000000e+01
8.732115384191274643e-04 -1.667711138725280984e+00 8.740104734897613525e-02 6.800000000000000000e+01
9.416090906597673893e-04 -1.798340797424315962e+00 -3.495620787143707275e-01 9.700000000000000000e+01
5.737669416703283787e-04 -1.643721103668212891e+00 1.438069790601730069e-01 8.600000000000000000e+01
3.085675998590887135e-04 -1.767962098121643066e+00 -2.800177037715911865e-01 5.600000000000000000e+01
2.032346898491428944e-16 -1.659537196159363015e+00 2.037655413150787076e-01 9.300000000000000000e+01
-3.045418125111610239e-04 -1.744896054267883079e+00 -2.142463028430938998e-01 5.300000000000000000e+01
-2.765041426755487919e-04 -1.584252119064331055e+00 2.509208917617797852e-01 9.200000000000000000e+01
-6.092361873015761375e-04 -1.745332956314086914e+00 -1.526968628168106079e-01 7.900000000000000000e+01
-8.316176244989037514e-04 -1.588272571563720925e+00 3.087289631366729736e-01 1.000000000000000000e+02
-1.200535101816057942e-03 -1.719639658927917036e+00 -9.012251347303390503e-02 7.500000000000000000e+01
-1.404692651703953960e-03 -1.609658718109131081e+00 3.716191351413726807e-01 1.000000000000000000e+02
-1.792528782971202893e-03 -1.711738348007201926e+00 -2.987851947546004902e-02 7.600000000000000000e+01
-1.679114880971610980e-03 -1.603435993194580078e+00 4.296396076679229736e-01 1.000000000000000000e+02
-1.840955810621381023e-03 -7.534198760986328125e-01 -2.018788605928421021e-01 6.000000000000000000e+00
-4.355673212558031082e-03 -1.663740873336791992e+00 2.904080413281917919e-02 7.000000000000000000e+01
-4.957572557032108307e-03 -1.775295376777648926e+00 -4.098608195781707764e-01 7.500000000000000000e+01
-4.930413793772459030e-03 -1.661712288856505904e+00 8.708702772855758667e-02 7.200000000000000000e+01
-5.329952109605073929e-03 -1.796369791030884011e+00 -3.491804599761962891e-01 9.100000000000000000e+01
-5.176412872970104218e-03 -1.647697925567626953e+00 1.441555917263031006e-01 8.600000000000000000e+01
-5.862773861736059189e-03 -1.767952442169189009e+00 -2.800177037715911865e-01 5.100000000000000000e+01
-5.792865529656410217e-03 -1.659527063369750977e+00 2.037655413150787076e-01 9.300000000000000000e+01
-6.358985323458909988e-03 -1.734959006309509055e+00 -2.130276113748550137e-01 5.900000000000000000e+01
-5.835534539073705673e-03 -1.592142939567565918e+00 2.521723508834838867e-01 9.000000000000000000e+01
-6.693931296467781067e-03 -1.743327856063842995e+00 -1.525225490331650058e-01 8.300000000000000000e+01
-6.367837544530630112e-03 -1.586296796798706055e+00 3.083473443984984796e-01 1.000000000000000000e+02
-7.169725839048624039e-03 -1.711635947227478027e+00 -8.970382809638977051e-02 7.400000000000000000e+01
-7.023441605269908905e-03 -1.609644055366515891e+00 3.716191351413726807e-01 9.700000000000000000e+01
-7.840193808078765869e-03 -1.727719068527221902e+00 -3.015775792300701141e-02 8.300000000000000000e+01
-7.293673697859048843e-03 -1.607284069061279075e+00 4.306748807430266779e-01 1.000000000000000000e+02
-4.402088001370429993e-03 -7.418179512023925781e-01 -1.987730264663696012e-01 6.000000000000000000e+00
-1.030977070331572966e-02 -1.687711477279663086e+00 2.945966273546218872e-02 7.300000000000000000e+01
-1.120345667004584919e-02 -1.783061981201172097e+00 -4.116604328155518133e-01 7.700000000000000000e+01
-1.062766090035439058e-02 -1.645707130432128906e+00 8.624965697526931763e-02 7.200000000000000000e+01
-1.157506462186574936e-02 -1.792413830757140891e+00 -3.484172224998474121e-01 9.400000000000000000e+01
-1.095434837043285023e-02 -1.651654481887816939e+00 1.445042192935943881e-01 8.800000000000000000e+01
-1.206093560904263930e-02 -1.771871805191040039e+00 -2.806434333324431818e-01 5.100000000000000000e+01
-1.161337736994027918e-02 -1.663466811180114968e+00 2.042530179023742953e-01 9.000000000000000000e+01
-1.234405953437089920e-02 -1.725001096725464089e+00 -2.118089199066162109e-01 6.800000000000000000e+01
-1.175787206739187067e-02 -1.603962779045104980e+00 2.540495693683624268e-01 8.700000000000000000e+01
-1.282305549830197941e-02 -1.749270915985106978e+00 -1.530454903841018954e-01 8.200000000000000000e+01
-1.199341099709272038e-02 -1.598044037818908913e+00 3.106370568275452215e-01 1.000000000000000000e+02
-1.317508239299058914e-02 -1.715595006942749023e+00 -8.991317451000213623e-02 7.500000000000000000e+01
-1.255027391016482960e-02 -1.597917675971985085e+00 3.689197301864624023e-01 9.200000000000000000e+01
-1.371046714484691967e-02 -1.707684874534606934e+00 -2.980870939791202892e-02 8.000000000000000000e+01
-1.295062620192766016e-02 -1.613044142723083052e+00 4.322278201580048163e-01 1.000000000000000000e+02
-7.173559162765741348e-03 -7.611157298088073730e-01 -2.039494067430495938e-01 6.000000000000000000e+00
-1.623931154608726848e-02 -1.691664338111876997e+00 2.952947095036507000e-02 7.300000000000000000e+01
-1.740838959813117981e-02 -1.781063437461853027e+00 -4.112105369567871094e-01 7.900000000000000000e+01
-1.645166240632534027e-02 -1.653648734092711958e+00 8.666834235191345215e-02 7.500000000000000000e+01
-1.771450042724609028e-02 -1.780583620071410911e+00 -3.461275100708007812e-01 7.800000000000000000e+01
-1.671963185071944843e-02 -1.651606202125549094e+00 1.445042192935943881e-01 8.800000000000000000e+01
-1.828652992844581951e-02 -1.775769472122191939e+00 -2.812691628932952881e-01 5.700000000000000000e+01
-1.752382703125476837e-02 -1.673341035842895952e+00 2.054717093706130981e-01 8.500000000000000000e+01
-1.836536079645156860e-02 -1.724947452545166016e+00 -2.118089199066162109e-01 6.800000000000000000e+01
-1.714292354881763111e-02 -1.584159374237060991e+00 2.509208917617797852e-01 8.700000000000000000e+01
-1.882127486169337879e-02 -1.739254117012023926e+00 -1.521739214658736905e-01 8.300000000000000000e+01
-1.757155358791350971e-02 -1.597992420196532981e+00 3.106370568275452215e-01 1.000000000000000000e+02
-1.916354522109032024e-02 -1.715538501739501953e+00 -8.991317451000213623e-02 7.500000000000000000e+01
-1.821639947593212128e-02 -1.605658531188965066e+00 3.707193434238433838e-01 8.900000000000000000e+01
-1.948704198002814900e-02 -1.691630005836487038e+00 -2.952947095036507000e-02 8.000000000000000000e+01
-1.886264234781264912e-02 -1.612985849380492942e+00 4.322278201580048163e-01 1.000000000000000000e+02
-9.431105107069015503e-03 -7.301790118217468262e-01 -1.956671923398972113e-01 7.000000000000000000e+00
-2.193482033908367157e-02 -1.675601124763488992e+00 2.925023250281811107e-02 7.400000000000000000e+01
-2.380629256367683064e-02 -1.794631719589232954e+00 -4.143598377704619806e-01 7.700000000000000000e+01
-2.219703234732151031e-02 -1.651584148406981978e+00 8.656366914510726929e-02 8.000000000000000000e+01
-2.400893904268741955e-02 -1.786400198936461958e+00 -3.472723662853240967e-01 7.600000000000000000e+01
-2.243046462535858154e-02 -1.647553324699402078e+00 1.441555917263031006e-01 8.400000000000000000e+01
-2.443053945899010052e-02 -1.771744489669800027e+00 -2.806434333324431818e-01 6.900000000000000000e+01
-2.344791963696480144e-02 -1.679224371910094993e+00 2.062029242515563965e-01 9.000000000000000000e+01
-2.441450208425521851e-02 -1.726857781410217063e+00 -2.120526582002640048e-01 7.000000000000000000e+01
-2.295526675879954945e-02 -1.603841543197632058e+00 2.540495693683624268e-01 8.300000000000000000e+01
-2.469269558787345886e-02 -1.725232481956481934e+00 -1.509537398815155029e-01 7.600000000000000000e+01
-2.312104031443595886e-02 -1.595958352088928001e+00 3.102554380893707275e-01 1.000000000000000000e+02
-2.526889741420745850e-02 -1.723449349403380904e+00 -9.033185988664627075e-02 7.400000000000000000e+01
-2.379217371344565998e-02 -1.603636622428894043e+00 3.702694475650786798e-01 8.700000000000000000e+01
-2.554188296198844910e-02 -1.701549053192138894e+00 -2.970399521291255951e-02 8.200000000000000000e+01
-2.409540861845016133e-02 -1.605187892913817915e+00 4.301572442054749090e-01 1.000000000000000000e+02
-1.236016117036342968e-02 -7.533207535743713379e-01 -2.018788605928421021e-01 6.000000000000000000e+00
-2.788309007883071899e-02 -1.681512713432312012e+00 2.935494855046271931e-02 7.500000000000000000e+01
-3.016853146255015980e-02 -1.800383090972899947e+00 -4.157095551490784247e-01 8.100000000000000000e+01
-2.802962437272071838e-02 -1.655490517616271973e+00 8.677301555871963501e-02 8.000000000000000000e+01
-3.027772903442383159e-02 -1.788268446922302024e+00 -3.476539850234984796e-01 6.000000000000000000e+01
-2.811321057379246105e-02 -1.643480777740478960e+00 1.438069790601730069e-01 8.800000000000000000e+01
-3.030776046216487885e-02 -1.753872632980346902e+00 -2.778276205062866211e-01 8.300000000000000000e+01
-2.927471883594990124e-02 -1.677147507667541948e+00 2.059591859579086026e-01 9.600000000000000000e+01
-3.044221177697182049e-02 -1.726761937141418013e+00 -2.120526582002640048e-01 7.300000000000000000e+01
-2.858874388039112091e-02 -1.605726718902587891e+00 2.543624341487885077e-01 7.700000000000000000e+01
-3.082113340497016907e-02 -1.731112003326416016e+00 -1.514766812324523926e-01 7.300000000000000000e+01
-2.855066955089569092e-02 -1.588016152381896973e+00 3.087289631366729736e-01 1.000000000000000000e+02
-3.117595054209231983e-02 -1.717359900474547896e+00 -9.001784771680831909e-02 7.200000000000000000e+01
-2.953260764479637146e-02 -1.611337423324584961e+00 3.720690310001372736e-01 8.300000000000000000e+01
-3.155522793531417847e-02 -1.705448269844054954e+00 -2.977380529046059002e-02 8.400000000000000000e+01
-2.959119901061058044e-02 -1.599299430847167969e+00 4.286043345928192139e-01 1.000000000000000000e+02
-1.468218490481376995e-02 -7.378212809562683105e-01 -1.977377533912658969e-01 7.000000000000000000e+00
-3.375249728560447693e-02 -1.681405067443848100e+00 2.935494855046271931e-02 7.700000000000000000e+01
-3.625560179352760315e-02 -1.790525197982788086e+00 -4.134600460529326837e-01 7.700000000000000000e+01
-3.368100896477699280e-02 -1.663375854492187944e+00 8.719170093536376953e-02 8.000000000000000000e+01
-3.655985370278357766e-02 -1.790114641189574973e+00 -3.480356037616729736e-01 5.500000000000000000e+01
-3.417809680104255676e-02 -1.659308433532715066e+00 1.452014744281769076e-01 8.600000000000000000e+01
-3.642973303794860840e-02 -1.753756165504456010e+00 -2.778276205062866211e-01 8.600000000000000000e+01
-3.463000804185867310e-02 -1.653219223022460938e+00 2.030343264341354093e-01 8.600000000000000000e+01
-3.651146963238716125e-02 -1.728629827499390093e+00 -2.122963964939116877e-01 6.800000000000000000e+01
-3.416365012526512146e-02 -1.617472767829895020e+00 2.562396526336669922e-01 7.500000000000000000e+01
-3.669397160410881042e-02 -1.723026156425476074e+00 -1.507794409990310947e-01 7.200000000000000000e+01
-3.426227718591690063e-02 -1.595758080482482910e+00 3.102554380893707275e-01 9.100000000000000000e+01
-3.691113740205764771e-02 -1.705259799957274947e+00 -8.938981592655181885e-02 6.900000000000000000e+01
-3.515704348683357239e-02 -1.611224532127379927e+00 3.720690310001372736e-01 8.300000000000000000e+01
-3.759610652923583984e-02 -1.709326148033142090e+00 -2.984361536800861012e-02 8.400000000000000000e+01
-3.538601845502852700e-02 -1.608843326568603960e+00 4.311925172805786133e-01 1.000000000000000000e+02
-1.743827946484088898e-02 -7.454907894134521484e-01 -1.998082995414733887e-01 6.000000000000000000e+00
-3.952726349234580994e-02 -1.677278757095336914e+00 2.928513847291469921e-02 7.800000000000000000e+01
-4.259798303246498108e-02 -1.794284105300903098e+00 -4.143598377704619806e-01 6.500000000000000000e+01
-3.944309800863265991e-02 -1.649264454841613992e+00 8.645900338888168335e-02 7.200000000000000000e+01
-4.266748204827308655e-02 -1.784088134765625000e+00 -3.468907475471497137e-01 5.800000000000000000e+01
-3.987399116158484719e-02 -1.655195355415344016e+00 1.448528468608855924e-01 8.800000000000000000e+01
-4.255126416683197021e-02 -1.753618359565735085e+00 -2.778276205062866211e-01 8.400000000000000000e+01
-4.083710908889771202e-02 -1.670948743820189986e+00 2.052279710769653043e-01 9.000000000000000000e+01
-4.244759678840637207e-02 -1.724522829055785911e+00 -2.118089199066162109e-01 6.400000000000000000e+01
-3.999385237693787315e-02 -1.613387107849121094e+00 2.556139230728148859e-01 7.200000000000000000e+01
-4.275760427117347717e-02 -1.724879384040832964e+00 -1.509537398815155029e-01 7.800000000000000000e+01
-4.022425785660743713e-02 -1.611329793930053933e+00 3.133083581924437921e-01 1.000000000000000000e+02
-4.296376183629035950e-02 -1.709113836288451926e+00 -8.959915488958358765e-02 6.700000000000000000e+01
-4.048518091440200806e-02 -1.599403381347656028e+00 3.693696260452271063e-01 8.000000000000000000e+01
-4.356253892183303833e-02 -1.709184527397155984e+00 -2.984361536800861012e-02 8.200000000000000000e+01
-4.157983884215354919e-02 -1.620290160179137962e+00 4.342983663082122803e-01 9.000000000000000000e+01
-2.004042267799377094e-02 -7.454254031181335449e-01 -1.998082995414733887e-01 6.000000000000000000e+00
-4.570636153221129677e-02 -1.689124345779418945e+00 2.949456684291363109e-02 7.700000000000000000e+01
-4.891399666666985252e-02 -1.796072483062743919e+00 -4.148097336292266846e-01 4.600000000000000000e+01
-4.502078145742415688e-02 -1.653117537498473899e+00 8.666834235191345215e-02 7.500000000000000000e+01
-4.857211187481880188e-02 -1.772153139114380105e+00 -3.446010351181030273e-01 7.200000000000000000e+01
-4.576132819056510925e-02 -1.659029364585876021e+00 1.452014744281769076e-01 8.400000000000000000e+01
-4.900114238262177208e-02 -1.765306830406188965e+00 -2.797048091888427734e-01 8.400000000000000000e+01
-4.678041487932205200e-02 -1.674764633178710938e+00 2.057154476642608920e-01 8.700000000000000000e+01
-4.863436892628669739e-02 -1.730317115783690962e+00 -2.125401347875595093e-01 5.900000000000000000e+01
-4.556953534483910301e-02 -1.611263155937195046e+00 2.553010582923889160e-01 6.900000000000000000e+01
-4.849666729569435120e-02 -1.714761614799499956e+00 -1.500821858644484919e-01 8.500000000000000000e+01
-4.579275846481323242e-02 -1.609217166900634988e+00 3.129267394542694092e-01 9.800000000000000000e+01
-4.887226223945617676e-02 -1.706956982612610085e+00 -8.949448168277740479e-02 6.600000000000000000e+01
-4.646067693829535744e-02 -1.612887740135193093e+00 3.725189566612244207e-01 8.900000000000000000e+01
-4.906501621007919312e-02 -1.693031191825866921e+00 -2.956437692046165119e-02 8.400000000000000000e+01
-4.689672216773033142e-02 -1.618212223052978960e+00 4.337807297706604004e-01 9.000000000000000000e+01
-2.217304892838000904e-02 -7.299032211303710938e-01 -1.956671923398972113e-01 7.000000000000000000e+00
-5.148009210824965737e-02 -1.684957027435302956e+00 2.942475676536560059e-02 7.700000000000000000e+01
-5.548242107033730247e-02 -1.805629849433898926e+00 -4.170592427253723145e-01 3.300000000000000000e+01
-5.115901678800582886e-02 -1.664928197860717995e+00 8.729637414216995239e-02 7.300000000000000000e+01
-5.493970587849617004e-02 -1.777859807014465110e+00 -3.457458913326262873e-01 7.500000000000000000e+01
-5.142837017774581909e-02 -1.654876708984375000e+00 1.448528468608855924e-01 8.200000000000000000e+01
-5.503950640559195778e-02 -1.761176228523253950e+00 -2.790790796279907227e-01 8.400000000000000000e+01
-5.281320959329605103e-02 -1.680543541908263938e+00 2.064466625452041904e-01 8.200000000000000000e+01
-5.473670735955238342e-02 -1.732120871543884055e+00 -2.127838730812073031e-01 5.300000000000000000e+01
-5.157003924250602722e-02 -1.622940540313720925e+00 2.571782469749451239e-01 6.600000000000000000e+01
-5.403906479477881691e-02 -1.700642228126526101e+00 -1.488620042800903043e-01 9.200000000000000000e+01
-5.128430575132369995e-02 -1.605123043060302956e+00 3.121635019779204767e-01 9.600000000000000000e+01
-5.489448457956314087e-02 -1.708772301673888938e+00 -8.959915488958358765e-02 6.700000000000000000e+01
-5.234206840395926735e-02 -1.620506644248961958e+00 3.743185400962830145e-01 9.400000000000000000e+01
-5.510430783033370972e-02 -1.696846842765808105e+00 -2.963418699800968170e-02 8.200000000000000000e+01
-5.216883495450019836e-02 -1.606453776359558105e+00 4.306748807430266779e-01 9.700000000000000000e+01
-2.511314488947391857e-02 -7.414058446884155273e-01 -1.987730264663696012e-01 6.000000000000000000e+00
-5.722528696060180664e-02 -1.680769920349121094e+00 2.935494855046271931e-02 7.700000000000000000e+01
-6.151830404996871948e-02 -1.797634840011596902e+00 -4.152596592903137207e-01 4.500000000000000000e+01
-5.712362378835678101e-02 -1.660737395286560059e+00 8.708702772855758667e-02 7.200000000000000000e+01
-6.134772673249244690e-02 -1.783543467521667036e+00 -3.468907475471497137e-01 7.000000000000000000e+01
-5.741116777062416077e-02 -1.660660624504088911e+00 1.453757733106612882e-01 7.800000000000000000e+01
-6.063806265592575073e-02 -1.745179891586303933e+00 -2.765761315822600763e-01 8.100000000000000000e+01
-5.874835699796677330e-02 -1.682332873344420943e+00 2.066904008388519010e-01 8.700000000000000000e+01
-6.238397583365439675e-02 -1.777548313140868919e+00 -2.183898687362670898e-01 3.400000000000000000e+01
-5.702090263366699219e-02 -1.624734759330749956e+00 2.574911415576934814e-01 6.100000000000000000e+01
-5.990485474467278221e-02 -1.698451995849608931e+00 -1.486876904964447021e-01 8.300000000000000000e+01
-5.667828768491744995e-02 -1.599048137664794922e+00 3.110186755657196045e-01 9.300000000000000000e+01
-6.057449057698249817e-02 -1.700586199760437012e+00 -8.918046951293945312e-02 7.000000000000000000e+01
-5.799837410449981689e-02 -1.620314121246337891e+00 3.743185400962830145e-01 9.200000000000000000e+01
-6.095519289374352195e-02 -1.694645762443542036e+00 -2.959928102791309010e-02 7.600000000000000000e+01
-5.826576799154282310e-02 -1.612043499946594016e+00 4.322278201580048163e-01 9.200000000000000000e+01
-2.712387777864933014e-02 -7.258695960044860840e-01 -1.946319192647933960e-01 7.000000000000000000e+00
-6.294187903404235840e-02 -1.676563382148742898e+00 2.928513847291469921e-02 7.700000000000000000e+01
-6.764595210552215576e-02 -1.793514370918273926e+00 -4.143598377704619806e-01 1.300000000000000000e+01
-6.247995793819426796e-02 -1.656547188758850098e+00 8.687768876552581787e-02 7.200000000000000000e+01
-6.801910698413848877e-02 -1.795089483261107954e+00 -3.491804599761962891e-01 6.400000000000000000e+01
-6.335918605327606201e-02 -1.664432048797606978e+00 1.457244008779526034e-01 7.600000000000000000e+01
-6.718242168426513672e-02 -1.756801128387450950e+00 -2.784533500671387274e-01 7.500000000000000000e+01
-6.408701092004776001e-02 -1.668232083320617898e+00 2.049842327833175937e-01 8.200000000000000000e+01
-7.027249038219451904e-02 -1.820959329605102983e+00 -2.237521111965178888e-01 4.000000000000000000e+01
-6.312850862741470337e-02 -1.628462553024291992e+00 2.581168711185454767e-01 6.100000000000000000e+01
-6.668215990066528320e-02 -1.720132470130919966e+00 -1.506051272153854093e-01 7.600000000000000000e+01
-6.203048676252365112e-02 -1.592955231666564941e+00 3.098738193511962891e-01 9.000000000000000000e+01
-6.596382707357406616e-02 -1.686394333839416948e+00 -8.844776451587677002e-02 7.400000000000000000e+01
-6.365397572517395020e-02 -1.620101809501647949e+00 3.743185400962830145e-01 8.900000000000000000e+01
-6.718566268682479858e-02 -1.702415227890015093e+00 -2.973890118300915111e-02 8.000000000000000000e+01
-6.366293877363204956e-02 -1.606039285659790039e+00 4.306748807430266779e-01 1.000000000000000000e+02
-2.981522306799888958e-02 -7.296310067176818848e-01 -1.956671923398972113e-01 7.000000000000000000e+00
-6.912177801132202148e-02 -1.684325456619262917e+00 2.942475676536560059e-02 7.500000000000000000e+01
-3.715365007519721985e-02 -9.015014171600341797e-01 -2.083046734333038053e-01 3.000000000000000000e+00
-6.834425032138824463e-02 -1.658314585685729980e+00 8.698236197233200073e-02 7.500000000000000000e+01
-7.395998388528823853e-02 -1.786994814872741921e+00 -3.476539850234984796e-01 4.700000000000000000e+01
-6.933422386646270752e-02 -1.668182134628295898e+00 1.460730284452438077e-01 7.600000000000000000e+01
