3.335995912551879883e+00 -2.716895818710327148e+00 -6.814285516738891602e-01 1.000000000000000000e+01
4.370118618011474609e+00 -3.561642408370972124e+00 -6.922178864479064941e-01 1.200000000000000000e+01
5.779981613159179688e+00 -4.712358474731445312e+00 -6.524478793144226074e-01 6.000000000000000000e+00
1.986497402191162109e+00 -1.626508355140686035e+00 -6.879410147666931152e-01 1.400000000000000000e+01
2.291197776794434038e+00 -1.877327919006348100e+00 -6.838511824607849121e-01 1.300000000000000000e+01
2.702710390090941939e+00 -2.215295553207397017e+00 -6.792800426483154297e-01 1.100000000000000000e+01
3.341764926910399947e+00 -2.741051673889160156e+00 -6.845571994781494141e-01 1.100000000000000000e+01
4.353056430816650391e+00 -3.573096990585327148e+00 -6.914866566658020020e-01 1.400000000000000000e+01
5.832788467407226562e+00 -4.789402008056640625e+00 -6.602919101715087891e-01 7.000000000000000000e+00
1.974845886230468972e+00 -1.628516316413878950e+00 -6.858704686164855957e-01 1.400000000000000000e+01
2.290642976760863814e+00 -1.890275597572327104e+00 -6.856508255004882812e-01 1.300000000000000000e+01
2.704045295715332031e+00 -2.232215404510498047e+00 -6.815697550773620605e-01 1.100000000000000000e+01
3.330653429031372070e+00 -2.751441955566405806e+00 -6.842443346977233887e-01 1.100000000000000000e+01
4.342087268829345703e+00 -3.589534997940063032e+00 -6.917303800582885742e-01 1.200000000000000000e+01
5.831388473510742188e+00 -4.822430133819580078e+00 -6.620350480079650879e-01 7.000000000000000000e+00
1.962002873420715110e+00 -1.628886103630065918e+00 -6.832822561264038086e-01 1.400000000000000000e+01
2.285861015319824219e+00 -1.899106621742248979e+00 -6.861007213592529297e-01 1.200000000000000000e+01
2.693608522415161133e+00 -2.238660335540771040e+00 -6.808065176010131836e-01 1.100000000000000000e+01
3.324548721313477007e+00 -2.764997959136962891e+00 -6.848700642585754395e-01 1.100000000000000000e+01
4.348469734191895419e+00 -3.619152545928955078e+00 -6.946552395820617676e-01 1.200000000000000000e+01
5.766367435455322266e+00 -4.800947189331054688e+00 -6.564570665359497070e-01 7.000000000000000000e+00
1.960751175880431907e+00 -1.639442443847656028e+00 -6.848351955413818359e-01 1.400000000000000000e+01
2.276228666305541992e+00 -1.904573082923888938e+00 -6.852009296417236328e-01 1.200000000000000000e+01
2.694810628890991211e+00 -2.255609750747681108e+00 -6.830962300300598145e-01 1.100000000000000000e+01
3.307305097579956055e+00 -2.770243883132935014e+00 -6.833057403564453125e-01 1.000000000000000000e+01
4.332767486572265625e+00 -3.631759166717528853e+00 -6.941677927970886230e-01 1.200000000000000000e+01
5.720566749572753906e+00 -4.796723365783691406e+00 -6.531451344490051270e-01 7.000000000000000000e+00
1.962405085563659890e+00 -1.652498483657836914e+00 -6.874234080314636230e-01 1.600000000000000000e+01
2.263605833053588867e+00 -1.907483935356139915e+00 -6.834012866020202637e-01 1.300000000000000000e+01
2.691423892974853960e+00 -2.268798828125000000e+00 -6.842410564422607422e-01 1.000000000000000000e+01
3.306674242019652876e+00 -2.789413690567017046e+00 -6.851829290390014648e-01 1.000000000000000000e+01
2.855030059814453125e+01 -2.409272956848144887e+01 4.586918354034423828e+00 1.900000000000000000e+01
4.317029953002929688e+00 -3.644300222396851030e+00 -6.936802864074707031e-01 1.200000000000000000e+01
5.722054958343505859e+00 -4.832088470458984375e+00 -6.552368998527526855e-01 8.000000000000000000e+00
1.958098173141479048e+00 -1.660588026046752930e+00 -6.879410147666931152e-01 1.500000000000000000e+01
2.259905338287353960e+00 -1.917895674705504927e+00 -6.843010783195495605e-01 1.300000000000000000e+01
2.680494546890258789e+00 -2.275638580322266069e+00 -6.834778189659118652e-01 1.000000000000000000e+01
3.296917200088500977e+00 -2.800939321517943892e+00 -6.851829290390014648e-01 1.100000000000000000e+01
2.841157341003417969e+01 -2.414596176147460938e+01 4.578143596649169922e+00 1.900000000000000000e+01
4.322431564331054688e+00 -3.674776792526245117e+00 -6.966051459312438965e-01 1.200000000000000000e+01
5.507847785949707031e+00 -4.684231758117675781e+00 -6.325764060020446777e-01 7.000000000000000000e+00
1.956696748733520952e+00 -1.671176910400391069e+00 -6.894939541816711426e-01 1.500000000000000000e+01
2.256159543991088867e+00 -1.928304791450500044e+00 -6.852009296417236328e-01 1.300000000000000000e+01
2.666565895080565962e+00 -2.279878139495850053e+00 -6.819513440132141113e-01 1.100000000000000000e+01
3.293123960494995117e+00 -2.817567348480225053e+00 -6.864344477653503418e-01 1.100000000000000000e+01
4.297514438629150391e+00 -3.679513931274414062e+00 -6.946552395820617676e-01 1.200000000000000000e+01
5.482383728027343750e+00 -4.695652484893798828e+00 -6.315305233001708984e-01 6.000000000000000000e+00
1.940599083900452104e+00 -1.669178485870361106e+00 -6.858704686164855957e-01 1.600000000000000000e+01
2.253845691680908203e+00 -1.939982414245605025e+00 -6.865506172180175781e-01 1.200000000000000000e+01
2.666030168533325195e+00 -2.295577526092528853e+00 -6.838594675064086914e-01 1.100000000000000000e+01
3.293744087219237837e+00 -2.838071584701538086e+00 -6.886245012283325195e-01 1.100000000000000000e+01
4.296671390533447266e+00 -3.704863071441649947e+00 -6.966051459312438965e-01 1.200000000000000000e+01
5.512728691101074219e+00 -4.755102634429931641e+00 -6.369341611862182617e-01 6.000000000000000000e+00
1.935345649719238059e+00 -1.675266861915587935e+00 -6.858704686164855957e-01 1.500000000000000000e+01
2.250685930252075195e+00 -1.949605345726012962e+00 -6.874504089355468750e-01 1.200000000000000000e+01
2.660288810729980025e+00 -2.305227279663085938e+00 -6.842410564422607422e-01 1.000000000000000000e+01
3.265410423278809038e+00 -2.831581354141234907e+00 -6.845571994781494141e-01 1.000000000000000000e+01
4.297005653381347656e+00 -3.728751420974731001e+00 -6.985550522804260254e-01 1.200000000000000000e+01
5.557946205139160156e+00 -4.824640750885009766e+00 -6.439066529273986816e-01 7.000000000000000000e+00
1.926573634147644043e+00 -1.679473400115967019e+00 -6.848351955413818359e-01 1.400000000000000000e+01
2.233587265014647993e+00 -1.948482394218445046e+00 -6.843010783195495605e-01 1.200000000000000000e+01
2.655184268951416016e+00 -2.317081212997436968e+00 -6.850042939186096191e-01 1.000000000000000000e+01
3.261457920074462891e+00 -2.848159790039062944e+00 -6.858087182044982910e-01 1.000000000000000000e+01
4.277984619140625000e+00 -3.738503217697143999e+00 -6.975800991058349609e-01 1.200000000000000000e+01
5.629572391510009766e+00 -4.921380043029785156e+00 -6.541910171508789062e-01 8.000000000000000000e+00
1.936668992042541948e+00 -1.700207829475403054e+00 -6.905292272567749023e-01 1.500000000000000000e+01
2.234092235565185991e+00 -1.962698101997375044e+00 -6.865506172180175781e-01 1.400000000000000000e+01
2.647080183029174805e+00 -2.326335430145264116e+00 -6.850042939186096191e-01 1.000000000000000000e+01
3.260396242141724077e+00 -2.867354154586791992e+00 -6.876859068870544434e-01 1.000000000000000000e+01
4.266398906707763672e+00 -3.754724740982056108e+00 -6.978238821029663086e-01 1.200000000000000000e+01
5.612359523773193359e+00 -4.941000938415527344e+00 -6.541910171508789062e-01 9.000000000000000000e+00
1.923485755920409934e+00 -1.700559854507446067e+00 -6.879410147666931152e-01 1.600000000000000000e+01
2.231606245040893999e+00 -1.974358320236206055e+00 -6.879003047943115234e-01 1.200000000000000000e+01
2.634532928466796875e+00 -2.331657886505126953e+00 -6.838594675064086914e-01 1.100000000000000000e+01
3.253324985504149947e+00 -2.881337165832519975e+00 -6.883116364479064941e-01 1.000000000000000000e+01
4.265151500701904297e+00 -3.780127763748168945e+00 -6.997737884521484375e-01 1.200000000000000000e+01
5.563770294189453125e+00 -4.932805061340332031e+00 -6.505304574966430664e-01 7.000000000000000000e+00
1.911766648292541948e+00 -1.702125191688538042e+00 -6.858704686164855957e-01 1.400000000000000000e+01
2.233430862426757812e+00 -1.989914298057555930e+00 -6.905997395515441895e-01 1.300000000000000000e+01
2.638102769851685014e+00 -2.351289987564086914e+00 -6.869123578071594238e-01 1.100000000000000000e+01
3.246195793151855025e+00 -2.895305395126343218e+00 -6.889373660087585449e-01 1.000000000000000000e+01
2.822471237182616832e+01 -2.518267059326171875e+01 4.644440650939941406e+00 1.900000000000000000e+01
4.263778209686279297e+00 -3.805567502975463867e+00 -7.017236948013305664e-01 1.100000000000000000e+01
5.539086818695068359e+00 -4.945561408996582031e+00 -6.496589183807373047e-01 1.200000000000000000e+01
1.902936697006226030e+00 -1.706208825111388938e+00 -6.848351955413818359e-01 1.500000000000000000e+01
2.219218730926514116e+00 -1.991191148757935014e+00 -6.883502006530761719e-01 1.100000000000000000e+01
2.629879236221313032e+00 -2.360484361648560014e+00 -6.869123578071594238e-01 1.100000000000000000e+01
3.230191230773925781e+00 -2.901339054107666016e+00 -6.876859068870544434e-01 1.000000000000000000e+01
4.247515678405761719e+00 -3.817773580551147017e+00 -7.012361884117126465e-01 1.100000000000000000e+01
5.512900352478027344e+00 -4.956873416900634766e+00 -6.486130356788635254e-01 9.000000000000000000e+00
1.908740758895874023e+00 -1.722865104675292969e+00 -6.889762878417968750e-01 1.500000000000000000e+01
2.199588298797606978e+00 -1.986783266067505105e+00 -6.843010783195495605e-01 1.200000000000000000e+01
2.627863883972167969e+00 -2.374457359313964844e+00 -6.884388327598571777e-01 1.200000000000000000e+01
3.220552206039429155e+00 -2.912034988403319868e+00 -6.876859068870544434e-01 1.000000000000000000e+01
4.243663787841796875e+00 -3.839829206466674805e+00 -7.026986479759216309e-01 1.100000000000000000e+01
5.487569808959960938e+00 -4.967105388641357422e+00 -6.475671529769897461e-01 1.900000000000000000e+01
3.746715545654296875e+01 -3.396122741699218750e+01 -8.826729059219360352e-01 1.300000000000000000e+01
1.909862875938415971e+00 -1.736014485359191895e+00 -6.915645003318786621e-01 1.500000000000000000e+01
2.199847459793090820e+00 -2.001005411148070845e+00 -6.865506172180175781e-01 1.300000000000000000e+01
2.612298965454102007e+00 -2.377009153366088867e+00 -6.865307688713073730e-01 1.100000000000000000e+01
3.227894783020019975e+00 -2.939218521118164062e+00 -6.914403438568115234e-01 1.000000000000000000e+01
4.227299690246582031e+00 -3.851944923400878906e+00 -7.022111415863037109e-01 1.100000000000000000e+01
5.481977462768554688e+00 -4.996967792510986328e+00 -6.489616632461547852e-01 1.700000000000000000e+01
1.900941491127013938e+00 -1.740061759948730025e+00 -6.905292272567749023e-01 1.600000000000000000e+01
2.195723295211791992e+00 -2.011304855346680132e+00 -6.874504089355468750e-01 1.300000000000000000e+01
2.602538347244263139e+00 -2.384787082672119141e+00 -6.861491203308105469e-01 9.000000000000000000e+00
3.216159343719481978e+00 -2.949133157730102983e+00 -6.911274790763854980e-01 9.000000000000000000e+00
4.228454589843750000e+00 -3.880098819732666016e+00 -7.046485543251037598e-01 1.100000000000000000e+01
5.458630561828613281e+00 -5.010683536529541016e+00 -6.482644081115722656e-01 1.200000000000000000e+01
1.889174222946166992e+00 -1.741449236869812012e+00 -6.884586811065673828e-01 1.600000000000000000e+01
2.200148344039916992e+00 -2.029527425765991211e+00 -6.910496354103088379e-01 1.300000000000000000e+01
2.598526477813721147e+00 -2.397851228713988814e+00 -6.872940063476562500e-01 1.000000000000000000e+01
3.197137832641602007e+00 -2.952300786972045898e+00 -6.892502307891845703e-01 9.000000000000000000e+00
4.211968898773193359e+00 -3.892140865325928178e+00 -7.041610479354858398e-01 1.100000000000000000e+01
5.470367908477783203e+00 -5.056756019592285156e+00 -6.517506241798400879e-01 1.000000000000000000e+01
1.885915637016295943e+00 -1.750661730766295943e+00 -6.894939541816711426e-01 1.600000000000000000e+01
2.187339305877685991e+00 -2.031889915466309038e+00 -6.892500519752502441e-01 1.300000000000000000e+01
2.603084087371826172e+00 -2.418935060501099077e+00 -6.907285451889038086e-01 9.000000000000000000e+00
3.191152572631835938e+00 -2.967478513717650923e+00 -6.901888847351074219e-01 1.000000000000000000e+01
4.201263427734375000e+00 -3.909524202346802202e+00 -7.046485543251037598e-01 1.100000000000000000e+01
5.494974613189697266e+00 -5.115188598632813388e+00 -6.568056941032409668e-01 7.000000000000000000e+00
1.888260722160338911e+00 -1.765149593353271040e+00 -6.925997734069824219e-01 1.500000000000000000e+01
2.175964117050170898e+00 -2.035518884658813032e+00 -6.879003047943115234e-01 1.200000000000000000e+01
2.590324163436890093e+00 -2.423982381820679155e+00 -6.895837187767028809e-01 9.000000000000000000e+00
3.186542272567749023e+00 -2.984000444412231001e+00 -6.914403438568115234e-01 1.000000000000000000e+01
4.199179172515869141e+00 -3.935024499893188032e+00 -7.065984606742858887e-01 1.100000000000000000e+01
2.819499397277832031e+01 -2.643059730529785156e+01 6.120967864990234375e+00 1.400000000000000000e+01
5.452374935150145596e+00 -5.111174106597900391e+00 -6.538423895835876465e-01 1.100000000000000000e+01
1.875844359397887962e+00 -1.767088294029236062e+00 -6.905292272567749023e-01 1.500000000000000000e+01
2.166714191436768022e+00 -2.042522192001343218e+00 -6.874504089355468750e-01 1.400000000000000000e+01
2.575284242630004883e+00 -2.428523063659667969e+00 -6.880572438240051270e-01 1.000000000000000000e+01
3.177934408187866211e+00 -2.998925447463988814e+00 -6.920660734176635742e-01 1.000000000000000000e+01
2.615779876708984020e+01 -2.469299697875976918e+01 4.416788578033447266e+00 1.800000000000000000e+01
4.176822185516357422e+00 -3.944304466247559038e+00 -7.053797841072082520e-01 9.000000000000000000e+00
2.781068992614746094e+01 -2.626250839233398082e+01 6.058393955230712891e+00 1.400000000000000000e+01
5.438502788543701172e+00 -5.137544631958007812e+00 -6.545396447181701660e-01 8.000000000000000000e+00
1.872467756271362083e+00 -1.776284575462341087e+00 -6.915645003318786621e-01 1.500000000000000000e+01
2.163811206817626953e+00 -2.054098129272460938e+00 -6.888001561164855957e-01 1.500000000000000000e+01
2.561096906661986861e+00 -2.432090044021606001e+00 -6.865307688713073730e-01 1.000000000000000000e+01
3.173174619674683061e+00 -3.015443325042725053e+00 -6.933175325393676758e-01 1.000000000000000000e+01
4.173098087310791016e+00 -3.968436002731322798e+00 -7.070859074592590332e-01 1.100000000000000000e+01
5.426310539245604581e+00 -5.161990642547607422e+00 -6.552368998527526855e-01 7.000000000000000000e+00
1.857096672058105025e+00 -1.772820711135864036e+00 -6.879410147666931152e-01 1.800000000000000000e+01
2.172847747802733931e+00 -2.075692892074584961e+00 -6.937490701675415039e-01 1.600000000000000000e+01
2.561959981918334961e+00 -2.448262214660644975e+00 -6.888204813003540039e-01 1.100000000000000000e+01
3.160830259323120117e+00 -3.022666692733765093e+00 -6.926918029785156250e-01 1.000000000000000000e+01
2.699469375610351918e+01 -2.582374382019042969e+01 4.586918354034423828e+00 1.900000000000000000e+01
4.160610675811767578e+00 -3.981526613235474077e+00 -7.070859074592590332e-01 1.100000000000000000e+01
2.706502914428710938e+01 -2.590007781982421875e+01 5.933246612548828125e+00 1.300000000000000000e+01
5.405748844146729404e+00 -5.174879074096679688e+00 -6.547139286994934082e-01 6.000000000000000000e+00
1.860645890235901101e+00 -1.788664102554321067e+00 -6.915645003318786621e-01 1.600000000000000000e+01
2.155758142471313032e+00 -2.073807716369628906e+00 -6.905997395515441895e-01 1.800000000000000000e+01
2.560471534729003906e+00 -2.463996648788452148e+00 -6.907285451889038086e-01 1.200000000000000000e+01
3.147414207458496094e+00 -3.030941247940063032e+00 -6.920660734176635742e-01 1.000000000000000000e+01
4.148116588592529297e+00 -3.997403144836425781e+00 -7.073296904563903809e-01 9.000000000000000000e+00
2.697445487976073863e+01 -2.599439430236816051e+01 5.933246612548828125e+00 1.300000000000000000e+01
5.412037372589111328e+00 -5.217224121093750000e+00 -6.576772332191467285e-01 8.000000000000000000e+00
1.858240962028502974e+00 -1.799503445625304954e+00 -6.931173801422119141e-01 1.700000000000000000e+01
2.145343780517578125e+00 -2.078982830047606978e+00 -6.896999478340148926e-01 1.800000000000000000e+01
2.559880971908568892e+00 -2.481563806533813032e+00 -6.930182576179504395e-01 1.200000000000000000e+01
3.136284112930297852e+00 -3.042456626892089844e+00 -6.920660734176635742e-01 1.000000000000000000e+01
4.137710094451904297e+00 -4.016727924346923828e+00 -7.080608606338500977e-01 1.100000000000000000e+01
5.378585815429688388e+00 -5.223145008087158203e+00 -6.559340953826904297e-01 9.000000000000000000e+00
1.856097459793091042e+00 -1.810025215148926003e+00 -6.946703195571899414e-01 1.600000000000000000e+01
2.142257928848267046e+00 -2.090541839599608931e+00 -6.910496354103088379e-01 1.800000000000000000e+01
2.545583724975585938e+00 -2.484998703002930132e+00 -6.914917826652526855e-01 1.100000000000000000e+01
3.139775276184082031e+00 -3.067189455032349077e+00 -6.951947808265686035e-01 1.000000000000000000e+01
4.127922534942626953e+00 -4.035309791564941406e+00 -7.087920904159545898e-01 1.100000000000000000e+01
5.291945457458496094e+00 -5.175023555755615234e+00 -6.475671529769897461e-01 1.000000000000000000e+01
2.786019134521484020e+01 -2.728271484375000000e+01 -6.806438565254211426e-01 9.000000000000000000e+00
1.845632910728455034e+00 -1.812432408332824929e+00 -6.931173801422119141e-01 1.700000000000000000e+01
2.144677162170410156e+00 -2.107568264007567915e+00 -6.941989660263061523e-01 1.900000000000000000e+01
2.528493642807006836e+00 -2.485611438751221147e+00 -6.892020702362060547e-01 1.100000000000000000e+01
3.137498855590819868e+00 -3.086442470550537109e+00 -6.970719695091247559e-01 1.100000000000000000e+01
2.676842308044433949e+01 -2.634201622009276988e+01 4.611292362213134766e+00 1.900000000000000000e+01
4.120884895324707031e+00 -4.056657314300537109e+00 -7.100107669830322266e-01 1.100000000000000000e+01
5.279527664184570312e+00 -5.199056148529052734e+00 -6.482644081115722656e-01 7.000000000000000000e+00
2.717991638183594105e+01 -2.679368209838866832e+01 8.811332702636718750e+00 1.200000000000000000e+01
2.759107780456542969e+01 -2.720849990844726918e+01 -6.763854622840881348e-01 8.000000000000000000e+00
1.828306078910828081e+00 -1.807996869087219016e+00 -6.889762878417968750e-01 1.700000000000000000e+01
2.134536981582642046e+00 -2.112300395965576172e+00 -6.932991743087768555e-01 1.900000000000000000e+01
2.736755752563476918e+01 -2.709191131591796875e+01 2.018179178237915039e+00 2.200000000000000000e+01
2.526777982711791992e+00 -2.501328229904174805e+00 -6.911101937294006348e-01 1.100000000000000000e+01
3.118285894393920898e+00 -3.089034318923950195e+00 -6.951947808265686035e-01 1.000000000000000000e+01
2.685397148132323863e+01 -2.661135292053223012e+01 4.642003059387207031e+00 1.900000000000000000e+01
4.101060390472412109e+00 -4.065426826477050781e+00 -7.090358138084411621e-01 1.100000000000000000e+01
5.275494575500488281e+00 -5.231482982635498047e+00 -6.500075459480285645e-01 6.000000000000000000e+00
2.694792366027832031e+01 -2.675110435485839844e+01 8.766342163085937500e+00 1.100000000000000000e+01
1.829146027565001997e+00 -1.820864439010619895e+00 -6.915645003318786621e-01 1.600000000000000000e+01
2.127520561218262163e+00 -2.119367122650146040e+00 -6.932991743087768555e-01 2.000000000000000000e+01
2.522641420364379883e+00 -2.513851165771483931e+00 -6.922550201416015625e-01 1.100000000000000000e+01
3.108025074005126953e+00 -3.099358081817626953e+00 -6.951947808265686035e-01 1.000000000000000000e+01
4.098797321319580078e+00 -4.090221881866455078e+00 -7.109857201576232910e-01 1.100000000000000000e+01
5.088910102844238281e+00 -5.080035686492919922e+00 -6.290901303291320801e-01 1.300000000000000000e+01
1.824143290519713911e+00 -1.828605890274048074e+00 -6.920821070671081543e-01 1.500000000000000000e+01
2.114606380462646040e+00 -2.121260166168212891e+00 -6.914995312690734863e-01 2.000000000000000000e+01
2.519394397735596147e+00 -2.528203964233397993e+00 -6.937814950942993164e-01 1.100000000000000000e+01
3.090218067169189009e+00 -3.103189468383789062e+00 -6.936303973197937012e-01 9.000000000000000000e+00
2.670582580566405895e+01 -2.682728767395019887e+01 4.647852897644042969e+00 1.900000000000000000e+01
4.081694602966308594e+00 -4.101690292358398438e+00 -7.104982733726501465e-01 1.100000000000000000e+01
5.102059364318847656e+00 -5.128843784332275391e+00 -6.329250335693359375e-01 1.100000000000000000e+01
1.821827888488769975e+00 -1.839079618453979048e+00 -6.936350464820861816e-01 1.600000000000000000e+01
2.109930753707886186e+00 -2.131398439407349077e+00 -6.923993229866027832e-01 1.900000000000000000e+01
2.509172916412353960e+00 -2.535587549209595171e+00 -6.933999061584472656e-01 1.200000000000000000e+01
3.089089870452880859e+00 -3.123789548873900923e+00 -6.958205103874206543e-01 1.100000000000000000e+01
2.640268325805664062e+01 -2.670858573913573863e+01 4.611292362213134766e+00 1.900000000000000000e+01
4.067351818084716797e+00 -4.115912914276123047e+00 -7.104982733726501465e-01 1.100000000000000000e+01
5.098127365112304688e+00 -5.160796165466308594e+00 -6.346681118011474609e-01 1.000000000000000000e+01
1.816751956939697044e+00 -1.846804976463318093e+00 -6.941526532173156738e-01 1.700000000000000000e+01
2.102478027343750000e+00 -2.138750314712523970e+00 -6.923993229866027832e-01 1.900000000000000000e+01
2.493426561355590820e+00 -2.537329196929932085e+00 -6.914917826652526855e-01 1.100000000000000000e+01
3.089239597320557085e+00 -3.145828723907471147e+00 -6.983234286308288574e-01 1.100000000000000000e+01
4.064083099365234375e+00 -4.141420364379882812e+00 -7.124481797218322754e-01 1.300000000000000000e+01
5.061943531036376953e+00 -5.160070896148681641e+00 -6.324020624160766602e-01 1.400000000000000000e+01
1.801166296005249023e+00 -1.843147635459899902e+00 -6.905292272567749023e-01 1.500000000000000000e+01
2.745127487182616832e+01 -2.810091590881348012e+01 6.857050657272338867e-01 3.300000000000000000e+01
2.106266260147095171e+00 -2.156864404678345171e+00 -6.959985494613647461e-01 2.000000000000000000e+01
2.490484237670897993e+00 -2.551203250885010210e+00 -6.930182576179504395e-01 1.100000000000000000e+01
3.070514440536499023e+00 -3.147571802139281782e+00 -6.964462399482727051e-01 1.100000000000000000e+01
4.047555923461914062e+00 -4.152031898498535156e+00 -7.119607329368591309e-01 1.300000000000000000e+01
2.601143455505371094e+01 -2.668284416198730113e+01 5.901959419250488281e+00 1.300000000000000000e+01
5.035070896148681641e+00 -5.166840076446533203e+00 -6.311818957328796387e-01 1.300000000000000000e+01
1.798757672309875044e+00 -1.853582739830017090e+00 -6.920821070671081543e-01 1.600000000000000000e+01
2.096011400222777876e+00 -2.161405563354492188e+00 -6.950987577438354492e-01 2.000000000000000000e+01
2.484296798706055132e+00 -2.562700271606444868e+00 -6.937814950942993164e-01 1.100000000000000000e+01
3.065006256103516069e+00 -3.163945913314818892e+00 -6.976976990699768066e-01 1.100000000000000000e+01
4.052367687225341797e+00 -4.186102867126464844e+00 -7.153730392456054688e-01 1.300000000000000000e+01
2.586400985717773082e+01 -2.672689819335937855e+01 5.890696048736572266e+00 1.300000000000000000e+01
5.113991260528563565e+00 -5.284606933593750000e+00 -6.433836817741394043e-01 9.000000000000000000e+00
1.800319671630858931e+00 -1.868196725845336914e+00 -6.951879262924194336e-01 1.700000000000000000e+01
2.080343246459960938e+00 -2.160286664962768999e+00 -6.923993229866027832e-01 2.000000000000000000e+01
2.483505487442017046e+00 -2.579842805862427202e+00 -6.960712075233459473e-01 1.100000000000000000e+01
3.047096014022827148e+00 -3.167507648468018022e+00 -6.961333751678466797e-01 1.100000000000000000e+01
2.681072235107421875e+01 -2.787993431091308949e+01 4.749248504638671875e+00 2.000000000000000000e+01
4.022597789764404297e+00 -4.184480667114257812e+00 -7.126919031143188477e-01 1.300000000000000000e+01
5.109318733215332031e+00 -5.316792011260986328e+00 -6.451268196105957031e-01 1.300000000000000000e+01
1.796458721160888894e+00 -1.877261042594909890e+00 -6.962232589721679688e-01 1.800000000000000000e+01
2.071443080902100053e+00 -2.166126966476439986e+00 -6.919494271278381348e-01 1.900000000000000000e+01
2.469058513641356978e+00 -2.582819700241088867e+00 -6.945447325706481934e-01 1.200000000000000000e+01
3.040114402770996094e+00 -3.182409763336182085e+00 -6.970719695091247559e-01 1.100000000000000000e+01
4.005225658416748047e+00 -4.195624828338623047e+00 -7.122044563293457031e-01 1.300000000000000000e+01
5.076973438262938565e+00 -5.320180416107177734e+00 -6.433836817741394043e-01 9.000000000000000000e+00
1.785902619361876997e+00 -1.879319310188293013e+00 -6.946703195571899414e-01 1.900000000000000000e+01
2.077288389205933061e+00 -2.187475442886352983e+00 -6.964484453201293945e-01 2.100000000000000000e+01
2.462731122970581055e+00 -2.594270229339600053e+00 -6.953079700469970703e-01 1.100000000000000000e+01
3.042582273483275923e+00 -3.207333564758300781e+00 -7.002006769180297852e-01 1.100000000000000000e+01
4.001481056213378906e+00 -4.221105575561523438e+00 -7.141543626785278320e-01 1.300000000000000000e+01
5.050148963928222656e+00 -5.329193115234375000e+00 -6.423377990722656250e-01 1.000000000000000000e+01
1.778005838394165039e+00 -1.884136795997620073e+00 -6.941526532173156738e-01 1.900000000000000000e+01
2.072314023971558061e+00 -2.197548627853393999e+00 -6.973482966423034668e-01 2.100000000000000000e+01
2.452313899993896040e+00 -2.601422309875487837e+00 -6.949263811111450195e-01 1.200000000000000000e+01
3.036786079406737837e+00 -3.223685979843140093e+00 -7.014521360397338867e-01 1.100000000000000000e+01
3.990804433822631836e+00 -4.239383697509765625e+00 -7.148855924606323242e-01 1.500000000000000000e+01
5.020592689514160156e+00 -5.335181236267089844e+00 -6.409433484077453613e-01 7.000000000000000000e+00
1.768446683883666992e+00 -1.887821078300476074e+00 -6.931173801422119141e-01 1.800000000000000000e+01
2.064245700836182085e+00 -2.205129384994506836e+00 -6.973482966423034668e-01 2.100000000000000000e+01
2.452152729034423828e+00 -2.620427608489989790e+00 -6.975976824760437012e-01 1.100000000000000000e+01
3.011457920074462891e+00 -3.220366716384888139e+00 -6.983234286308288574e-01 1.100000000000000000e+01
2.642475700378417969e+01 -2.826776504516601918e+01 4.751198291778563565e+00 2.000000000000000000e+01
3.987437486648560014e+00 -4.267035961151123047e+00 -7.170792222023010254e-01 1.300000000000000000e+01
5.044527053833007812e+00 -5.400136947631835938e+00 -6.465212702751159668e-01 9.000000000000000000e+00
1.775004148483275923e+00 -1.908127427101135032e+00 -6.982938051223754883e-01 1.900000000000000000e+01
2.043267726898192915e+00 -2.198048353195189986e+00 -6.928492188453674316e-01 1.900000000000000000e+01
2.440317869186400923e+00 -2.626094818115233931e+00 -6.968344449996948242e-01 1.100000000000000000e+01
3.004230976104735884e+00 -3.235201597213745117e+00 -6.992620825767517090e-01 1.000000000000000000e+01
3.968467712402344194e+00 -4.276563167572020596e+00 -7.163479924201965332e-01 1.500000000000000000e+01
4.991771697998046875e+00 -5.381195545196533203e+00 -6.421635150909423828e-01 9.000000000000000000e+00
1.767355680465698020e+00 -1.912584185600280984e+00 -6.977761387825012207e-01 1.700000000000000000e+01
2.041255712509154829e+00 -2.210538864135742188e+00 -6.946488618850708008e-01 1.800000000000000000e+01
2.424937725067139116e+00 -2.626959800720214844e+00 -6.949263811111450195e-01 1.200000000000000000e+01
3.006879806518555132e+00 -3.259665727615356001e+00 -7.023907303810119629e-01 1.000000000000000000e+01
3.950227975845336914e+00 -4.285320758819580078e+00 -7.156167626380920410e-01 1.300000000000000000e+01
4.975249767303466797e+00 -5.399184703826904297e+00 -6.423377990722656250e-01 1.100000000000000000e+01
1.755444169044495073e+00 -1.913048148155211958e+00 -6.957055926322937012e-01 1.600000000000000000e+01
2.037478208541870117e+00 -2.221959590911864790e+00 -6.959985494613647461e-01 1.400000000000000000e+01
2.411773443222045898e+00 -2.631066799163817915e+00 -6.937814950942993164e-01 1.200000000000000000e+01
3.002154588699340820e+00 -3.277425050735474077e+00 -7.039551138877868652e-01 1.100000000000000000e+01
3.945968151092528853e+00 -4.310797691345214844e+00 -7.175666689872741699e-01 1.300000000000000000e+01
4.972512722015380859e+00 -5.434156894683837891e+00 -6.444295644760131836e-01 1.000000000000000000e+01
1.742249965667725053e+00 -1.912024378776550071e+00 -6.931173801422119141e-01 1.900000000000000000e+01
2.032333850860596147e+00 -2.231940031051636186e+00 -6.968983411788940430e-01 1.400000000000000000e+01
2.414468526840209961e+00 -2.652536153793334961e+00 -6.972160935401916504e-01 1.200000000000000000e+01
2.992025136947631836e+00 -3.289345741271973100e+00 -7.042679786682128906e-01 1.000000000000000000e+01
3.930896520614624023e+00 -4.324545383453369141e+00 -7.175666689872741699e-01 1.500000000000000000e+01
4.914657592773438388e+00 -5.408718585968017578e+00 -6.393745541572570801e-01 7.000000000000000000e+00
1.744638323783874956e+00 -1.928121685981750044e+00 -6.967408657073974609e-01 1.600000000000000000e+01
2.028451442718505859e+00 -2.243356943130493164e+00 -6.982480883598327637e-01 1.300000000000000000e+01
2.406511306762694868e+00 -2.662404537200928178e+00 -6.975976824760437012e-01 1.200000000000000000e+01
2.975228548049927202e+00 -3.293906211853026900e+00 -7.030164599418640137e-01 1.100000000000000000e+01
3.922427654266356978e+00 -4.345608711242675781e+00 -7.187854051589965820e-01 1.500000000000000000e+01
4.875726699829101562e+00 -5.403652667999267578e+00 -6.367598772048950195e-01 7.000000000000000000e+00
1.742723226547240989e+00 -1.940252065658568892e+00 -6.988114118576049805e-01 1.700000000000000000e+01
2.011103630065917969e+00 -2.240624904632567915e+00 -6.950987577438354492e-01 1.400000000000000000e+01
2.407225847244263139e+00 -2.682897090911864790e+00 -7.006506323814392090e-01 1.300000000000000000e+01
2.968410730361938032e+00 -3.310672044754027876e+00 -7.042679786682128906e-01 1.000000000000000000e+01
3.903824329376221147e+00 -4.356998920440673828e+00 -7.182978987693786621e-01 1.300000000000000000e+01
4.797399997711181641e+00 -5.356185436248779297e+00 -6.290901303291320801e-01 7.000000000000000000e+00
1.739797592163085938e+00 -1.950648665428162065e+00 -7.003643512725830078e-01 1.400000000000000000e+01
2.005863428115845171e+00 -2.250540733337401900e+00 -6.959985494613647461e-01 1.400000000000000000e+01
2.393928050994873047e+00 -2.686885833740233931e+00 -6.995058059692382812e-01 1.300000000000000000e+01
2.955522537231444868e+00 -3.319538116455078125e+00 -7.039551138877868652e-01 1.100000000000000000e+01
3.887272357940673828e+00 -4.369116306304931641e+00 -7.180541753768920898e-01 1.300000000000000000e+01
4.847527503967285156e+00 -5.450314044952392578e+00 -6.381543278694152832e-01 1.000000000000000000e+01
1.725292921066283958e+00 -1.948032617568969949e+00 -6.972585320472717285e-01 1.500000000000000000e+01
1.994120717048645020e+00 -2.253150939941405806e+00 -6.946488618850708008e-01 1.300000000000000000e+01
2.381932735443114790e+00 -2.692285060882567915e+00 -6.987425684928894043e-01 1.200000000000000000e+01
2.950459241867064986e+00 -3.337234258651732954e+00 -7.055194377899169922e-01 1.100000000000000000e+01
3.866740226745605025e+00 -4.376708030700683594e+00 -7.170792222023010254e-01 1.600000000000000000e+01
4.779673576354979581e+00 -5.411947250366210938e+00 -6.317048072814941406e-01 7.000000000000000000e+00
1.709551930427551047e+00 -1.943888545036315918e+00 -6.936350464820861816e-01 1.500000000000000000e+01
1.996535062789916992e+00 -2.271808385848999023e+00 -6.982480883598327637e-01 1.300000000000000000e+01
2.371224641799927202e+00 -2.699108362197875977e+00 -6.983609199523925781e-01 1.100000000000000000e+01
2.940095424652100053e+00 -3.348997354507445845e+00 -7.058323025703430176e-01 1.100000000000000000e+01
3.847511768341064009e+00 -4.385702133178710938e+00 -7.163479924201965332e-01 1.500000000000000000e+01
4.790967464447020596e+00 -5.463051795959472656e+00 -6.357139945030212402e-01 7.000000000000000000e+00
2.205922889709473012e+01 -2.518918228149414062e+01 -5.844461917877197266e-01 6.000000000000000000e+00
1.711993217468261941e+00 -1.959731101989746094e+00 -6.972585320472717285e-01 1.400000000000000000e+01
1.985145807266234907e+00 -2.274012565612792969e+00 -6.968983411788940430e-01 1.400000000000000000e+01
2.368715286254882812e+00 -2.714352846145629883e+00 -7.002689838409423828e-01 1.200000000000000000e+01
2.922482013702393022e+00 -3.351284742355347124e+00 -7.042679786682128906e-01 1.100000000000000000e+01
3.832947254180908203e+00 -4.398436546325683594e+00 -7.163479924201965332e-01 2.400000000000000000e+01
4.736181735992431641e+00 -5.436844348907470703e+00 -6.308332681655883789e-01 9.000000000000000000e+00
2.191783142089844105e+01 -2.519581222534180043e+01 -5.829103589057922363e-01 6.000000000000000000e+00
1.705142021179198997e+00 -1.965695142745971902e+00 -6.972585320472717285e-01 1.500000000000000000e+01
1.974643111228943093e+00 -2.277982950210570845e+00 -6.959985494613647461e-01 1.100000000000000000e+01
2.355368852615356001e+00 -2.718153476715087891e+00 -6.991241574287414551e-01 1.200000000000000000e+01
2.922404050827025923e+00 -3.374905586242675781e+00 -7.070837616920471191e-01 1.100000000000000000e+01
3.798086404800415039e+00 -4.389272689819335938e+00 -7.126919031143188477e-01 2.600000000000000000e+01
4.573795318603515625e+00 -5.287588596343994141e+00 -6.116589903831481934e-01 8.000000000000000000e+00
2.181929016113280895e+01 -2.526005935668944957e+01 -5.826311111450195312e-01 6.000000000000000000e+00
1.710877895355225053e+00 -1.986272454261780007e+00 -7.024348974227905273e-01 1.600000000000000000e+01
1.967950701713562012e+00 -2.286339044570922852e+00 -6.964484453201293945e-01 1.200000000000000000e+01
2.349707841873168945e+00 -2.730823278427124023e+00 -7.002689838409423828e-01 1.200000000000000000e+01
2.911893367767333984e+00 -3.386583805084228960e+00 -7.073966264724731445e-01 1.000000000000000000e+01
3.773685932159423828e+00 -4.391963958740234375e+00 -7.109857201576232910e-01 3.900000000000000000e+01
4.599448680877686435e+00 -5.354909420013427734e+00 -6.175855994224548340e-01 1.000000000000000000e+01
2.173619079589844105e+01 -2.534214019775390980e+01 -5.827707648277282715e-01 6.000000000000000000e+00
1.690121769905090110e+00 -1.976083159446716087e+00 -6.967408657073974609e-01 1.600000000000000000e+01
1.958691716194153054e+00 -2.291712999343872070e+00 -6.959985494613647461e-01 1.200000000000000000e+01
2.337610721588135210e+00 -2.736023426055908203e+00 -6.995058059692382812e-01 1.200000000000000000e+01
2.897489070892333984e+00 -3.393723011016846147e+00 -7.067708969116210938e-01 1.000000000000000000e+01
3.745447874069213867e+00 -4.390008449554443359e+00 -7.085483670234680176e-01 4.100000000000000000e+01
4.563920974731445312e+00 -5.351224899291992188e+00 -6.153195500373840332e-01 8.000000000000000000e+00
2.166574859619140980e+01 -2.543917274475098012e+01 -5.832594037055969238e-01 6.000000000000000000e+00
1.683213591575623003e+00 -1.981970787048340066e+00 -6.967408657073974609e-01 1.600000000000000000e+01
1.964550614356995073e+00 -2.314879894256591797e+00 -7.009474635124206543e-01 1.200000000000000000e+01
2.328045845031737837e+00 -2.744166374206542969e+00 -6.995058059692382812e-01 1.200000000000000000e+01
2.890734672546387163e+00 -3.409843683242797852e+00 -7.080224156379699707e-01 1.100000000000000000e+01
3.721119165420531782e+00 -4.392453193664550781e+00 -7.068421840667724609e-01 2.800000000000000000e+01
4.587704181671142578e+00 -5.417297840118408203e+00 -6.210718154907226562e-01 8.000000000000000000e+00
1.681266546249390093e+00 -1.993741512298583984e+00 -6.988114118576049805e-01 1.600000000000000000e+01
1.950179457664489968e+00 -2.314272403717041016e+00 -6.986979842185974121e-01 1.200000000000000000e+01
2.322247266769409180e+00 -2.756780624389647993e+00 -7.006506323814392090e-01 1.100000000000000000e+01
2.876270294189453125e+00 -3.416890859603881836e+00 -7.073966264724731445e-01 1.100000000000000000e+01
3.707041740417480025e+00 -4.406934738159179688e+00 -7.070859074592590332e-01 2.400000000000000000e+01
4.540556430816650391e+00 -5.399730682373046875e+00 -6.172369718551635742e-01 8.000000000000000000e+00
1.675886273384094016e+00 -2.000786781311035156e+00 -6.993290781974792480e-01 1.600000000000000000e+01
1.941243529319762962e+00 -2.319232463836669922e+00 -6.982480883598327637e-01 1.300000000000000000e+01
2.323171615600585938e+00 -2.776511907577515093e+00 -7.037035822868347168e-01 1.100000000000000000e+01
2.869992017745972124e+00 -3.432471990585327148e+00 -7.086481451988220215e-01 1.000000000000000000e+01
3.700044393539429155e+00 -4.428343772888183594e+00 -7.085483670234680176e-01 2.200000000000000000e+01
4.581377029418945312e+00 -5.485099315643311435e+00 -6.252552866935729980e-01 7.000000000000000000e+00
1.668892025947571023e+00 -2.006624698638916016e+00 -6.993290781974792480e-01 1.500000000000000000e+01
1.931890487670897993e+00 -2.324495792388916016e+00 -6.977981925010681152e-01 1.100000000000000000e+01
2.308447360992432085e+00 -2.778564214706420898e+00 -7.021771073341369629e-01 1.200000000000000000e+01
2.863040208816527876e+00 -3.448548555374145952e+00 -7.098996043205261230e-01 1.000000000000000000e+01
3.665551662445067915e+00 -4.418315410614013672e+00 -7.048922777175903320e-01 2.600000000000000000e+01
4.606718063354492188e+00 -5.554734230041503906e+00 -6.313561797142028809e-01 7.000000000000000000e+00
1.735664367675780895e+01 -2.094333839416503906e+01 -1.425526738166809082e+00 1.300000000000000000e+01
1.661174893379210982e+00 -2.013017892837523970e+00 -6.993290781974792480e-01 1.500000000000000000e+01
1.930389761924744096e+00 -2.340917348861693892e+00 -7.004975676536560059e-01 1.100000000000000000e+01
2.290268659591674805e+00 -2.778317928314208984e+00 -6.998873949050903320e-01 1.100000000000000000e+01
2.854801416397095171e+00 -3.465615272521973100e+00 -7.111510634422302246e-01 1.000000000000000000e+01
3.635943651199340820e+00 -4.417031288146972656e+00 -7.024549245834350586e-01 2.200000000000000000e+01
4.605611324310302734e+00 -5.596997261047363281e+00 -6.341452002525329590e-01 9.000000000000000000e+00
1.727609825134276988e+01 -2.100982856750487926e+01 -1.425526738166809082e+00 1.300000000000000000e+01
1.646791696548461914e+00 -2.009838342666625977e+00 -6.962232589721679688e-01 1.500000000000000000e+01
1.929613947868346946e+00 -2.356688261032104048e+00 -7.031970024108886719e-01 1.200000000000000000e+01
2.290504455566405806e+00 -2.798449516296387163e+00 -7.029403448104858398e-01 1.100000000000000000e+01
2.842686891555786133e+00 -3.475559234619141069e+00 -7.111510634422302246e-01 1.000000000000000000e+01
3.616734504699707031e+00 -4.425085544586181641e+00 -7.017236948013305664e-01 2.000000000000000000e+01
4.549488544464111328e+00 -5.568295955657958984e+00 -6.290901303291320801e-01 7.000000000000000000e+00
1.716981506347655895e+01 -2.102978134155273082e+01 -1.422805309295654075e+00 1.300000000000000000e+01
1.639766097068787065e+00 -2.015574455261230025e+00 -6.962232589721679688e-01 1.400000000000000000e+01
1.912770867347717063e+00 -2.352824926376343218e+00 -7.000476717948913574e-01 1.200000000000000000e+01
2.280722141265869141e+00 -2.806427955627440962e+00 -7.029403448104858398e-01 1.100000000000000000e+01
2.824311017990111861e+00 -3.477793693542480025e+00 -7.095867395401000977e-01 1.100000000000000000e+01
3.622530698776245117e+00 -4.463886737823486328e+00 -7.058672308921813965e-01 1.600000000000000000e+01
4.404503822326660156e+00 -5.429414749145507812e+00 -6.116589903831481934e-01 1.100000000000000000e+01
1.704850769042969105e+01 -2.103063011169433949e+01 -1.418827772140502930e+00 1.300000000000000000e+01
1.637576103210448997e+00 -2.027297258377075195e+00 -6.982938051223754883e-01 1.400000000000000000e+01
1.902098298072814941e+00 -2.356454610824584961e+00 -6.991478800773620605e-01 1.400000000000000000e+01
2.275843381881713867e+00 -2.820483684539794922e+00 -7.044668197631835938e-01 1.100000000000000000e+01
2.818353891372681108e+00 -3.495320081710814986e+00 -7.111510634422302246e-01 1.100000000000000000e+01
3.595717430114746094e+00 -4.462593078613281250e+00 -7.036736011505126953e-01 1.600000000000000000e+01
4.430517196655273438e+00 -5.500615596771240234e+00 -6.179342269897460938e-01 1.100000000000000000e+01
1.692991065979003906e+01 -2.103400039672851918e+01 -1.415059566497802956e+00 1.200000000000000000e+01
1.639306783676147017e+00 -2.043264389038085938e+00 -7.019172310829162598e-01 1.400000000000000000e+01
1.895492553710937944e+00 -2.364269733428955078e+00 -6.995977759361267090e-01 1.300000000000000000e+01
2.261566638946533203e+00 -2.821887254714965820e+00 -7.029403448104858398e-01 1.200000000000000000e+01
2.805512666702270952e+00 -3.503104925155640093e+00 -7.108381986618041992e-01 1.100000000000000000e+01
3.563534259796143022e+00 -4.452794075012207031e+00 -7.002612352371215820e-01 1.500000000000000000e+01
4.417231082916259766e+00 -5.521500587463378906e+00 -6.186314821243286133e-01 1.000000000000000000e+01
1.683013534545898082e+01 -2.105258560180664062e+01 -1.412547469139098899e+00 1.200000000000000000e+01
1.633368134498595969e+00 -2.050485134124755859e+00 -7.024348974227905273e-01 1.500000000000000000e+01
1.889655470848083052e+00 -2.373921155929564986e+00 -7.004975676536560059e-01 1.200000000000000000e+01
2.252925157546997070e+00 -2.831300497055054155e+00 -7.033219337463378906e-01 1.200000000000000000e+01
2.800643920898437944e+00 -3.522153615951538086e+00 -7.127154469490051270e-01 1.100000000000000000e+01
3.547969341278076172e+00 -4.465205669403076172e+00 -7.002612352371215820e-01 2.600000000000000000e+01
4.484674453735351562e+00 -5.646094799041748047e+00 -6.308332681655883789e-01 9.000000000000000000e+00
1.670936203002930043e+01 -2.105175971984862926e+01 -1.408569931983947976e+00 1.200000000000000000e+01
1.616613626480102983e+00 -2.044052362442017046e+00 -6.982938051223754883e-01 1.200000000000000000e+01
1.881357431411742942e+00 -2.380502700805664062e+00 -7.004975676536560059e-01 1.200000000000000000e+01
2.243028163909912109e+00 -2.839147567749022993e+00 -7.033219337463378906e-01 1.200000000000000000e+01
2.790780305862427202e+00 -3.535009145736693892e+00 -7.133411765098571777e-01 1.100000000000000000e+01
3.536049842834473100e+00 -4.482238769531250000e+00 -7.009924650192260742e-01 3.500000000000000000e+01
4.281109809875488281e+00 -5.428613185882568359e+00 -6.048608422279357910e-01 8.000000000000000000e+00
1.661352348327637074e+01 -2.108172035217285156e+01 -1.406685829162598100e+00 2.500000000000000000e+01
1.614241003990172896e+00 -2.055760622024536133e+00 -7.003643512725830078e-01 1.400000000000000000e+01
1.879051327705383079e+00 -2.394721031188964844e+00 -7.027471065521240234e-01 1.200000000000000000e+01
2.231892347335814986e+00 -2.845415115356444868e+00 -7.029403448104858398e-01 1.200000000000000000e+01
2.769893646240233931e+00 -3.533846378326416016e+00 -7.111510634422302246e-01 1.000000000000000000e+01
3.522830486297606978e+00 -4.497680187225341797e+00 -7.014799118041992188e-01 3.300000000000000000e+01
4.472170352935791016e+00 -5.711778163909912109e+00 -6.346681118011474609e-01 1.000000000000000000e+01
1.648321914672851918e+01 -2.106722640991210938e+01 -1.401870965957642046e+00 1.200000000000000000e+01
1.612167119979857954e+00 -2.067195653915404829e+00 -7.024348974227905273e-01 1.600000000000000000e+01
1.863912463188170943e+00 -2.391716480255126953e+00 -7.000476717948913574e-01 1.300000000000000000e+01
2.233303308486938032e+00 -2.866739511489868164e+00 -7.063748836517333984e-01 1.200000000000000000e+01
2.755732774734497070e+00 -3.539894580841064009e+00 -7.105253338813781738e-01 1.000000000000000000e+01
3.490832090377808061e+00 -4.487401962280273438e+00 -6.980676054954528809e-01 3.100000000000000000e+01
4.482558727264404297e+00 -5.764324188232421875e+00 -6.388515830039978027e-01 9.000000000000000000e+00
1.636669731140137074e+01 -2.106184196472167969e+01 -1.397893428802490012e+00 2.500000000000000000e+01
1.607306957244873047e+00 -2.075865745544434038e+00 -7.034701704978942871e-01 1.600000000000000000e+01
1.855552434921265093e+00 -2.398208141326903853e+00 -7.000476717948913574e-01 1.400000000000000000e+01
2.213673830032349077e+00 -2.862093925476074219e+00 -7.033219337463378906e-01 1.200000000000000000e+01
2.750607490539550781e+00 -3.558870315551757812e+00 -7.124025821685791016e-01 1.100000000000000000e+01
3.464226484298706055e+00 -4.485420227050781250e+00 -6.958739757537841797e-01 3.800000000000000000e+01
4.490414619445800781e+00 -5.816208839416503906e+00 -6.428607702255249023e-01 7.000000000000000000e+00
1.621255874633789062e+01 -2.101447486877441051e+01 -1.390985012054442915e+00 1.200000000000000000e+01
1.597333431243896040e+00 -2.078679084777832031e+00 -7.024348974227905273e-01 1.600000000000000000e+01
1.852684378623961958e+00 -2.412721157073975053e+00 -7.022972106933593750e-01 1.300000000000000000e+01
2.206755161285399947e+00 -2.874860286712646040e+00 -7.044668197631835938e-01 1.100000000000000000e+01
2.744758605957030806e+00 -3.578332185745238814e+00 -7.142797708511352539e-01 1.100000000000000000e+01
3.492445230484008789e+00 -4.556381225585938388e+00 -7.048922777175903320e-01 1.800000000000000000e+01
4.470278739929199219e+00 -5.834209442138671875e+00 -6.430350542068481445e-01 1.000000000000000000e+01
1.615728378295898082e+01 -2.110230064392089844e+01 -1.392869114875793013e+00 1.200000000000000000e+01
1.586552500724792036e+00 -2.079634428024291992e+00 -7.008819580078125000e-01 1.600000000000000000e+01
1.844251155853271040e+00 -2.419173479080200195e+00 -7.022972106933593750e-01 1.300000000000000000e+01
2.203846454620360884e+00 -2.891914844512939009e+00 -7.067565321922302246e-01 1.200000000000000000e+01
2.725070476531981978e+00 -3.578461885452270952e+00 -7.124025821685791016e-01 1.000000000000000000e+01
3.500561714172362837e+00 -4.600138664245604581e+00 -7.097670435905456543e-01 1.800000000000000000e+01
4.461948871612548828e+00 -5.865635395050048828e+00 -6.447781920433044434e-01 9.000000000000000000e+00
1.583147525787353960e+00 -2.089503526687622070e+00 -7.024348974227905273e-01 1.600000000000000000e+01
1.836218714714050071e+00 -2.425275802612305132e+00 -7.022972106933593750e-01 1.200000000000000000e+01
2.196614027023314986e+00 -2.902338027954102007e+00 -7.075197696685791016e-01 1.200000000000000000e+01
2.717955112457274947e+00 -3.593780994415283203e+00 -7.136540412902832031e-01 1.000000000000000000e+01
3.482893943786621094e+00 -4.608554363250732422e+00 -7.092795968055725098e-01 2.200000000000000000e+01
4.441272258758544922e+00 -5.878809928894042969e+00 -6.446038484573364258e-01 7.000000000000000000e+00
1.574682831764220969e+00 -2.093473196029663086e+00 -7.019172310829162598e-01 1.500000000000000000e+01
1.825399994850158913e+00 -2.428555250167847124e+00 -7.013973593711853027e-01 1.200000000000000000e+01
2.187649011611938032e+00 -2.911557674407958984e+00 -7.079013586044311523e-01 1.200000000000000000e+01
2.705394029617310014e+00 -3.603246450424193892e+00 -7.136540412902832031e-01 1.100000000000000000e+01
3.444150447845458984e+00 -4.590514183044433594e+00 -7.046485543251037598e-01 1.500000000000000000e+01
4.427896976470947266e+00 -5.903840541839599609e+00 -6.456497311592102051e-01 7.000000000000000000e+00
1.575456738471985085e+00 -2.109792470932006836e+00 -7.055407166481018066e-01 1.600000000000000000e+01
1.815746188163757102e+00 -2.433350324630736861e+00 -7.009474635124206543e-01 1.100000000000000000e+01
2.172776937484741211e+00 -2.912881374359130859e+00 -7.063748836517333984e-01 1.300000000000000000e+01
2.696341514587401900e+00 -3.617419481277465820e+00 -7.145926356315612793e-01 1.100000000000000000e+01
3.377116918563843218e+00 -4.534051895141601562e+00 -6.941677927970886230e-01 1.700000000000000000e+01
4.408451557159423828e+00 -5.920858860015869141e+00 -6.458240747451782227e-01 7.000000000000000000e+00
