-2.704354286193848100e+00 9.148474335670471191e-01 -6.591066122055053711e-01 1.400000000000000000e+01
-3.189239263534545898e+00 1.079497933387755904e+00 -6.544748544692993164e-01 1.200000000000000000e+01
-3.923226833343505859e+00 1.329465508460998979e+00 -6.560861468315124512e-01 8.000000000000000000e+00
-5.060569763183593750e+00 1.716847062110901101e+00 -6.561445593833923340e-01 1.100000000000000000e+01
-7.108910560607910156e+00 2.413150072097777876e+00 -6.568056941032409668e-01 1.000000000000000000e+00
-1.214993572235107067e+01 4.129077911376953125e+00 -6.725170612335205078e-01 3.000000000000000000e+00
-3.335681915283203125e+01 1.134909152984618963e+01 -6.150227785110473633e-01 7.000000000000000000e+00
-2.336075305938721147e+00 7.989063858985900879e-01 -6.615414619445800781e-01 1.900000000000000000e+01
-2.693608522415161133e+00 9.222282767295837402e-01 -6.573069691658020020e-01 1.400000000000000000e+01
-3.179689407348632812e+00 1.089271068572998047e+00 -6.533300280570983887e-01 1.300000000000000000e+01
-3.910853624343872070e+00 1.341272592544556108e+00 -6.548346877098083496e-01 9.000000000000000000e+00
-5.050488471984863281e+00 1.734094142913817915e+00 -6.556570529937744141e-01 1.100000000000000000e+01
-7.118861198425292969e+00 2.445662736892700195e+00 -6.585487723350524902e-01 2.000000000000000000e+00
-1.213471984863281072e+01 4.173581600189208984e+00 -6.725170612335205078e-01 3.000000000000000000e+00
-3.327340316772460938e+01 1.145695114135742010e+01 -6.142548918724060059e-01 7.000000000000000000e+00
-2.329620838165283203e+00 8.057929277420043945e-01 -6.605061888694763184e-01 1.900000000000000000e+01
-6.079809570312500000e+01 2.104134559631348012e+01 1.122992515563965066e+00 5.000000000000000000e+01
-2.697738647460937944e+00 9.341757893562316895e-01 -6.591066122055053711e-01 1.400000000000000000e+01
-3.181432962417602983e+00 1.102291822433471902e+00 -6.544748544692993164e-01 1.200000000000000000e+01
-3.904281616210937944e+00 1.354268550872802956e+00 -6.545218229293823242e-01 9.000000000000000000e+00
-5.025651931762695312e+00 1.745201110839843972e+00 -6.532196998596191406e-01 1.100000000000000000e+01
-7.087696552276611328e+00 2.462650299072266069e+00 -6.564570665359497070e-01 2.000000000000000000e+00
-3.327475357055664062e+01 1.158749580383300959e+01 -6.150227785110473633e-01 1.400000000000000000e+01
-2.323288679122924805e+00 8.122387528419494629e-01 -6.594709157943725586e-01 2.100000000000000000e+01
-6.079593658447266336e+01 2.126661300659180043e+01 1.124249100685120073e+00 5.000000000000000000e+01
-2.701983451843262163e+00 9.456917047500610352e-01 -6.609061956405639648e-01 1.400000000000000000e+01
-3.172201395034790039e+00 1.110889077186584029e+00 -6.533300280570983887e-01 1.200000000000000000e+01
-3.899769067764281782e+00 1.367208123207092063e+00 -6.545218229293823242e-01 9.000000000000000000e+00
-6.089172744750977273e+01 2.135977935791015980e+01 7.923213481903076172e+00 6.300000000000000000e+01
-5.038567543029785156e+00 1.768431305885314941e+00 -6.556570529937744141e-01 1.100000000000000000e+01
-7.053173065185546875e+00 2.476898193359375000e+00 -6.540166735649108887e-01 1.000000000000000000e+00
-3.336441421508789062e+01 1.174291992187500000e+01 -6.173963546752929688e-01 1.400000000000000000e+01
-2.327724933624268022e+00 8.229191899299621582e-01 -6.615414619445800781e-01 1.900000000000000000e+01
-6.084198760986328125e+01 2.152137947082519887e+01 1.126483082771301047e+00 4.900000000000000000e+01
-2.693154573440552202e+00 9.531670808792114258e-01 -6.595565080642700195e-01 1.500000000000000000e+01
-6.090343856811522727e+01 2.156703948974609020e+01 3.386031627655028853e+00 4.900000000000000000e+01
-3.168304204940795898e+00 1.121955394744873047e+00 -6.533300280570983887e-01 1.200000000000000000e+01
-3.883801937103271040e+00 1.376852273941040039e+00 -6.526445746421813965e-01 9.000000000000000000e+00
-5.032363891601563388e+00 1.786008358001708984e+00 -6.556570529937744141e-01 1.100000000000000000e+01
-7.055749416351318359e+00 2.505503416061400923e+00 -6.550625562667846680e-01 2.000000000000000000e+00
-1.190291213989257990e+01 4.231415271759033203e+00 -6.620498299598693848e-01 3.000000000000000000e+00
-3.331568145751953125e+01 1.185662937164306996e+01 -6.172567009925842285e-01 1.400000000000000000e+01
-2.315742492675780806e+00 8.277881741523742676e-01 -6.589533090591430664e-01 1.800000000000000000e+01
-2.676967382431029829e+00 9.579660296440124512e-01 -6.564071774482727051e-01 1.400000000000000000e+01
-3.162520170211791992e+00 1.132346153259276900e+00 -6.529483795166015625e-01 1.200000000000000000e+01
-6.094952774047852273e+01 2.183509254455566051e+01 5.664251804351806641e+00 4.800000000000000000e+01
-3.880831718444824219e+00 1.391067385673522949e+00 -6.529574394226074219e-01 8.000000000000000000e+00
-5.018625259399414062e+00 1.800881862640381081e+00 -6.546820998191833496e-01 1.100000000000000000e+01
-7.016957759857177734e+00 2.519345283508300781e+00 -6.522735953330993652e-01 2.000000000000000000e+00
-1.188806915283202947e+01 4.272938251495361328e+00 -6.620498299598693848e-01 3.000000000000000000e+00
-3.330043411254882812e+01 1.198232936859131037e+01 -6.177453994750976562e-01 7.000000000000000000e+00
-2.321923017501831055e+00 8.391495943069458008e-01 -6.615414619445800781e-01 1.900000000000000000e+01
-2.668109655380249023e+00 9.653155803680419922e-01 -6.550574898719787598e-01 1.300000000000000000e+01
-3.153010368347167969e+00 1.141373753547668013e+00 -6.518035531044006348e-01 1.100000000000000000e+01
-3.875952243804932085e+00 1.404605627059936968e+00 -6.529574394226074219e-01 8.000000000000000000e+00
-5.004844188690186435e+00 1.815681219100951926e+00 -6.537071466445922852e-01 1.100000000000000000e+01
-7.030594825744628906e+00 2.551981210708618164e+00 -6.543653011322021484e-01 1.000000000000000000e+00
-1.187308120727539062e+01 4.314409255981445312e+00 -6.620498299598693848e-01 3.000000000000000000e+00
-3.321330642700195312e+01 1.208209037780762074e+01 -6.169076561927795410e-01 7.000000000000000000e+00
-2.310054302215576172e+00 8.435316085815429688e-01 -6.589533090591430664e-01 1.800000000000000000e+01
-6.080497741699218750e+01 2.221536827087401988e+01 1.129973530769347922e+00 4.900000000000000000e+01
-2.670384883880614790e+00 9.761652350425720215e-01 -6.564071774482727051e-01 1.400000000000000000e+01
-3.145520448684691939e+00 1.150474548339843972e+00 -6.510403156280517578e-01 1.200000000000000000e+01
-3.878692865371704102e+00 1.420167684555053933e+00 -6.542089581489562988e-01 8.000000000000000000e+00
-4.995068073272705078e+00 1.830901503562927024e+00 -6.532196998596191406e-01 1.100000000000000000e+01
-7.010869979858398438e+00 2.571165561676024947e+00 -6.533194184303283691e-01 2.000000000000000000e+00
-1.185870933532715021e+01 4.353758335113525391e+00 -6.620498299598693848e-01 3.000000000000000000e+00
-3.322561264038085938e+01 1.221147823333740057e+01 -6.178849935531616211e-01 7.000000000000000000e+00
-2.299846410751343218e+00 8.489142060279846191e-01 -6.568827629089355469e-01 1.900000000000000000e+01
-2.670616865158081055e+00 9.868315458297729492e-01 -6.573069691658020020e-01 1.300000000000000000e+01
-3.141485452651977983e+00 1.161447405815124956e+00 -6.510403156280517578e-01 1.200000000000000000e+01
-3.862596511840819868e+00 1.429584264755249023e+00 -6.523317098617553711e-01 8.000000000000000000e+00
-4.970032215118408203e+00 1.841429710388184038e+00 -6.507822871208190918e-01 6.000000000000000000e+00
-6.975697994232177734e+00 2.585926771163939986e+00 -6.508790850639343262e-01 2.000000000000000000e+00
-1.184343910217284979e+01 4.395126342773438388e+00 -6.620498299598693848e-01 3.000000000000000000e+00
-3.310405349731445312e+01 1.229813480377197088e+01 -6.164190173149108887e-01 1.400000000000000000e+01
-2.296719551086425781e+00 8.573378920555114746e-01 -6.568827629089355469e-01 2.000000000000000000e+01
-6.083177947998046875e+01 2.271987152099609020e+01 1.133463978767395020e+00 4.800000000000000000e+01
-2.659680366516112837e+00 9.938846826553344727e-01 -6.555073857307434082e-01 1.200000000000000000e+01
-3.139046192169189009e+00 1.173641324043273926e+00 -6.514219045639038086e-01 1.300000000000000000e+01
-3.842530488967895952e+00 1.438192367553710938e+00 -6.498287916183471680e-01 8.000000000000000000e+00
-4.991133213043212891e+00 1.870080709457397017e+00 -6.544383764266967773e-01 3.000000000000000000e+00
-6.936323642730712891e+00 2.600286722183227983e+00 -6.480901241302490234e-01 2.000000000000000000e+00
-1.182725048065186080e+01 4.438505172729492188e+00 -6.620498299598693848e-01 3.000000000000000000e+00
-3.313363265991210938e+01 1.244751453399658025e+01 -6.178151965141296387e-01 1.400000000000000000e+01
-2.297327995300292969e+00 8.667135238647460938e-01 -6.579180359840393066e-01 1.900000000000000000e+01
-2.645256519317626953e+00 9.990315437316894531e-01 -6.528079509735107422e-01 1.100000000000000000e+01
-3.134930372238159180e+00 1.184591531753540039e+00 -6.514219045639038086e-01 1.200000000000000000e+01
-3.833791732788085938e+00 1.450198650360106978e+00 -6.492030024528503418e-01 8.000000000000000000e+00
-5.006852149963378906e+00 1.895927429199218972e+00 -6.573632359504699707e-01 9.000000000000000000e+00
-6.927204608917236328e+00 2.624483108520507812e+00 -6.480901241302490234e-01 2.000000000000000000e+00
-3.306007003784179688e+01 1.255174064636229936e+01 -6.172567009925842285e-01 7.000000000000000000e+00
-2.292635917663574219e+00 8.736390471458435059e-01 -6.574003696441650391e-01 1.900000000000000000e+01
-6.085883712768554688e+01 2.320322418212890980e+01 1.136884689331054910e+00 4.700000000000000000e+01
-2.641928911209106001e+00 1.007798075675963911e+00 -6.528079509735107422e-01 1.000000000000000000e+01
-3.118145465850830078e+00 1.190080404281615989e+00 -6.487506031990051270e-01 1.100000000000000000e+01
-3.836342811584473100e+00 1.465724110603332964e+00 -6.504545211791992188e-01 9.000000000000000000e+00
-4.994975090026854581e+00 1.910392880439758079e+00 -6.566320061683654785e-01 1.100000000000000000e+01
-6.948236465454101562e+00 2.658833026885985884e+00 -6.508790850639343262e-01 2.000000000000000000e+00
-1.179676532745360973e+01 4.518907070159912109e+00 -6.620498299598693848e-01 3.000000000000000000e+00
-3.304440689086914062e+01 1.267132568359375000e+01 -6.177453994750976562e-01 7.000000000000000000e+00
-2.293178081512451172e+00 8.830249309539794922e-01 -6.584356427192687988e-01 1.900000000000000000e+01
-2.647486686706542969e+00 1.020518541336060014e+00 -6.550574898719787598e-01 9.000000000000000000e+00
-3.123131036758422852e+00 1.204489827156066895e+00 -6.506586670875549316e-01 1.100000000000000000e+01
-3.827517509460449219e+00 1.477683663368225098e+00 -6.498287916183471680e-01 8.000000000000000000e+00
-4.980869770050048828e+00 1.924954533576965110e+00 -6.556570529937744141e-01 9.000000000000000000e+00
-6.901746749877929688e+00 2.668699741363524947e+00 -6.473928689956665039e-01 2.000000000000000000e+00
-1.163191127777099965e+01 4.502381324768066406e+00 -6.536760926246643066e-01 3.000000000000000000e+00
-3.311557769775391336e+01 1.283138942718506037e+01 -6.199094653129577637e-01 1.400000000000000000e+01
-2.270277500152587891e+00 8.833188414573669434e-01 -6.527416110038757324e-01 1.800000000000000000e+01
-6.088171386718750000e+01 2.370007324218750000e+01 1.140375137329102007e+00 4.700000000000000000e+01
-2.647540092468262163e+00 1.031168222427367942e+00 -6.559572815895080566e-01 7.000000000000000000e+00
-3.109761238098144975e+00 1.211820006370543990e+00 -6.487506031990051270e-01 1.100000000000000000e+01
-3.826016664505004883e+00 1.492470860481261985e+00 -6.504545211791992188e-01 8.000000000000000000e+00
-4.968572616577148438e+00 1.940163135528564009e+00 -6.549258232116699219e-01 9.000000000000000000e+00
-6.888677597045898438e+00 2.691324949264525923e+00 -6.470442414283752441e-01 3.000000000000000000e+00
-1.167192649841308949e+01 4.564780712127686435e+00 -6.568162441253662109e-01 3.000000000000000000e+00
-3.299610519409179688e+01 1.291774654388427912e+01 -6.185132861137390137e-01 1.400000000000000000e+01
-2.276170015335083008e+00 8.947720527648925781e-01 -6.553298234939575195e-01 1.900000000000000000e+01
-6.079861450195313211e+01 2.391244506835937855e+01 1.140375137329102007e+00 4.700000000000000000e+01
-2.629417419433594194e+00 1.034694910049438032e+00 -6.523580551147460938e-01 6.000000000000000000e+00
-3.118299722671508789e+00 1.227702260017395020e+00 -6.514219045639038086e-01 1.000000000000000000e+01
-3.806081295013428178e+00 1.500022649765015093e+00 -6.479515433311462402e-01 8.000000000000000000e+00
-4.965463161468505859e+00 1.958951950073241965e+00 -6.554133296012878418e-01 9.000000000000000000e+00
-6.869975090026854581e+00 2.711697101593018022e+00 -6.461727023124694824e-01 3.000000000000000000e+00
-1.156304550170898082e+01 4.568798065185546875e+00 -6.515826582908630371e-01 3.000000000000000000e+00
-3.296568679809570312e+01 1.303872966766357067e+01 -6.187925338745117188e-01 1.400000000000000000e+01
-2.278419017791748047e+00 9.048510789871215820e-01 -6.568827629089355469e-01 1.900000000000000000e+01
-2.622167825698852983e+00 1.042427182197571023e+00 -6.514582633972167969e-01 7.000000000000000000e+00
-3.106698274612427202e+00 1.235677361488342063e+00 -6.498954296112060547e-01 1.000000000000000000e+01
-3.797151565551757812e+00 1.511837840080261008e+00 -6.473258137702941895e-01 9.000000000000000000e+00
-4.956750869750976562e+00 1.975537776947021040e+00 -6.551696062088012695e-01 1.100000000000000000e+01
-6.821603298187255859e+00 2.720163822174071822e+00 -6.425121426582336426e-01 2.000000000000000000e+00
-1.154702663421631037e+01 4.609132766723632812e+00 -6.515826582908630371e-01 3.000000000000000000e+00
-3.294596862792968750e+01 1.316411018371582031e+01 -6.192811727523803711e-01 1.400000000000000000e+01
-2.278832674026488814e+00 9.142373204231262207e-01 -6.579180359840393066e-01 1.700000000000000000e+01
-2.625746488571166992e+00 1.054478764533997026e+00 -6.532578468322753906e-01 9.000000000000000000e+00
-3.093257427215576172e+00 1.242854475975037065e+00 -6.479873657226562500e-01 1.100000000000000000e+01
-3.795516490936278853e+00 1.526557445526123047e+00 -6.479515433311462402e-01 8.000000000000000000e+00
-4.929568767547607422e+00 1.984672784805298074e+00 -6.524884700775146484e-01 1.100000000000000000e+01
-6.837939739227294922e+00 2.754380941390991211e+00 -6.449524760246276855e-01 3.000000000000000000e+00
-1.153086757659911932e+01 4.649411678314208984e+00 -6.515826582908630371e-01 3.000000000000000000e+00
-3.291465377807617188e+01 1.328501987457275035e+01 -6.195604205131530762e-01 1.400000000000000000e+01
-2.266835689544678178e+00 9.181629419326782227e-01 -6.553298234939575195e-01 1.900000000000000000e+01
-2.615011453628540039e+00 1.060251474380492942e+00 -6.514582633972167969e-01 1.200000000000000000e+01
-3.087299585342406782e+00 1.252367258071898970e+00 -6.476057171821594238e-01 1.100000000000000000e+01
-3.799584627151488814e+00 1.542851328849792036e+00 -6.495159268379211426e-01 9.000000000000000000e+00
-4.926638126373291016e+00 2.002503871917725053e+00 -6.529759168624877930e-01 9.000000000000000000e+00
-6.821385860443115234e+00 2.774039030075072798e+00 -6.442552208900451660e-01 3.000000000000000000e+00
-1.144509124755859020e+01 4.659008502960205078e+00 -6.476051211357116699e-01 3.000000000000000000e+00
-3.289634323120117188e+01 1.340466022491455078e+01 -6.200491189956665039e-01 1.400000000000000000e+01
-2.256464719772338867e+00 9.231441020965576172e-01 -6.532592773437500000e-01 1.600000000000000000e+01
-2.625721693038939986e+00 1.075281143188477007e+00 -6.550574898719787598e-01 1.500000000000000000e+01
-3.090176105499268022e+00 1.266113638877869096e+00 -6.491321921348571777e-01 1.000000000000000000e+01
-3.783210039138793945e+00 1.551607489585876021e+00 -6.476386785507202148e-01 9.000000000000000000e+00
-4.912272930145263672e+00 2.016673326492310014e+00 -6.520009636878967285e-01 9.000000000000000000e+00
-6.807975292205811435e+00 2.796319246292113814e+00 -6.439066529273986816e-01 2.000000000000000000e+00
-1.138073158264159979e+01 4.679184436798095703e+00 -6.448836326599121094e-01 3.000000000000000000e+00
-3.287154388427733664e+01 1.352854061126708984e+01 -6.204679608345031738e-01 1.400000000000000000e+01
-2.265726804733275923e+00 9.361791014671325684e-01 -6.568827629089355469e-01 1.800000000000000000e+01
-6.081251144409179688e+01 2.513964271545410156e+01 1.148612618446350098e+00 4.500000000000000000e+01
-2.609346628189086914e+00 1.079226493835448997e+00 -6.519081592559814453e-01 1.400000000000000000e+01
-3.083923578262329102e+00 1.276142001152039018e+00 -6.487506031990051270e-01 1.100000000000000000e+01
-3.768645763397216797e+00 1.561024188995361106e+00 -6.460743546485900879e-01 9.000000000000000000e+00
-4.897868633270263672e+00 2.030766725540161133e+00 -6.510260105133056641e-01 9.000000000000000000e+00
-6.798172950744628906e+00 2.820066452026367188e+00 -6.439066529273986816e-01 2.000000000000000000e+00
-1.136432838439941051e+01 4.718882083892822266e+00 -6.448836326599121094e-01 3.000000000000000000e+00
-3.286104965209960938e+01 1.365855216979979936e+01 -6.211660504341125488e-01 1.400000000000000000e+01
-2.255313634872436968e+00 9.411064386367797852e-01 -6.548121571540832520e-01 1.800000000000000000e+01
-2.600168943405150923e+00 1.086074948310852051e+00 -6.505584716796875000e-01 1.600000000000000000e+01
-3.086695909500122070e+00 1.289927124977112038e+00 -6.502770781517028809e-01 1.100000000000000000e+01
-3.768640995025635210e+00 1.576456665992737038e+00 -6.470129489898681641e-01 9.000000000000000000e+00
-4.874270439147949219e+00 2.040951013565063032e+00 -6.488323807716369629e-01 1.100000000000000000e+01
-6.773586273193359375e+00 2.837620735168457031e+00 -6.425121426582336426e-01 3.000000000000000000e+00
-1.128147983551025035e+01 4.730717182159423828e+00 -6.411154866218566895e-01 3.000000000000000000e+00
-3.286111068725585938e+01 1.379329776763916016e+01 -6.220735907554626465e-01 1.400000000000000000e+01
-2.262696266174315962e+00 9.534742832183837891e-01 -6.579180359840393066e-01 1.800000000000000000e+01
-2.596362113952637163e+00 1.095144629478455034e+00 -6.505584716796875000e-01 1.500000000000000000e+01
-3.065895318984984907e+00 1.293823957443237083e+00 -6.468424797058105469e-01 1.200000000000000000e+01
-3.759475708007812944e+00 1.588064789772033913e+00 -6.463872194290161133e-01 9.000000000000000000e+00
-4.859803199768066406e+00 2.054860591888428178e+00 -6.478574275970458984e-01 1.100000000000000000e+01
-6.767309665679931641e+00 2.862800121307373047e+00 -6.428607702255249023e-01 2.000000000000000000e+00
-1.126489734649658025e+01 4.770068168640136719e+00 -6.411154866218566895e-01 3.000000000000000000e+00
-3.282381057739257812e+01 1.391260242462158025e+01 -6.222829818725585938e-01 1.400000000000000000e+01
-2.255799055099486861e+00 9.598540067672729492e-01 -6.568827629089355469e-01 1.700000000000000000e+01
-6.084766769409179688e+01 2.590353584289551137e+01 1.154337048530579057e+00 4.400000000000000000e+01
-2.599694967269897017e+00 1.107255458831787109e+00 -6.523580551147460938e-01 1.500000000000000000e+01
-3.063166618347167969e+00 1.305287599563599077e+00 -6.472241282463073730e-01 1.200000000000000000e+01
-3.762994527816772017e+00 1.605053186416625977e+00 -6.479515433311462402e-01 9.000000000000000000e+00
-4.863554477691650391e+00 2.076488733291625977e+00 -6.493198871612548828e-01 1.100000000000000000e+01
-6.727959632873535156e+00 2.873882532119750977e+00 -6.400717496871948242e-01 2.000000000000000000e+00
-1.124817848205566051e+01 4.809360980987548828e+00 -6.411154866218566895e-01 3.000000000000000000e+00
-3.278607940673828125e+01 1.403181552886963068e+01 -6.224924325942993164e-01 7.000000000000000000e+00
-2.238234996795653853e+00 9.616216421127319336e-01 -6.527416110038757324e-01 1.800000000000000000e+01
-2.597604274749755859e+00 1.117093205451965110e+00 -6.528079509735107422e-01 1.400000000000000000e+01
-3.054984807968140093e+00 1.314420342445373979e+00 -6.464608907699584961e-01 1.100000000000000000e+01
-3.751925945281981978e+00 1.615834593772887962e+00 -6.470129489898681641e-01 9.000000000000000000e+00
-4.858099460601806641e+00 2.094238758087158203e+00 -6.495636105537414551e-01 1.100000000000000000e+01
-6.717886924743652344e+00 2.897350072860718218e+00 -6.400717496871948242e-01 2.000000000000000000e+00
-1.123132228851318004e+01 4.848595142364501953e+00 -6.411154866218566895e-01 3.000000000000000000e+00
-3.279563903808593750e+01 1.417155742645264027e+01 -6.236093640327453613e-01 7.000000000000000000e+00
-2.238409280776977983e+00 9.709662795066833496e-01 -6.537768840789794922e-01 1.800000000000000000e+01
-2.595476627349853960e+00 1.126929879188538042e+00 -6.532578468322753906e-01 1.500000000000000000e+01
-3.043175220489501953e+00 1.321947336196898970e+00 -6.449344158172607422e-01 1.100000000000000000e+01
-3.728147506713867188e+00 1.621044635772705078e+00 -6.438842415809631348e-01 9.000000000000000000e+00
-6.098950958251953125e+01 2.653165245056151988e+01 8.166464805603027344e+00 6.300000000000000000e+01
-4.832558155059813565e+00 2.103262186050415039e+00 -6.471261978149414062e-01 1.100000000000000000e+01
-6.704079151153563565e+00 2.919191360473632812e+00 -6.397231221199035645e-01 2.000000000000000000e+00
-1.121432876586914062e+01 4.887770175933837891e+00 -6.411154866218566895e-01 3.000000000000000000e+00
-3.275330352783203125e+01 1.428914737701416016e+01 -6.237490177154541016e-01 7.000000000000000000e+00
-2.238545656204224077e+00 9.803237915039062500e-01 -6.548121571540832520e-01 1.800000000000000000e+01
-2.571894407272338867e+00 1.127376914024353027e+00 -6.483089327812194824e-01 1.400000000000000000e+01
-3.045733928680419922e+00 1.335715889930725098e+00 -6.464608907699584961e-01 1.100000000000000000e+01
-3.726083755493164062e+00 1.635636448860168013e+00 -6.445099711418151855e-01 9.000000000000000000e+00
-6.089652633666992188e+01 2.674438285827637074e+01 8.166464805603027344e+00 6.300000000000000000e+01
-4.821551799774169922e+00 2.118520975112915039e+00 -6.466387510299682617e-01 1.100000000000000000e+01
-6.693848133087158203e+00 2.942575216293334961e+00 -6.397231221199035645e-01 2.000000000000000000e+00
-1.119719886779784979e+01 4.926885604858398438e+00 -6.411154866218566895e-01 3.000000000000000000e+00
-3.273250579833983664e+01 1.441628742218017933e+01 -6.243074536323547363e-01 7.000000000000000000e+00
-2.236876964569091797e+00 9.889129400253295898e-01 -6.553298234939575195e-01 1.900000000000000000e+01
-6.084582519531250000e+01 2.691235351562500000e+01 1.161318063735961914e+00 4.300000000000000000e+01
-2.571507453918457031e+00 1.137924790382385032e+00 -6.492087244987487793e-01 1.300000000000000000e+01
-3.042848110198975053e+00 1.347134113311768022e+00 -6.468424797058105469e-01 1.200000000000000000e+01
-3.720351696014403853e+00 1.648632884025573953e+00 -6.445099711418151855e-01 9.000000000000000000e+00
-4.806869029998779297e+00 2.132118940353393999e+00 -6.456637978553771973e-01 9.000000000000000000e+00
-6.665324687957763672e+00 2.957841634750366211e+00 -6.379800438880920410e-01 2.000000000000000000e+00
-1.117993259429931996e+01 4.965940952301025391e+00 -6.411154866218566895e-01 3.000000000000000000e+00
-3.275141906738281250e+01 1.456132793426514027e+01 -6.256338953971862793e-01 1.400000000000000000e+01
-2.224936962127685991e+00 9.920020103454589844e-01 -6.527416110038757324e-01 1.800000000000000000e+01
-6.087785720825195312e+01 2.715550994873046875e+01 1.163551926612854004e+00 4.300000000000000000e+01
-2.567919969558715820e+00 1.145997881889343040e+00 -6.492087244987487793e-01 1.400000000000000000e+01
-3.033222913742064986e+00 1.354285597801208052e+00 -6.456976532936096191e-01 1.100000000000000000e+01
-3.724171400070189986e+00 1.664342522621155007e+00 -6.460743546485900879e-01 8.000000000000000000e+00
-4.787462711334229404e+00 2.141535520553588867e+00 -6.439576148986816406e-01 1.100000000000000000e+01
-6.645088195800781250e+00 2.973883628845214844e+00 -6.369341611862182617e-01 2.000000000000000000e+00
-1.109865856170653942e+01 4.971645355224609375e+00 -6.373472809791564941e-01 3.000000000000000000e+00
-3.275660324096679688e+01 1.468705463409424006e+01 -6.266111731529235840e-01 7.000000000000000000e+00
-2.221460580825806108e+00 9.997624158859252930e-01 -6.527416110038757324e-01 1.800000000000000000e+01
-6.084833526611328125e+01 2.739740371704101918e+01 1.164808511734009011e+00 4.200000000000000000e+01
-2.572788000106811968e+00 1.158956527709960938e+00 -6.514582633972167969e-01 1.500000000000000000e+01
-3.021317481994628906e+00 1.361638665199280007e+00 -6.441711783409118652e-01 1.100000000000000000e+01
-3.705734491348267046e+00 1.671646237373352051e+00 -6.438842415809631348e-01 9.000000000000000000e+00
-4.783576488494873047e+00 2.159867763519287109e+00 -6.444450616836547852e-01 1.100000000000000000e+01
-6.645561218261718750e+00 3.001982450485229048e+00 -6.379800438880920410e-01 2.000000000000000000e+00
-1.105575847625732067e+01 4.998836517333984375e+00 -6.358818411827087402e-01 3.000000000000000000e+00
-3.270513534545897727e+01 1.480130767822265980e+01 -6.266111731529235840e-01 7.000000000000000000e+00
-2.216198444366455078e+00 1.006711721420288086e+00 -6.522240042686462402e-01 1.900000000000000000e+01
-2.556308984756470171e+00 1.162284016609191895e+00 -6.483089327812194824e-01 1.300000000000000000e+01
-3.020120143890380859e+00 1.373802542686461958e+00 -6.449344158172607422e-01 1.100000000000000000e+01
-3.692685604095458984e+00 1.681297302246093972e+00 -6.426327824592590332e-01 9.000000000000000000e+00
-4.774201869964599609e+00 2.175729036331177202e+00 -6.442013382911682129e-01 9.000000000000000000e+00
-6.616913318634033203e+00 3.016896009445189986e+00 -6.362369060516357422e-01 2.000000000000000000e+00
-1.101280307769775035e+01 5.025789260864257812e+00 -6.344164609909057617e-01 3.000000000000000000e+00
-3.272238922119141336e+01 1.494695186614990057e+01 -6.279375553131103516e-01 7.000000000000000000e+00
-2.223207473754882812e+00 1.019272208213805930e+00 -6.553298234939575195e-01 1.800000000000000000e+01
-6.083734512329102273e+01 2.790490341186523082e+01 1.168298959732056108e+00 4.200000000000000000e+01
-2.550465106964110884e+00 1.170387387275696023e+00 -6.478590369224548340e-01 1.500000000000000000e+01
-3.026011705398560014e+00 1.389251232147217019e+00 -6.472241282463073730e-01 1.100000000000000000e+01
-3.686794281005858931e+00 1.694176912307739036e+00 -6.426327824592590332e-01 9.000000000000000000e+00
-4.766578197479248047e+00 2.192380905151367188e+00 -6.442013382911682129e-01 9.000000000000000000e+00
-6.584622383117675781e+00 3.029980421066284180e+00 -6.341452002525329590e-01 2.000000000000000000e+00
-1.092988586425781072e+01 5.034121036529541016e+00 -6.306482553482055664e-01 3.000000000000000000e+00
-3.279713439941406250e+01 1.511968612670898082e+01 -6.303809285163879395e-01 7.000000000000000000e+00
-2.219635963439940962e+00 1.027026414871216042e+00 -6.553298234939575195e-01 1.900000000000000000e+01
-6.092103958129882812e+01 2.820109939575194957e+01 1.171789526939392090e+00 4.100000000000000000e+01
-2.544595718383789062e+00 1.178464055061340110e+00 -6.474091410636901855e-01 1.300000000000000000e+01
-3.014018535614014116e+00 1.396504044532776101e+00 -6.456976532936096191e-01 1.200000000000000000e+01
-3.684442043304442915e+00 1.708698034286499023e+00 -6.432585120201110840e-01 9.000000000000000000e+00
-4.735488891601563388e+00 2.198140621185303178e+00 -6.410327553749084473e-01 1.100000000000000000e+01
-6.566777706146240234e+00 3.049589872360229048e+00 -6.334479451179504395e-01 2.000000000000000000e+00
-1.091224670410156072e+01 5.072242736816406250e+00 -6.306482553482055664e-01 3.000000000000000000e+00
-3.274415969848632812e+01 1.523407745361327947e+01 -6.303809285163879395e-01 7.000000000000000000e+00
-2.214287042617797852e+00 1.033950805664062944e+00 -6.548121571540832520e-01 1.900000000000000000e+01
-6.082222747802733664e+01 2.841358184814453125e+01 1.171789526939392090e+00 4.100000000000000000e+01
-2.549293994903564009e+00 1.191464781761168990e+00 -6.496586203575134277e-01 1.500000000000000000e+01
-3.002011537551879883e+00 1.403690099716186968e+00 -6.441711783409118652e-01 1.100000000000000000e+01
-3.682033300399779829e+00 1.723223447799683061e+00 -6.438842415809631348e-01 9.000000000000000000e+00
-4.724191665649414062e+00 2.212973117828369141e+00 -6.405452489852905273e-01 1.300000000000000000e+01
-6.556092739105224609e+00 3.072493553161621094e+00 -6.334479451179504395e-01 3.000000000000000000e+00
-1.089447498321533025e+01 5.110302925109863281e+00 -6.306482553482055664e-01 3.000000000000000000e+00
-3.269078063964843750e+01 1.534828376770020064e+01 -6.303809285163879395e-01 7.000000000000000000e+00
-2.193188667297362837e+00 1.033439278602600098e+00 -6.496357917785644531e-01 1.900000000000000000e+01
-2.546881914138793945e+00 1.201187491416930930e+00 -6.501085758209228516e-01 1.400000000000000000e+01
-3.000644445419311968e+00 1.415836095809936968e+00 -6.449344158172607422e-01 1.100000000000000000e+01
-3.658133745193481001e+00 1.727629899978637917e+00 -6.407555937767028809e-01 9.000000000000000000e+00
-4.712848663330078125e+00 2.227753400802611861e+00 -6.400578022003173828e-01 1.100000000000000000e+01
-6.530918598175048828e+00 3.088545799255371094e+00 -6.320534348487854004e-01 3.000000000000000000e+00
-1.087657070159911932e+01 5.148300647735595703e+00 -6.306482553482055664e-01 3.000000000000000000e+00
-2.198291301727294922e+00 1.045236349105834961e+00 -6.522240042686462402e-01 1.700000000000000000e+01
-2.540913820266724077e+00 1.209233045578002930e+00 -6.496586203575134277e-01 1.500000000000000000e+01
-2.995684146881103960e+00 1.426301717758178933e+00 -6.449344158172607422e-01 1.100000000000000000e+01
-3.637814998626708984e+00 1.733590245246886985e+00 -6.382526159286499023e-01 9.000000000000000000e+00
-4.714002609252929688e+00 2.248463869094849077e+00 -6.412764787673950195e-01 1.100000000000000000e+01
-6.512905120849609375e+00 3.107891798019409180e+00 -6.313561797142028809e-01 2.000000000000000000e+00
-1.074318981170653942e+01 5.131145000457763672e+00 -6.239492893218994141e-01 3.000000000000000000e+00
-2.192887544631958008e+00 1.052067875862122026e+00 -6.517063379287719727e-01 1.600000000000000000e+01
-2.520867109298706055e+00 1.210503101348876953e+00 -6.456094980239868164e-01 1.300000000000000000e+01
-2.985378265380858931e+00 1.434199452400207964e+00 -6.437895298004150391e-01 1.200000000000000000e+01
-3.628180980682373047e+00 1.744566082954406960e+00 -6.376268863677978516e-01 9.000000000000000000e+00
-4.682871818542479581e+00 2.253714084625244141e+00 -6.381078958511352539e-01 1.000000000000000000e+01
-6.496631622314453125e+00 3.128014087677001953e+00 -6.308332681655883789e-01 3.000000000000000000e+00
-1.075040245056151988e+01 5.180753707885742188e+00 -6.254146695137023926e-01 3.000000000000000000e+00
-2.192679643630981001e+00 1.061399459838866965e+00 -6.527416110038757324e-01 1.900000000000000000e+01
-2.514872550964355025e+00 1.218445539474487083e+00 -6.451596021652221680e-01 1.500000000000000000e+01
-2.971520423889160156e+00 1.440330028533935991e+00 -6.418814659118652344e-01 1.100000000000000000e+01
-3.629178285598754883e+00 1.760668992996216042e+00 -6.388783454895019531e-01 9.000000000000000000e+00
-4.674976348876953125e+00 2.270046472549438032e+00 -6.381078958511352539e-01 1.000000000000000000e+01
-6.516139030456542969e+00 3.165472745895386186e+00 -6.337965726852416992e-01 3.000000000000000000e+00
-1.069273662567139027e+01 5.199034214019775391e+00 -6.231119036674499512e-01 3.000000000000000000e+00
-2.185489416122436968e+00 1.067351341247559038e+00 -6.517063379287719727e-01 1.900000000000000000e+01
-2.515856266021728960e+00 1.229784011840820090e+00 -6.465093493461608887e-01 1.300000000000000000e+01
-2.957656383514403853e+00 1.446381330490112083e+00 -6.399733424186706543e-01 1.200000000000000000e+01
-3.624784469604492188e+00 1.774194955825806108e+00 -6.391912102699279785e-01 1.000000000000000000e+01
-4.667023658752441406e+00 2.286351442337036133e+00 -6.381078958511352539e-01 1.000000000000000000e+01
-6.508627891540527344e+00 3.189952611923218218e+00 -6.341452002525329590e-01 3.000000000000000000e+00
-1.062431526184082031e+01 5.211698055267333984e+00 -6.201810836791992188e-01 3.000000000000000000e+00
-2.169619798660277876e+00 1.068996787071228027e+00 -6.480829119682312012e-01 1.800000000000000000e+01
-2.515043735504149947e+00 1.240282297134398970e+00 -6.474091410636901855e-01 1.400000000000000000e+01
-2.961392641067504883e+00 1.461039900779723899e+00 -6.418814659118652344e-01 1.200000000000000000e+01
-3.618569374084473100e+00 1.786836981773376021e+00 -6.391912102699279785e-01 1.000000000000000000e+01
-4.660794258117675781e+00 2.303508043289185014e+00 -6.383516192436218262e-01 9.000000000000000000e+00
-6.449231624603270596e+00 3.188809394836425781e+00 -6.294387578964233398e-01 3.000000000000000000e+00
-1.060605812072754084e+01 5.248752117156982422e+00 -6.201810836791992188e-01 3.000000000000000000e+00
-2.172606468200684038e+00 1.080382347106934038e+00 -6.501534581184387207e-01 1.900000000000000000e+01
-2.505247116088867188e+00 1.246887207031250000e+00 -6.460594534873962402e-01 1.300000000000000000e+01
-2.959532737731934038e+00 1.473634243011475053e+00 -6.426447033882141113e-01 1.100000000000000000e+01
-3.594316005706787109e+00 1.791276693344115989e+00 -6.360625624656677246e-01 1.000000000000000000e+01
-4.632780075073242188e+00 2.310828447341918945e+00 -6.356704831123352051e-01 1.000000000000000000e+01
-6.428586959838867188e+00 3.207977533340454102e+00 -6.285672187805175781e-01 3.000000000000000000e+00
-1.058675003051757990e+01 5.287590026855468750e+00 -6.201810836791992188e-01 3.000000000000000000e+00
-2.170548677444458008e+00 1.088825821876526101e+00 -6.506710648536682129e-01 1.900000000000000000e+01
-2.495654821395874023e+00 1.253001332283020020e+00 -6.447097063064575195e-01 1.400000000000000000e+01
-2.952616453170775923e+00 1.483074784278870073e+00 -6.422630548477172852e-01 1.200000000000000000e+01
-3.595101118087768999e+00 1.807361364364624023e+00 -6.373140215873718262e-01 1.000000000000000000e+01
-4.626458644866943359e+00 2.327878236770629883e+00 -6.359142065048217773e-01 9.000000000000000000e+00
-6.431586742401123047e+00 3.237564563751221147e+00 -6.299617290496826172e-01 2.000000000000000000e+00
-1.050044822692870916e+01 5.290363788604736328e+00 -6.162035465240478516e-01 3.000000000000000000e+00
-2.174013376235961914e+00 1.099125862121582031e+00 -6.527416110038757324e-01 1.900000000000000000e+01
-2.491706132888793945e+00 1.260835528373718040e+00 -6.447097063064575195e-01 1.300000000000000000e+01
-2.940936088562012163e+00 1.488796472549438032e+00 -6.407365798950195312e-01 1.200000000000000000e+01
-3.582356929779053178e+00 1.815075516700745073e+00 -6.360625624656677246e-01 1.000000000000000000e+01
-4.613811492919921875e+00 2.339707612991333008e+00 -6.351830363273620605e-01 7.000000000000000000e+00
-6.435598373413085938e+00 3.264965295791625977e+00 -6.313561797142028809e-01 2.000000000000000000e+00
-1.046596813201903942e+01 5.314283370971679688e+00 -6.151568293571472168e-01 3.000000000000000000e+00
-2.163279533386230025e+00 1.103197336196898970e+00 -6.506710648536682129e-01 1.900000000000000000e+01
-2.494232654571533203e+00 1.273069143295288086e+00 -6.465093493461608887e-01 1.300000000000000000e+01
-2.926978826522827148e+00 1.494589090347290039e+00 -6.388285160064697266e-01 1.200000000000000000e+01
-3.584794282913208008e+00 1.832064032554626021e+00 -6.376268863677978516e-01 9.000000000000000000e+00
-4.595012187957763672e+00 2.350374698638916016e+00 -6.337205767631530762e-01 7.000000000000000000e+00
-6.424162387847900391e+00 3.287410020828247070e+00 -6.313561797142028809e-01 2.000000000000000000e+00
-1.042602252960205078e+01 5.339858531951904297e+00 -6.139007806777954102e-01 3.000000000000000000e+00
-2.147197484970093218e+00 1.104931116104125977e+00 -6.470476388931274414e-01 1.900000000000000000e+01
-2.489549875259398970e+00 1.282202482223510964e+00 -6.465093493461608887e-01 1.400000000000000000e+01
-2.926717042922974077e+00 1.508004665374756081e+00 -6.399733424186706543e-01 1.200000000000000000e+01
-3.571032524108887163e+00 1.841569066047668013e+00 -6.363754272460937500e-01 9.000000000000000000e+00
-4.582839012145996094e+00 2.365379571914672852e+00 -6.332331299781799316e-01 7.000000000000000000e+00
-6.387285709381104404e+00 3.298135995864868164e+00 -6.289158463478088379e-01 2.000000000000000000e+00
-1.038154029846191051e+01 5.365198135375976562e+00 -6.124353408813476562e-01 3.000000000000000000e+00
-2.150186061859130859e+00 1.115979313850403054e+00 -6.491181850433349609e-01 1.800000000000000000e+01
-2.481600284576416016e+00 1.289088129997252974e+00 -6.456094980239868164e-01 1.400000000000000000e+01
-2.923177242279053178e+00 1.519116878509521040e+00 -6.403549909591674805e-01 1.300000000000000000e+01
-3.548810005187987837e+00 1.845819473266602007e+00 -6.335595846176147461e-01 7.000000000000000000e+00
-4.586879730224609375e+00 2.387778520584106001e+00 -6.349392533302307129e-01 7.000000000000000000e+00
-6.365131378173828125e+00 3.314889907836914062e+00 -6.278699636459350586e-01 2.000000000000000000e+00
-1.040879726409911932e+01 5.425405979156494141e+00 -6.151568293571472168e-01 3.000000000000000000e+00
-2.149896860122681108e+00 1.124894618988037109e+00 -6.501534581184387207e-01 1.800000000000000000e+01
-2.470406532287598100e+00 1.293694138526916948e+00 -6.438099145889282227e-01 1.300000000000000000e+01
-2.921601772308350053e+00 1.530624389648437944e+00 -6.411182284355163574e-01 1.200000000000000000e+01
-3.544419050216674805e+00 1.858494877815247026e+00 -6.338724493980407715e-01 4.000000000000000000e+00
-6.100475311279296875e+01 3.200105285644531250e+01 8.458463668823242188e+00 6.300000000000000000e+01
-4.571905612945556641e+00 2.399286270141602007e+00 -6.339643001556396484e-01 9.000000000000000000e+00
-6.354104042053222656e+00 3.335979223251343218e+00 -6.278699636459350586e-01 2.000000000000000000e+00
-1.030234718322754084e+01 5.413441658020020419e+00 -6.099232435226440430e-01 3.000000000000000000e+00
-2.151082754135131836e+00 1.135097146034240945e+00 -6.517063379287719727e-01 1.900000000000000000e+01
-2.465875625610352007e+00 1.302309632301331010e+00 -6.438099145889282227e-01 1.400000000000000000e+01
-2.907561779022216797e+00 1.536227583885193093e+00 -6.392101049423217773e-01 1.300000000000000000e+01
-3.550133943557738814e+00 1.877319812774657981e+00 -6.360625624656677246e-01 6.000000000000000000e+00
-6.089267730712891336e+01 3.221380233764647727e+01 8.458463668823242188e+00 6.300000000000000000e+01
-4.558238983154296875e+00 2.412444829940795898e+00 -6.332331299781799316e-01 1.000000000000000000e+01
-6.345942020416259766e+00 3.360003471374512163e+00 -6.282185912132263184e-01 2.000000000000000000e+00
-1.028338813781737926e+01 5.449370384216308594e+00 -6.099232435226440430e-01 3.000000000000000000e+00
-2.143696784973144975e+00 1.140783786773682085e+00 -6.506710648536682129e-01 1.900000000000000000e+01
-2.469914674758911133e+00 1.315489530563354048e+00 -6.460594534873962402e-01 1.500000000000000000e+01
-2.890053033828734907e+00 1.539905071258544922e+00 -6.365388035774230957e-01 1.400000000000000000e+01
-3.550531387329102007e+00 1.893418788909912109e+00 -6.373140215873718262e-01 8.000000000000000000e+00
-4.558546543121337891e+00 2.433014869689940962e+00 -6.344518065452575684e-01 1.200000000000000000e+01
-6.334175109863281250e+00 3.382134437561035156e+00 -6.282185912132263184e-01 3.000000000000000000e+00
-1.026430320739745916e+01 5.485232830047607422e+00 -6.099232435226440430e-01 3.000000000000000000e+00
-2.136296987533568892e+00 1.146432757377624956e+00 -6.496357917785644531e-01 2.100000000000000000e+01
-2.456723690032958984e+00 1.319492816925049050e+00 -6.438099145889282227e-01 1.400000000000000000e+01
-2.893307209014893022e+00 1.554630041122436968e+00 -6.384469270706176758e-01 1.400000000000000000e+01
-3.536941289901732954e+00 1.902058482170104980e+00 -6.360625624656677246e-01 1.000000000000000000e+01
-4.555269718170166016e+00 2.451734781265258789e+00 -6.351830363273620605e-01 1.000000000000000000e+01
-6.297770977020263672e+00 3.391000270843505859e+00 -6.257782578468322754e-01 2.000000000000000000e+00
-1.024509429931640980e+01 5.521028518676757812e+00 -6.099232435226440430e-01 3.000000000000000000e+00
-2.127185106277465820e+00 1.151124477386475053e+00 -6.480829119682312012e-01 2.000000000000000000e+01
-2.448675870895386186e+00 1.326204180717468040e+00 -6.429101228713989258e-01 1.400000000000000000e+01
-2.879232168197631836e+00 1.560043692588805930e+00 -6.365388035774230957e-01 1.400000000000000000e+01
-3.514652013778686968e+00 1.905918240547179954e+00 -6.332467198371887207e-01 9.000000000000000000e+00
-4.536215782165527344e+00 2.461939096450806108e+00 -6.337205767631530762e-01 1.000000000000000000e+01
-6.275390148162841797e+00 3.407258749008179155e+00 -6.247323751449584961e-01 2.000000000000000000e+00
-1.022575950622558949e+01 5.556756973266601562e+00 -6.099232435226440430e-01 3.000000000000000000e+00
-2.129937410354613814e+00 1.162244200706481934e+00 -6.501534581184387207e-01 1.900000000000000000e+01
-2.442321300506591797e+00 1.333809494972229004e+00 -6.424602270126342773e-01 1.200000000000000000e+01
-2.882383584976195845e+00 1.574791073799133079e+00 -6.384469270706176758e-01 1.400000000000000000e+01
-3.497578620910644975e+00 1.912488698959351030e+00 -6.313694715499877930e-01 9.000000000000000000e+00
-4.515404701232910156e+00 2.471087694168090820e+00 -6.320143938064575195e-01 1.000000000000000000e+01
-6.268701076507568359e+00 3.432013750076293945e+00 -6.252552866935729980e-01 3.000000000000000000e+00
-1.020630073547362926e+01 5.592417716979979581e+00 -6.099232435226440430e-01 3.000000000000000000e+00
-2.122482299804687944e+00 1.167809486389159934e+00 -6.491181850433349609e-01 2.000000000000000000e+01
-2.430822372436522993e+00 1.338566660881042036e+00 -6.406605839729309082e-01 1.300000000000000000e+01
-2.866551399230957031e+00 1.579159140586853027e+00 -6.361572146415710449e-01 1.500000000000000000e+01
-3.501260519027709961e+00 1.930408477783202903e+00 -6.332467198371887207e-01 9.000000000000000000e+00
-4.505013465881347656e+00 2.485875129699707031e+00 -6.317706704139709473e-01 1.000000000000000000e+01
-6.261915683746337891e+00 3.456763267517089844e+00 -6.257782578468322754e-01 2.000000000000000000e+00
-1.013776779174805043e+01 5.600966453552246094e+00 -6.069924235343933105e-01 3.000000000000000000e+00
-2.115014314651488814e+00 1.173336863517761008e+00 -6.480829119682312012e-01 1.900000000000000000e+01
-2.434653759002685991e+00 1.351773500442505105e+00 -6.429101228713989258e-01 1.400000000000000000e+01
-2.855872869491577148e+00 1.586295723915100098e+00 -6.350123286247253418e-01 1.600000000000000000e+01
-3.511766195297241211e+00 1.952216267585753950e+00 -6.363754272460937500e-01 9.000000000000000000e+00
-4.496308803558349609e+00 2.501585483551024947e+00 -6.317706704139709473e-01 1.000000000000000000e+01
-6.187139034271240234e+00 3.443717479705810991e+00 -6.195030212402343750e-01 2.000000000000000000e+00
-2.100789546966553178e+00 1.175054073333740012e+00 -6.449770331382751465e-01 2.000000000000000000e+01
-2.438422679901123047e+00 1.365023255348206010e+00 -6.451596021652221680e-01 1.200000000000000000e+01
-2.853744029998778853e+00 1.598173499107361062e+00 -6.357755661010742188e-01 1.300000000000000000e+01
-3.487698554992675781e+00 1.954804658889770952e+00 -6.332467198371887207e-01 9.000000000000000000e+00
-4.480623722076416016e+00 2.513380765914916992e+00 -6.307957172393798828e-01 1.000000000000000000e+01
-6.202880382537841797e+00 3.480894327163695845e+00 -6.222919821739196777e-01 3.000000000000000000e+00
-1.008448791503906072e+01 5.663780212402343750e+00 -6.061550378799438477e-01 3.000000000000000000e+00
-2.103405952453612837e+00 1.186175823211669922e+00 -6.470476388931274414e-01 2.000000000000000000e+01
-2.421763181686400923e+00 1.366821765899657981e+00 -6.420103311538696289e-01 1.300000000000000000e+01
-2.844728946685791016e+00 1.606194615364074929e+00 -6.350123286247253418e-01 1.200000000000000000e+01
-3.470535039901732954e+00 1.961136102676392046e+00 -6.313694715499877930e-01 9.000000000000000000e+00
-4.482190608978270596e+00 2.534868955612183061e+00 -6.322581768035888672e-01 1.000000000000000000e+01
-6.187223911285400391e+00 3.500562906265258789e+00 -6.219433546066284180e-01 3.000000000000000000e+00
-9.953425407409667969e+00 5.635964393615722656e+00 -5.994560718536376953e-01 3.000000000000000000e+00
-2.102611303329468218e+00 1.195420503616333008e+00 -6.480829119682312012e-01 2.000000000000000000e+01
-2.415283679962158203e+00 1.374303221702575906e+00 -6.415604352951049805e-01 1.200000000000000000e+01
-2.844223499298096147e+00 1.619028449058532937e+00 -6.361572146415710449e-01 1.200000000000000000e+01
-3.465384721755981001e+00 1.974216461181641069e+00 -6.316823959350585938e-01 1.000000000000000000e+01
-4.459519386291503906e+00 2.542633295059204102e+00 -6.303082704544067383e-01 1.000000000000000000e+01
-6.171505928039550781e+00 3.520164728164672852e+00 -6.215947866439819336e-01 2.000000000000000000e+00
-9.933691024780273438e+00 5.670673847198486328e+00 -5.994560718536376953e-01 3.000000000000000000e+00
-2.105129957199097124e+00 1.206595301628113015e+00 -6.501534581184387207e-01 1.900000000000000000e+01
-2.398638963699340820e+00 1.375938177108765093e+00 -6.384111046791076660e-01 1.200000000000000000e+01
-2.835149049758911133e+00 1.626992464065551980e+00 -6.353939771652221680e-01 1.200000000000000000e+01
-3.473888874053955078e+00 1.995155096054076926e+00 -6.344981789588928223e-01 1.100000000000000000e+01
-4.426521778106688565e+00 2.544335126876831055e+00 -6.268959045410156250e-01 1.000000000000000000e+01
-6.153998851776123047e+00 3.538706302642821822e+00 -6.210718154907226562e-01 3.000000000000000000e+00
-2.090869188308715820e+00 1.208137154579163042e+00 -6.470476388931274414e-01 1.800000000000000000e+01
-2.403943300247191939e+00 1.390155911445617898e+00 -6.411104798316955566e-01 1.400000000000000000e+01
-2.824354410171508789e+00 1.633929729461669922e+00 -6.342490911483764648e-01 1.200000000000000000e+01
-3.466903448104857954e+00 2.007269144058227983e+00 -6.344981789588928223e-01 1.100000000000000000e+01
-4.424483776092529297e+00 2.563751935958861861e+00 -6.278708577156066895e-01 1.000000000000000000e+01
-6.129542827606201172e+00 3.553171873092650923e+00 -6.198516488075256348e-01 2.000000000000000000e+00
-9.893860816955566406e+00 5.739885807037354404e+00 -5.994560718536376953e-01 3.000000000000000000e+00
-2.074954032897949219e+00 1.208621978759766069e+00 -6.434241533279418945e-01 1.900000000000000000e+01
-2.402443408966064009e+00 1.400501728057861106e+00 -6.420103311538696289e-01 1.200000000000000000e+01
-2.822025537490845171e+00 1.645756721496582031e+00 -6.350123286247253418e-01 1.200000000000000000e+01
-3.444521188735961914e+00 2.010396957397460938e+00 -6.316823959350585938e-01 1.100000000000000000e+01
-3.624479675292968750e+01 2.116278076171875000e+01 5.153367042541503906e+00 2.800000000000000000e+01
-4.418935775756835938e+00 2.581183195114136186e+00 -6.283583641052246094e-01 1.000000000000000000e+01
-6.103341102600097656e+00 3.566504478454589844e+00 -6.184571385383605957e-01 3.000000000000000000e+00
-9.811697959899902344e+00 5.738088607788085938e+00 -5.956878662109375000e-01 3.000000000000000000e+00
-2.079051971435546875e+00 1.220748305320739968e+00 -6.460123658180236816e-01 1.700000000000000000e+01
-2.394179821014403853e+00 1.406904578208922896e+00 -6.411104798316955566e-01 1.400000000000000000e+01
-2.821341037750244141e+00 1.658582210540771040e+00 -6.361572146415710449e-01 1.200000000000000000e+01
-3.425564527511597124e+00 2.015396595001221147e+00 -6.294922828674316406e-01 1.200000000000000000e+01
-3.600646972656250000e+01 2.119250679016112926e+01 5.129968166351318359e+00 2.700000000000000000e+01
-4.413320064544677734e+00 2.598606824874877930e+00 -6.288458108901977539e-01 1.000000000000000000e+01
