-3.495223999023437944e+00 2.248008549213408869e-01 -6.808065176010131836e-01 1.100000000000000000e+01
-4.484120178222656250e+01 2.891891717910767046e+00 3.931246995925902876e+00 5.400000000000000000e+01
-4.321000099182128906e+00 2.794265449047089178e-01 -6.858087182044982910e-01 1.000000000000000000e+01
-5.699077606201171875e+00 3.705405294895172119e-01 -7.012361884117126465e-01 1.100000000000000000e+01
-8.233007431030273438e+00 5.367336869239807129e-01 -7.218238711357116699e-01 3.000000000000000000e+00
-3.433030700683593750e+01 2.262162685394287109e+00 -6.005373001098632812e-01 1.900000000000000000e+01
-2.530797004699707031e+00 1.703137606382369995e-01 -6.796588301658630371e-01 1.300000000000000000e+01
-4.474543380737304688e+01 3.019055843353271040e+00 7.828102111816406250e-01 4.800000000000000000e+01
-2.926166296005249023e+00 1.979468017816544134e-01 -6.771026849746704102e-01 1.300000000000000000e+01
-3.502253055572510210e+00 2.375314980745316107e-01 -6.823329925537109375e-01 1.100000000000000000e+01
-4.488251876831054688e+01 3.051913261413574219e+00 3.935779094696044922e+00 5.400000000000000000e+01
-4.312115192413330078e+00 2.939705252647399902e-01 -6.845571994781494141e-01 1.000000000000000000e+01
-5.689827442169188565e+00 3.898889124393463135e-01 -7.002612352371215820e-01 1.000000000000000000e+01
-8.233071327209472656e+00 5.656055212020874023e-01 -7.219981551170349121e-01 2.000000000000000000e+00
-1.559142684936523082e+01 1.076586961746216042e+00 -8.190577030181884766e-01 4.000000000000000000e+00
-3.434015655517578125e+01 2.383229970932006836e+00 -6.008514761924743652e-01 1.300000000000000000e+01
-2.534041166305541992e+00 1.794197261333466131e-01 -6.806941032409667969e-01 1.400000000000000000e+01
-4.473063278198242188e+01 3.174944877624512163e+00 7.827404141426086426e-01 4.800000000000000000e+01
-2.915738344192504883e+00 2.074682563543319980e-01 -6.748531460762023926e-01 1.300000000000000000e+01
-3.489652872085570845e+00 2.489170879125595093e-01 -6.800432801246643066e-01 1.200000000000000000e+01
-4.481991958618164062e+01 3.204869270324707031e+00 3.931246995925902876e+00 5.400000000000000000e+01
-4.309092521667479581e+00 3.088795840740203857e-01 -6.842443346977233887e-01 9.000000000000000000e+00
-5.664672374725341797e+00 4.080363214015961248e-01 -6.973363757133483887e-01 1.000000000000000000e+01
-8.211174964904785156e+00 5.929059386253356934e-01 -7.202550768852233887e-01 3.000000000000000000e+00
-3.430769729614257812e+01 2.501340150833129883e+00 -6.004325747489929199e-01 1.900000000000000000e+01
-2.527619600296020952e+00 1.878345906734467108e-01 -6.791411638259887695e-01 1.400000000000000000e+01
-4.475118637084960938e+01 3.333441257476807085e+00 7.832989096641540527e-01 4.800000000000000000e+01
-2.926656484603881836e+00 2.185153961181640903e-01 -6.775525808334350586e-01 1.300000000000000000e+01
-3.473100423812866211e+00 2.599245905876160223e-01 -6.769903302192687988e-01 1.100000000000000000e+01
-4.483230209350585938e+01 3.363088846206665039e+00 3.933338642120360884e+00 5.400000000000000000e+01
-4.317837238311767578e+00 3.246598243713378906e-01 -6.858087182044982910e-01 1.000000000000000000e+01
-4.496583557128906250e+01 3.388890504837036133e+00 5.536767959594726562e+00 3.800000000000000000e+01
-5.663213253021240234e+00 4.278072118759155273e-01 -6.973363757133483887e-01 1.000000000000000000e+01
-8.228921890258789062e+00 6.230689287185668945e-01 -7.219981551170349121e-01 2.000000000000000000e+00
-3.433863449096679688e+01 2.624128341674805132e+00 -6.011306643486022949e-01 1.300000000000000000e+01
-2.521170616149901900e+00 1.962068080902099887e-01 -6.775882840156555176e-01 1.300000000000000000e+01
-4.475921249389647727e+01 3.491186857223511186e+00 7.836479544639587402e-01 4.800000000000000000e+01
-2.929761409759521040e+00 2.290337681770324985e-01 -6.784523725509643555e-01 1.300000000000000000e+01
-4.491452407836914062e+01 3.519074916839600053e+00 2.361084222793579102e+00 3.500000000000000000e+01
-3.481958389282227007e+00 2.728131413459777832e-01 -6.788983941078186035e-01 1.200000000000000000e+01
-4.482426452636718750e+01 3.519874334335327148e+00 3.933687210083007812e+00 5.400000000000000000e+01
-4.306831359863281250e+00 3.389549553394318182e-01 -6.842443346977233887e-01 9.000000000000000000e+00
-4.491415023803710938e+01 3.542708158493041992e+00 5.531893253326416016e+00 3.800000000000000000e+01
-5.677516937255859375e+00 4.488244354724884033e-01 -6.992862820625305176e-01 1.000000000000000000e+01
-8.167112350463867188e+00 6.470686197280883789e-01 -7.167688012123107910e-01 2.000000000000000000e+00
-3.430534362792968750e+01 2.742064714431763139e+00 -6.007118225097656250e-01 1.300000000000000000e+01
-2.520470380783081055e+00 2.050061523914336881e-01 -6.775882840156555176e-01 1.400000000000000000e+01
-4.468297576904296875e+01 3.642205476760863814e+00 7.825310230255126953e-01 4.800000000000000000e+01
-2.927001714706420898e+00 2.391004860401154120e-01 -6.780024766921997070e-01 1.400000000000000000e+01
-3.479028224945067915e+00 2.848055958747863770e-01 -6.785168051719665527e-01 1.200000000000000000e+01
-4.484347534179688211e+01 3.678925275802611861e+00 3.936476230621337891e+00 5.400000000000000000e+01
-4.299715518951416016e+00 3.535009622573853094e-01 -6.833057403564453125e-01 1.100000000000000000e+01
-4.490151214599608664e+01 3.699466228485106978e+00 5.531893253326416016e+00 3.800000000000000000e+01
-5.664045333862304688e+00 4.676598608493804932e-01 -6.978238821029663086e-01 1.000000000000000000e+01
-8.200544357299804688e+00 6.785305142402648926e-01 -7.199064493179321289e-01 3.000000000000000000e+00
-1.537583637237549006e+01 1.277633428573607954e+00 -8.085905313491821289e-01 4.000000000000000000e+00
-3.433143234252929688e+01 2.864789247512816939e+00 -6.013401150703430176e-01 2.000000000000000000e+01
-2.515889406204224077e+00 2.134763151407242099e-01 -6.765530109405517578e-01 1.300000000000000000e+01
-4.471382522583007812e+01 3.801883220672606978e+00 7.832989096641540527e-01 4.800000000000000000e+01
-2.908674001693726030e+00 2.478272169828414917e-01 -6.739533543586730957e-01 1.600000000000000000e+01
-3.479969024658203125e+00 2.971149384975432794e-01 -6.788983941078186035e-01 1.000000000000000000e+01
-4.484624099731445312e+01 3.836794614791870117e+00 3.937870740890502930e+00 5.400000000000000000e+01
-4.294518947601318359e+00 3.681701719760894775e-01 -6.826800107955932617e-01 1.000000000000000000e+01
-4.484085845947266336e+01 3.852101325988769975e+00 5.526043415069580078e+00 3.800000000000000000e+01
-5.646556377410888672e+00 4.860662221908568781e-01 -6.958739757537841797e-01 1.000000000000000000e+01
-8.164381027221679688e+00 7.042407989501953125e-01 -7.169431447982788086e-01 2.000000000000000000e+00
-1.537128257751465021e+01 1.331297397613524947e+00 -8.085905313491821289e-01 4.000000000000000000e+00
-3.427739715576171875e+01 2.980799436569213867e+00 -6.005722284317016602e-01 1.900000000000000000e+01
-2.528599500656127930e+00 2.234474718570708951e-01 -6.801764369010925293e-01 1.300000000000000000e+01
-4.471223068237304688e+01 3.958998680114746094e+00 7.835083603858947754e-01 4.800000000000000000e+01
-2.913614511489868164e+00 2.584955394268035889e-01 -6.753030419349670410e-01 1.400000000000000000e+01
-3.469132900238037109e+00 3.083913028240203857e-01 -6.769903302192687988e-01 1.200000000000000000e+01
-4.488814163208007812e+01 3.998263120651245117e+00 3.942751407623291016e+00 5.400000000000000000e+01
-4.293207645416259766e+00 3.831585943698883057e-01 -6.826800107955932617e-01 1.000000000000000000e+01
-4.486272811889647727e+01 4.011784076690673828e+00 5.530430793762207031e+00 3.800000000000000000e+01
-5.613190650939941406e+00 5.029389262199401855e-01 -6.919741034507751465e-01 1.000000000000000000e+01
-8.163857460021972656e+00 7.329136729240417480e-01 -7.171174287796020508e-01 2.000000000000000000e+00
-3.430263137817382812e+01 3.103675127029418945e+00 -6.012005209922790527e-01 2.000000000000000000e+01
-2.518185377120972124e+00 2.313887327909469882e-01 -6.775882840156555176e-01 1.300000000000000000e+01
-4.474991226196289062e+01 4.119815826416015625e+00 7.844158411026000977e-01 4.800000000000000000e+01
-2.920456409454346147e+00 2.693803310394287109e-01 -6.771026849746704102e-01 1.300000000000000000e+01
-3.460215568542480025e+00 3.197762966156005859e-01 -6.754638552665710449e-01 1.100000000000000000e+01
-4.487391281127929688e+01 4.154927730560302734e+00 3.942751407623291016e+00 5.400000000000000000e+01
-4.299711704254150391e+00 3.988722264766693115e-01 -6.839314699172973633e-01 1.000000000000000000e+01
-4.487612152099608664e+01 4.170931816101074219e+00 5.533843040466308594e+00 3.800000000000000000e+01
-5.639072418212890625e+00 5.251063108444213867e-01 -6.953864693641662598e-01 1.000000000000000000e+01
-8.157281875610351562e+00 7.610362172126770020e-01 -7.167688012123107910e-01 3.000000000000000000e+00
-1.529002571105957031e+01 1.431871771812438965e+00 -8.048223257064819336e-01 4.000000000000000000e+00
-3.432145309448242188e+01 3.226202011108397993e+00 -6.017240881919860840e-01 2.000000000000000000e+01
-2.511592864990233931e+00 2.396269738674164096e-01 -6.760353446006774902e-01 1.400000000000000000e+01
-4.475118637084960938e+01 4.277519226074218750e+00 7.846950888633728027e-01 4.900000000000000000e+01
-2.917558431625366211e+00 2.793872058391571045e-01 -6.766527891159057617e-01 1.300000000000000000e+01
-3.466895341873168945e+00 3.326027095317841131e-01 -6.769903302192687988e-01 1.200000000000000000e+01
-4.485913467407227273e+01 4.311541557312011719e+00 3.942751407623291016e+00 5.400000000000000000e+01
-4.302226066589354581e+00 4.142572581768035889e-01 -6.845571994781494141e-01 1.000000000000000000e+01
-4.489290618896483664e+01 4.330603122711181641e+00 5.537743091583251953e+00 3.800000000000000000e+01
-5.629301548004150391e+00 5.440233349800109863e-01 -6.944115161895751953e-01 1.000000000000000000e+01
-8.124828338623046875e+00 7.866258025169372559e-01 -7.141541838645935059e-01 3.000000000000000000e+00
-1.522927379608153942e+01 1.479826688766479048e+00 -8.018915057182312012e-01 4.000000000000000000e+00
-3.428609848022460938e+01 3.343657493591309038e+00 -6.013051867485046387e-01 2.000000000000000000e+01
-2.504973888397216797e+00 2.478220313787460050e-01 -6.744824051856994629e-01 1.300000000000000000e+01
-4.474792098999022727e+01 4.434887409210205078e+00 7.849045395851135254e-01 4.900000000000000000e+01
-2.904930353164672852e+00 2.884145081043242853e-01 -6.739533543586730957e-01 1.300000000000000000e+01
-3.457898855209351030e+00 3.439251780509948730e-01 -6.754638552665710449e-01 1.100000000000000000e+01
-4.483984756469727273e+01 4.467707633972167969e+00 3.942402839660644975e+00 5.400000000000000000e+01
-4.277166366577148438e+00 4.269179701805114746e-01 -6.808027625083923340e-01 1.000000000000000000e+01
-4.486171340942382812e+01 4.485702037811279297e+00 5.535792827606201172e+00 7.600000000000000000e+01
-5.615517139434813565e+00 5.624828934669494629e-01 -6.929491162300109863e-01 1.000000000000000000e+01
-8.112120628356933594e+00 8.139873743057250977e-01 -7.132825851440429688e-01 2.000000000000000000e+00
-3.423243713378906250e+01 3.459095954895019975e+00 -6.005722284317016602e-01 1.300000000000000000e+01
-2.513702392578125000e+00 2.575490176677703857e-01 -6.770706176757812500e-01 1.400000000000000000e+01
-4.477593231201171875e+01 4.595551490783691406e+00 7.856724262237548828e-01 4.900000000000000000e+01
-2.898090362548828125e+00 2.979549467563629150e-01 -6.726036667823791504e-01 1.400000000000000000e+01
-3.464488983154296875e+00 3.567979037761688232e-01 -6.769903302192687988e-01 1.100000000000000000e+01
-4.482794189453125000e+01 4.624609947204589844e+00 3.942751407623291016e+00 5.400000000000000000e+01
-4.283509731292724609e+00 4.426576793193817139e-01 -6.820542812347412109e-01 1.000000000000000000e+01
-4.486157608032227273e+01 4.643906593322753906e+00 5.537743091583251953e+00 7.600000000000000000e+01
-5.605621337890625000e+00 5.812622904777526855e-01 -6.919741034507751465e-01 1.000000000000000000e+01
-8.113193511962890625e+00 8.427106738090515137e-01 -7.136312127113342285e-01 2.000000000000000000e+00
-3.426788711547852273e+01 3.583559989929199219e+00 -6.014099121093750000e-01 1.300000000000000000e+01
-2.518551349639893022e+00 2.669327557086945135e-01 -6.786235570907592773e-01 1.500000000000000000e+01
-4.478347778320313211e+01 4.754353523254395419e+00 7.860912680625915527e-01 4.900000000000000000e+01
-2.906721591949462891e+00 3.090996742248535156e-01 -6.748531460762023926e-01 1.500000000000000000e+01
-3.455413579940795898e+00 3.680572807788848877e-01 -6.754638552665710449e-01 1.100000000000000000e+01
-4.484322357177733664e+01 4.784442424774169922e+00 3.945540428161621094e+00 5.400000000000000000e+01
-4.279974460601806641e+00 4.573973119258881170e-01 -6.817414164543151855e-01 9.000000000000000000e+00
-4.488062286376953125e+01 4.804277896881104404e+00 5.542130470275878906e+00 7.600000000000000000e+01
-5.591715335845947266e+00 5.995562076568603516e-01 -6.905117034912109375e-01 1.000000000000000000e+01
-8.104259490966796875e+00 8.703876137733459473e-01 -7.131083011627197266e-01 2.000000000000000000e+00
-3.424721527099608664e+01 3.702295780181885210e+00 -6.012703180313110352e-01 2.000000000000000000e+01
-2.513763427734375000e+00 2.753018736839293878e-01 -6.775882840156555176e-01 1.400000000000000000e+01
-4.480239105224608664e+01 4.914573192596436435e+00 7.867195606231689453e-01 4.900000000000000000e+01
-2.907562017440795898e+00 3.194569647312163752e-01 -6.753030419349670410e-01 1.400000000000000000e+01
-3.438495874404906782e+00 3.783986270427703857e-01 -6.724109053611755371e-01 1.200000000000000000e+01
-4.486189651489257812e+01 4.944874286651611328e+00 3.948678016662598100e+00 5.400000000000000000e+01
-4.290132522583007812e+00 4.736350178718566895e-01 -6.836186051368713379e-01 9.000000000000000000e+00
-4.486357879638671875e+01 4.960910797119140625e+00 5.542130470275878906e+00 7.600000000000000000e+01
-5.577750205993652344e+00 6.177601814270019531e-01 -6.890492439270019531e-01 1.000000000000000000e+01
-8.083350181579589844e+00 8.966944217681884766e-01 -7.115395069122314453e-01 2.000000000000000000e+00
-1.493716621398925959e+01 1.662273883819580078e+00 -7.876561284065246582e-01 4.000000000000000000e+00
-3.421023559570313211e+01 3.819155931472777876e+00 -6.008514761924743652e-01 1.300000000000000000e+01
-2.503189086914062944e+00 2.829897999763488770e-01 -6.750000715255737305e-01 1.500000000000000000e+01
-4.478098678588867188e+01 5.070482730865479404e+00 7.866497635841369629e-01 4.900000000000000000e+01
-2.906429290771483931e+00 3.296043276786804199e-01 -6.753030419349670410e-01 1.400000000000000000e+01
-3.448858261108397993e+00 3.917283117771149237e-01 -6.747006177902221680e-01 1.200000000000000000e+01
-4.484436416625977273e+01 5.101441383361816406e+00 3.948678016662598100e+00 5.400000000000000000e+01
-4.260975360870361328e+00 4.854768216609954834e-01 -6.792384386062622070e-01 9.000000000000000000e+00
-4.487360000610352273e+01 5.120634555816650391e+00 5.545542716979979581e+00 7.700000000000000000e+01
-5.595282554626464844e+00 6.394804716110229492e-01 -6.914866566658020020e-01 1.000000000000000000e+01
-8.054437637329101562e+00 9.219595193862915039e-01 -7.092734575271606445e-01 2.000000000000000000e+00
-3.418080139160156250e+01 3.936718225479125977e+00 -6.005722284317016602e-01 1.300000000000000000e+01
-2.500267267227172852e+00 2.915021181106566828e-01 -6.744824051856994629e-01 1.500000000000000000e+01
-4.476301574707031250e+01 5.226766586303710938e+00 7.866497635841369629e-01 4.900000000000000000e+01
-2.903325319290161133e+00 3.395212888717650812e-01 -6.748531460762023926e-01 1.300000000000000000e+01
-3.437720298767089844e+00 4.026228189468383789e-01 -6.727924942970275879e-01 1.100000000000000000e+01
-4.485002899169921875e+01 5.260731697082520419e+00 3.950769901275635210e+00 5.400000000000000000e+01
-4.259254932403563565e+00 5.003474354743957520e-01 -6.792384386062622070e-01 9.000000000000000000e+00
-4.486531066894531250e+01 5.278401374816895419e+00 5.546761512756347656e+00 7.700000000000000000e+01
-5.604845046997070312e+00 6.604015231132507324e-01 -6.929491162300109863e-01 1.000000000000000000e+01
-8.033362388610839844e+00 9.479677677154541016e-01 -7.077046036720275879e-01 1.000000000000000000e+00
-1.492519760131835938e+01 1.766513586044311968e+00 -7.876561284065246582e-01 4.000000000000000000e+00
-3.417082595825195312e+01 4.056478977203369141e+00 -6.006420254707336426e-01 1.900000000000000000e+01
-2.508929729461669922e+00 3.005042076110839844e-01 -6.770706176757812500e-01 1.300000000000000000e+01
-4.477416992187500000e+01 5.370701789855957031e+00 7.871384620666503906e-01 4.900000000000000000e+01
-2.892570257186890093e+00 3.474785387516021729e-01 -6.726036667823791504e-01 1.400000000000000000e+01
-3.450082778930664062e+00 4.150622189044951837e-01 -6.754638552665710449e-01 1.100000000000000000e+01
-4.486888504028320312e+01 5.405895709991455078e+00 3.953907489776610884e+00 5.400000000000000000e+01
-4.259623050689697266e+00 5.139624476432800293e-01 -6.795513033866882324e-01 1.000000000000000000e+01
-4.486427307128906250e+01 5.421228885650634766e+00 5.548711299896240234e+00 7.700000000000000000e+01
-5.569240570068359375e+00 6.739521622657775879e-01 -6.888055205345153809e-01 1.000000000000000000e+01
-8.058035850524902344e+00 9.765564799308776855e-01 -7.101449966430664062e-01 1.000000000000000000e+00
-3.416386795043945312e+01 4.164535522460938388e+00 -6.007467508316040039e-01 1.900000000000000000e+01
-2.509782791137694868e+00 3.094966113567351740e-01 -6.775882840156555176e-01 1.400000000000000000e+01
-4.480675125122070312e+01 5.533332347869873047e+00 7.880459427833557129e-01 4.900000000000000000e+01
-2.897141695022583008e+00 3.582909107208251953e-01 -6.739533543586730957e-01 1.300000000000000000e+01
-3.436922788619995117e+00 4.256549179553986151e-01 -6.731741428375244141e-01 1.100000000000000000e+01
-4.488928604125977273e+01 5.567389011383056641e+00 3.957393646240233931e+00 5.400000000000000000e+01
-4.261723518371582031e+00 5.293151140213012695e-01 -6.801770329475402832e-01 1.000000000000000000e+01
-4.487068557739257812e+01 5.580986499786376953e+00 5.551879882812500000e+00 7.700000000000000000e+01
-5.568823814392089844e+00 6.936336755752563477e-01 -6.890492439270019531e-01 1.000000000000000000e+01
-8.038761138916015625e+00 1.002705454826354980e+00 -7.087504863739013672e-01 2.000000000000000000e+00
-3.413721847534179688e+01 4.282270908355712891e+00 -6.005373001098632812e-01 1.900000000000000000e+01
-2.500965833663939986e+00 3.177194893360137939e-01 -6.755176782608032227e-01 1.600000000000000000e+01
-4.480600738525391336e+01 5.700044155120849609e+00 7.883949875831604004e-01 4.900000000000000000e+01
-2.888076543807982954e+00 3.679219782352448065e-01 -6.721537709236145020e-01 1.300000000000000000e+01
-3.433392047882080078e+00 4.380005896091461182e-01 -6.727924942970275879e-01 1.200000000000000000e+01
-4.486857986450195312e+01 5.731879234313964844e+00 3.957393646240233931e+00 5.400000000000000000e+01
-4.246038913726806641e+00 5.431769490242004395e-01 -6.779869794845581055e-01 9.000000000000000000e+00
-4.487355422973632812e+01 5.748435020446777344e+00 5.554804801940917969e+00 7.700000000000000000e+01
-5.562306404113770419e+00 7.135346531867980957e-01 -6.885617971420288086e-01 1.000000000000000000e+01
-8.011318206787109375e+00 1.029116034507751021e+00 -7.066587805747985840e-01 2.000000000000000000e+00
-3.407171249389647727e+01 4.400957107543945312e+00 -5.996646881103515625e-01 1.900000000000000000e+01
-2.492179155349731001e+00 3.254469335079193115e-01 -6.734471321105957031e-01 1.600000000000000000e+01
-4.481359481811522727e+01 5.860041141510009766e+00 7.888836860656738281e-01 4.900000000000000000e+01
-2.902232646942139116e+00 3.800251185894011896e-01 -6.757529377937316895e-01 1.200000000000000000e+01
-3.414323091506958008e+00 4.476855695247650146e-01 -6.693579554557800293e-01 1.200000000000000000e+01
-4.484829711914063211e+01 5.888464927673339844e+00 3.957393646240233931e+00 5.400000000000000000e+01
-4.248034477233886719e+00 5.585100650787353516e-01 -6.786127090454101562e-01 9.000000000000000000e+00
-4.489257812500000000e+01 5.910220146179199219e+00 5.559679508209229404e+00 7.700000000000000000e+01
-5.555845737457275391e+00 7.324274778366088867e-01 -6.880742907524108887e-01 1.000000000000000000e+01
-7.987924575805664062e+00 1.054466962814331055e+00 -7.049156427383422852e-01 2.000000000000000000e+00
-1.470142364501952947e+01 1.945921540260314941e+00 -7.771889567375183105e-01 4.000000000000000000e+00
-3.403830337524414062e+01 4.517495155334472656e+00 -5.993505716323852539e-01 1.900000000000000000e+01
-2.494857311248778853e+00 3.346579670906066895e-01 -6.744824051856994629e-01 1.500000000000000000e+01
-4.478890228271483664e+01 6.015902042388916016e+00 7.888138890266418457e-01 4.900000000000000000e+01
-2.887369155883789062e+00 3.883351981639862061e-01 -6.726036667823791504e-01 1.200000000000000000e+01
-3.438033342361450195e+00 4.630074203014373779e-01 -6.743189692497253418e-01 1.200000000000000000e+01
-4.489460372924804688e+01 6.054031848907470703e+00 3.963320255279541016e+00 5.400000000000000000e+01
-4.230398178100585938e+00 5.712203979492187500e-01 -6.761097311973571777e-01 9.000000000000000000e+00
-4.488741302490233664e+01 6.069016456604003906e+00 5.561629295349121094e+00 7.700000000000000000e+01
-5.545386314392089844e+00 7.507512569427490234e-01 -6.870993375778198242e-01 1.000000000000000000e+01
-8.003938674926757812e+00 1.085020065307616965e+00 -7.066587805747985840e-01 1.000000000000000000e+00
-3.397278976440429688e+01 4.629533290863037109e+00 -5.984779000282287598e-01 1.300000000000000000e+01
-2.497501611709595171e+00 3.438916504383087158e-01 -6.755176782608032227e-01 1.500000000000000000e+01
-4.479536437988281250e+01 6.176031112670898438e+00 7.893025279045104980e-01 4.900000000000000000e+01
-2.876343727111815962e+00 3.970791399478911798e-01 -6.703541278839111328e-01 1.200000000000000000e+01
-4.489403533935546875e+01 6.197619438171386719e+00 2.375110387802124023e+00 3.500000000000000000e+01
-3.428617238998413086e+00 4.739302992820739746e-01 -6.727924942970275879e-01 1.200000000000000000e+01
-4.480609512329102273e+01 6.201418876647949219e+00 3.957393646240233931e+00 5.400000000000000000e+01
-4.222508430480957031e+00 5.851702690124511719e-01 -6.751711368560791016e-01 7.000000000000000000e+00
-4.487382125854492188e+01 6.226757049560546875e+00 5.562604427337645596e+00 7.700000000000000000e+01
-5.542732238769531250e+00 7.701036930084228516e-01 -6.870993375778198242e-01 1.000000000000000000e+01
-7.980368137359619141e+00 1.110207080841064009e+00 -7.049156427383422852e-01 1.000000000000000000e+00
-3.400197219848632812e+01 4.754461288452148438e+00 -5.992807149887084961e-01 1.900000000000000000e+01
-2.498260498046875000e+00 3.524416387081146240e-01 -6.760353446006774902e-01 1.600000000000000000e+01
-4.477859878540039062e+01 6.325103759765625000e+00 7.893723249435424805e-01 4.900000000000000000e+01
-2.882729291915893999e+00 4.077068567276000977e-01 -6.721537709236145020e-01 1.200000000000000000e+01
-4.482862091064453125e+01 6.348130702972412109e+00 2.372807502746582031e+00 3.500000000000000000e+01
-3.419251441955565962e+00 4.841963350772858221e-01 -6.712660193443298340e-01 1.200000000000000000e+01
-4.486813735961914062e+01 6.361714363098145419e+00 3.964714765548706055e+00 5.400000000000000000e+01
-4.238146305084229404e+00 6.016682982444763184e-01 -6.779869794845581055e-01 9.000000000000000000e+00
-4.488436889648438211e+01 6.379999637603759766e+00 5.566504001617431641e+00 7.800000000000000000e+01
-5.528356075286865234e+00 7.868015766143798828e-01 -6.856369376182556152e-01 1.200000000000000000e+01
-7.990449905395507812e+00 1.138632297515868919e+00 -7.061358094215393066e-01 2.000000000000000000e+00
-1.448288822174072088e+01 2.068957567214965820e+00 -7.667217850685119629e-01 4.000000000000000000e+00
-3.400383758544921875e+01 4.869741439819335938e+00 -5.995948910713195801e-01 1.300000000000000000e+01
-2.491279125213623047e+00 3.603304028511046808e-01 -6.744824051856994629e-01 1.400000000000000000e+01
-4.478791046142578125e+01 6.485957145690917969e+00 7.899308204650878906e-01 4.900000000000000000e+01
-2.883217096328734907e+00 4.180465936660767157e-01 -6.726036667823791504e-01 1.300000000000000000e+01
-4.483894729614257812e+01 6.501338005065917969e+00 2.374482393264770952e+00 3.500000000000000000e+01
-3.407825946807860884e+00 4.947185516357421875e-01 -6.693579554557800293e-01 1.200000000000000000e+01
-4.488114547729492188e+01 6.523453235626220703e+00 3.967852354049683061e+00 5.400000000000000000e+01
-4.234065532684326172e+00 6.161740422248840332e-01 -6.776741147041320801e-01 9.000000000000000000e+00
-4.489718246459960938e+01 6.541788101196289062e+00 5.570891380310058594e+00 7.800000000000000000e+01
-5.529504776000976562e+00 8.066675066947937012e-01 -6.861243844032287598e-01 1.000000000000000000e+01
-7.976569652557373047e+00 1.165077447891234907e+00 -7.052642703056335449e-01 1.000000000000000000e+00
-1.447557830810547053e+01 2.119499683380126953e+00 -7.667217850685119629e-01 4.000000000000000000e+00
-3.395299530029296875e+01 4.983470439910888672e+00 -5.990014672279357910e-01 1.900000000000000000e+01
-2.488095045089722124e+00 3.687411844730377197e-01 -6.739647984504699707e-01 1.500000000000000000e+01
-4.478873443603516336e+01 6.645778656005859375e+00 7.903496623039245605e-01 4.900000000000000000e+01
-2.889450788497924805e+00 4.292537868022919256e-01 -6.744032502174377441e-01 1.300000000000000000e+01
-4.483178710937500000e+01 6.660163402557373047e+00 2.375319719314575195e+00 3.500000000000000000e+01
-3.417729616165161133e+00 5.083440542221069336e-01 -6.716476678848266602e-01 1.200000000000000000e+01
-4.483839797973632812e+01 6.677143573760986328e+00 3.966109275817871094e+00 5.400000000000000000e+01
-4.227981567382813388e+00 6.303673386573791504e-01 -6.770483851432800293e-01 9.000000000000000000e+00
-4.489370727539063211e+01 6.701399326324462891e+00 5.573328971862792969e+00 7.800000000000000000e+01
-5.516838550567626953e+00 8.244970440864562988e-01 -6.849057078361511230e-01 1.200000000000000000e+01
-7.933044910430908203e+00 1.187017083168030007e+00 -7.017780542373657227e-01 1.000000000000000000e+00
-1.446809101104735973e+01 2.170016050338745117e+00 -7.667217850685119629e-01 4.000000000000000000e+00
-3.395516967773438211e+01 5.104930877685546875e+00 -5.993505716323852539e-01 1.900000000000000000e+01
-2.477242946624755859e+00 3.759746253490447998e-01 -6.713765859603881836e-01 1.500000000000000000e+01
-4.477712631225585938e+01 6.803882122039794922e+00 7.905591130256652832e-01 4.900000000000000000e+01
-2.880228519439696822e+00 4.381648898124694824e-01 -6.726036667823791504e-01 1.400000000000000000e+01
-4.484775543212891336e+01 6.822622776031494141e+00 2.377413034439086914e+00 3.500000000000000000e+01
-3.413993358612060991e+00 5.199754238128662109e-01 -6.712660193443298340e-01 1.200000000000000000e+01
-4.488178253173828125e+01 6.843829631805419922e+00 3.972035884857178178e+00 5.400000000000000000e+01
-4.212086200714111328e+00 6.430350542068481445e-01 -6.748582720756530762e-01 9.000000000000000000e+00
-4.487593078613281250e+01 6.858966827392578125e+00 5.574059963226318359e+00 7.800000000000000000e+01
-5.525700569152832031e+00 8.455510139465332031e-01 -6.863681674003601074e-01 1.200000000000000000e+01
-7.940669536590576172e+00 1.216511607170104980e+00 -7.028239369392395020e-01 1.000000000000000000e+00
-1.446042823791504084e+01 2.220505952835083008e+00 -7.667217850685119629e-01 4.000000000000000000e+00
-3.393516540527343750e+01 5.223121643066406250e+00 -5.993156433105468750e-01 1.300000000000000000e+01
-2.487369060516356978e+00 3.863987922668457031e-01 -6.744824051856994629e-01 1.600000000000000000e+01
-4.479262161254882812e+01 6.966288089752197266e+00 7.912572026252746582e-01 5.000000000000000000e+01
-2.865202665328979048e+00 4.461174309253693182e-01 -6.694543361663818359e-01 1.300000000000000000e+01
-4.483550643920897727e+01 6.980972766876220703e+00 2.378041267395019975e+00 3.500000000000000000e+01
-3.402458429336547852e+00 5.303774476051330566e-01 -6.693579554557800293e-01 1.100000000000000000e+01
-4.488911819458007812e+01 7.005369663238525391e+00 3.974824905395507812e+00 5.400000000000000000e+01
-4.205912113189697266e+00 6.571242213249206543e-01 -6.742325425148010254e-01 9.000000000000000000e+00
-4.486936569213867188e+01 7.018332004547119141e+00 5.576253890991210938e+00 7.800000000000000000e+01
-5.501142024993895596e+00 8.614558577537536621e-01 -6.836870312690734863e-01 1.000000000000000000e+01
-7.932438373565673828e+00 1.243605136871337891e+00 -7.024753093719482422e-01 1.000000000000000000e+00
-1.445258903503417969e+01 2.270968675613402876e+00 -7.667217850685119629e-01 4.000000000000000000e+00
-3.393252944946289062e+01 5.344034194946289062e+00 -5.995948910713195801e-01 1.300000000000000000e+01
-2.491729021072388139e+00 3.959886133670806885e-01 -6.760353446006774902e-01 1.600000000000000000e+01
-4.482727813720703125e+01 7.132027149200438565e+00 7.923043370246887207e-01 5.000000000000000000e+01
-2.873250246047974077e+00 4.576487839221953791e-01 -6.717038750648498535e-01 1.300000000000000000e+01
-4.483848190307617188e+01 7.141833782196044922e+00 2.379506587982178178e+00 3.500000000000000000e+01
-3.392831325531005859e+00 5.410143733024597168e-01 -6.678314805030822754e-01 1.100000000000000000e+01
-4.488800048828125000e+01 7.165788173675537109e+00 3.976916551589965820e+00 5.400000000000000000e+01
-4.217247009277343750e+00 6.739838123321533203e-01 -6.764226555824279785e-01 1.000000000000000000e+01
-4.488575744628906250e+01 7.181498527526854581e+00 5.581372261047363281e+00 7.800000000000000000e+01
-5.505941867828369141e+00 8.819090127944946289e-01 -6.846619844436645508e-01 1.000000000000000000e+01
-7.939852237701416016e+00 1.273179650306702104e+00 -7.035211324691772461e-01 1.000000000000000000e+00
-1.431836891174316051e+01 2.301121234893798828e+00 -7.600227594375610352e-01 4.000000000000000000e+00
-3.390182113647460938e+01 5.460540294647216797e+00 -5.993854403495788574e-01 1.300000000000000000e+01
-2.480797290802001953e+00 4.031346142292023260e-01 -6.734471321105957031e-01 1.500000000000000000e+01
-4.482184600830078125e+01 7.291671276092529297e+00 7.926533818244934082e-01 5.000000000000000000e+01
-2.867788553237915039e+00 4.670490324497222900e-01 -6.708040237426757812e-01 1.100000000000000000e+01
-4.482777404785156250e+01 7.308698177337645596e+00 2.380343914031981978e+00 3.500000000000000000e+01
-3.392859935760498047e+00 5.531702041625976562e-01 -6.682131290435791016e-01 1.200000000000000000e+01
-4.492170333862304688e+01 7.332061290740966797e+00 3.982145786285399947e+00 5.400000000000000000e+01
-4.203171730041503906e+00 6.867893338203430176e-01 -6.745454072952270508e-01 1.000000000000000000e+01
-4.486629104614257812e+01 7.339096546173095703e+00 5.582103252410888672e+00 7.800000000000000000e+01
-5.483240127563476562e+00 8.979150056838989258e-01 -6.822245717048645020e-01 1.000000000000000000e+01
-7.896037101745604581e+00 1.294440746307373047e+00 -7.000349164009094238e-01 2.000000000000000000e+00
-1.431024932861327947e+01 2.351087570190430132e+00 -7.600227594375610352e-01 4.000000000000000000e+00
-3.385098648071289062e+01 5.573648452758789062e+00 -5.988269448280334473e-01 1.300000000000000000e+01
-2.469846248626708984e+00 4.102091789245604914e-01 -6.708589792251586914e-01 1.500000000000000000e+01
-4.479611968994141336e+01 7.448084354400634766e+00 7.926533818244934082e-01 5.000000000000000000e+01
-2.879596710205078125e+00 4.792963266372681219e-01 -6.739533543586730957e-01 1.200000000000000000e+01
-4.483350753784179688e+01 7.470384120941162109e+00 2.382018804550170898e+00 3.500000000000000000e+01
-3.396718025207519975e+00 5.659781694412231445e-01 -6.693579554557800293e-01 1.200000000000000000e+01
-4.487618255615233664e+01 7.485544681549072266e+00 3.980402708053588867e+00 5.400000000000000000e+01
-4.183213233947753906e+00 6.985287666320800781e-01 -6.717295646667480469e-01 9.000000000000000000e+00
-4.488347625732421875e+01 7.502864837646484375e+00 5.587465763092041016e+00 7.900000000000000000e+01
-5.493777275085449219e+00 9.193430542945861816e-01 -6.839307546615600586e-01 1.200000000000000000e+01
-7.885575294494628906e+00 1.321007609367371050e+00 -6.995120048522949219e-01 2.000000000000000000e+00
-1.423104667663574041e+01 2.389121055603026900e+00 -7.562545537948608398e-01 4.000000000000000000e+00
-3.378794097900391336e+01 5.684477806091308594e+00 -5.980590581893920898e-01 1.300000000000000000e+01
-2.476017951965332031e+00 4.201207160949707031e-01 -6.729295253753662109e-01 1.500000000000000000e+01
-4.479350662231445312e+01 7.608424663543701172e+00 7.930722236633300781e-01 5.000000000000000000e+01
-2.866379261016846147e+00 4.873850941658020020e-01 -6.712539196014404297e-01 1.300000000000000000e+01
-4.486622619628906250e+01 7.636890888214111328e+00 2.385158777236938032e+00 3.600000000000000000e+01
-3.396656990051269975e+00 5.781608819961547852e-01 -6.697395443916320801e-01 1.200000000000000000e+01
-4.490084838867188211e+01 7.650847434997558594e+00 3.984934806823730025e+00 5.400000000000000000e+01
-4.190485477447509766e+00 7.147874236106872559e-01 -6.732939481735229492e-01 1.000000000000000000e+01
-4.490201950073242188e+01 7.667176723480224609e+00 5.593071460723876953e+00 7.900000000000000000e+01
-5.502274990081787109e+00 9.405211210250854492e-01 -6.853932142257690430e-01 1.200000000000000000e+01
-7.851458549499511719e+00 1.343484759330749956e+00 -6.968973278999328613e-01 2.000000000000000000e+00
-1.422262001037598012e+01 2.438782215118408203e+00 -7.562545537948608398e-01 4.000000000000000000e+00
-3.381913375854492188e+01 5.811189651489257812e+00 -5.989665985107421875e-01 1.300000000000000000e+01
-2.476439714431763139e+00 4.290908873081207275e-01 -6.734471321105957031e-01 1.600000000000000000e+01
-4.477849578857421875e+01 7.766787528991699219e+00 7.932816743850708008e-01 5.000000000000000000e+01
-2.856980323791503906e+00 4.960541725158690851e-01 -6.694543361663818359e-01 1.200000000000000000e+01
-4.484323120117188211e+01 7.794140815734863281e+00 2.385368108749390093e+00 3.600000000000000000e+01
-3.390749692916870117e+00 5.893415212631225586e-01 -6.689763665199279785e-01 1.200000000000000000e+01
-4.490134811401367188e+01 7.812315464019775391e+00 3.987375259399414062e+00 5.400000000000000000e+01
-4.172396659851074219e+00 7.266990542411804199e-01 -6.707909703254699707e-01 1.000000000000000000e+01
-4.488084793090820312e+01 7.824890136718750000e+00 5.593802928924561435e+00 7.900000000000000000e+01
-5.483314514160156250e+00 9.569915533065795898e-01 -6.834432482719421387e-01 1.200000000000000000e+01
-7.846720695495604581e+00 1.370883345603943093e+00 -6.968973278999328613e-01 1.000000000000000000e+00
-1.421402072906493963e+01 2.488413572311400923e+00 -7.562545537948608398e-01 4.000000000000000000e+00
-3.386560821533203125e+01 5.940952777862548828e+00 -6.001533269882202148e-01 1.300000000000000000e+01
-2.469295978546143022e+00 4.362923204898834229e-01 -6.718942523002624512e-01 1.600000000000000000e+01
-4.477218627929688211e+01 7.918718338012695312e+00 7.936307191848754883e-01 5.000000000000000000e+01
-2.855319738388061968e+00 5.055255293846130371e-01 -6.694543361663818359e-01 1.300000000000000000e+01
-4.482500457763671875e+01 7.944197654724121094e+00 2.385787010192871094e+00 3.600000000000000000e+01
-3.386843442916870117e+00 6.002398133277893066e-01 -6.685947179794311523e-01 1.100000000000000000e+01
-4.489088821411132812e+01 7.963954925537109375e+00 3.988769769668579102e+00 5.400000000000000000e+01
-4.175798416137695312e+00 7.415673732757568359e-01 -6.717295646667480469e-01 1.000000000000000000e+01
-4.485856246948242188e+01 7.974372386932373047e+00 5.594290256500244141e+00 7.900000000000000000e+01
-5.456657886505126953e+00 9.709962606430053711e-01 -6.805183887481689453e-01 1.200000000000000000e+01
-7.838208675384520596e+00 1.396197676658629927e+00 -6.965487003326416016e-01 1.000000000000000000e+00
-1.410738086700438920e+01 2.517988204956055132e+00 -7.510209679603576660e-01 4.000000000000000000e+00
-3.368037033081054688e+01 6.023650169372558594e+00 -5.972213745117187500e-01 1.300000000000000000e+01
-2.465856790542602983e+00 4.445663392543792725e-01 -6.713765859603881836e-01 1.500000000000000000e+01
-4.481905364990233664e+01 8.088449478149414062e+00 7.949571013450622559e-01 5.000000000000000000e+01
-2.857373237609862837e+00 5.161822438240051270e-01 -6.703541278839111328e-01 1.300000000000000000e+01
-4.483631134033203125e+01 8.107725143432617188e+00 2.387880325317382812e+00 3.600000000000000000e+01
-3.380863904953002930e+00 6.113597750663757324e-01 -6.678314805030822754e-01 1.200000000000000000e+01
-4.492163085937500000e+01 8.131251335144042969e+00 3.993999004364014116e+00 5.400000000000000000e+01
-4.177072048187255859e+00 7.568435072898864746e-01 -6.723553538322448730e-01 9.000000000000000000e+00
-4.486951828002929688e+01 8.137994766235351562e+00 5.599164962768554688e+00 7.900000000000000000e+01
-5.443469524383544922e+00 9.882646799087524414e-01 -6.792997121810913086e-01 1.000000000000000000e+01
-7.817605018615722656e+00 1.420699596405029075e+00 -6.951541900634765625e-01 1.000000000000000000e+00
-1.400025844573974965e+01 2.549326896667480025e+00 -7.457873821258544922e-01 4.000000000000000000e+00
-3.374962997436522727e+01 6.157690525054931641e+00 -5.988269448280334473e-01 1.300000000000000000e+01
-2.462389945983887163e+00 4.528217017650604248e-01 -6.708589792251586914e-01 1.500000000000000000e+01
-4.484167861938477273e+01 8.254260063171386719e+00 7.958646416664123535e-01 5.000000000000000000e+01
-2.853637456893920898e+00 5.258000493049621582e-01 -6.699042320251464844e-01 1.100000000000000000e+01
-4.481951904296875000e+01 8.266357421875000000e+00 2.388508319854735884e+00 3.600000000000000000e+01
-3.380639791488647017e+00 6.235135793685913086e-01 -6.682131290435791016e-01 1.100000000000000000e+01
-4.487338256835938211e+01 8.284390449523925781e+00 3.992255926132202148e+00 5.400000000000000000e+01
-4.166634559631347656e+00 7.699837088584899902e-01 -6.711038351058959961e-01 1.000000000000000000e+01
-4.488573074340820312e+01 8.302873611450195312e+00 5.604771137237548828e+00 8.000000000000000000e+01
-5.455602169036865234e+00 1.010151267051696999e+00 -6.812496185302734375e-01 1.200000000000000000e+01
-7.789090156555175781e+00 1.443622469902039018e+00 -6.930624842643737793e-01 0.000000000000000000e+00
-1.399127388000487926e+01 2.598181486129761186e+00 -7.457873821258544922e-01 4.000000000000000000e+00
-3.372006607055664062e+01 6.273997783660888672e+00 -5.986873507499694824e-01 1.300000000000000000e+01
-2.460794448852539062e+00 4.614142775535582941e-01 -6.708589792251586914e-01 1.500000000000000000e+01
-4.480866241455078125e+01 8.409998893737792969e+00 7.957948446273803711e-01 5.000000000000000000e+01
-2.840293169021606001e+00 5.335990786552429199e-01 -6.672048568725585938e-01 1.100000000000000000e+01
-4.486498260498046875e+01 8.436782836914062500e+00 2.392485857009888139e+00 3.600000000000000000e+01
-3.372654438018798828e+00 6.342219114303588867e-01 -6.670682430267333984e-01 1.200000000000000000e+01
-4.490684509277343750e+01 8.452771186828613281e+00 3.997833967208861861e+00 5.400000000000000000e+01
-4.154215335845947266e+00 7.826945781707763672e-01 -6.695395112037658691e-01 1.000000000000000000e+01
-4.488183593750000000e+01 8.464285850524902344e+00 5.607939720153808594e+00 8.000000000000000000e+01
-5.455944061279296875e+00 1.029925107955933061e+00 -6.817371249198913574e-01 1.000000000000000000e+01
-7.768341541290283203e+00 1.467843294143676980e+00 -6.916679739952087402e-01 2.000000000000000000e+00
-1.398211956024169922e+01 2.647004127502440962e+00 -7.457873821258544922e-01 4.000000000000000000e+00
-3.375100708007813211e+01 6.401726245880126953e+00 -5.996297597885131836e-01 1.900000000000000000e+01
-2.462963819503784180e+00 4.707265496253966730e-01 -6.718942523002624512e-01 1.500000000000000000e+01
-4.480652999877929688e+01 8.571619987487792969e+00 7.962834835052490234e-01 5.000000000000000000e+01
-2.834585428237915039e+00 5.427772998809814453e-01 -6.663050055503845215e-01 1.400000000000000000e+01
-4.485487365722656250e+01 8.597099304199218750e+00 2.393532514572143999e+00 3.600000000000000000e+01
-3.381989002227783203e+00 6.482081413269042969e-01 -6.693579554557800293e-01 1.200000000000000000e+01
-4.485358810424804688e+01 8.604969024658203125e+00 3.995742082595825195e+00 5.400000000000000000e+01
-4.141758441925048828e+00 7.953281402587890625e-01 -6.679751873016357422e-01 9.000000000000000000e+00
-4.487930679321289062e+01 8.626146316528320312e+00 5.611351966857910156e+00 8.000000000000000000e+01
-5.438670158386229581e+00 1.046338438987731934e+00 -6.800309419631958008e-01 1.000000000000000000e+01
-7.743606090545654297e+00 1.491183400154113992e+00 -6.899248361587524414e-01 1.000000000000000000e+00
-3.366562652587891336e+01 6.507356166839599609e+00 -5.985128283500671387e-01 1.900000000000000000e+01
-2.457513093948363814e+00 4.785824716091156006e-01 -6.708589792251586914e-01 1.400000000000000000e+01
-4.481166458129882812e+01 8.734857559204101562e+00 7.969117760658264160e-01 5.100000000000000000e+01
-2.840324163436890093e+00 5.541611909866333008e-01 -6.681046485900878906e-01 1.300000000000000000e+01
-4.484027099609375000e+01 8.756681442260742188e+00 2.394370079040526900e+00 3.600000000000000000e+01
-3.375852108001708984e+00 6.592569947242736816e-01 -6.685947179794311523e-01 1.300000000000000000e+01
-4.484674072265625000e+01 8.766071319580078125e+00 3.997833967208861861e+00 5.400000000000000000e+01
-4.150588512420654297e+00 8.120564818382263184e-01 -6.698523759841918945e-01 9.000000000000000000e+00
-4.489567565917968750e+01 8.791908264160156250e+00 5.617201805114746094e+00 8.000000000000000000e+01
-5.417452335357666016e+00 1.061879992485045943e+00 -6.778373122215270996e-01 1.000000000000000000e+01
-7.742263793945313388e+00 1.518971800804137962e+00 -6.902734637260437012e-01 1.000000000000000000e+00
-1.396329975128174006e+01 2.744552612304687944e+00 -7.457873821258544922e-01 4.000000000000000000e+00
-3.357011413574218750e+01 6.610536098480224609e+00 -5.972213745117187500e-01 1.300000000000000000e+01
-2.455742597579956055e+00 4.875864982604979914e-01 -6.708589792251586914e-01 1.800000000000000000e+01
-4.483819198608397727e+01 8.910735130310058594e+00 7.979589104652404785e-01 5.100000000000000000e+01
-2.842096567153931108e+00 5.653281807899475098e-01 -6.690044403076171875e-01 1.300000000000000000e+01
-4.482354736328125000e+01 8.924090385437011719e+00 2.395207405090332031e+00 3.600000000000000000e+01
-3.356083869934082031e+00 6.681755185127258301e-01 -6.651601791381835938e-01 1.200000000000000000e+01
-4.490810012817382812e+01 8.949073791503906250e+00 4.006200790405273438e+00 5.400000000000000000e+01
-4.151458740234375000e+00 8.280364274978637695e-01 -6.704781055450439453e-01 1.000000000000000000e+01
-4.491181945800781250e+01 8.966115951538085938e+00 5.623295307159423828e+00 8.100000000000000000e+01
-5.409630775451660156e+00 1.080950975418091042e+00 -6.773498058319091797e-01 1.200000000000000000e+01
-7.717107295989990234e+00 1.543430924415587935e+00 -6.885303854942321777e-01 1.000000000000000000e+00
-1.380822944641112926e+01 2.766675949096680132e+00 -7.380416393280029297e-01 4.000000000000000000e+00
-3.369466400146483664e+01 6.763441562652587891e+00 -5.998741388320922852e-01 1.300000000000000000e+01
-2.444557905197143999e+00 4.942414760589600164e-01 -6.682707667350769043e-01 1.500000000000000000e+01
-4.479505157470703125e+01 9.064816474914550781e+00 7.977495193481445312e-01 5.100000000000000000e+01
-2.834376096725463867e+00 5.740849375724792480e-01 -6.676547527313232422e-01 1.200000000000000000e+01
-4.485084533691406250e+01 9.092404365539550781e+00 2.398347616195679155e+00 3.600000000000000000e+01
-3.357579469680786133e+00 6.806665062904357910e-01 -6.659234166145324707e-01 1.200000000000000000e+01
-4.488439941406250000e+01 9.107362747192382812e+00 4.006897926330566406e+00 5.400000000000000000e+01
-4.138864040374755859e+00 8.405569195747375488e-01 -6.689137816429138184e-01 1.000000000000000000e+01
-4.488608551025391336e+01 9.124018669128417969e+00 5.624026298522949219e+00 8.100000000000000000e+01
-5.415550708770751953e+00 1.101806282997130904e+00 -6.785684823989868164e-01 1.200000000000000000e+01
-7.699958801269531250e+00 1.567973971366882102e+00 -6.874845027923583984e-01 1.000000000000000000e+00
-3.368652343750000000e+01 6.884220123291015625e+00 -6.001533269882202148e-01 1.300000000000000000e+01
-2.444797754287720171e+00 5.027343034744262695e-01 -6.687884330749511719e-01 1.500000000000000000e+01
-4.483917617797852273e+01 9.228630065917968750e+00 7.990759015083312988e-01 5.100000000000000000e+01
-2.840091466903686968e+00 5.850536227226257324e-01 -6.694543361663818359e-01 1.300000000000000000e+01
-4.485956954956054688e+01 9.249151229858398438e+00 2.400440931320189986e+00 3.600000000000000000e+01
-3.353380918502808061e+00 6.914004683494567871e-01 -6.655417680740356445e-01 1.200000000000000000e+01
-4.116708278656005859e+00 8.502815961837768555e-01 -6.657850742340087891e-01 1.000000000000000000e+01
-5.411867618560791016e+00 1.119758844375609907e+00 -6.785684823989868164e-01 1.200000000000000000e+01
-7.704472064971923828e+00 1.595519423484802024e+00 -6.883560419082641602e-01 2.000000000000000000e+00
-1.373823165893555043e+01 2.850052595138549805e+00 -7.353202104568481445e-01 4.000000000000000000e+00
-3.363218307495117188e+01 6.989380836486816406e+00 -5.995948910713195801e-01 1.300000000000000000e+01
-2.446809768676757812e+00 5.120566487312316895e-01 -6.698237061500549316e-01 1.500000000000000000e+01
-4.478320312500000000e+01 9.380172729492187500e+00 7.986570000648498535e-01 5.100000000000000000e+01
-2.822773694992064986e+00 5.917651057243347168e-01 -6.658551096916198730e-01 1.300000000000000000e+01
-6.120735168457031250e+01 1.284263706207275035e+01 3.277591705322266069e+00 5.500000000000000000e+01
-3.360554218292235884e+00 7.051175236701965332e-01 -6.674498915672302246e-01 1.200000000000000000e+01
-4.129180431365966797e+00 8.678969740867614746e-01 -6.682880520820617676e-01 1.000000000000000000e+01
-5.404040813446044922e+00 1.137825012207031028e+00 -6.780810356140136719e-01 1.200000000000000000e+01
-7.671561717987061435e+00 1.616651535034179910e+00 -6.859157085418701172e-01 2.000000000000000000e+00
-3.366236114501953125e+01 7.118319988250732422e+00 -6.005722284317016602e-01 1.300000000000000000e+01
-2.443118095397949219e+00 5.201921463012695312e-01 -6.693060398101806641e-01 1.600000000000000000e+01
-2.811161518096923828e+00 5.995823144912719727e-01 -6.636056303977966309e-01 1.300000000000000000e+01
-6.123474884033203125e+01 1.306053543090819957e+01 3.281359672546387163e+00 5.500000000000000000e+01
-3.356152296066284180e+00 7.164338827133178711e-01 -6.670682430267333984e-01 1.200000000000000000e+01
-4.124194145202636719e+00 8.818921446800231934e-01 -6.679751873016357422e-01 1.100000000000000000e+01
-5.380625247955322266e+00 1.152523875236511008e+00 -6.756436228752136230e-01 1.200000000000000000e+01
-7.671716213226318359e+00 1.644673466682434082e+00 -6.864386200904846191e-01 1.000000000000000000e+00
-3.360602951049804688e+01 7.229051589965820312e+00 -6.000137329101562500e-01 1.300000000000000000e+01
-2.443175315856934038e+00 5.291259884834289551e-01 -6.698237061500549316e-01 1.500000000000000000e+01
-2.820477962493896040e+00 6.118703484535217285e-01 -6.663050055503845215e-01 1.200000000000000000e+01
-3.338282585144042969e+00 7.248122096061706543e-01 -6.640152931213378906e-01 1.200000000000000000e+01
-4.130741596221923828e+00 8.983819484710693359e-01 -6.695395112037658691e-01 1.000000000000000000e+01
-5.372690200805664062e+00 1.170453667640686035e+00 -6.751561760902404785e-01 1.200000000000000000e+01
-7.646461963653563565e+00 1.667198300361633079e+00 -6.846955418586730957e-01 1.000000000000000000e+00
