-4.852422332763671875e+01 -1.895783996582030895e+01 -9.093402028083801270e-01 1.400000000000000000e+01
-5.117670440673828125e+01 -1.999413299560546875e+01 1.472214508056640980e+01 1.900000000000000000e+01
-2.513328790664672852e+00 -9.778851270675659180e-01 -7.226227521896362305e-01 1.400000000000000000e+01
-2.909815788269042969e+00 -1.130980849266052024e+00 -7.207431793212890625e-01 1.300000000000000000e+01
-3.467881917953491211e+00 -1.347192049026489036e+00 -7.231661081314086914e-01 1.000000000000000000e+01
-4.368194580078125000e+00 -1.695188164710998979e+00 -7.421250939369201660e-01 1.200000000000000000e+01
-5.808043003082275391e+00 -2.251625299453734907e+00 -7.648519873619079590e-01 1.300000000000000000e+01
-8.932318687438964844e+00 -3.461031675338745117e+00 -8.380896449089050293e-01 1.000000000000000000e+00
-1.370870590209960938e+01 -5.306249141693115234e+00 -7.703852653503417969e-01 1.700000000000000000e+01
-4.873931121826171875e+01 -1.884603881835937855e+01 -9.121325612068176270e-01 1.400000000000000000e+01
-5.154516601562500000e+01 -1.992063713073730113e+01 1.480703735351563033e+01 1.900000000000000000e+01
-2.504107236862183061e+00 -9.642465710639953613e-01 -7.189993262290954590e-01 1.400000000000000000e+01
-2.917383432388306108e+00 -1.122216105461121050e+00 -7.216429710388183594e-01 1.200000000000000000e+01
-3.474395751953125000e+00 -1.335783243179321067e+00 -7.235476970672607422e-01 1.100000000000000000e+01
-4.363020896911621094e+00 -1.675680518150330034e+00 -7.402479052543640137e-01 1.200000000000000000e+01
-5.851080894470214844e+00 -2.244848012924193892e+00 -7.694830298423767090e-01 1.100000000000000000e+01
-8.933183670043945312e+00 -3.425550699234008789e+00 -8.370437622070312500e-01 3.000000000000000000e+00
-1.379242324829101918e+01 -5.283370494842529297e+00 -7.740488052368164062e-01 2.100000000000000000e+01
-4.887950515747070312e+01 -1.870437812805176137e+01 -9.135287404060363770e-01 1.400000000000000000e+01
-5.152072525024414062e+01 -1.971507644653319957e+01 1.478115558624267933e+01 1.900000000000000000e+01
-2.507457733154296875e+00 -9.554997086524963379e-01 -7.189993262290954590e-01 1.800000000000000000e+01
-2.912176847457886186e+00 -1.108559250831604004e+00 -7.193934917449951172e-01 1.100000000000000000e+01
-3.480872392654418945e+00 -1.324345350265502930e+00 -7.239293456077575684e-01 1.100000000000000000e+01
-4.361457347869873047e+00 -1.657633423805237038e+00 -7.389963865280151367e-01 1.200000000000000000e+01
-5.881151676177979404e+00 -2.232865333557128906e+00 -7.724078893661499023e-01 1.100000000000000000e+01
-8.930184364318847656e+00 -3.388692378997803178e+00 -8.356492519378662109e-01 1.000000000000000000e+00
-1.382945728302001953e+01 -5.242273330688476562e+00 -7.750955224037170410e-01 2.100000000000000000e+01
-4.901930236816406250e+01 -1.856196975708008168e+01 -9.149249792098999023e-01 1.400000000000000000e+01
-2.508970260620117188e+00 -9.460596442222595215e-01 -7.184816598892211914e-01 2.400000000000000000e+01
-2.908734083175659180e+00 -1.095639467239380105e+00 -7.175938487052917480e-01 1.100000000000000000e+01
-3.487311363220214844e+00 -1.312878489494323953e+00 -7.243109345436096191e-01 1.100000000000000000e+01
-4.367217063903808594e+00 -1.642398953437804954e+00 -7.389963865280151367e-01 1.200000000000000000e+01
-5.862893581390380859e+00 -2.202549219131470171e+00 -7.689955830574035645e-01 1.100000000000000000e+01
-8.930768013000488281e+00 -3.353297472000122070e+00 -8.346033692359924316e-01 1.000000000000000000e+00
-1.383271217346191051e+01 -5.188355922698974609e+00 -7.742581367492675781e-01 1.700000000000000000e+01
-4.934595489501953125e+01 -1.848897361755371094e+01 -9.198116064071655273e-01 1.400000000000000000e+01
-5.120846557617188211e+01 -1.918681907653808949e+01 1.465278148651123047e+01 1.800000000000000000e+01
-2.515877246856689009e+00 -9.386464953422546387e-01 -7.195169329643249512e-01 1.500000000000000000e+01
-2.914366722106934038e+00 -1.086159944534301980e+00 -7.180437445640563965e-01 1.300000000000000000e+01
-3.493712663650513139e+00 -1.301382780075073020e+00 -7.246925830841064453e-01 1.100000000000000000e+01
-4.382180213928222656e+00 -1.630589008331299050e+00 -7.405607700347900391e-01 1.100000000000000000e+01
-5.855660438537597656e+00 -2.176537513732910156e+00 -7.670456767082214355e-01 1.100000000000000000e+01
-8.931212425231933594e+00 -3.317939758300780806e+00 -8.335575461387634277e-01 1.000000000000000000e+00
-1.385635566711425959e+01 -5.142124176025390625e+00 -7.745721340179443359e-01 1.300000000000000000e+01
-5.133641433715820312e+01 -1.902047920227051137e+01 1.466934585571289062e+01 1.800000000000000000e+01
-2.500854015350341797e+00 -9.236056208610534668e-01 -7.143405675888061523e-01 1.200000000000000000e+01
-2.921609163284302202e+00 -1.077838540077209029e+00 -7.189435958862304688e-01 1.300000000000000000e+01
-3.483272790908813032e+00 -1.284356474876404031e+00 -7.216396331787109375e-01 1.000000000000000000e+01
-4.394978046417236328e+00 -1.618779182434082031e+00 -7.418122291564941406e-01 1.100000000000000000e+01
-5.866571903228759766e+00 -2.158478260040283203e+00 -7.675331234931945801e-01 1.100000000000000000e+01
-8.927206039428710938e+00 -3.282803535461425781e+00 -8.321630358695983887e-01 3.000000000000000000e+00
-1.399894142150879084e+01 -5.142287254333496094e+00 -7.815851569175720215e-01 1.300000000000000000e+01
-5.151924133300781250e+01 -1.890435981750487926e+01 1.470454502105713068e+01 1.900000000000000000e+01
-2.494989871978760210e+00 -9.115556478500366211e-01 -7.117523550987243652e-01 1.700000000000000000e+01
-2.934506893157958984e+00 -1.070974230766295943e+00 -7.211930751800537109e-01 1.200000000000000000e+01
-3.487734794616699219e+00 -1.272189736366271973e+00 -7.216396331787109375e-01 1.100000000000000000e+01
-4.395033836364746094e+00 -1.601399183273314986e+00 -7.408736348152160645e-01 1.200000000000000000e+01
-5.870340347290039062e+00 -2.136629104614257812e+00 -7.670456767082214355e-01 1.100000000000000000e+01
-8.897418975830078125e+00 -3.236637353897095171e+00 -8.283281922340393066e-01 1.000000000000000000e+00
-1.415571689605713068e+01 -5.143867492675781250e+00 -7.893308997154235840e-01 9.000000000000000000e+00
-2.498314142227172852e+00 -9.024049043655395508e-01 -7.117523550987243652e-01 2.000000000000000000e+01
-2.925580978393555132e+00 -1.055581688880919966e+00 -7.180437445640563965e-01 1.200000000000000000e+01
-3.497914552688599077e+00 -1.261396050453186035e+00 -7.227844595909118652e-01 1.200000000000000000e+01
-4.386005878448486328e+00 -1.579924106597899947e+00 -7.383706569671630859e-01 1.200000000000000000e+01
-5.878131866455078125e+00 -2.115098953247069868e+00 -7.670456767082214355e-01 1.100000000000000000e+01
-8.927970886230468750e+00 -3.210747241973876953e+00 -8.300712704658508301e-01 1.000000000000000000e+00
-1.426093864440917969e+01 -5.123010158538818359e+00 -7.941458225250244141e-01 9.000000000000000000e+00
-5.257326889038085938e+01 -1.886537551879883168e+01 1.496646976470947088e+01 1.900000000000000000e+01
-2.506906747817993164e+00 -8.956285119056701660e-01 -7.133052945137023926e-01 2.300000000000000000e+01
-2.923741817474364790e+00 -1.043398141860961914e+00 -7.166940569877624512e-01 1.300000000000000000e+01
-3.509692907333374023e+00 -1.251816511154175027e+00 -7.243109345436096191e-01 1.100000000000000000e+01
-4.389633655548095703e+00 -1.563941478729248047e+00 -7.380577921867370605e-01 1.100000000000000000e+01
-5.877998352050781250e+00 -2.091905117034912109e+00 -7.660706639289855957e-01 1.100000000000000000e+01
-8.920351982116699219e+00 -3.172886371612548828e+00 -8.283281922340393066e-01 1.000000000000000000e+00
-1.455350685119629084e+01 -5.170825004577636719e+00 -8.094279170036315918e-01 1.300000000000000000e+01
-5.253320693969727273e+01 -1.864426803588866832e+01 1.493644714355468928e+01 1.900000000000000000e+01
-2.515482187271118164e+00 -8.888031244277954102e-01 -7.148581743240356445e-01 2.400000000000000000e+01
-2.916340351104735884e+00 -1.029294610023498979e+00 -7.139946222305297852e-01 1.400000000000000000e+01
-3.491823911666870117e+00 -1.231720805168152078e+00 -7.197315096855163574e-01 1.100000000000000000e+01
-4.408107757568359375e+00 -1.553204536437988059e+00 -7.402479052543640137e-01 1.200000000000000000e+01
-5.889009475708007812e+00 -2.072692394256591797e+00 -7.665581703186035156e-01 1.100000000000000000e+01
-8.931373596191406250e+00 -3.141729116439818892e+00 -8.283281922340393066e-01 1.000000000000000000e+00
-1.464307212829590021e+01 -5.145151615142822266e+00 -8.134054541587829590e-01 9.000000000000000000e+00
-5.217565536499022727e+01 -1.832278633117676137e+01 1.276687240600585938e+01 1.800000000000000000e+01
-2.514921903610229048e+00 -8.787425756454467773e-01 -7.138229012489318848e-01 2.400000000000000000e+01
-2.930954694747924805e+00 -1.022961378097533958e+00 -7.166940569877624512e-01 1.300000000000000000e+01
-3.496102094650268999e+00 -1.219524502754210982e+00 -7.197315096855163574e-01 1.100000000000000000e+01
-4.413502216339111328e+00 -1.537807941436768022e+00 -7.402479052543640137e-01 1.200000000000000000e+01
-5.892459392547607422e+00 -2.050818443298339844e+00 -7.660706639289855957e-01 1.100000000000000000e+01
-4.973278427124022727e+01 -1.729932594299316051e+01 8.339834213256835938e+00 2.200000000000000000e+01
-8.904649734497070312e+00 -3.097442150115966797e+00 -8.248419761657714844e-01 1.000000000000000000e+00
-1.472697448730468928e+01 -5.116949558258056641e+00 -8.170689344406127930e-01 1.300000000000000000e+01
-5.187111663818358664e+01 -1.801269340515137074e+01 1.267689132690430043e+01 1.700000000000000000e+01
-2.510670185089110884e+00 -8.674350380897521973e-01 -7.117523550987243652e-01 2.400000000000000000e+01
-2.943718433380126953e+00 -1.015902876853943093e+00 -7.189435958862304688e-01 1.200000000000000000e+01
-3.505905628204346147e+00 -1.209233880043030007e+00 -7.208763957023620605e-01 1.100000000000000000e+01
-4.405769824981688565e+00 -1.517888426780700906e+00 -7.380577921867370605e-01 1.100000000000000000e+01
-5.888319492340087891e+00 -2.026361703872681108e+00 -7.646082639694213867e-01 1.100000000000000000e+01
-8.904103279113769531e+00 -3.062452316284180132e+00 -8.237960934638977051e-01 1.000000000000000000e+00
-1.480707931518555043e+01 -5.086926460266113281e+00 -8.205231428146362305e-01 1.300000000000000000e+01
-2.510026693344116211e+00 -8.574169278144836426e-01 -7.107170820236206055e-01 2.100000000000000000e+01
-2.938024997711182085e+00 -1.002474665641784890e+00 -7.166940569877624512e-01 1.300000000000000000e+01
-3.508247137069702148e+00 -1.196354866027832031e+00 -7.204947471618652344e-01 1.100000000000000000e+01
-4.407301902770996094e+00 -1.501226305961609109e+00 -7.374320626258850098e-01 1.100000000000000000e+01
-5.906632900238037109e+00 -2.009631633758544922e+00 -7.660706639289855957e-01 1.100000000000000000e+01
-8.926056861877441406e+00 -3.035201072692871094e+00 -8.248419761657714844e-01 1.000000000000000000e+00
-1.490039253234862926e+01 -5.060902118682861328e+00 -8.247100114822387695e-01 9.000000000000000000e+00
-2.511173963546752930e+00 -8.480319380760192871e-01 -7.101994752883911133e-01 2.000000000000000000e+01
-2.930427074432373047e+00 -9.884757399559020996e-01 -7.139946222305297852e-01 1.400000000000000000e+01
-3.517982959747314009e+00 -1.185983061790466087e+00 -7.216396331787109375e-01 1.100000000000000000e+01
-4.410643100738525391e+00 -1.485202431678771973e+00 -7.371191978454589844e-01 1.200000000000000000e+01
-5.906085968017578125e+00 -1.986469984054564986e+00 -7.650957107543945312e-01 1.100000000000000000e+01
-8.936596870422363281e+00 -3.004024744033813032e+00 -8.248419761657714844e-01 1.000000000000000000e+00
-1.502778339385985973e+01 -5.045731067657470703e+00 -8.307809829711914062e-01 9.000000000000000000e+00
-5.224164581298828125e+01 -1.753051757812500000e+01 1.272188186645507990e+01 1.700000000000000000e+01
-2.528778314590454102e+00 -8.441548347473144531e-01 -7.143405675888061523e-01 1.900000000000000000e+01
-2.937556982040404829e+00 -9.794734716415405273e-01 -7.148944735527038574e-01 1.400000000000000000e+01
-3.509063482284545898e+00 -1.169351100921631081e+00 -7.189682722091674805e-01 1.200000000000000000e+01
-4.415800571441650391e+00 -1.469797372817992942e+00 -7.371191978454589844e-01 1.200000000000000000e+01
-5.200825881958007812e+01 -1.730084419250487926e+01 6.729868888854979581e+00 5.800000000000000000e+01
-5.890379428863525391e+00 -1.958326578140259011e+00 -7.621708512306213379e-01 1.100000000000000000e+01
-8.935684204101562500e+00 -2.969042539596558061e+00 -8.237960934638977051e-01 1.000000000000000000e+00
-1.504530525207520064e+01 -4.993243694305419922e+00 -8.307809829711914062e-01 9.000000000000000000e+00
-5.355704498291016336e+01 -1.774341392517089844e+01 1.511762046813965021e+01 2.000000000000000000e+01
-2.524371385574340820e+00 -8.329013586044311523e-01 -7.122700214385986328e-01 1.900000000000000000e+01
-2.948361396789550781e+00 -9.716532826423645020e-01 -7.166940569877624512e-01 1.400000000000000000e+01
-3.509394407272338867e+00 -1.155866742134094016e+00 -7.182050347328186035e-01 1.100000000000000000e+01
-4.424657344818115234e+00 -1.455608963966370073e+00 -7.377449274063110352e-01 1.200000000000000000e+01
-5.900950908660888672e+00 -1.938992857933043990e+00 -7.626583576202392578e-01 1.100000000000000000e+01
-8.930850028991699219e+00 -2.932860136032104048e+00 -8.224015831947326660e-01 3.000000000000000000e+00
-1.527898883819580078e+01 -5.011659145355224609e+00 -8.427135944366455078e-01 9.000000000000000000e+00
-5.379917144775391336e+01 -1.762586021423339844e+01 1.516938400268555043e+01 2.000000000000000000e+01
-2.510733366012572798e+00 -8.186944723129272461e-01 -7.076112627983093262e-01 1.900000000000000000e+01
-2.955440998077393022e+00 -9.625626802444458008e-01 -7.175938487052917480e-01 1.400000000000000000e+01
-3.517141580581665039e+00 -1.144824862480164018e+00 -7.189682722091674805e-01 1.100000000000000000e+01
-4.425953865051270419e+00 -1.438933730125427024e+00 -7.371191978454589844e-01 1.200000000000000000e+01
-5.915235519409179688e+00 -1.920835256576538086e+00 -7.636333107948303223e-01 1.100000000000000000e+01
-5.299647521972656250e+01 -1.719914817810058949e+01 8.824781417846679688e+00 2.700000000000000000e+01
-8.944823265075683594e+00 -2.902897834777832031e+00 -8.227502107620239258e-01 1.000000000000000000e+00
-1.541228580474854049e+01 -4.995862483978270596e+00 -8.490985631942749023e-01 1.400000000000000000e+01
-2.518808603286743164e+00 -8.125821352005004883e-01 -7.091642022132873535e-01 1.900000000000000000e+01
-2.949176311492919922e+00 -9.502848386764526367e-01 -7.153443694114685059e-01 1.200000000000000000e+01
-3.524458169937133789e+00 -1.134973406791687012e+00 -7.197315096855163574e-01 1.100000000000000000e+01
-4.415408611297607422e+00 -1.420183300971985085e+00 -7.346162199974060059e-01 1.200000000000000000e+01
-5.908010959625244141e+00 -1.897992372512816939e+00 -7.619271278381347656e-01 9.000000000000000000e+00
-8.957693099975585938e+00 -2.876000642776488814e+00 -8.230988383293151855e-01 1.000000000000000000e+00
-1.538416194915770951e+01 -4.933391094207763672e+00 -8.466910719871520996e-01 9.000000000000000000e+00
-2.525310754776000977e+00 -8.049583435058593750e-01 -7.101994752883911133e-01 1.800000000000000000e+01
-2.945047855377196822e+00 -9.376197457313537598e-01 -7.135447263717651367e-01 1.200000000000000000e+01
-3.532140254974364790e+00 -1.123854398727416992e+00 -7.204947471618652344e-01 1.200000000000000000e+01
-4.431634902954101562e+00 -1.408351659774780051e+00 -7.364934682846069336e-01 1.200000000000000000e+01
-5.918384552001953125e+00 -1.878559112548827903e+00 -7.624146342277526855e-01 9.000000000000000000e+00
-5.282693862915039062e+01 -1.675769233703612926e+01 8.777851104736328125e+00 2.600000000000000000e+01
-8.937291145324707031e+00 -2.835075855255126953e+00 -8.203098773956298828e-01 1.000000000000000000e+00
-1.532132244110107067e+01 -4.854323863983154297e+00 -8.422948718070983887e-01 4.000000000000000000e+00
-2.531929731369018999e+00 -7.968571186065673828e-01 -7.112347483634948730e-01 1.700000000000000000e+01
-2.950323820114136186e+00 -9.274036884307861328e-01 -7.139946222305297852e-01 1.300000000000000000e+01
-3.524997711181641069e+00 -1.107370495796204057e+00 -7.182050347328186035e-01 1.100000000000000000e+01
-4.425458431243895596e+00 -1.388551235198975053e+00 -7.346162199974060059e-01 1.200000000000000000e+01
-5.911970138549804688e+00 -1.852699160575866921e+00 -7.607084512710571289e-01 7.000000000000000000e+00
-8.947622299194335938e+00 -2.802299976348876953e+00 -8.203098773956298828e-01 1.000000000000000000e+00
-1.527229499816895064e+01 -4.777266502380371094e+00 -8.386313915252685547e-01 1.400000000000000000e+01
-3.237173843383789062e+01 -1.011367321014403942e+01 -5.919856429100036621e-01 6.000000000000000000e+00
-2.527316808700561968e+00 -7.857201099395751953e-01 -7.091642022132873535e-01 1.800000000000000000e+01
-2.960987329483031782e+00 -9.194110035896301270e-01 -7.157942652702331543e-01 1.300000000000000000e+01
-3.528841495513916016e+00 -1.095059156417846902e+00 -7.182050347328186035e-01 1.200000000000000000e+01
-4.430278301239013672e+00 -1.373095035552978960e+00 -7.346162199974060059e-01 1.200000000000000000e+01
-5.927883148193359375e+00 -1.834986329078674094e+00 -7.619271278381347656e-01 9.000000000000000000e+00
-8.957349777221679688e+00 -2.771049976348876953e+00 -8.203098773956298828e-01 1.000000000000000000e+00
-1.587089347839354936e+01 -4.903757572174072266e+00 -8.705562949180603027e-01 1.000000000000000000e+01
-3.234952163696289062e+01 -9.982923507690429688e+00 -5.909385085105895996e-01 1.200000000000000000e+01
-2.526350498199462891e+00 -7.757591605186462402e-01 -7.081289291381835938e-01 1.900000000000000000e+01
-2.964178562164307085e+00 -9.090696573257446289e-01 -7.157942652702331543e-01 1.400000000000000000e+01
-3.525134325027465820e+00 -1.080433368682861106e+00 -7.166785597801208496e-01 1.200000000000000000e+01
-4.438821792602539062e+00 -1.358778476715087891e+00 -7.352420091629028320e-01 1.200000000000000000e+01
-5.917167186737061435e+00 -1.809059500694274902e+00 -7.597334980964660645e-01 7.000000000000000000e+00
-8.940292358398437500e+00 -2.731615543365478960e+00 -8.178694844245910645e-01 3.000000000000000000e+00
-1.600253105163573863e+01 -4.883304119110107422e+00 -8.768365979194641113e-01 1.000000000000000000e+01
-3.252189636230468750e+01 -9.911916732788085938e+00 -5.934516191482543945e-01 1.300000000000000000e+01
-2.532740592956542969e+00 -7.680571079254150391e-01 -7.091642022132873535e-01 1.900000000000000000e+01
-2.963603734970093218e+00 -8.975874185562133789e-01 -7.148944735527038574e-01 1.400000000000000000e+01
-3.536400556564331055e+00 -1.070396780967711958e+00 -7.182050347328186035e-01 1.100000000000000000e+01
-4.432192802429199219e+00 -1.339846253395081010e+00 -7.333647608757019043e-01 1.200000000000000000e+01
-5.923445701599121094e+00 -1.788393735885619895e+00 -7.597334980964660645e-01 9.000000000000000000e+00
-5.315031814575195312e+01 -1.604702758789062855e+01 8.793494224548339844e+00 2.600000000000000000e+01
-8.980292320251464844e+00 -2.709599971771239790e+00 -8.206584453582763672e-01 1.000000000000000000e+00
-1.627190589904785156e+01 -4.903482913970947266e+00 -8.906533122062683105e-01 5.000000000000000000e+00
-3.257161712646483664e+01 -9.802944183349609375e+00 -5.937308669090270996e-01 6.000000000000000000e+00
-2.540958166122436968e+00 -7.608739733695983887e-01 -7.107170820236206055e-01 2.100000000000000000e+01
-2.959250688552856001e+00 -8.850036263465881348e-01 -7.130948305130004883e-01 1.400000000000000000e+01
-3.540115356445312944e+00 -1.058045864105225053e+00 -7.182050347328186035e-01 1.200000000000000000e+01
-4.433056831359863281e+00 -1.323236823081969993e+00 -7.327390313148498535e-01 1.200000000000000000e+01
-5.929652214050292969e+00 -1.767706155776977983e+00 -7.597334980964660645e-01 7.000000000000000000e+00
-8.966782569885253906e+00 -2.671409845352172852e+00 -8.185667395591735840e-01 1.000000000000000000e+00
-1.654927062988280895e+01 -4.924118041992188388e+00 -9.048886895179748535e-01 5.000000000000000000e+00
-2.541745901107788086e+00 -7.514520287513732910e-01 -7.101994752883911133e-01 2.000000000000000000e+01
-2.960452795028686968e+00 -8.741166591644287109e-01 -7.126449346542358398e-01 1.500000000000000000e+01
-3.540020942687987837e+00 -1.044570922851562944e+00 -7.174417972564697266e-01 1.100000000000000000e+01
-4.445228099822998047e+00 -1.309988021850585938e+00 -7.339904904365539551e-01 1.200000000000000000e+01
-5.937690734863281250e+00 -1.747557520866394043e+00 -7.599772214889526367e-01 9.000000000000000000e+00
-8.956937789916992188e+00 -2.634471654891968218e+00 -8.168236017227172852e-01 3.000000000000000000e+00
-1.669666481018066051e+01 -4.904597759246826172e+00 -9.120063781738281250e-01 5.000000000000000000e+00
-2.548062562942504883e+00 -7.436575889587402344e-01 -7.112347483634948730e-01 2.000000000000000000e+01
-2.969098806381226030e+00 -8.654133677482604980e-01 -7.139946222305297852e-01 1.400000000000000000e+01
-3.543645620346068892e+00 -1.032207489013672097e+00 -7.174417972564697266e-01 1.100000000000000000e+01
-4.442186832427979404e+00 -1.292256236076354980e+00 -7.327390313148498535e-01 1.200000000000000000e+01
-5.936129570007324219e+00 -1.724605083465575950e+00 -7.590022683143615723e-01 5.000000000000000000e+00
-8.969906806945800781e+00 -2.604301214218140093e+00 -8.171722292900085449e-01 1.000000000000000000e+00
-1.663695335388183949e+01 -4.824037075042724609e+00 -9.078195095062255859e-01 5.000000000000000000e+00
-2.535791873931885210e+00 -7.304806113243103027e-01 -7.070936560630798340e-01 2.000000000000000000e+01
-2.973974227905272993e+00 -8.555827736854553223e-01 -7.144445776939392090e-01 1.400000000000000000e+01
-3.543453454971313032e+00 -1.018746733665466087e+00 -7.166785597801208496e-01 1.100000000000000000e+01
-4.435278415679931641e+00 -1.273471355438231978e+00 -7.308618426322937012e-01 1.200000000000000000e+01
-5.930664539337158203e+00 -1.700590610504149947e+00 -7.575398683547973633e-01 5.000000000000000000e+00
-8.940636634826660156e+00 -2.561997652053833008e+00 -8.136860132217407227e-01 1.000000000000000000e+00
-1.665369224548339844e+01 -4.765933990478515625e+00 -9.078195095062255859e-01 5.000000000000000000e+00
-2.536468029022216797e+00 -7.210962772369384766e-01 -7.065759897232055664e-01 2.200000000000000000e+01
-2.965694904327393022e+00 -8.420030474662780762e-01 -7.117451429367065430e-01 1.300000000000000000e+01
-3.546988010406494141e+00 -1.006371498107909934e+00 -7.166785597801208496e-01 1.200000000000000000e+01
-4.435895442962645596e+00 -1.256904482841491921e+00 -7.302360534667968750e-01 1.200000000000000000e+01
-5.940384864807128906e+00 -1.680959463119507058e+00 -7.580273151397705078e-01 5.000000000000000000e+00
-8.968696594238281250e+00 -2.536194801330565962e+00 -8.154291510581970215e-01 1.000000000000000000e+00
-1.679708480834960938e+01 -4.743597984313964844e+00 -9.147278666496276855e-01 1.100000000000000000e+01
-3.321889495849608664e+01 -9.368697166442871094e+00 -6.024570465087890625e-01 6.000000000000000000e+00
-2.546409845352172852e+00 -7.143251299858093262e-01 -7.086465358734130859e-01 2.200000000000000000e+01
-2.966739416122436968e+00 -8.311200141906738281e-01 -7.112952470779418945e-01 1.300000000000000000e+01
-3.554260492324829102e+00 -9.950426220893859863e-01 -7.174417972564697266e-01 1.200000000000000000e+01
-4.436451435089111328e+00 -1.240348935127258079e+00 -7.296103239059448242e-01 1.100000000000000000e+01
-5.934744358062744141e+00 -1.657010436058043990e+00 -7.565648555755615234e-01 5.000000000000000000e+00
-8.973657608032226562e+00 -2.503801822662353960e+00 -8.150805234909057617e-01 1.000000000000000000e+00
-1.680199623107910156e+01 -4.681719779968261719e+00 -9.140998125076293945e-01 5.000000000000000000e+00
-2.552364826202393022e+00 -7.073537111282348633e-01 -7.096818089485168457e-01 2.100000000000000000e+01
-2.973092079162598100e+00 -8.228352069854736328e-01 -7.121950387954711914e-01 1.500000000000000000e+01
-3.553584575653076172e+00 -9.828250408172607422e-01 -7.166785597801208496e-01 1.200000000000000000e+01
-4.426997184753417969e+00 -1.222723960876465066e+00 -7.274202704429626465e-01 1.200000000000000000e+01
-5.939920902252197266e+00 -1.638357639312743919e+00 -7.565648555755615234e-01 7.000000000000000000e+00
-8.981478691101074219e+00 -2.475598096847534180e+00 -8.150805234909057617e-01 1.000000000000000000e+00
-1.698992919921875000e+01 -4.676616191864013672e+00 -9.235202670097351074e-01 5.000000000000000000e+00
-2.545500993728638139e+00 -6.958928108215332031e-01 -7.070936560630798340e-01 2.000000000000000000e+01
-4.514836502075195312e+01 -1.233425712585449041e+01 8.169471621513366699e-01 5.400000000000000000e+01
-2.977826118469237837e+00 -8.129653930664062500e-01 -7.126449346542358398e-01 1.400000000000000000e+01
-4.517280197143554688e+01 -1.232398986816406072e+01 2.453928232192993164e+00 3.900000000000000000e+01
-3.553205490112305132e+00 -9.693812727928161621e-01 -7.159153223037719727e-01 1.300000000000000000e+01
-4.444580078125000000e+00 -1.210898160934448020e+00 -7.296103239059448242e-01 1.100000000000000000e+01
-5.951349735260009766e+00 -1.619176983833312988e+00 -7.572960853576660156e-01 7.000000000000000000e+00
-8.955458641052246094e+00 -2.434822797775268999e+00 -8.119428753852844238e-01 1.000000000000000000e+00
-1.692905044555664062e+01 -4.596348762512207031e+00 -9.193333983421325684e-01 1.100000000000000000e+01
-4.507353210449218750e+01 -1.222086811065674006e+01 -8.151670098304748535e-01 1.200000000000000000e+01
-2.546169281005858931e+00 -6.860557794570922852e-01 -7.065759897232055664e-01 2.100000000000000000e+01
-4.516623687744141336e+01 -1.216141891479492010e+01 8.164584636688232422e-01 5.400000000000000000e+01
-2.982667684555054155e+00 -8.025519847869873047e-01 -7.130948305130004883e-01 1.500000000000000000e+01
-4.515980529785156250e+01 -1.214278221130370916e+01 2.450788259506226030e+00 3.800000000000000000e+01
-3.543463230133057085e+00 -9.527831673622131348e-01 -7.132440209388732910e-01 1.200000000000000000e+01
-4.445172786712645596e+00 -1.193575382232666016e+00 -7.289845943450927734e-01 1.100000000000000000e+01
-5.945740222930908203e+00 -1.594268560409545898e+00 -7.558336853981018066e-01 7.000000000000000000e+00
-8.956624984741210938e+00 -2.399920463562012163e+00 -8.112456798553466797e-01 1.000000000000000000e+00
-1.703839492797851918e+01 -4.559050083160400391e+00 -9.243576526641845703e-01 1.100000000000000000e+01
-4.511801910400391336e+01 -1.205558300018311080e+01 -8.151670098304748535e-01 1.200000000000000000e+01
-2.546681404113769975e+00 -6.766677498817443848e-01 -7.060583829879760742e-01 2.000000000000000000e+01
-4.514270019531250000e+01 -1.198623657226563033e+01 8.152717351913452148e-01 5.400000000000000000e+01
-2.976032972335814986e+00 -7.896367907524108887e-01 -7.108453512191772461e-01 1.400000000000000000e+01
-4.519805526733397727e+01 -1.198404693603515980e+01 2.450578927993773970e+00 3.800000000000000000e+01
-3.563846588134766069e+00 -9.449368119239807129e-01 -7.166785597801208496e-01 1.200000000000000000e+01
-4.432125568389892578e+00 -1.173501133918761985e+00 -7.261688113212585449e-01 1.200000000000000000e+01
-5.951269149780273438e+00 -1.573504328727721946e+00 -7.558336853981018066e-01 7.000000000000000000e+00
-8.961094856262207031e+00 -2.367623329162598100e+00 -8.108970522880554199e-01 1.000000000000000000e+00
-1.761810684204101918e+01 -4.648325920104979581e+00 -9.549218416213989258e-01 6.000000000000000000e+00
-2.554634332656859907e+00 -6.692427396774291992e-01 -7.076112627983093262e-01 2.100000000000000000e+01
-4.513396453857421875e+01 -1.181541919708251953e+01 8.143641948699951172e-01 5.300000000000000000e+01
-2.967459440231322798e+00 -7.762845754623413086e-01 -7.081459164619445801e-01 1.300000000000000000e+01
-4.518937301635742188e+01 -1.181307029724120916e+01 2.447857379913330078e+00 3.800000000000000000e+01
-3.569022655487060991e+00 -9.329874515533447266e-01 -7.170602083206176758e-01 1.200000000000000000e+01
-4.453396797180175781e+00 -1.162513375282288042e+00 -7.289845943450927734e-01 1.100000000000000000e+01
-5.952883720397949219e+00 -1.551719546318053977e+00 -7.553461790084838867e-01 7.000000000000000000e+00
-8.996297836303710938e+00 -2.343359947204589844e+00 -8.133373856544494629e-01 1.000000000000000000e+00
-1.775600051879883168e+01 -4.618474006652832031e+00 -9.615162014961242676e-01 1.900000000000000000e+01
-3.374694061279296875e+01 -8.765266418457031250e+00 -6.086003184318542480e-01 6.000000000000000000e+00
-2.564436674118041992e+00 -6.622534990310668945e-01 -7.096818089485168457e-01 2.100000000000000000e+01
-4.512459182739257812e+01 -1.164480876922607067e+01 8.134566545486450195e-01 5.300000000000000000e+01
-2.979586124420166016e+00 -7.683545351028442383e-01 -7.103954553604125977e-01 1.600000000000000000e+01
-4.517230987548828125e+01 -1.164030647277832031e+01 2.444717168807982954e+00 3.800000000000000000e+01
-3.562752008438109907e+00 -9.180740118026733398e-01 -7.151521444320678711e-01 1.200000000000000000e+01
-4.449775695800781250e+00 -1.144991993904113992e+00 -7.277331352233886719e-01 1.100000000000000000e+01
-5.939037322998046875e+00 -1.525990605354309082e+00 -7.529088258743286133e-01 9.000000000000000000e+00
-8.961967468261718750e+00 -2.301042079925537109e+00 -8.095025420188903809e-01 1.000000000000000000e+00
-1.780103492736816051e+01 -4.563906192779541016e+00 -9.630862474441528320e-01 1.200000000000000000e+01
-2.559244155883789062e+00 -6.513918638229370117e-01 -7.076112627983093262e-01 2.100000000000000000e+01
-4.515333557128906250e+01 -1.148426628112792969e+01 8.132472634315490723e-01 5.300000000000000000e+01
-2.984138727188109907e+00 -7.584291696548461914e-01 -7.108453512191772461e-01 1.400000000000000000e+01
-4.514685058593750000e+01 -1.146583938598632990e+01 2.441158294677733931e+00 3.800000000000000000e+01
-3.548809289932250977e+00 -9.012827277183532715e-01 -7.117175459861755371e-01 1.000000000000000000e+01
-4.449915409088134766e+00 -1.128481268882751021e+00 -7.271074056625366211e-01 1.200000000000000000e+01
-5.930857658386229581e+00 -1.501839160919189009e+00 -7.512026429176330566e-01 9.000000000000000000e+00
-8.969944953918457031e+00 -2.269744873046875000e+00 -8.095025420188903809e-01 1.000000000000000000e+00
-1.793304061889648082e+01 -4.531096935272216797e+00 -9.693666100502014160e-01 6.000000000000000000e+00
-2.548385620117187944e+00 -6.391646265983581543e-01 -7.039877772331237793e-01 1.900000000000000000e+01
-4.514659500122070312e+01 -1.131491470336914062e+01 8.124095201492309570e-01 5.300000000000000000e+01
-2.994329452514647993e+00 -7.499016523361206055e-01 -7.126449346542358398e-01 1.400000000000000000e+01
-4.518272399902343750e+01 -1.130720806121825994e+01 2.440948963165283203e+00 3.800000000000000000e+01
-3.557647228240966797e+00 -8.903194665908813477e-01 -7.128624320030212402e-01 1.200000000000000000e+01
-4.448078155517578125e+00 -1.111504554748534934e+00 -7.261688113212585449e-01 1.100000000000000000e+01
-5.943768024444580078e+00 -1.483049750328063965e+00 -7.521775960922241211e-01 7.000000000000000000e+00
-8.943015098571777344e+00 -2.229744195938109907e+00 -8.063649535179138184e-01 1.000000000000000000e+00
-1.814643478393555043e+01 -4.517686843872070312e+00 -9.800431132316589355e-01 6.000000000000000000e+00
-2.554352283477783203e+00 -6.311920881271362305e-01 -7.050230503082275391e-01 2.000000000000000000e+01
-4.513922500610352273e+01 -1.114575004577637074e+01 8.115717768669128418e-01 5.300000000000000000e+01
-2.981792926788330078e+00 -7.357103228569030762e-01 -7.090457081794738770e-01 1.400000000000000000e+01
-4.516567611694335938e+01 -1.114391803741455078e+01 2.438018083572388139e+00 3.800000000000000000e+01
-3.556921005249022993e+00 -8.769555687904357910e-01 -7.120991945266723633e-01 1.100000000000000000e+01
-4.434668064117431641e+00 -1.091721296310425027e+00 -7.233529686927795410e-01 1.100000000000000000e+01
-5.956619262695313388e+00 -1.464188456535338911e+00 -7.531525492668151855e-01 9.000000000000000000e+00
-8.943004608154296875e+00 -2.196612596511840820e+00 -8.056676983833312988e-01 3.000000000000000000e+00
-1.843366241455078125e+01 -4.520919322967529297e+00 -9.946972131729125977e-01 6.000000000000000000e+00
-3.410688018798828125e+01 -8.352210044860839844e+00 -6.129285097122192383e-01 7.000000000000000000e+00
-2.556539773941040039e+00 -6.222718954086303711e-01 -7.050230503082275391e-01 2.000000000000000000e+01
-4.511956405639647727e+01 -1.097393894195556996e+01 8.105246424674987793e-01 5.300000000000000000e+01
-2.986236333847045898e+00 -7.257576584815979004e-01 -7.094956040382385254e-01 1.500000000000000000e+01
-4.519457244873046875e+01 -1.097547435760498047e+01 2.437390089035034180e+00 3.800000000000000000e+01
-3.571407318115233931e+00 -8.673141002655029297e-01 -7.143889069557189941e-01 1.200000000000000000e+01
-4.442291259765625000e+00 -1.077165842056273970e+00 -7.239786982536315918e-01 1.100000000000000000e+01
-5.944329738616943359e+00 -1.439182996749877930e+00 -7.509589195251464844e-01 9.000000000000000000e+00
-8.969983100891113281e+00 -2.170067310333251953e+00 -8.074107766151428223e-01 3.000000000000000000e+00
-1.761451911926269887e+01 -4.254892826080322266e+00 -9.496882557868957520e-01 6.000000000000000000e+00
-3.405418014526367188e+01 -8.213412284851074219e+00 -6.114625334739685059e-01 7.000000000000000000e+00
-2.569860696792602983e+00 -6.164945960044860840e-01 -7.081289291381835938e-01 1.800000000000000000e+01
-4.515570831298828125e+01 -1.082425689697265980e+01 8.105246424674987793e-01 5.300000000000000000e+01
-2.982941150665283203e+00 -7.144891619682312012e-01 -7.081459164619445801e-01 1.300000000000000000e+01
-4.518221282958983664e+01 -1.082227230072020951e+01 2.434878110885620117e+00 3.800000000000000000e+01
-3.576173305511475053e+00 -8.559231162071228027e-01 -7.147704958915710449e-01 1.200000000000000000e+01
-4.441996574401854581e+00 -1.061510443687438965e+00 -7.233529686927795410e-01 1.100000000000000000e+01
-5.941346168518066406e+00 -1.417620062828063965e+00 -7.499839663505554199e-01 9.000000000000000000e+00
-8.977129936218261719e+00 -2.140309810638428178e+00 -8.074107766151428223e-01 1.000000000000000000e+00
-1.790054702758789062e+01 -4.261210441589354581e+00 -9.643423557281494141e-01 6.000000000000000000e+00
-3.406566619873046875e+01 -8.096739768981933594e+00 -6.111832857131958008e-01 7.000000000000000000e+00
-2.564476490020751953e+00 -6.057440042495727539e-01 -7.060583829879760742e-01 2.000000000000000000e+01
-4.517375183105468750e+01 -1.066197395324707031e+01 8.101755976676940918e-01 5.300000000000000000e+01
-3.002487421035767046e+00 -7.080982327461242676e-01 -7.121950387954711914e-01 1.500000000000000000e+01
-4.517694854736328125e+01 -1.065440464019775035e+01 2.432575225830078125e+00 3.800000000000000000e+01
-3.563851833343505859e+00 -8.398322463035583496e-01 -7.117175459861755371e-01 1.300000000000000000e+01
-4.453366279602050781e+00 -1.047808170318603960e+00 -7.246044278144836426e-01 1.200000000000000000e+01
-5.950123310089111328e+00 -1.397780299186706987e+00 -7.504714131355285645e-01 7.000000000000000000e+00
-8.937994003295898438e+00 -2.098033428192139116e+00 -8.032273054122924805e-01 2.000000000000000000e+00
-1.798337364196776988e+01 -4.214650630950927734e+00 -9.680058360099792480e-01 1.900000000000000000e+01
-3.399636840820313211e+01 -7.954998493194580078e+00 -6.094380617141723633e-01 7.000000000000000000e+00
-2.557167053222655806e+00 -5.946009755134582520e-01 -7.034701704978942871e-01 2.100000000000000000e+01
-4.517563629150391336e+01 -1.049607753753661932e+01 8.095473051071166992e-01 5.300000000000000000e+01
-3.001144409179687944e+00 -6.967318654060363770e-01 -7.112952470779418945e-01 1.600000000000000000e+01
-4.517678451538085938e+01 -1.047972488403319957e+01 2.430481910705565962e+00 3.800000000000000000e+01
-3.561024188995360884e+00 -8.260560631752014160e-01 -7.105727195739746094e-01 1.200000000000000000e+01
-4.456996440887451172e+00 -1.032256722450255904e+00 -7.246044278144836426e-01 1.100000000000000000e+01
-5.954966068267822266e+00 -1.377001881599426047e+00 -7.504714131355285645e-01 7.000000000000000000e+00
-8.968558311462402344e+00 -2.072203636169434038e+00 -8.053190708160400391e-01 1.000000000000000000e+00
-1.828016662597655895e+01 -4.216948509216308594e+00 -9.831832647323608398e-01 1.300000000000000000e+01
-3.426946258544921875e+01 -7.892830848693847656e+00 -6.138360500335693359e-01 1.400000000000000000e+01
-2.555460691452025923e+00 -5.848092436790466309e-01 -7.024348974227905273e-01 1.900000000000000000e+01
-4.515741348266602273e+01 -1.032583999633789062e+01 8.085699677467346191e-01 5.200000000000000000e+01
-2.994059324264525923e+00 -6.840813755989074707e-01 -7.090457081794738770e-01 1.400000000000000000e+01
-4.520739364624022727e+01 -1.032896614074707031e+01 2.430272579193114790e+00 3.800000000000000000e+01
-3.571542024612427202e+00 -8.153685331344604492e-01 -7.120991945266723633e-01 1.100000000000000000e+01
-4.452868938446044922e+00 -1.014936685562134011e+00 -7.233529686927795410e-01 1.100000000000000000e+01
-5.971350193023681641e+00 -1.358849644660949929e+00 -7.519338726997375488e-01 7.000000000000000000e+00
-8.944651603698730469e+00 -2.033816814422606978e+00 -8.025300502777099609e-01 2.000000000000000000e+00
-1.841942787170410156e+01 -4.181410789489746094e+00 -9.898822903633117676e-01 1.300000000000000000e+01
-3.426560211181641336e+01 -7.766088008880615234e+00 -6.132775545120239258e-01 1.400000000000000000e+01
-2.563140392303466797e+00 -5.771586298942565918e-01 -7.039877772331237793e-01 2.000000000000000000e+01
-4.515026473999022727e+01 -1.015849208831786932e+01 8.078020811080932617e-01 5.200000000000000000e+01
-2.994527578353881836e+00 -6.731985807418823242e-01 -7.085958123207092285e-01 1.600000000000000000e+01
-4.517691802978516336e+01 -1.015620517730713068e+01 2.426713705062866211e+00 3.700000000000000000e+01
-3.580113172531127930e+00 -8.041874170303344727e-01 -7.132440209388732910e-01 1.200000000000000000e+01
-4.448674201965332031e+00 -9.976580142974853516e-01 -7.221015095710754395e-01 1.100000000000000000e+01
-5.962497234344482422e+00 -1.334961533546447976e+00 -7.502276897430419922e-01 7.000000000000000000e+00
-8.975028991699218750e+00 -2.007801294326781782e+00 -8.046218156814575195e-01 1.000000000000000000e+00
-1.850408363342285156e+01 -4.132761955261229581e+00 -9.936504364013671875e-01 1.300000000000000000e+01
-3.431201934814453125e+01 -7.650783538818359375e+00 -6.136265993118286133e-01 7.000000000000000000e+00
-2.565139532089232954e+00 -5.682080388069152832e-01 -7.039877772331237793e-01 1.800000000000000000e+01
-4.514640045166016336e+01 -9.992183685302734375e+00 8.071039915084838867e-01 5.200000000000000000e+01
-2.991150856018065962e+00 -6.614792346954345703e-01 -7.072461247444152832e-01 1.600000000000000000e+01
-4.520819473266602273e+01 -9.997584342956542969e+00 2.426504373550415039e+00 3.700000000000000000e+01
-3.577147245407104048e+00 -7.904148101806640625e-01 -7.120991945266723633e-01 1.200000000000000000e+01
-4.463703632354736328e+00 -9.846763014793395996e-01 -7.239786982536315918e-01 1.100000000000000000e+01
-5.943857192993164062e+00 -1.309016942977905051e+00 -7.473028302192687988e-01 5.000000000000000000e+00
-8.966416358947753906e+00 -1.973035097122191939e+00 -8.032273054122924805e-01 1.000000000000000000e+00
-1.863934326171875000e+01 -4.094715118408203125e+00 -1.000140070915221946e+00 1.400000000000000000e+01
-3.420178604125977273e+01 -7.500978946685791016e+00 -6.111832857131958008e-01 7.000000000000000000e+00
-2.563234567642211914e+00 -5.588755607604980469e-01 -7.029525041580200195e-01 1.600000000000000000e+01
-4.515193176269531250e+01 -9.836458206176757812e+00 8.066152930259704590e-01 5.200000000000000000e+01
-3.000944614410399947e+00 -6.532145142555236816e-01 -7.090457081794738770e-01 1.300000000000000000e+01
-4.519035720825195312e+01 -9.836568832397460938e+00 2.423782825469971147e+00 3.700000000000000000e+01
-3.562483072280883789e+00 -7.747931480407714844e-01 -7.086645960807800293e-01 1.100000000000000000e+01
-4.461153507232666016e+00 -9.686113595962524414e-01 -7.230401039123535156e-01 1.200000000000000000e+01
-5.953985214233398438e+00 -1.290560841560363992e+00 -7.480340003967285156e-01 9.000000000000000000e+00
-8.949542045593261719e+00 -1.938229799270630105e+00 -8.011355996131896973e-01 1.000000000000000000e+00
-3.417565155029296875e+01 -7.376550674438476562e+00 -6.102757453918457031e-01 7.000000000000000000e+00
-2.553836345672606978e+00 -5.474950671195983887e-01 -6.998466849327087402e-01 1.800000000000000000e+01
-4.516643905639647727e+01 -9.674600601196289062e+00 8.062662482261657715e-01 5.200000000000000000e+01
-3.005112171173096147e+00 -6.431431174278259277e-01 -7.094956040382385254e-01 1.300000000000000000e+01
-4.517754745483397727e+01 -9.668733596801757812e+00 2.421270608901977983e+00 3.700000000000000000e+01
-3.570925474166870117e+00 -7.635846734046936035e-01 -7.098094820976257324e-01 1.100000000000000000e+01
-4.466439247131347656e+00 -9.534454941749572754e-01 -7.233529686927795410e-01 1.100000000000000000e+01
-5.952629566192626953e+00 -1.268528461456299050e+00 -7.473028302192687988e-01 9.000000000000000000e+00
-8.956254005432128906e+00 -1.906978249549865945e+00 -8.011355996131896973e-01 1.000000000000000000e+00
-3.430290985107421875e+01 -7.278794765472412109e+00 -6.120908260345458984e-01 7.000000000000000000e+00
-2.559512615203856978e+00 -5.393738746643066406e-01 -7.008819580078125000e-01 1.800000000000000000e+01
-4.518819427490233664e+01 -9.514409065246582031e+00 8.060568571090698242e-01 5.200000000000000000e+01
-3.009245872497559038e+00 -6.330505609512329102e-01 -7.099454998970031738e-01 1.400000000000000000e+01
-4.518922805786132812e+01 -9.498154640197753906e+00 2.420014619827270952e+00 3.700000000000000000e+01
-3.567805290222167969e+00 -7.499036788940429688e-01 -7.086645960807800293e-01 1.200000000000000000e+01
-4.454273700714111328e+00 -9.346037507057189941e-01 -7.208499908447265625e-01 1.100000000000000000e+01
-5.960906982421875000e+00 -1.248556017875670943e+00 -7.477902770042419434e-01 9.000000000000000000e+00
-8.947254180908203125e+00 -1.872438549995421919e+00 -7.997410893440246582e-01 1.000000000000000000e+00
-3.423805999755858664e+01 -7.140231609344482422e+00 -6.104851961135864258e-01 7.000000000000000000e+00
-2.565163135528564009e+00 -5.312197208404541016e-01 -7.019172310829162598e-01 1.700000000000000000e+01
-4.515846633911132812e+01 -9.343649864196777344e+00 8.049398660659790039e-01 5.200000000000000000e+01
-2.994261741638184038e+00 -6.189918518066406250e-01 -7.058964371681213379e-01 1.500000000000000000e+01
-4.519472122192382812e+01 -9.334700584411621094e+00 2.418549299240111861e+00 3.700000000000000000e+01
-3.581937313079833984e+00 -7.398278117179870605e-01 -7.109543085098266602e-01 1.200000000000000000e+01
-4.453639507293701172e+00 -9.182519316673278809e-01 -7.202242612838745117e-01 1.100000000000000000e+01
-5.945785522460938388e+00 -1.223739266395569070e+00 -7.453529238700866699e-01 1.100000000000000000e+01
-8.930317878723144531e+00 -1.836379766464232954e+00 -7.976493835449218750e-01 1.000000000000000000e+00
-3.432154464721679688e+01 -7.032717227935791016e+00 -6.115323305130004883e-01 7.000000000000000000e+00
-2.568985939025878906e+00 -5.221992135047912598e-01 -7.024348974227905273e-01 1.900000000000000000e+01
-4.518849182128906250e+01 -9.177276611328125000e+00 8.048700690269470215e-01 5.200000000000000000e+01
-2.990780830383300781e+00 -6.068506240844726562e-01 -7.045466899871826172e-01 1.300000000000000000e+01
-4.516991043090820312e+01 -9.157086372375488281e+00 2.415409088134766069e+00 3.700000000000000000e+01
-3.584624767303466797e+00 -7.266944050788879395e-01 -7.109543085098266602e-01 1.300000000000000000e+01
-4.455039024353027344e+00 -9.015305638313293457e-01 -7.199113965034484863e-01 1.200000000000000000e+01
-5.930773258209229404e+00 -1.198008179664612038e+00 -7.429155111312866211e-01 9.000000000000000000e+00
-8.890115737915039062e+00 -1.794176578521728960e+00 -7.934658527374267578e-01 1.000000000000000000e+00
-3.432748794555664062e+01 -6.902933120727539062e+00 -6.111832857131958008e-01 1.400000000000000000e+01
-2.572687625885010210e+00 -5.136067867279052734e-01 -7.029525041580200195e-01 1.900000000000000000e+01
-4.517710494995117188e+01 -9.010878562927246094e+00 8.041021823883056641e-01 5.200000000000000000e+01
-2.998614549636840820e+00 -5.975496768951416016e-01 -7.058964371681213379e-01 1.500000000000000000e+01
-4.522902297973632812e+01 -9.004817962646484375e+00 2.416874408721923828e+00 3.700000000000000000e+01
-3.571735858917235884e+00 -7.111105322837829590e-01 -7.079013586044311523e-01 1.300000000000000000e+01
-4.471721172332763672e+00 -8.886693716049194336e-01 -7.221015095710754395e-01 1.100000000000000000e+01
-5.942707538604736328e+00 -1.178843617439270020e+00 -7.438904643058776855e-01 9.000000000000000000e+00
-8.915867805480957031e+00 -1.767006635665893999e+00 -7.952089905738830566e-01 1.000000000000000000e+00
-3.439060974121093750e+01 -6.790813446044921875e+00 -6.118813753128051758e-01 7.000000000000000000e+00
-2.557315349578856978e+00 -5.017253160476684570e-01 -6.982938051223754883e-01 1.900000000000000000e+01
-4.517534255981445312e+01 -8.854862213134765625e+00 8.035436868667602539e-01 5.200000000000000000e+01
-3.008229255676269975e+00 -5.891006588935852051e-01 -7.076960206031799316e-01 1.500000000000000000e+01
-4.520767211914063211e+01 -8.844813346862792969e+00 2.414153099060059038e+00 3.700000000000000000e+01
-3.572147607803345171e+00 -6.988853216171264648e-01 -7.075197696685791016e-01 1.300000000000000000e+01
-4.461072444915770596e+00 -8.711854219436645508e-01 -7.199113965034484863e-01 1.000000000000000000e+01
-5.952429294586181641e+00 -1.160269737243651900e+00 -7.446216940879821777e-01 1.100000000000000000e+01
-8.898210525512695312e+00 -1.732860684394835982e+00 -7.931172847747802734e-01 1.000000000000000000e+00
-3.438545608520507812e+01 -6.671400070190429688e+00 -6.113926768302917480e-01 7.000000000000000000e+00
-2.559051036834716797e+00 -4.927955567836760919e-01 -6.982938051223754883e-01 1.900000000000000000e+01
-4.517455673217772727e+01 -8.691071510314941406e+00 8.029851913452148438e-01 5.200000000000000000e+01
-3.002612352371215820e+00 -5.771250724792480469e-01 -7.058964371681213379e-01 1.600000000000000000e+01
-4.520296478271483664e+01 -8.680175781250000000e+00 2.412268877029418945e+00 3.700000000000000000e+01
-3.584205627441405806e+00 -6.882631182670593262e-01 -7.094278335571289062e-01 1.300000000000000000e+01
-4.454385757446289062e+00 -8.537488579750061035e-01 -7.183470726013183594e-01 1.100000000000000000e+01
-5.968141555786132812e+00 -1.141722798347472922e+00 -7.460840940475463867e-01 1.100000000000000000e+01
-8.908119201660156250e+00 -1.702537536621093972e+00 -7.934658527374267578e-01 1.000000000000000000e+00
-3.438496017456054688e+01 -6.546843528747558594e+00 -6.109738349914550781e-01 7.000000000000000000e+00
-2.570246934890747070e+00 -4.856531918048859198e-01 -7.008819580078125000e-01 2.000000000000000000e+01
-4.517317962646483664e+01 -8.527395248413085938e+00 8.024267554283142090e-01 5.100000000000000000e+01
-2.993118762969971147e+00 -5.644736289978027344e-01 -7.031970024108886719e-01 1.500000000000000000e+01
-4.520158386230468750e+01 -8.516418457031250000e+00 2.410594224929810014e+00 3.700000000000000000e+01
-3.582727670669556108e+00 -6.750206947326660156e-01 -7.086645960807800293e-01 1.300000000000000000e+01
-4.449573516845703125e+00 -8.367347121238708496e-01 -7.170956134796142578e-01 1.100000000000000000e+01
-5.952579975128173828e+00 -1.117221355438231978e+00 -7.436467409133911133e-01 9.000000000000000000e+00
-8.863093376159667969e+00 -1.661885261535644975e+00 -7.889337539672851562e-01 1.000000000000000000e+00
-3.438794708251953125e+01 -6.423106193542479581e+00 -6.106247901916503906e-01 1.400000000000000000e+01
-2.568127632141112837e+00 -4.759742915630341131e-01 -6.998466849327087402e-01 1.900000000000000000e+01
