2.021149873733520952e+00 -1.535804986953734907e+00 -6.801764369010925293e-01 1.600000000000000000e+01
2.357825517654418945e+00 -1.792932271957397017e+00 -6.838511824607849121e-01 1.100000000000000000e+01
2.778208494186400923e+00 -2.113364219665526900e+00 -6.785168051719665527e-01 1.100000000000000000e+01
3.417044401168822798e+00 -2.601205825805664062e+00 -6.801770329475402832e-01 1.000000000000000000e+01
4.440396308898925781e+00 -3.382675409317017046e+00 -6.853932142257690430e-01 1.200000000000000000e+01
5.934634685516357422e+00 -4.522617340087890625e+00 -6.527965068817138672e-01 6.000000000000000000e+00
2.024981021881103960e+00 -1.549895763397217019e+00 -6.832822561264038086e-01 1.500000000000000000e+01
2.342270374298096147e+00 -1.794041872024535911e+00 -6.811518073081970215e-01 1.200000000000000000e+01
2.783281803131103960e+00 -2.132601737976074219e+00 -6.815697550773620605e-01 1.100000000000000000e+01
3.411078691482543945e+00 -2.615521669387816939e+00 -6.808027625083923340e-01 1.000000000000000000e+01
4.445885181427001953e+00 -3.411447763442993164e+00 -6.880742907524108887e-01 1.200000000000000000e+01
5.912489891052246094e+00 -4.538452625274658203e+00 -6.520992517471313477e-01 7.000000000000000000e+00
2.016770124435424805e+00 -1.554243803024291992e+00 -6.822469830513000488e-01 1.300000000000000000e+01
2.336308240890502930e+00 -1.801799297332763894e+00 -6.811518073081970215e-01 1.100000000000000000e+01
2.773085594177246094e+00 -2.139421224594116211e+00 -6.808065176010131836e-01 1.100000000000000000e+01
3.402386665344237837e+00 -2.626818656921387163e+00 -6.808027625083923340e-01 1.000000000000000000e+01
4.426693439483642578e+00 -3.420103549957274947e+00 -6.868556141853332520e-01 1.200000000000000000e+01
5.895831108093261719e+00 -4.556816101074218750e+00 -6.519249677658081055e-01 5.000000000000000000e+00
2.018962621688843218e+00 -1.567197084426880105e+00 -6.848351955413818359e-01 1.400000000000000000e+01
2.336160421371459961e+00 -1.814725399017333984e+00 -6.829513907432556152e-01 1.100000000000000000e+01
2.754749059677124023e+00 -2.140655517578125000e+00 -6.781351566314697266e-01 1.200000000000000000e+01
3.399434089660644975e+00 -2.643529891967772993e+00 -6.820542812347412109e-01 1.000000000000000000e+01
4.417861461639404297e+00 -3.437973260879517046e+00 -6.873431205749511719e-01 1.200000000000000000e+01
5.911332130432128906e+00 -4.601846218109130859e+00 -6.554111838340759277e-01 7.000000000000000000e+00
2.008913993835449219e+00 -1.570665359497070090e+00 -6.832822561264038086e-01 1.500000000000000000e+01
2.332881212234497070e+00 -1.825270771980286089e+00 -6.838511824607849121e-01 1.200000000000000000e+01
2.748805999755858931e+00 -2.151468276977539062e+00 -6.785168051719665527e-01 1.100000000000000000e+01
3.390185832977294922e+00 -2.655380010604857954e+00 -6.820542812347412109e-01 1.000000000000000000e+01
4.407396316528320312e+00 -3.454597949981689009e+00 -6.875868439674377441e-01 1.000000000000000000e+01
5.790184497833251953e+00 -4.540084362030029297e+00 -6.437323093414306641e-01 7.000000000000000000e+00
1.998865962028502974e+00 -1.574082493782043013e+00 -6.817293763160705566e-01 1.400000000000000000e+01
2.324965000152587891e+00 -1.832196712493896040e+00 -6.834012866020202637e-01 1.200000000000000000e+01
2.745904684066772017e+00 -2.164696693420410156e+00 -6.796616315841674805e-01 1.100000000000000000e+01
3.373141765594481978e+00 -2.661080360412598100e+00 -6.804898977279663086e-01 1.000000000000000000e+01
4.403100967407226562e+00 -3.476111888885498047e+00 -6.888055205345153809e-01 1.200000000000000000e+01
5.714885234832763672e+00 -4.513344287872313565e+00 -6.371085047721862793e-01 1.300000000000000000e+01
2.002717733383179155e+00 -1.587903738021851030e+00 -6.848351955413818359e-01 1.400000000000000000e+01
2.308190345764160156e+00 -1.831417679786681907e+00 -6.802520155906677246e-01 1.100000000000000000e+01
2.744862079620360884e+00 -2.178672790527344194e+00 -6.811881065368652344e-01 1.200000000000000000e+01
3.375126361846923828e+00 -2.680851697921752930e+00 -6.826800107955932617e-01 1.000000000000000000e+01
4.394657611846923828e+00 -3.493164300918579102e+00 -6.892930269241333008e-01 1.400000000000000000e+01
5.832442760467529297e+00 -4.637672424316406250e+00 -6.519249677658081055e-01 7.000000000000000000e+00
1.997162699699402078e+00 -1.594884872436522993e+00 -6.848351955413818359e-01 1.300000000000000000e+01
2.307872772216796875e+00 -1.844329953193664995e+00 -6.820515990257263184e-01 1.200000000000000000e+01
2.740307331085205078e+00 -2.190692663192749023e+00 -6.819513440132141113e-01 1.100000000000000000e+01
3.368832826614379883e+00 -2.695084810256958008e+00 -6.833057403564453125e-01 1.000000000000000000e+01
4.379337787628173828e+00 -3.506002187728881836e+00 -6.888055205345153809e-01 1.200000000000000000e+01
5.808443069458007812e+00 -4.651775836944580078e+00 -6.510533690452575684e-01 6.000000000000000000e+00
1.991583347320557085e+00 -1.601846575736999956e+00 -6.848351955413818359e-01 1.400000000000000000e+01
2.309011220932006836e+00 -1.858484029769897017e+00 -6.843010783195495605e-01 1.200000000000000000e+01
2.721939325332642046e+00 -2.191626071929932085e+00 -6.792800426483154297e-01 1.100000000000000000e+01
3.365557432174683061e+00 -2.711785316467285156e+00 -6.845571994781494141e-01 1.000000000000000000e+01
4.376344680786132812e+00 -3.528743505477904829e+00 -6.902679800987243652e-01 1.200000000000000000e+01
5.823185443878173828e+00 -4.697040557861328125e+00 -6.545396447181701660e-01 9.000000000000000000e+00
1.976973056793212891e+00 -1.601492643356323020e+00 -6.817293763160705566e-01 1.500000000000000000e+01
2.308565139770507812e+00 -1.871441364288330078e+00 -6.861007213592529297e-01 1.300000000000000000e+01
2.721897125244141069e+00 -2.207296848297119141e+00 -6.811881065368652344e-01 1.000000000000000000e+01
3.356071233749390093e+00 -2.723516941070557085e+00 -6.845571994781494141e-01 1.000000000000000000e+01
4.370164394378662109e+00 -3.549004077911376953e+00 -6.912429332733154297e-01 1.200000000000000000e+01
5.789743900299072266e+00 -4.703519344329833984e+00 -6.526222229003906250e-01 6.000000000000000000e+00
1.971370816230773926e+00 -1.608383774757385032e+00 -6.817293763160705566e-01 1.400000000000000000e+01
2.306547164916992188e+00 -1.883185744285583052e+00 -6.874504089355468750e-01 1.300000000000000000e+01
2.714175462722777876e+00 -2.216784715652465820e+00 -6.811881065368652344e-01 1.000000000000000000e+01
3.340425729751586914e+00 -2.730214834213256836e+00 -6.833057403564453125e-01 1.000000000000000000e+01
4.370042324066162109e+00 -3.574291467666625977e+00 -6.931928396224975586e-01 1.400000000000000000e+01
5.824176311492919922e+00 -4.765336036682128906e+00 -6.583744883537292480e-01 7.000000000000000000e+00
1.980670332908629927e+00 -1.627519965171813965e+00 -6.869057416915893555e-01 1.600000000000000000e+01
2.286412477493286133e+00 -1.880086183547974077e+00 -6.834012866020202637e-01 1.200000000000000000e+01
2.710969686508179155e+00 -2.229986906051636186e+00 -6.823329925537109375e-01 1.100000000000000000e+01
3.330875158309936968e+00 -2.741858243942261186e+00 -6.833057403564453125e-01 1.000000000000000000e+01
4.360603332519531250e+00 -3.592048168182373047e+00 -6.936802864074707031e-01 1.200000000000000000e+01
5.836721420288085938e+00 -4.809710979461669922e+00 -6.616864204406738281e-01 7.000000000000000000e+00
1.976750969886780007e+00 -1.635310649871825950e+00 -6.874234080314636230e-01 1.400000000000000000e+01
2.278664350509643999e+00 -1.886415243148803933e+00 -6.829513907432556152e-01 1.100000000000000000e+01
2.703559875488280806e+00 -2.238964557647705078e+00 -6.823329925537109375e-01 1.100000000000000000e+01
3.333932161331177202e+00 -2.762972593307495117e+00 -6.858087182044982910e-01 1.000000000000000000e+01
4.339499473571777344e+00 -3.598885536193848100e+00 -6.922178864479064941e-01 1.200000000000000000e+01
5.822272777557373047e+00 -4.830311775207520419e+00 -6.618607044219970703e-01 7.000000000000000000e+00
1.965093731880187988e+00 -1.637254357337952104e+00 -6.853528022766113281e-01 1.400000000000000000e+01
2.284039497375487837e+00 -1.904341220855712891e+00 -6.865506172180175781e-01 1.400000000000000000e+01
2.691204786300659180e+00 -2.244615554809569868e+00 -6.811881065368652344e-01 1.000000000000000000e+01
3.328816890716553178e+00 -2.778390884399414062e+00 -6.867473125457763672e-01 1.100000000000000000e+01
4.326910972595214844e+00 -3.614011287689208984e+00 -6.922178864479064941e-01 1.200000000000000000e+01
5.565333366394042969e+00 -4.650041103363037109e+00 -6.344938278198242188e-01 6.000000000000000000e+00
1.960846543312072976e+00 -1.645345687866210938e+00 -6.858704686164855957e-01 1.400000000000000000e+01
2.275885820388793945e+00 -1.911049246788024902e+00 -6.861007213592529297e-01 1.300000000000000000e+01
2.683353185653686968e+00 -2.253996133804320845e+00 -6.811881065368652344e-01 1.000000000000000000e+01
3.320610523223876953e+00 -2.791264772415161133e+00 -6.870601773262023926e-01 1.000000000000000000e+01
4.332498550415039062e+00 -3.644427061080933061e+00 -6.951427459716796875e-01 1.200000000000000000e+01
5.724381923675537109e+00 -4.816962718963623047e+00 -6.545396447181701660e-01 7.000000000000000000e+00
1.950664758682250977e+00 -1.648439526557921919e+00 -6.843175292015075684e-01 1.400000000000000000e+01
2.266225337982178178e+00 -1.916465163230895996e+00 -6.852009296417236328e-01 1.200000000000000000e+01
2.687459945678710938e+00 -2.273492813110352007e+00 -6.842410564422607422e-01 1.000000000000000000e+01
3.301800966262816939e+00 -2.795180797576903853e+00 -6.851829290390014648e-01 1.000000000000000000e+01
2.843246459960937855e+01 -2.407837677001953125e+01 4.574731349945068359e+00 1.900000000000000000e+01
4.331867694854736328e+00 -3.669793367385863814e+00 -6.970926523208618164e-01 1.200000000000000000e+01
5.655853271484375000e+00 -4.793118953704833984e+00 -6.486130356788635254e-01 6.000000000000000000e+00
1.950783371925354004e+00 -1.660246849060059038e+00 -6.863881349563598633e-01 1.400000000000000000e+01
2.253587245941162109e+00 -1.919309973716736062e+00 -6.834012866020202637e-01 1.300000000000000000e+01
2.685485363006591797e+00 -2.287952661514281782e+00 -6.857675313949584961e-01 1.000000000000000000e+01
3.289017438888549805e+00 -2.804126024246215820e+00 -6.845571994781494141e-01 1.000000000000000000e+01
2.842375946044921875e+01 -2.424188613891601918e+01 4.586918354034423828e+00 1.900000000000000000e+01
4.306950092315673828e+00 -3.674584627151488814e+00 -6.951427459716796875e-01 1.200000000000000000e+01
5.343569755554199219e+00 -4.560614585876464844e+00 -6.146222949028015137e-01 8.000000000000000000e+00
1.946442961692810059e+00 -1.668303370475769043e+00 -6.869057416915893555e-01 1.500000000000000000e+01
2.254269838333129883e+00 -1.933508276939392090e+00 -6.856508255004882812e-01 1.100000000000000000e+01
2.671522617340087891e+00 -2.292199373245238814e+00 -6.842410564422607422e-01 1.000000000000000000e+01
3.291198968887329102e+00 -2.825884342193603960e+00 -6.870601773262023926e-01 1.000000000000000000e+01
4.297108650207520419e+00 -3.692183732986450195e+00 -6.956301927566528320e-01 1.200000000000000000e+01
5.524041175842285156e+00 -4.748071193695068359e+00 -6.372827887535095215e-01 6.000000000000000000e+00
1.944994807243346946e+00 -1.678874492645263894e+00 -6.884586811065673828e-01 1.500000000000000000e+01
2.250456333160399947e+00 -1.943913102149962935e+00 -6.865506172180175781e-01 1.300000000000000000e+01
2.654592037200928178e+00 -2.293808937072753906e+00 -6.819513440132141113e-01 1.000000000000000000e+01
3.284303188323975053e+00 -2.839939594268798828e+00 -6.876859068870544434e-01 1.000000000000000000e+01
4.299205303192138672e+00 -3.720150232315063032e+00 -6.980676054954528809e-01 1.200000000000000000e+01
5.400478839874267578e+00 -4.674742698669433594e+00 -6.249066591262817383e-01 6.000000000000000000e+00
1.928916692733765093e+00 -1.676781773567199929e+00 -6.848351955413818359e-01 1.500000000000000000e+01
2.251008510589600053e+00 -1.958151817321776900e+00 -6.888001561164855957e-01 1.300000000000000000e+01
2.655455112457274947e+00 -2.310793876647949219e+00 -6.842410564422607422e-01 1.000000000000000000e+01
3.274369716644287109e+00 -2.851386785507202148e+00 -6.876859068870544434e-01 1.000000000000000000e+01
4.286193370819091797e+00 -3.735134601593018022e+00 -6.980676054954528809e-01 1.200000000000000000e+01
5.615412712097167969e+00 -4.895185947418212891e+00 -6.517506241798400879e-01 8.000000000000000000e+00
1.925958991050719993e+00 -1.686049699783324973e+00 -6.858704686164855957e-01 1.600000000000000000e+01
2.244159698486328125e+00 -1.965997457504272017e+00 -6.888001561164855957e-01 1.200000000000000000e+01
2.647372722625731978e+00 -2.320049285888671875e+00 -6.842410564422607422e-01 1.000000000000000000e+01
3.267367124557495117e+00 -2.865403890609741211e+00 -6.883116364479064941e-01 1.000000000000000000e+01
4.282081604003906250e+00 -3.757929801940917969e+00 -6.995300054550170898e-01 1.200000000000000000e+01
5.628236293792724609e+00 -4.941046714782714844e+00 -6.552368998527526855e-01 1.100000000000000000e+01
1.927307367324829102e+00 -1.699150085449218972e+00 -6.884586811065673828e-01 1.500000000000000000e+01
2.228515386581420898e+00 -1.966083645820617898e+00 -6.861007213592529297e-01 1.200000000000000000e+01
2.648089885711669922e+00 -2.337070703506470171e+00 -6.865307688713073730e-01 1.000000000000000000e+01
3.251422643661499023e+00 -2.871561288833618164e+00 -6.870601773262023926e-01 1.000000000000000000e+01
4.274887561798095703e+00 -3.778112411499022993e+00 -7.005049586296081543e-01 1.200000000000000000e+01
5.579608440399169922e+00 -4.932949542999267578e+00 -6.515763401985168457e-01 7.000000000000000000e+00
1.924849987030029075e+00 -1.707760691642761008e+00 -6.894939541816711426e-01 1.500000000000000000e+01
2.220870494842528853e+00 -1.971781134605407937e+00 -6.856508255004882812e-01 1.200000000000000000e+01
2.636331081390380859e+00 -2.341467142105102983e+00 -6.853858828544616699e-01 1.100000000000000000e+01
3.254197120666503906e+00 -2.892259836196898970e+00 -6.895630955696105957e-01 1.000000000000000000e+01
4.255580425262451172e+00 -3.784927606582642046e+00 -6.992862820625305176e-01 1.000000000000000000e+01
5.556641101837158203e+00 -4.943832397460938388e+00 -6.507048010826110840e-01 9.000000000000000000e+00
1.917436480522155984e+00 -1.713182091712952104e+00 -6.889762878417968750e-01 1.500000000000000000e+01
2.222690582275391069e+00 -1.987314820289612038e+00 -6.883502006530761719e-01 1.300000000000000000e+01
2.632531642913817915e+00 -2.354581832885742188e+00 -6.865307688713073730e-01 1.100000000000000000e+01
3.249969244003295898e+00 -2.908871173858643022e+00 -6.908146142959594727e-01 1.000000000000000000e+01
4.255650997161865234e+00 -3.811678886413574219e+00 -7.014799118041992188e-01 1.300000000000000000e+01
5.530447006225585938e+00 -4.955221176147460938e+00 -6.496589183807373047e-01 9.000000000000000000e+00
1.898519873619080034e+00 -1.708235383033751997e+00 -6.843175292015075684e-01 1.500000000000000000e+01
2.217188358306885210e+00 -1.996365308761596902e+00 -6.888001561164855957e-01 1.200000000000000000e+01
2.614085435867310014e+00 -2.354559421539307085e+00 -6.838594675064086914e-01 1.100000000000000000e+01
3.233926296234130859e+00 -2.914907693862915039e+00 -6.895630955696105957e-01 1.000000000000000000e+01
4.249690055847167969e+00 -3.833158493041992188e+00 -7.026986479759216309e-01 1.100000000000000000e+01
5.485010623931884766e+00 -4.949136257171630859e+00 -6.463469862937927246e-01 1.400000000000000000e+01
1.901134848594665971e+00 -1.722635030746459961e+00 -6.874234080314636230e-01 1.600000000000000000e+01
2.201544284820557085e+00 -1.996238470077515093e+00 -6.861007213592529297e-01 1.300000000000000000e+01
2.616029739379882812e+00 -2.372902870178223100e+00 -6.865307688713073730e-01 1.100000000000000000e+01
3.222269058227539062e+00 -2.924850940704346147e+00 -6.892502307891845703e-01 1.000000000000000000e+01
4.233345031738281250e+00 -3.845299959182738814e+00 -7.022111415863037109e-01 1.100000000000000000e+01
5.480972766876220703e+00 -4.980311393737792969e+00 -6.479157805442810059e-01 1.900000000000000000e+01
3.736047363281250000e+01 -3.399541473388671875e+01 -8.816955685615539551e-01 1.300000000000000000e+01
1.897964239120482954e+00 -1.731865048408508079e+00 -6.884586811065673828e-01 1.600000000000000000e+01
2.194562673568726030e+00 -2.003911256790161133e+00 -6.861007213592529297e-01 1.300000000000000000e+01
2.613528966903686968e+00 -2.387316465377808061e+00 -6.880572438240051270e-01 1.000000000000000000e+01
3.212039709091186968e+00 -2.936080932617187944e+00 -6.892502307891845703e-01 9.000000000000000000e+00
4.228685379028320312e+00 -3.868092775344849077e+00 -7.036736011505126953e-01 1.100000000000000000e+01
5.462084770202636719e+00 -4.998067855834960938e+00 -6.477414965629577637e-01 1.500000000000000000e+01
1.894752383232116921e+00 -1.741093873977660911e+00 -6.894939541816711426e-01 1.600000000000000000e+01
2.188988924026488814e+00 -2.012878417968750000e+00 -6.865506172180175781e-01 1.400000000000000000e+01
2.603734731674193892e+00 -2.395095586776732954e+00 -6.876755952835083008e-01 9.000000000000000000e+00
3.213398218154906782e+00 -2.957977771759033203e+00 -6.917532086372375488e-01 9.000000000000000000e+00
4.209317207336425781e+00 -3.877450227737427202e+00 -7.026986479759216309e-01 1.100000000000000000e+01
5.443140029907226562e+00 -5.015753746032714844e+00 -6.475671529769897461e-01 1.100000000000000000e+01
1.884409546852112038e+00 -1.743760943412780984e+00 -6.879410147666931152e-01 1.600000000000000000e+01
2.183379173278809038e+00 -2.021831274032593218e+00 -6.870005130767822266e-01 1.300000000000000000e+01
2.591037750244141069e+00 -2.400167226791381836e+00 -6.865307688713073730e-01 9.000000000000000000e+00
3.203053474426269975e+00 -2.969176769256591797e+00 -6.917532086372375488e-01 1.000000000000000000e+01
4.198667049407958984e+00 -3.894819974899291992e+00 -7.031860947608947754e-01 1.100000000000000000e+01
5.501542091369628906e+00 -5.105195999145507812e+00 -6.566313505172729492e-01 7.000000000000000000e+00
1.881137847900391069e+00 -1.752962112426758035e+00 -6.889762878417968750e-01 1.600000000000000000e+01
2.187710046768188032e+00 -2.040072679519652876e+00 -6.905997395515441895e-01 1.300000000000000000e+01
2.578336954116820845e+00 -2.405179500579833984e+00 -6.853858828544616699e-01 1.000000000000000000e+01
3.191225528717041016e+00 -2.978991508483887163e+00 -6.914403438568115234e-01 1.000000000000000000e+01
4.203904151916503906e+00 -3.927068471908568892e+00 -7.063547372817993164e-01 9.000000000000000000e+00
5.463308334350585938e+00 -5.105323791503906250e+00 -6.541910171508789062e-01 1.100000000000000000e+01
1.875007390975951926e+00 -1.759517908096313032e+00 -6.889762878417968750e-01 1.500000000000000000e+01
2.174893379211425781e+00 -2.042360782623291016e+00 -6.888001561164855957e-01 1.300000000000000000e+01
2.585665702819824219e+00 -2.428951025009154829e+00 -6.895837187767028809e-01 1.100000000000000000e+01
3.175050258636475053e+00 -2.984700679779053178e+00 -6.901888847351074219e-01 1.000000000000000000e+01
2.622251129150390980e+01 -2.465904998779296875e+01 4.419713497161865234e+00 1.800000000000000000e+01
4.197400093078613281e+00 -3.948519706726074219e+00 -7.075734138488769531e-01 1.100000000000000000e+01
5.428042411804199219e+00 -5.107978343963623047e+00 -6.520992517471313477e-01 9.000000000000000000e+00
1.873066425323486106e+00 -1.770032763481139915e+00 -6.905292272567749023e-01 1.400000000000000000e+01
2.162087202072143999e+00 -2.044584274291992188e+00 -6.870005130767822266e-01 1.500000000000000000e+01
2.585728645324707031e+00 -2.446057081222534180e+00 -6.918734312057495117e-01 1.000000000000000000e+01
3.173219680786132812e+00 -3.003913640975952148e+00 -6.920660734176635742e-01 1.000000000000000000e+01
4.183591842651367188e+00 -3.963147401809691939e+00 -7.075734138488769531e-01 1.100000000000000000e+01
2.771490859985351918e+01 -2.625453758239746094e+01 6.046504974365234375e+00 1.400000000000000000e+01
5.430425643920898438e+00 -5.146081447601318359e+00 -6.545396447181701660e-01 8.000000000000000000e+00
1.882270455360413042e+00 -1.791209459304810014e+00 -6.962232589721679688e-01 1.800000000000000000e+01
2.157759666442871094e+00 -2.054806709289550781e+00 -6.879003047943115234e-01 1.900000000000000000e+01
2.571488618850708008e+00 -2.449651479721068892e+00 -6.903469562530517578e-01 1.000000000000000000e+01
3.165574312210083008e+00 -3.017697811126708984e+00 -6.926918029785156250e-01 1.000000000000000000e+01
2.696339416503905895e+01 -2.571281051635741832e+01 4.574731349945068359e+00 1.900000000000000000e+01
4.163986682891845703e+00 -3.972245931625366211e+00 -7.065984606742858887e-01 1.100000000000000000e+01
2.710567855834960938e+01 -2.585753250122069957e+01 5.933246612548828125e+00 1.300000000000000000e+01
5.426843643188476562e+00 -5.178760528564453125e+00 -6.562827229499816895e-01 6.000000000000000000e+00
1.859268903732300027e+00 -1.781729340553283913e+00 -6.900115609169006348e-01 1.800000000000000000e+01
2.159013032913208008e+00 -2.070419073104857954e+00 -6.905997395515441895e-01 1.800000000000000000e+01
2.560088396072388139e+00 -2.455894470214844194e+00 -6.895837187767028809e-01 1.200000000000000000e+01
3.160721540451049805e+00 -3.034201383590697798e+00 -6.939432621002197266e-01 1.000000000000000000e+01
4.161548137664794922e+00 -3.997758388519287109e+00 -7.085483670234680176e-01 1.100000000000000000e+01
2.701525497436523082e+01 -2.595199012756348012e+01 5.933246612548828125e+00 1.300000000000000000e+01
5.446084499359130859e+00 -5.233565807342529297e+00 -6.608148217201232910e-01 7.000000000000000000e+00
1.851647973060607910e+00 -1.786867022514343040e+00 -6.894939541816711426e-01 1.500000000000000000e+01
2.154576301574707031e+00 -2.080650091171265093e+00 -6.914995312690734863e-01 1.900000000000000000e+01
2.547264099121094194e+00 -2.460723638534545898e+00 -6.884388327598571777e-01 1.200000000000000000e+01
3.147270441055297852e+00 -3.042469978332519975e+00 -6.933175325393676758e-01 1.000000000000000000e+01
4.140434265136718750e+00 -4.005359649658203125e+00 -7.073296904563903809e-01 9.000000000000000000e+00
5.359058380126953125e+00 -5.186038970947265625e+00 -6.524478793144226074e-01 7.000000000000000000e+00
1.845399379730225053e+00 -1.793319582939147949e+00 -6.894939541816711426e-01 1.500000000000000000e+01
2.148697376251221147e+00 -2.089516878128052202e+00 -6.919494271278381348e-01 2.000000000000000000e+01
2.554138660430908203e+00 -2.484658956527709961e+00 -6.926366686820983887e-01 1.200000000000000000e+01
3.123892068862915039e+00 -3.041036367416381836e+00 -6.905017495155334473e-01 1.000000000000000000e+01
2.775928115844726918e+01 -2.703245353698730113e+01 4.757535457611083984e+00 2.000000000000000000e+01
4.142068862915039062e+00 -4.035025119781494141e+00 -7.100107669830322266e-01 1.100000000000000000e+01
5.306677341461181641e+00 -5.171341419219970703e+00 -6.482644081115722656e-01 1.100000000000000000e+01
1.846347212791443093e+00 -1.806183934211730957e+00 -6.920821070671081543e-01 1.500000000000000000e+01
2.136186361312866211e+00 -2.091177940368651900e+00 -6.901498436927795410e-01 1.900000000000000000e+01
2.550093412399291992e+00 -2.497236013412476030e+00 -6.937814950942993164e-01 1.200000000000000000e+01
3.120844841003417969e+00 -3.058291673660277876e+00 -6.920660734176635742e-01 1.000000000000000000e+01
2.671404647827148082e+01 -2.618774223327637074e+01 4.593255519866943359e+00 1.900000000000000000e+01
4.121578693389892578e+00 -4.041789054870604581e+00 -7.087920904159545898e-01 9.000000000000000000e+00
5.290921688079833984e+00 -5.190305709838867188e+00 -6.484387516975402832e-01 7.000000000000000000e+00
2.718125152587890980e+01 -2.669229698181151988e+01 8.795136451721191406e+00 1.100000000000000000e+01
2.770888519287109020e+01 -2.721994018554687855e+01 -6.779910922050476074e-01 8.000000000000000000e+00
1.845536112785338911e+00 -1.818040847778320090e+00 -6.941526532173156738e-01 1.700000000000000000e+01
2.131649255752563032e+00 -2.101357936859130859e+00 -6.910496354103088379e-01 1.900000000000000000e+01
2.535769224166870117e+00 -2.500608205795288086e+00 -6.922550201416015625e-01 1.100000000000000000e+01
3.117180585861206055e+00 -3.076104402542113814e+00 -6.936303973197937012e-01 1.000000000000000000e+01
2.695869636535644887e+01 -2.661274147033691051e+01 4.651265144348145419e+00 1.900000000000000000e+01
4.111682891845703125e+00 -4.060335636138916016e+00 -7.095233201980590820e-01 1.100000000000000000e+01
2.795158958435058949e+01 -2.761216545104980113e+01 6.222962856292724609e+00 1.400000000000000000e+01
5.295450210571289062e+00 -5.231146335601806641e+00 -6.512277126312255859e-01 7.000000000000000000e+00
2.699923133850098012e+01 -2.669931983947753906e+01 8.766342163085937500e+00 1.100000000000000000e+01
2.755399131774901988e+01 -2.725743103027344105e+01 -6.765250563621520996e-01 8.000000000000000000e+00
1.833375215530395952e+00 -1.819349765777587891e+00 -6.920821070671081543e-01 1.600000000000000000e+01
2.126698732376099077e+00 -2.111903190612792969e+00 -6.919494271278381348e-01 1.900000000000000000e+01
2.519623041152954102e+00 -2.502967357635498047e+00 -6.903469562530517578e-01 1.200000000000000000e+01
3.117092609405518022e+00 -3.098649978637694868e+00 -6.961333751678466797e-01 1.000000000000000000e+01
2.693416786193848012e+01 -2.678415870666503906e+01 4.663939952850341797e+00 2.000000000000000000e+01
4.093958377838134766e+00 -4.072578430175781250e+00 -7.090358138084411621e-01 1.100000000000000000e+01
5.120892047882080078e+00 -5.095927715301513672e+00 -6.320534348487854004e-01 7.000000000000000000e+00
1.827013373374938965e+00 -1.825738310813904031e+00 -6.920821070671081543e-01 1.500000000000000000e+01
2.126203536987305132e+00 -2.126203536987305132e+00 -6.941989660263061523e-01 2.000000000000000000e+01
2.512258529663085938e+00 -2.513135671615601030e+00 -6.907285451889038086e-01 1.100000000000000000e+01
3.104861259460449219e+00 -3.108114242553710938e+00 -6.958205103874206543e-01 1.100000000000000000e+01
2.658241462707519887e+01 -2.661955642700194957e+01 4.619091987609863281e+00 1.900000000000000000e+01
4.090937137603759766e+00 -4.098083496093750000e+00 -7.109857201576232910e-01 1.100000000000000000e+01
5.084776878356933594e+00 -5.095438003540039062e+00 -6.297873854637145996e-01 1.200000000000000000e+01
1.818225026130676047e+00 -1.829046726226807085e+00 -6.910468339920043945e-01 1.600000000000000000e+01
2.116394519805908203e+00 -2.130477666854857954e+00 -6.932991743087768555e-01 2.000000000000000000e+01
2.517744779586791992e+00 -2.535383462905883789e+00 -6.945447325706481934e-01 1.100000000000000000e+01
3.088971614837646040e+00 -3.112784624099731001e+00 -6.945690512657165527e-01 1.000000000000000000e+01
4.085711479187011719e+00 -4.120084285736083984e+00 -7.124481797218322754e-01 1.100000000000000000e+01
2.623867607116698863e+01 -2.645941734313964844e+01 5.901959419250488281e+00 1.300000000000000000e+01
5.126764297485351562e+00 -5.171700000762938565e+00 -6.371085047721862793e-01 9.000000000000000000e+00
1.821329593658447044e+00 -1.845006108283997026e+00 -6.946703195571899414e-01 1.900000000000000000e+01
2.104839086532593218e+00 -2.133690357208251953e+00 -6.919494271278381348e-01 2.100000000000000000e+01
2.508879184722899947e+00 -2.544156551361083984e+00 -6.945447325706481934e-01 1.200000000000000000e+01
3.086406230926514116e+00 -3.131990194320679155e+00 -6.964462399482727051e-01 1.100000000000000000e+01
2.635602760314941051e+01 -2.675462532043457031e+01 4.611292362213134766e+00 1.900000000000000000e+01
4.071304798126220703e+00 -4.134320735931395596e+00 -7.124481797218322754e-01 1.100000000000000000e+01
5.072339534759520596e+00 -5.152647972106933594e+00 -6.325764060020446777e-01 1.300000000000000000e+01
1.813525915145874023e+00 -1.849972963333130105e+00 -6.941526532173156738e-01 1.700000000000000000e+01
2.096014499664307085e+00 -2.139632463455200195e+00 -6.914995312690734863e-01 2.000000000000000000e+01
2.494488716125487837e+00 -2.547287940979003906e+00 -6.930182576179504395e-01 1.100000000000000000e+01
3.075454711914062944e+00 -3.142744779586791992e+00 -6.964462399482727051e-01 1.100000000000000000e+01
4.061012268066406250e+00 -4.152764797210693359e+00 -7.131794095039367676e-01 1.300000000000000000e+01
5.050144195556640625e+00 -5.166048526763916016e+00 -6.320534348487854004e-01 1.500000000000000000e+01
1.811099886894226074e+00 -1.860444903373718040e+00 -6.957055926322937012e-01 1.600000000000000000e+01
2.093968391418457031e+00 -2.152523279190063032e+00 -6.932991743087768555e-01 2.000000000000000000e+01
2.481475591659545898e+00 -2.551757335662841797e+00 -6.918734312057495117e-01 1.100000000000000000e+01
3.069972515106201172e+00 -3.159127473831177202e+00 -6.976976990699768066e-01 1.100000000000000000e+01
4.043725967407226562e+00 -4.164067268371582031e+00 -7.126919031143188477e-01 1.300000000000000000e+01
2.587758827209473012e+01 -2.664770507812500000e+01 5.883187294006347656e+00 1.300000000000000000e+01
5.044570446014404297e+00 -5.196511268615722656e+00 -6.336222290992736816e-01 9.000000000000000000e+00
1.792510271072387917e+00 -1.854254841804503950e+00 -6.910468339920043945e-01 1.700000000000000000e+01
2.093211889266968218e+00 -2.166827201843262163e+00 -6.955486536026000977e-01 2.200000000000000000e+01
2.479372262954711914e+00 -2.567465066909790039e+00 -6.937814950942993164e-01 1.300000000000000000e+01
3.054811239242554155e+00 -3.165560245513916016e+00 -6.967591047286987305e-01 1.100000000000000000e+01
2.690134239196776988e+01 -2.788636016845703125e+01 4.757535457611083984e+00 2.000000000000000000e+01
4.026410102844238281e+00 -4.175299167633056641e+00 -7.122044563293457031e-01 1.300000000000000000e+01
5.123195171356201172e+00 -5.314497470855712891e+00 -6.458240747451782227e-01 1.300000000000000000e+01
1.792716026306151900e+00 -1.867468714714050071e+00 -6.936350464820861816e-01 1.900000000000000000e+01
2.082937240600585938e+00 -2.171308279037476030e+00 -6.946488618850708008e-01 2.100000000000000000e+01
2.478548049926757812e+00 -2.584605932235718218e+00 -6.960712075233459473e-01 1.100000000000000000e+01
3.047842979431151900e+00 -3.180482864379882812e+00 -6.976976990699768066e-01 1.100000000000000000e+01
4.017302989959716797e+00 -4.195063591003417969e+00 -7.131794095039367676e-01 1.300000000000000000e+01
5.071546554565429688e+00 -5.297806739807128906e+00 -6.416406035423278809e-01 1.300000000000000000e+01
1.790185451507567915e+00 -1.877910017967223899e+00 -6.951879262924194336e-01 1.800000000000000000e+01
2.067280530929564986e+00 -2.170099735260010210e+00 -6.919494271278381348e-01 1.900000000000000000e+01
2.472218751907349077e+00 -2.596085548400878906e+00 -6.968344449996948242e-01 1.200000000000000000e+01
3.036722421646118164e+00 -3.191102504730225053e+00 -6.976976990699768066e-01 1.100000000000000000e+01
3.999898910522460938e+00 -4.206183910369873047e+00 -7.126919031143188477e-01 1.300000000000000000e+01
5.064004898071289062e+00 -5.327029705047607422e+00 -6.430350542068481445e-01 9.000000000000000000e+00
1.790259838104248047e+00 -1.891162157058716042e+00 -6.977761387825012207e-01 1.900000000000000000e+01
2.067728042602539062e+00 -2.185796737670897993e+00 -6.946488618850708008e-01 2.200000000000000000e+01
2.464490652084351030e+00 -2.606125831604003906e+00 -6.972160935401916504e-01 1.200000000000000000e+01
3.036418914794921875e+00 -3.213169097900391069e+00 -7.002006769180297852e-01 1.100000000000000000e+01
2.660784721374512074e+01 -2.816653633117676137e+01 4.757535457611083984e+00 2.000000000000000000e+01
3.996095657348632812e+00 -4.231666564941406250e+00 -7.146418094635009766e-01 1.300000000000000000e+01
5.056320667266845703e+00 -5.356264591217041016e+00 -6.444295644760131836e-01 1.000000000000000000e+01
1.774055719375609907e+00 -1.887856483459473100e+00 -6.941526532173156738e-01 1.600000000000000000e+01
2.061036825180054155e+00 -2.194781303405762163e+00 -6.950987577438354492e-01 1.900000000000000000e+01
2.445516347885131836e+00 -2.605121374130249023e+00 -6.945447325706481934e-01 1.200000000000000000e+01
3.038136482238769975e+00 -3.238683462142943892e+00 -7.033293843269348145e-01 1.100000000000000000e+01
2.650443267822265980e+01 -2.826387023925780895e+01 4.757535457611083984e+00 2.000000000000000000e+01
3.975128650665283203e+00 -4.240491390228270596e+00 -7.136668562889099121e-01 1.300000000000000000e+01
5.042104244232177734e+00 -5.380576133728027344e+00 -6.451268196105957031e-01 7.000000000000000000e+00
1.764819145202636941e+00 -1.891212821006774902e+00 -6.931173801422119141e-01 1.800000000000000000e+01
2.062666416168212891e+00 -2.211938858032227007e+00 -6.982480883598327637e-01 2.100000000000000000e+01
2.436407804489136186e+00 -2.613641977310181108e+00 -6.945447325706481934e-01 1.200000000000000000e+01
3.020080804824829102e+00 -3.242041826248168945e+00 -7.017650008201599121e-01 1.100000000000000000e+01
2.640561103820801137e+01 -2.835621643066405895e+01 4.757535457611083984e+00 2.000000000000000000e+01
3.976532936096190962e+00 -4.271777153015136719e+00 -7.165917158126831055e-01 1.300000000000000000e+01
5.001575469970703125e+00 -5.374806404113770419e+00 -6.423377990722656250e-01 7.000000000000000000e+00
1.763459086418152078e+00 -1.903029680252074973e+00 -6.951879262924194336e-01 1.700000000000000000e+01
2.049636363983153853e+00 -2.213406085968018022e+00 -6.964484453201293945e-01 1.900000000000000000e+01
2.439272642135620117e+00 -2.635097265243529829e+00 -6.979793310165405273e-01 1.200000000000000000e+01
3.008745431900023970e+00 -3.252563953399658203e+00 -7.017650008201599121e-01 1.000000000000000000e+01
3.965639829635620117e+00 -4.290005207061767578e+00 -7.173229455947875977e-01 1.500000000000000000e+01
4.974670410156250000e+00 -5.383452892303466797e+00 -6.412919759750366211e-01 1.000000000000000000e+01
1.756805539131164995e+00 -1.909173727035522017e+00 -6.951879262924194336e-01 1.500000000000000000e+01
2.039259672164916992e+00 -2.217678070068358931e+00 -6.955486536026000977e-01 1.500000000000000000e+01
2.432716846466064009e+00 -2.646486520767211914e+00 -6.987425684928894043e-01 1.200000000000000000e+01
2.989355564117432085e+00 -3.254317998886107954e+00 -6.998878121376037598e-01 1.000000000000000000e+01
3.941244125366210938e+00 -4.293584823608398438e+00 -7.156167626380920410e-01 1.300000000000000000e+01
4.972012996673583984e+00 -5.418400764465332031e+00 -6.433836817741394043e-01 1.100000000000000000e+01
1.752736806869507058e+00 -1.918146729469299094e+00 -6.962232589721679688e-01 1.700000000000000000e+01
2.027563810348511186e+00 -2.220465898513793945e+00 -6.941989660263061523e-01 1.400000000000000000e+01
2.424787759780883789e+00 -2.656412363052368164e+00 -6.991241574287414551e-01 1.200000000000000000e+01
2.985965251922606978e+00 -3.273489475250244141e+00 -7.017650008201599121e-01 1.000000000000000000e+01
3.936930894851685014e+00 -4.319052696228027344e+00 -7.175666689872741699e-01 1.300000000000000000e+01
4.958436965942382812e+00 -5.441614151000976562e+00 -6.440809369087219238e-01 9.000000000000000000e+00
1.744732379913330078e+00 -1.922822475433350053e+00 -6.957055926322937012e-01 1.600000000000000000e+01
2.026345729827880859e+00 -2.234747886657714844e+00 -6.964484453201293945e-01 1.400000000000000000e+01
2.404952287673950195e+00 -2.653223276138306108e+00 -6.960712075233459473e-01 1.200000000000000000e+01
2.987781763076781782e+00 -3.298533201217650923e+00 -7.048937082290649414e-01 1.100000000000000000e+01
3.920498371124268022e+00 -4.331297397613525391e+00 -7.173229455947875977e-01 1.500000000000000000e+01
4.892624378204345703e+00 -5.407181262969970703e+00 -6.379800438880920410e-01 7.000000000000000000e+00
1.738009929656981978e+00 -1.928901076316833052e+00 -6.957055926322937012e-01 1.900000000000000000e+01
2.021140575408935991e+00 -2.244704008102416992e+00 -6.973482966423034668e-01 1.100000000000000000e+01
2.400929689407349077e+00 -2.667438745498656782e+00 -6.975976824760437012e-01 1.300000000000000000e+01
2.980212450027465820e+00 -3.313348531723022017e+00 -7.058323025703430176e-01 1.100000000000000000e+01
3.911990642547606978e+00 -4.352337837219238281e+00 -7.185416221618652344e-01 1.300000000000000000e+01
4.807138919830322266e+00 -5.350125312805175781e+00 -6.292644739151000977e-01 7.000000000000000000e+00
1.735130667686461958e+00 -1.939275145530700906e+00 -6.972585320472717285e-01 1.600000000000000000e+01
2.011993885040283203e+00 -2.250292778015137163e+00 -6.968983411788940430e-01 1.500000000000000000e+01
2.399453878402709961e+00 -2.684586048126221147e+00 -6.998873949050903320e-01 1.300000000000000000e+01
2.955469846725463867e+00 -3.308998346328734907e+00 -7.027035951614379883e-01 1.100000000000000000e+01
3.904705286026000977e+00 -4.374852657318115234e+00 -7.200040817260742188e-01 1.300000000000000000e+01
4.834859848022460938e+00 -5.418906211853027344e+00 -6.353653669357299805e-01 9.000000000000000000e+00
1.729633808135986106e+00 -1.946764349937438965e+00 -6.977761387825012207e-01 1.400000000000000000e+01
1.997657537460326926e+00 -2.250015735626221147e+00 -6.946488618850708008e-01 1.300000000000000000e+01
2.391371488571166992e+00 -2.694413661956787109e+00 -7.002689838409423828e-01 1.300000000000000000e+01
2.954386949539185014e+00 -3.331117630004882812e+00 -7.052065730094909668e-01 1.100000000000000000e+01
3.877560377120972124e+00 -4.375085353851318359e+00 -7.178104519844055176e-01 1.500000000000000000e+01
4.822520732879638672e+00 -5.443206310272216797e+00 -6.362369060516357422e-01 7.000000000000000000e+00
1.721549749374390093e+00 -1.951341390609740989e+00 -6.972585320472717285e-01 1.500000000000000000e+01
1.988502621650696023e+00 -2.255513429641724077e+00 -6.941989660263061523e-01 1.200000000000000000e+01
2.379355669021606001e+00 -2.699799060821533203e+00 -6.995058059692382812e-01 1.200000000000000000e+01
2.941435813903809038e+00 -3.339927673339844194e+00 -7.048937082290649414e-01 1.000000000000000000e+01
3.842592954635620117e+00 -4.366241455078125000e+00 -7.141543626785278320e-01 1.500000000000000000e+01
4.778486728668212891e+00 -5.431584835052490234e+00 -6.329250335693359375e-01 7.000000000000000000e+00
1.710316896438599077e+00 -1.950929403305053933e+00 -6.951879262924194336e-01 1.300000000000000000e+01
1.985259294509887917e+00 -2.266146898269652876e+00 -6.955486536026000977e-01 1.200000000000000000e+01
2.364395141601562944e+00 -2.699875831604003906e+00 -6.975976824760437012e-01 1.200000000000000000e+01
2.938734054565430132e+00 -3.358071088790893999e+00 -7.067708969116210938e-01 1.000000000000000000e+01
3.831470489501953125e+00 -4.381280422210693359e+00 -7.146418094635009766e-01 2.000000000000000000e+01
4.732550144195556641e+00 -5.413569927215576172e+00 -6.290901303291320801e-01 7.000000000000000000e+00
2.201437568664551137e+01 -2.521777725219726918e+01 -5.843065381050109863e-01 6.000000000000000000e+00
1.699691176414489968e+00 -1.952516436576843040e+00 -6.936350464820861816e-01 1.400000000000000000e+01
1.982452869415282981e+00 -2.278944015502930132e+00 -6.973482966423034668e-01 1.200000000000000000e+01
2.357532978057860884e+00 -2.711075544357299805e+00 -6.983609199523925781e-01 1.200000000000000000e+01
2.933472633361815962e+00 -3.375764131546020952e+00 -7.083352804183959961e-01 1.100000000000000000e+01
3.814852237701416016e+00 -4.393128871917724609e+00 -7.143980860710144043e-01 2.000000000000000000e+01
4.684890747070313388e+00 -5.396955490112304688e+00 -6.252552866935729980e-01 9.000000000000000000e+00
2.182143020629883168e+01 -2.517358589172362926e+01 -5.815141797065734863e-01 6.000000000000000000e+00
1.692523479461669922e+00 -1.958732962608336958e+00 -6.936350464820861816e-01 1.500000000000000000e+01
1.972813248634337935e+00 -2.284719705581665039e+00 -6.968983411788940430e-01 1.200000000000000000e+01
2.350146055221558061e+00 -2.722670555114746094e+00 -6.991241574287414551e-01 1.100000000000000000e+01
2.913338899612427202e+00 -3.377518415451049805e+00 -7.064580321311950684e-01 1.100000000000000000e+01
3.790948629379272017e+00 -4.398059844970703125e+00 -7.129356861114501953e-01 3.900000000000000000e+01
4.570138454437255859e+00 -5.303906440734863281e+00 -6.125305891036987305e-01 8.000000000000000000e+00
2.184379196166991832e+01 -2.538678741455078125e+01 -5.845857858657836914e-01 6.000000000000000000e+00
1.693223714828490989e+00 -1.973425865173340066e+00 -6.967408657073974609e-01 1.500000000000000000e+01
1.962289094924926980e+00 -2.288633584976195845e+00 -6.959985494613647461e-01 1.300000000000000000e+01
2.347016096115111861e+00 -2.738310575485229048e+00 -7.010322213172912598e-01 1.200000000000000000e+01
2.901531219482421875e+00 -3.387667179107666016e+00 -7.064580321311950684e-01 1.100000000000000000e+01
3.767828702926636186e+00 -4.402217388153076172e+00 -7.114732265472412109e-01 4.100000000000000000e+01
4.621541500091552734e+00 -5.401577472686767578e+00 -6.219433546066284180e-01 8.000000000000000000e+00
2.167190933227539062e+01 -2.536557960510253906e+01 -5.823519229888916016e-01 6.000000000000000000e+00
1.688830494880676047e+00 -1.982265353202820046e+00 -6.977761387825012207e-01 1.500000000000000000e+01
1.955551624298095925e+00 -2.296952962875366211e+00 -6.964484453201293945e-01 1.100000000000000000e+01
2.338715791702270952e+00 -2.747981786727904829e+00 -7.014138698577880859e-01 1.200000000000000000e+01
2.893527746200561968e+00 -3.402289152145386186e+00 -7.073966264724731445e-01 1.000000000000000000e+01
3.719015598297119141e+00 -4.376014709472656250e+00 -7.051360011100769043e-01 3.300000000000000000e+01
4.622007846832275391e+00 -5.440453052520751953e+00 -6.245580315589904785e-01 9.000000000000000000e+00
1.684396266937256081e+00 -1.991098165512084961e+00 -6.988114118576049805e-01 1.500000000000000000e+01
1.947521924972533958e+00 -2.303765296936035156e+00 -6.964484453201293945e-01 1.200000000000000000e+01
2.327841997146606001e+00 -2.754629135131835938e+00 -7.010322213172912598e-01 1.200000000000000000e+01
2.894378900527954102e+00 -3.427460908889770952e+00 -7.105253338813781738e-01 1.100000000000000000e+01
3.704998016357421875e+00 -4.390486717224121094e+00 -7.053797841072082520e-01 2.800000000000000000e+01
4.578579902648925781e+00 -5.427618503570556641e+00 -6.212461590766906738e-01 8.000000000000000000e+00
1.669980525970458984e+00 -1.988090276718140093e+00 -6.957055926322937012e-01 1.500000000000000000e+01
1.950744390487670898e+00 -2.323982715606689009e+00 -7.004975676536560059e-01 1.200000000000000000e+01
2.319474458694458008e+00 -2.764241933822631836e+00 -7.014138698577880859e-01 1.200000000000000000e+01
2.872243404388428178e+00 -3.425434112548828125e+00 -7.080224156379699707e-01 1.000000000000000000e+01
3.701124191284180132e+00 -4.417087078094482422e+00 -7.075734138488769531e-01 2.400000000000000000e+01
4.606942176818847656e+00 -5.500080585479736328e+00 -6.276956796646118164e-01 7.000000000000000000e+00
1.663030624389647993e+00 -1.993907451629638894e+00 -6.957055926322937012e-01 1.500000000000000000e+01
1.937629580497741921e+00 -2.324790000915526900e+00 -6.986979842185974121e-01 1.300000000000000000e+01
2.304784536361693892e+00 -2.766288280487060991e+00 -6.998873949050903320e-01 1.200000000000000000e+01
2.857741117477416992e+00 -3.432402849197388139e+00 -7.073966264724731445e-01 1.000000000000000000e+01
3.684413433074951172e+00 -4.428453445434570312e+00 -7.073296904563903809e-01 2.600000000000000000e+01
4.572427272796630859e+00 -5.497745990753173828e+00 -6.256039142608642578e-01 7.000000000000000000e+00
1.669262528419495073e+00 -2.016358375549315962e+00 -7.013996243476867676e-01 1.400000000000000000e+01
1.925369262695312944e+00 -2.327371597290039062e+00 -6.973482966423034668e-01 1.100000000000000000e+01
2.304639339447021040e+00 -2.786820411682128906e+00 -7.029403448104858398e-01 1.100000000000000000e+01
2.845141410827637163e+00 -3.442853927612305132e+00 -7.073966264724731445e-01 1.100000000000000000e+01
3.656781435012816939e+00 -4.428151607513427734e+00 -7.051360011100769043e-01 2.400000000000000000e+01
4.606787204742431641e+00 -5.580537319183349609e+00 -6.330993175506591797e-01 7.000000000000000000e+00
1.730908012390137074e+01 -2.098266601562500000e+01 -1.425526738166809082e+00 1.300000000000000000e+01
1.667120933532715066e+00 -2.028142452239989790e+00 -7.034701704978942871e-01 1.400000000000000000e+01
1.913522720336914062e+00 -2.329560756683350053e+00 -6.959985494613647461e-01 1.300000000000000000e+01
2.294897317886352983e+00 -2.794848203659058061e+00 -7.029403448104858398e-01 1.100000000000000000e+01
2.839371442794799805e+00 -3.460399866104125977e+00 -7.089610099792480469e-01 1.100000000000000000e+01
3.624939441680908203e+00 -4.420933723449707031e+00 -7.019674181938171387e-01 2.200000000000000000e+01
4.601172447204589844e+00 -5.613533973693847656e+00 -6.350167393684387207e-01 9.000000000000000000e+00
1.723573112487792969e+01 -2.104295730590819957e+01 -1.425526738166809082e+00 1.300000000000000000e+01
1.655145168304442915e+00 -2.027962684631348100e+00 -7.013996243476867676e-01 1.500000000000000000e+01
1.909074306488037109e+00 -2.340756416320800781e+00 -6.973482966423034668e-01 1.200000000000000000e+01
2.285127639770507812e+00 -2.802841901779174805e+00 -7.029403448104858398e-01 1.100000000000000000e+01
2.836009025573730025e+00 -3.481010437011719194e+00 -7.111510634422302246e-01 1.000000000000000000e+01
3.609485387802124023e+00 -4.433560371398925781e+00 -7.019674181938171387e-01 1.600000000000000000e+01
4.480938911437988281e+00 -5.505936145782470703e+00 -6.210718154907226562e-01 1.200000000000000000e+01
1.708908271789551137e+01 -2.101312065124512074e+01 -1.419455766677856001e+00 1.300000000000000000e+01
1.644407391548156960e+00 -2.029225349426269975e+00 -6.998466849327087402e-01 1.600000000000000000e+01
1.913155794143676980e+00 -2.362550497055054155e+00 -7.018473148345947266e-01 1.100000000000000000e+01
2.270388841629027876e+00 -2.804697513580321822e+00 -7.014138698577880859e-01 1.100000000000000000e+01
2.825083017349243164e+00 -3.492424488067626953e+00 -7.114639282226562500e-01 1.100000000000000000e+01
3.606466531753540039e+00 -4.461570739746093750e+00 -7.044048309326171875e-01 1.800000000000000000e+01
4.346487522125244141e+00 -5.378972530364990234e+00 -6.050351858139038086e-01 1.500000000000000000e+01
1.698049736022948863e+01 -2.102913475036621094e+01 -1.416525006294250044e+00 1.200000000000000000e+01
1.634891986846924050e+00 -2.031942605972290039e+00 -6.988114118576049805e-01 1.500000000000000000e+01
1.900012969970702903e+00 -2.363139390945435014e+00 -7.000476717948913574e-01 1.200000000000000000e+01
2.265504598617554155e+00 -2.818726778030395952e+00 -7.029403448104858398e-01 1.100000000000000000e+01
2.800505399703979048e+00 -3.486863136291503906e+00 -7.083352804183959961e-01 1.100000000000000000e+01
3.594598293304442915e+00 -4.478776931762695312e+00 -7.051360011100769043e-01 1.500000000000000000e+01
4.429923534393311435e+00 -5.521543979644775391e+00 -6.193287372589111328e-01 1.100000000000000000e+01
1.687450599670410156e+01 -2.104776573181151988e+01 -1.413803577423095925e+00 1.200000000000000000e+01
1.638641119003295898e+00 -2.051221370697021040e+00 -7.034701704978942871e-01 1.400000000000000000e+01
1.888105154037476030e+00 -2.365188360214232954e+00 -6.986979842185974121e-01 1.200000000000000000e+01
2.258100748062133789e+00 -2.829686641693114790e+00 -7.037035822868347168e-01 1.100000000000000000e+01
2.798169612884521040e+00 -3.508973121643065962e+00 -7.108381986618041992e-01 1.100000000000000000e+01
3.560386180877685991e+00 -4.468009948730468750e+00 -7.014799118041992188e-01 1.800000000000000000e+01
4.413105487823486328e+00 -5.540090560913085938e+00 -6.196773052215576172e-01 1.000000000000000000e+01
1.676610374450683949e+01 -2.106278610229491832e+01 -1.410872697830199973e+00 1.200000000000000000e+01
1.631829977035522017e+00 -2.056643962860106978e+00 -7.034701704978942871e-01 1.400000000000000000e+01
1.877830028533935991e+00 -2.368382692337036133e+00 -6.977981925010681152e-01 1.300000000000000000e+01
2.248704671859741211e+00 -2.837159156799315962e+00 -7.037035822868347168e-01 1.100000000000000000e+01
