-1.798728108406066895e+00 2.009649276733397993e+00 -6.226645112037658691e-01 1.100000000000000000e+01
-2.090606451034545898e+00 2.336574077606201172e+00 -6.094439029693603516e-01 1.200000000000000000e+01
-2.524023294448852983e+00 2.822966337203979048e+00 -5.997697114944458008e-01 9.000000000000000000e+00
-3.188817024230957031e+00 3.569004297256470171e+00 -5.876539945602416992e-01 8.000000000000000000e+00
-4.286902427673339844e+00 4.799694538116455078e+00 -5.630260705947875977e-01 7.000000000000000000e+00
-6.520687103271484375e+00 7.305812358856201172e+00 -5.132063627243041992e-01 2.000000000000000000e+00
-1.553479194641113059e+00 1.746653318405150923e+00 -6.263421177864074707e-01 1.900000000000000000e+01
-1.791702151298522949e+00 2.015915632247924805e+00 -6.226645112037658691e-01 1.100000000000000000e+01
-2.082437515258789062e+00 2.343857526779174805e+00 -6.094439029693603516e-01 1.200000000000000000e+01
-2.507596254348754883e+00 2.824373722076416016e+00 -5.982053875923156738e-01 9.000000000000000000e+00
-3.184244155883789062e+00 3.589023113250731978e+00 -5.891163945198059082e-01 8.000000000000000000e+00
-4.262189865112304688e+00 4.805685997009277344e+00 -5.619802474975585938e-01 7.000000000000000000e+00
-6.460702419281005859e+00 7.289667129516601562e+00 -5.104849338531494141e-01 2.000000000000000000e+00
-1.341201782226563033e+01 1.514354419708251953e+01 -3.530970811843872070e-01 3.000000000000000000e+00
-1.548651695251465066e+00 1.753513336181641069e+00 -6.268597245216369629e-01 1.800000000000000000e+01
-1.776917457580565962e+00 2.013391017913817915e+00 -6.199650764465332031e-01 1.100000000000000000e+01
-2.072944402694702148e+00 2.349640130996704102e+00 -6.090623140335083008e-01 1.200000000000000000e+01
-2.499028444290161133e+00 2.834591388702393022e+00 -5.985182523727416992e-01 8.000000000000000000e+00
-3.163823366165161133e+00 3.591179370880126953e+00 -5.876539945602416992e-01 8.000000000000000000e+00
-4.242755413055419922e+00 4.817543983459472656e+00 -5.616316199302673340e-01 7.000000000000000000e+00
-6.480080127716063565e+00 7.363151550292968750e+00 -5.140437483787536621e-01 2.000000000000000000e+00
-1.545068860054015891e+00 1.761813282966613992e+00 -6.278949975967407227e-01 1.700000000000000000e+01
-5.860975265502929688e+01 6.685514831542968750e+01 1.551902890205383079e+00 1.000000000000000000e+00
-1.772447347640990989e+00 2.022512674331665039e+00 -6.208649277687072754e-01 1.100000000000000000e+01
-2.072492122650146040e+00 2.365721940994263139e+00 -6.113520264625549316e-01 1.100000000000000000e+01
-2.490419864654541016e+00 2.844783782958983931e+00 -5.988311171531677246e-01 9.000000000000000000e+00
-3.148654460906981978e+00 3.599213123321533203e+00 -5.871664881706237793e-01 8.000000000000000000e+00
-4.221978664398193359e+00 4.827825546264648438e+00 -5.611086487770080566e-01 6.000000000000000000e+00
-6.454338550567626953e+00 7.385726451873779297e+00 -5.140437483787536621e-01 2.000000000000000000e+00
-1.536680102348328081e+00 1.764014005661010964e+00 -6.268597245216369629e-01 1.700000000000000000e+01
-1.767010211944580078e+00 2.029849052429199219e+00 -6.213148236274719238e-01 1.500000000000000000e+01
-2.051748037338256836e+00 2.357771635055541992e+00 -6.075358390808105469e-01 1.100000000000000000e+01
-2.488749980926514116e+00 2.861970186233520952e+00 -6.007083654403686523e-01 9.000000000000000000e+00
-3.139305830001831055e+00 3.612631559371947798e+00 -5.876539945602416992e-01 9.000000000000000000e+00
-4.202025890350341797e+00 4.837286949157714844e+00 -5.605857372283935547e-01 4.000000000000000000e+00
-6.372203350067138672e+00 7.340725421905517578e+00 -5.094382166862487793e-01 2.000000000000000000e+00
-1.293040657043457031e+01 1.490622901916504084e+01 -3.444406986236572266e-01 3.000000000000000000e+00
-1.520402431488037109e+00 1.757678627967834029e+00 -6.227186322212219238e-01 1.600000000000000000e+01
-1.762462735176085982e+00 2.038953304290771040e+00 -6.222146153450012207e-01 1.600000000000000000e+01
-2.044788837432860884e+00 2.366404533386230025e+00 -6.079174876213073730e-01 1.000000000000000000e+01
-2.473580598831177202e+00 2.864659547805786133e+00 -5.994568467140197754e-01 9.000000000000000000e+00
-3.121488809585570845e+00 3.617555856704711914e+00 -5.866790413856506348e-01 8.000000000000000000e+00
-4.166896343231201172e+00 4.830803871154785156e+00 -5.581454038619995117e-01 4.000000000000000000e+00
-6.320460796356201172e+00 7.332667350769042969e+00 -5.073447823524475098e-01 2.000000000000000000e+00
-1.279999160766601918e+01 1.486036586761474965e+01 -3.423464000225067139e-01 3.000000000000000000e+00
-1.520860314369202104e+00 1.770037055015563965e+00 -6.253067851066589355e-01 1.900000000000000000e+01
-1.756961107254028098e+00 2.046265125274658203e+00 -6.226645112037658691e-01 1.400000000000000000e+01
-2.036930322647095171e+00 2.373172283172606978e+00 -6.079174876213073730e-01 1.000000000000000000e+01
-2.461495161056518999e+00 2.869847774505614790e+00 -5.988311171531677246e-01 9.000000000000000000e+00
-3.109475374221802202e+00 3.627887248992919922e+00 -5.866790413856506348e-01 8.000000000000000000e+00
-4.156039237976074219e+00 4.850646972656250000e+00 -5.588425993919372559e-01 6.000000000000000000e+00
-6.309099674224854404e+00 7.368758201599121094e+00 -5.083914995193481445e-01 2.000000000000000000e+00
-1.269864177703857067e+01 1.484195232391357067e+01 -3.409502208232880194e-01 3.000000000000000000e+00
-1.513418674468993919e+00 1.773865461349487083e+00 -6.247891783714294434e-01 1.800000000000000000e+01
-1.742221713066101074e+00 2.043487787246704102e+00 -6.199650764465332031e-01 1.500000000000000000e+01
-2.033727884292602983e+00 2.386245012283325195e+00 -6.094439029693603516e-01 1.000000000000000000e+01
-2.446339368820189986e+00 2.872406959533690962e+00 -5.975796580314636230e-01 9.000000000000000000e+00
-3.099365949630736861e+00 3.641742706298828125e+00 -5.871664881706237793e-01 8.000000000000000000e+00
-4.148118972778320312e+00 4.875747203826904297e+00 -5.600628256797790527e-01 4.000000000000000000e+00
-6.280752182006835938e+00 7.387692451477050781e+00 -5.081821084022521973e-01 2.000000000000000000e+00
-1.264675617218017933e+01 1.488618850708007990e+01 -3.409502208232880194e-01 3.000000000000000000e+00
-1.514709830284119096e+00 1.787981510162353960e+00 -6.278949975967407227e-01 1.700000000000000000e+01
-1.737596273422240989e+00 2.052531719207764116e+00 -6.208649277687072754e-01 1.500000000000000000e+01
-2.026654243469237837e+00 2.394828081130981001e+00 -6.098255515098571777e-01 1.100000000000000000e+01
-2.440124511718750000e+00 2.885453939437866211e+00 -5.985182523727416992e-01 9.000000000000000000e+00
-3.080228567123413086e+00 3.644958257675170898e+00 -5.859478116035461426e-01 9.000000000000000000e+00
-4.141360282897949219e+00 4.902373313903808594e+00 -5.614572763442993164e-01 4.000000000000000000e+00
-6.272963047027587891e+00 7.430937767028808594e+00 -5.096475481986999512e-01 2.000000000000000000e+00
-1.259471702575683949e+01 1.493024349212645951e+01 -3.409502208232880194e-01 3.000000000000000000e+00
-1.503485083580017090e+00 1.787344455718993919e+00 -6.258244514465332031e-01 1.700000000000000000e+01
-1.732928872108459029e+00 2.061567783355712891e+00 -6.217647194862365723e-01 1.500000000000000000e+01
-2.010704278945922852e+00 2.392869472503662109e+00 -6.075358390808105469e-01 1.100000000000000000e+01
-2.431307792663574219e+00 2.895466566085814986e+00 -5.988311171531677246e-01 9.000000000000000000e+00
-3.064934492111206055e+00 3.652646780014038086e+00 -5.854603052139282227e-01 9.000000000000000000e+00
-4.110137939453125000e+00 4.900008201599121094e+00 -5.595398545265197754e-01 4.000000000000000000e+00
-6.193099498748779297e+00 7.388501644134520596e+00 -5.052513480186462402e-01 2.000000000000000000e+00
-1.249116230010985973e+01 1.491279697418213068e+01 -3.395540118217468262e-01 3.000000000000000000e+00
-1.491971373558043990e+00 1.786911368370055930e+00 -6.237539052963256836e-01 1.700000000000000000e+01
-1.732851862907409890e+00 2.076883316040039062e+00 -6.244641542434692383e-01 1.500000000000000000e+01
-2.004435539245605025e+00 2.403238296508789062e+00 -6.082990765571594238e-01 1.100000000000000000e+01
-2.416884899139403853e+00 2.899806022644042969e+00 -5.978925228118896484e-01 8.000000000000000000e+00
-3.054067134857178178e+00 3.666906356811522993e+00 -5.859478116035461426e-01 9.000000000000000000e+00
-4.073028564453125000e+00 4.892072200775145596e+00 -5.569251775741577148e-01 4.000000000000000000e+00
-6.204299449920654297e+00 7.457211494445800781e+00 -5.083914995193481445e-01 2.000000000000000000e+00
-1.240573787689208984e+01 1.492157459259033025e+01 -3.387162983417510986e-01 3.000000000000000000e+00
-1.484491944313049094e+00 1.790621280670166016e+00 -6.232362389564514160e-01 1.600000000000000000e+01
-1.719375610351562944e+00 2.075416326522827148e+00 -6.222146153450012207e-01 1.300000000000000000e+01
-1.993529915809630904e+00 2.407196283340454102e+00 -6.075358390808105469e-01 1.100000000000000000e+01
-2.404229164123535156e+00 2.905181407928466797e+00 -5.972667932510375977e-01 8.000000000000000000e+00
-3.048839092254639116e+00 3.686723470687866211e+00 -5.874102115631103516e-01 9.000000000000000000e+00
-4.072430610656738281e+00 4.926222801208496094e+00 -5.591912269592285156e-01 6.000000000000000000e+00
-6.140070438385009766e+00 7.432629108428955078e+00 -5.052513480186462402e-01 2.000000000000000000e+00
-1.230774688720702947e+01 1.490927219390868963e+01 -3.374597430229187012e-01 3.000000000000000000e+00
-1.483143448829651101e+00 1.801758289337157981e+00 -6.253067851066589355e-01 1.600000000000000000e+01
-1.703454732894897017e+00 2.070870399475098100e+00 -6.190652847290039062e-01 1.300000000000000000e+01
-1.985115170478821023e+00 2.414140462875366211e+00 -6.075358390808105469e-01 1.100000000000000000e+01
-2.397835969924927202e+00 2.918134689331055132e+00 -5.982053875923156738e-01 9.000000000000000000e+00
-3.024613857269287109e+00 3.683535814285277876e+00 -5.852165818214416504e-01 8.000000000000000000e+00
-4.037512779235839844e+00 4.918848037719726562e+00 -5.567508935928344727e-01 6.000000000000000000e+00
-6.098888397216796875e+00 7.435485839843750000e+00 -5.039952397346496582e-01 2.000000000000000000e+00
-1.223027610778808949e+01 1.492121219635009943e+01 -3.367616236209868830e-01 3.000000000000000000e+00
-1.479290246963500977e+00 1.809916019439697044e+00 -6.263421177864074707e-01 1.600000000000000000e+01
-1.697448372840880904e+00 2.078313350677489790e+00 -6.195151805877685547e-01 1.100000000000000000e+01
-1.976676106452941895e+00 2.421055078506470171e+00 -6.075358390808105469e-01 1.100000000000000000e+01
-2.387634992599486861e+00 2.926486730575561968e+00 -5.982053875923156738e-01 9.000000000000000000e+00
-3.011737585067749023e+00 3.694071292877196822e+00 -5.852165818214416504e-01 8.000000000000000000e+00
-4.022835254669188565e+00 4.936000347137451172e+00 -5.570995211601257324e-01 7.000000000000000000e+00
-6.062806606292724609e+00 7.444340229034423828e+00 -5.031578540802001953e-01 2.000000000000000000e+00
-1.215287208557129084e+01 1.493279266357422053e+01 -3.360635340213776190e-01 3.000000000000000000e+00
-1.469627499580383079e+00 1.810312032699584961e+00 -6.247891783714294434e-01 1.800000000000000000e+01
-1.695457935333251953e+00 2.089984416961669922e+00 -6.213148236274719238e-01 1.200000000000000000e+01
-1.964926958084106001e+00 2.423022031784058061e+00 -6.063910126686096191e-01 1.100000000000000000e+01
-2.380404710769652876e+00 2.937457799911499023e+00 -5.988311171531677246e-01 9.000000000000000000e+00
-2.995723247528076172e+00 3.699410200119018999e+00 -5.844853520393371582e-01 9.000000000000000000e+00
-3.998923540115356001e+00 4.940021991729736328e+00 -5.560536384582519531e-01 7.000000000000000000e+00
-6.043111324310302734e+00 7.470615863800048828e+00 -5.035765767097473145e-01 2.000000000000000000e+00
-1.202786064147949041e+01 1.487970161437987926e+01 -3.339692354202271063e-01 3.000000000000000000e+00
-1.457237601280211958e+00 1.807910561561584029e+00 -6.222009658813476562e-01 1.500000000000000000e+01
-1.691819429397583008e+00 2.100442886352539062e+00 -6.226645112037658691e-01 1.200000000000000000e+01
-1.960150837898253950e+00 2.434453725814818892e+00 -6.075358390808105469e-01 1.100000000000000000e+01
-2.362706661224364790e+00 2.936514854431151900e+00 -5.969539284706115723e-01 9.000000000000000000e+00
-2.985279321670531782e+00 3.712938785552978960e+00 -5.849728584289550781e-01 9.000000000000000000e+00
-3.965429067611693892e+00 4.933762073516845703e+00 -5.537875890731811523e-01 4.000000000000000000e+00
-5.999487876892089844e+00 7.469863891601563388e+00 -5.021111369132995605e-01 2.000000000000000000e+00
-1.202090740203857067e+01 1.497773933410645064e+01 -3.352258205413817804e-01 3.000000000000000000e+00
-1.454221963882446067e+00 1.817764997482300027e+00 -6.237539052963256836e-01 1.500000000000000000e+01
-1.680459022521973100e+00 2.102063179016112837e+00 -6.213148236274719238e-01 1.400000000000000000e+01
-1.948763728141784890e+00 2.438554286956787109e+00 -6.067726016044616699e-01 1.100000000000000000e+01
-2.349462509155272993e+00 2.942067623138428178e+00 -5.963281989097595215e-01 9.000000000000000000e+00
-2.975365161895751953e+00 3.728510141372681108e+00 -5.857040882110595703e-01 8.000000000000000000e+00
-3.944834232330321822e+00 4.945147991180419922e+00 -5.534389615058898926e-01 4.000000000000000000e+00
-5.962109565734863281e+00 7.479308605194091797e+00 -5.012738108634948730e-01 2.000000000000000000e+00
-1.192107677459716975e+01 1.496539020538330078e+01 -3.339692354202271063e-01 3.000000000000000000e+00
-1.447867870330810991e+00 1.822830080986022949e+00 -6.237539052963256836e-01 1.600000000000000000e+01
-1.665842056274414062e+00 2.098757982254027876e+00 -6.186153888702392578e-01 1.400000000000000000e+01
-1.941460013389586958e+00 2.446879863739014116e+00 -6.071542501449584961e-01 1.100000000000000000e+01
-2.344087600708007812e+00 2.956442356109619141e+00 -5.975796580314636230e-01 9.000000000000000000e+00
-2.956168413162231001e+00 3.731093883514403853e+00 -5.844853520393371582e-01 9.000000000000000000e+00
-3.933733463287353960e+00 4.966697216033936435e+00 -5.543105006217956543e-01 4.000000000000000000e+00
-5.921091556549072266e+00 7.481281757354736328e+00 -5.000177025794982910e-01 2.000000000000000000e+00
-1.183651256561278942e+01 1.496613121032715021e+01 -3.330617249011992853e-01 3.000000000000000000e+00
-1.454102158546447976e+00 1.842534542083740012e+00 -6.289302706718444824e-01 1.900000000000000000e+01
-1.655620217323303001e+00 2.099390506744385210e+00 -6.172657012939453125e-01 1.500000000000000000e+01
-1.930117011070251021e+00 2.448341608047484907e+00 -6.060093641281127930e-01 1.100000000000000000e+01
-2.331120967864989790e+00 2.959136724472045898e+00 -5.966410636901855469e-01 8.000000000000000000e+00
-2.943204402923583984e+00 3.738802671432495117e+00 -5.842416286468505859e-01 1.100000000000000000e+01
-3.913182497024536133e+00 4.972767829895020419e+00 -5.536133050918579102e-01 6.000000000000000000e+00
-5.897559165954589844e+00 7.499846458435058594e+00 -5.000177025794982910e-01 2.000000000000000000e+00
-1.175978469848632990e+01 1.496550655364990057e+01 -3.322240114212036133e-01 3.000000000000000000e+00
-1.440512657165526900e+00 1.838475227355957031e+00 -6.258244514465332031e-01 1.700000000000000000e+01
-1.649483323097229004e+00 2.106691360473632812e+00 -6.177155971527099609e-01 1.300000000000000000e+01
-1.916718721389770952e+00 2.448880195617675781e+00 -6.044828891754150391e-01 1.000000000000000000e+01
-2.328079223632812944e+00 2.976591825485229048e+00 -5.985182523727416992e-01 8.000000000000000000e+00
-2.931358098983765093e+00 3.750617742538452148e+00 -5.844853520393371582e-01 9.000000000000000000e+00
-3.877400875091553178e+00 4.962846755981445312e+00 -5.509986281394958496e-01 6.000000000000000000e+00
-5.851678371429443359e+00 7.495198249816895419e+00 -4.983429610729218084e-01 2.000000000000000000e+00
-1.176897525787354049e+01 1.508529663085938033e+01 -3.339692354202271063e-01 3.000000000000000000e+00
-1.428700208663939986e+00 1.837891936302185059e+00 -6.237539052963256836e-01 1.800000000000000000e+01
-1.652141332626342995e+00 2.126860141754149947e+00 -6.217647194862365723e-01 1.500000000000000000e+01
-1.907301545143126997e+00 2.456221818923950195e+00 -6.044828891754150391e-01 1.000000000000000000e+01
-2.312999963760375977e+00 2.980827093124390093e+00 -5.975796580314636230e-01 9.000000000000000000e+00
-2.914502382278441939e+00 3.758708238601685014e+00 -5.839979052543640137e-01 9.000000000000000000e+00
-3.857095718383789062e+00 4.976123332977294922e+00 -5.508242845535278320e-01 7.000000000000000000e+00
-5.817963600158691406e+00 7.511295795440673828e+00 -4.979242980480194092e-01 2.000000000000000000e+00
-1.164976596832275035e+01 1.505130767822265980e+01 -3.322240114212036133e-01 3.000000000000000000e+00
-1.421095848083496094e+00 1.841338396072387917e+00 -6.232362389564514160e-01 1.600000000000000000e+01
-1.641136765480041948e+00 2.127984762191772017e+00 -6.204150319099426270e-01 1.600000000000000000e+01
-1.893921375274657981e+00 2.456645011901855025e+00 -6.029564142227172852e-01 1.000000000000000000e+01
-2.297758579254149947e+00 2.982623338699340820e+00 -5.963281989097595215e-01 9.000000000000000000e+00
-2.906207799911499023e+00 3.775150775909423828e+00 -5.849728584289550781e-01 9.000000000000000000e+00
-3.822690963745117188e+00 4.967451572418212891e+00 -5.483839511871337891e-01 6.000000000000000000e+00
-5.791708946228027344e+00 7.531558513641357422e+00 -4.979242980480194092e-01 2.000000000000000000e+00
-1.161421489715575994e+01 1.511408042907715021e+01 -3.327126801013947088e-01 3.000000000000000000e+00
-1.420006036758423074e+00 1.851926088333130105e+00 -6.253067851066589355e-01 1.600000000000000000e+01
-1.621405839920043945e+00 2.116114377975463867e+00 -6.154660582542419434e-01 1.600000000000000000e+01
-1.889775633811950906e+00 2.467258691787720171e+00 -6.041013002395629883e-01 1.000000000000000000e+01
-2.277571439743041992e+00 2.975709438323975053e+00 -5.935123562812805176e-01 9.000000000000000000e+00
-2.879861831665039062e+00 3.765340805053710938e+00 -5.820479989051818848e-01 9.000000000000000000e+00
-3.807066440582274947e+00 4.979435920715332031e+00 -5.483839511871337891e-01 6.000000000000000000e+00
-5.751043796539306641e+00 7.527497291564941406e+00 -4.964588880538939875e-01 2.000000000000000000e+00
-1.421723961830138938e+00 1.867631554603577104e+00 -6.289302706718444824e-01 1.700000000000000000e+01
-1.614009380340575950e+00 2.121761322021483931e+00 -6.154660582542419434e-01 1.500000000000000000e+01
-1.877586841583251953e+00 2.469151973724364790e+00 -6.029564142227172852e-01 1.000000000000000000e+01
-2.277926683425902876e+00 2.997797012329102007e+00 -5.963281989097595215e-01 9.000000000000000000e+00
-2.869101762771606001e+00 3.778532505035399947e+00 -5.825354456901550293e-01 9.000000000000000000e+00
-3.798094034194945845e+00 5.003803730010986328e+00 -5.496041178703308105e-01 7.000000000000000000e+00
-5.715076923370361328e+00 7.534796237945556641e+00 -4.956215023994445801e-01 2.000000000000000000e+00
-1.137601852416992010e+01 1.500909805297851918e+01 -3.287335336208344061e-01 3.000000000000000000e+00
-1.403224229812622070e+00 1.857415676116942915e+00 -6.237539052963256836e-01 1.600000000000000000e+01
-1.612092614173888938e+00 2.135439395904541016e+00 -6.177155971527099609e-01 1.700000000000000000e+01
-1.869706869125365989e+00 2.477584123611450195e+00 -6.033380627632141113e-01 1.000000000000000000e+01
-2.276438713073730025e+00 3.018743276596068892e+00 -5.988311171531677246e-01 9.000000000000000000e+00
-2.855233430862427202e+00 3.789022922515869141e+00 -5.825354456901550293e-01 9.000000000000000000e+00
-3.768939495086669922e+00 5.003368377685546875e+00 -5.480353236198425293e-01 7.000000000000000000e+00
-5.677813053131104404e+00 7.542926788330078125e+00 -4.947841167449951172e-01 2.000000000000000000e+00
-1.138103389739990057e+01 1.513059616088867010e+01 -3.304787576198577881e-01 3.000000000000000000e+00
-1.395572900772094949e+00 1.860756993293761985e+00 -6.232362389564514160e-01 1.900000000000000000e+01
-1.609303474426269975e+00 2.147291183471680132e+00 -6.195151805877685547e-01 1.700000000000000000e+01
-1.865755677223206010e+00 2.490380525588988814e+00 -6.048645377159118652e-01 1.000000000000000000e+01
-2.256416797637939009e+00 3.014020681381226030e+00 -5.963281989097595215e-01 9.000000000000000000e+00
-2.844368219375609907e+00 3.802145481109619141e+00 -5.830229520797729492e-01 1.100000000000000000e+01
-3.734746694564818892e+00 4.994155883789063388e+00 -5.455949306488037109e-01 8.000000000000000000e+00
-5.665795803070068359e+00 7.581898689270020419e+00 -4.960401952266693115e-01 2.000000000000000000e+00
-1.128507614135742010e+01 1.511254978179931996e+01 -3.292222023010253906e-01 3.000000000000000000e+00
-1.393684029579163042e+00 1.871815204620361106e+00 -6.253067851066589355e-01 1.500000000000000000e+01
-1.595981955528259055e+00 2.145078182220458984e+00 -6.172657012939453125e-01 1.600000000000000000e+01
-1.855879545211791992e+00 2.495302677154541016e+00 -6.044828891754150391e-01 1.100000000000000000e+01
-2.241168737411499023e+00 3.015536785125731978e+00 -5.950766801834106445e-01 9.000000000000000000e+00
-2.828711748123168945e+00 3.808863639831542969e+00 -5.825354456901550293e-01 9.000000000000000000e+00
-3.724416971206665039e+00 5.016760349273681641e+00 -5.466408133506774902e-01 8.000000000000000000e+00
-5.625015735626220703e+00 7.582381248474121094e+00 -4.947841167449951172e-01 2.000000000000000000e+00
-1.121558284759520951e+01 1.512936019897460938e+01 -3.287335336208344061e-01 3.000000000000000000e+00
-1.388290047645569070e+00 1.878222227096558061e+00 -6.258244514465332031e-01 1.100000000000000000e+01
-1.579222202301024947e+00 2.138096094131470171e+00 -6.136664748191833496e-01 1.500000000000000000e+01
-1.847158074378967063e+00 2.501765727996826172e+00 -6.044828891754150391e-01 1.100000000000000000e+01
-2.228283405303955078e+00 3.020162343978881836e+00 -5.944509506225585938e-01 9.000000000000000000e+00
-2.810687065124512163e+00 3.812323331832886186e+00 -5.815604925155639648e-01 9.000000000000000000e+00
-3.709246397018433061e+00 5.032938480377197266e+00 -5.469894409179687500e-01 8.000000000000000000e+00
-5.579564094543457031e+00 7.576238632202148438e+00 -4.931093752384185791e-01 1.000000000000000000e+00
-1.110344028472900035e+01 1.508788871765137074e+01 -3.269882798194885254e-01 3.000000000000000000e+00
-1.382053971290587935e+00 1.882815599441528098e+00 -6.258244514465332031e-01 1.000000000000000000e+01
-1.577886223793030007e+00 2.151177883148192915e+00 -6.159160137176513672e-01 1.600000000000000000e+01
-1.841173529624938965e+00 2.511043787002563032e+00 -6.052461266517639160e-01 1.100000000000000000e+01
-2.225260972976685014e+00 3.037095785140991211e+00 -5.963281989097595215e-01 9.000000000000000000e+00
-2.788648128509521040e+00 3.808809518814086914e+00 -5.796105861663818359e-01 9.000000000000000000e+00
-3.697243213653564009e+00 5.051641941070556641e+00 -5.476866960525512695e-01 9.000000000000000000e+00
-5.573274135589599609e+00 7.620493412017822266e+00 -4.947841167449951172e-01 2.000000000000000000e+00
-1.105334663391112926e+01 1.512462615966797053e+01 -3.269882798194885254e-01 3.000000000000000000e+00
-1.372060179710387962e+00 1.882944464683532937e+00 -6.242715120315551758e-01 8.000000000000000000e+00
-1.572661876678467019e+00 2.159823417663574219e+00 -6.168158054351806641e-01 1.600000000000000000e+01
-1.821998953819274902e+00 2.503169775009154829e+00 -6.018115878105163574e-01 1.200000000000000000e+01
-2.214646100997924805e+00 3.044844865798950195e+00 -5.963281989097595215e-01 9.000000000000000000e+00
-2.778837203979492188e+00 3.823337793350220171e+00 -5.803418159484863281e-01 1.100000000000000000e+01
-3.677244901657104048e+00 5.061293601989746094e+00 -5.473380684852600098e-01 8.000000000000000000e+00
-5.546639919281005859e+00 7.639901161193847656e+00 -4.947841167449951172e-01 2.000000000000000000e+00
-1.095821094512938920e+01 1.510484695434569957e+01 -3.257317245006560724e-01 3.000000000000000000e+00
-1.365149617195128950e+00 1.887960672378540039e+00 -6.242715120315551758e-01 7.000000000000000000e+00
-1.568159103393554910e+00 2.170311689376831055e+00 -6.181654930114746094e-01 1.600000000000000000e+01
-1.816260695457458052e+00 2.514605522155762163e+00 -6.029564142227172852e-01 1.100000000000000000e+01
-2.198846817016602007e+00 3.046534299850463867e+00 -5.950766801834106445e-01 9.000000000000000000e+00
-2.772933721542357954e+00 3.844767332077025923e+00 -5.820479989051818848e-01 9.000000000000000000e+00
-3.650513410568236861e+00 5.063424110412597656e+00 -5.461179018020629883e-01 9.000000000000000000e+00
-5.518600940704345703e+00 7.660179615020751953e+00 -4.947841167449951172e-01 2.000000000000000000e+00
-1.094483470916748047e+01 1.520333385467528942e+01 -3.269882798194885254e-01 3.000000000000000000e+00
-1.355171680450439009e+00 1.888006210327147993e+00 -6.227186322212219238e-01 7.000000000000000000e+00
-1.551487445831299050e+00 2.163104057312012163e+00 -6.145662665367126465e-01 1.600000000000000000e+01
-1.809759974479675071e+00 2.524121046066284180e+00 -6.037196516990661621e-01 1.100000000000000000e+01
-2.178995370864868164e+00 3.041345119476317915e+00 -5.925737619400024414e-01 9.000000000000000000e+00
-2.760651588439940962e+00 3.856037378311156782e+00 -5.822917222976684570e-01 1.100000000000000000e+01
-3.637454509735106978e+00 5.082616806030273438e+00 -5.468151569366455078e-01 8.000000000000000000e+00
-5.473239421844482422e+00 7.653402805328369141e+00 -4.931093752384185791e-01 1.000000000000000000e+00
-1.089169788360596058e+01 1.524144649505615057e+01 -3.269882798194885254e-01 3.000000000000000000e+00
-1.356752276420593040e+00 1.903501749038696067e+00 -6.263421177864074707e-01 8.000000000000000000e+00
-1.539783596992492898e+00 2.161887884140015093e+00 -6.127666831016540527e-01 1.600000000000000000e+01
-1.805934429168700950e+00 2.536505937576293945e+00 -6.052461266517639160e-01 1.100000000000000000e+01
-2.171188116073607954e+00 3.051773309707642046e+00 -5.931994915008544922e-01 9.000000000000000000e+00
-2.736347198486328125e+00 3.848991632461547852e+00 -5.798543095588684082e-01 1.100000000000000000e+01
-3.611346721649169922e+00 5.081658840179443359e+00 -5.454206466674804688e-01 8.000000000000000000e+00
-5.431640148162841797e+00 7.648713111877441406e+00 -4.916439652442932129e-01 1.000000000000000000e+00
-1.084109592437743963e+01 1.527748012542724965e+01 -3.269882798194885254e-01 3.000000000000000000e+00
-1.348983764648437944e+00 1.906648993492126021e+00 -6.258244514465332031e-01 9.000000000000000000e+00
-1.538977742195128950e+00 2.176796913146973100e+00 -6.154660582542419434e-01 1.500000000000000000e+01
-1.792536973953247070e+00 2.536381244659423828e+00 -6.037196516990661621e-01 1.100000000000000000e+01
-2.162801265716553178e+00 3.062560796737670898e+00 -5.938252210617065430e-01 9.000000000000000000e+00
-2.710304975509643999e+00 3.840678930282593218e+00 -5.771732330322265625e-01 1.000000000000000000e+01
-3.594734907150268999e+00 5.095861911773681641e+00 -5.455949306488037109e-01 9.000000000000000000e+00
-5.404907703399658203e+00 7.667626380920410156e+00 -4.916439652442932129e-01 1.000000000000000000e+00
-1.073012447357177912e+01 1.523348808288574041e+01 -3.252430558204650879e-01 3.000000000000000000e+00
-1.343430399894713911e+00 1.912927150726317915e+00 -6.263421177864074707e-01 1.500000000000000000e+01
-1.532489299774169922e+00 2.183750867843627930e+00 -6.159160137176513672e-01 1.600000000000000000e+01
-1.776907563209533913e+00 2.532979488372803178e+00 -6.014299392700195312e-01 1.100000000000000000e+01
-2.158900976181029829e+00 3.079796791076660156e+00 -5.957024693489074707e-01 9.000000000000000000e+00
-2.710548639297484907e+00 3.869626998901367188e+00 -5.800980925559997559e-01 1.100000000000000000e+01
-3.576925277709960938e+00 5.108378410339354581e+00 -5.455949306488037109e-01 8.000000000000000000e+00
-5.366660118103027344e+00 7.670081615447998047e+00 -4.905972480773925781e-01 1.000000000000000000e+00
-1.066084194183349965e+01 1.524790573120117010e+01 -3.247543871402739923e-01 3.000000000000000000e+00
-1.326802134513854980e+00 1.903341770172118919e+00 -6.216833591461181641e-01 1.400000000000000000e+01
-1.522629618644713911e+00 2.185888767242432085e+00 -6.150161623954772949e-01 1.600000000000000000e+01
-1.769176840782165971e+00 2.540777921676636186e+00 -6.018115878105163574e-01 1.000000000000000000e+01
-2.147009134292602983e+00 3.085692644119263139e+00 -5.953895449638366699e-01 1.000000000000000000e+01
-2.687958955764770952e+00 3.866026163101195845e+00 -5.781481862068176270e-01 1.000000000000000000e+01
-3.544289827346802202e+00 5.099564552307128906e+00 -5.433288812637329102e-01 8.000000000000000000e+00
-5.298839092254638672e+00 7.629712104797363281e+00 -4.868290722370148260e-01 1.000000000000000000e+00
-1.060755252838134943e+01 1.528502655029297053e+01 -3.247543871402739923e-01 3.000000000000000000e+00
-1.325980544090270996e+00 1.915673375129699929e+00 -6.242715120315551758e-01 1.600000000000000000e+01
-1.514263987541198953e+00 2.189323425292969194e+00 -6.145662665367126465e-01 1.600000000000000000e+01
-1.765207648277282937e+00 2.553090095520019975e+00 -6.033380627632141113e-01 1.000000000000000000e+01
-2.130027770996094194e+00 3.083044052124022993e+00 -5.935123562812805176e-01 1.000000000000000000e+01
-2.685274124145507812e+00 3.889620780944824219e+00 -5.803418159484863281e-01 1.100000000000000000e+01
-3.539807796478271040e+00 5.129327774047851562e+00 -5.452463030815124512e-01 8.000000000000000000e+00
-5.316595077514648438e+00 7.709721565246582031e+00 -4.908066093921660822e-01 1.000000000000000000e+00
-1.320379495620727983e+00 1.921882510185241921e+00 -6.247891783714294434e-01 2.000000000000000000e+01
-1.502200841903686968e+00 2.188169479370117188e+00 -6.127666831016540527e-01 1.500000000000000000e+01
-1.754063248634337935e+00 2.555998802185059038e+00 -6.025748252868652344e-01 1.000000000000000000e+01
-2.115901470184326172e+00 3.085572957992554155e+00 -5.925737619400024414e-01 9.000000000000000000e+00
-2.661581754684447798e+00 3.884232759475708008e+00 -5.781481862068176270e-01 8.000000000000000000e+00
-3.510622262954711914e+00 5.125215530395507812e+00 -5.435032248497009277e-01 8.000000000000000000e+00
-5.251295566558837891e+00 7.672195434570313388e+00 -4.872477650642395020e-01 1.000000000000000000e+00
-1.042198467254639027e+01 1.523803424835205078e+01 -3.222412467002869207e-01 3.000000000000000000e+00
-1.317678928375243919e+00 1.933094143867492898e+00 -6.268597245216369629e-01 1.900000000000000000e+01
-1.489782571792602983e+00 2.187218189239501953e+00 -6.109670400619506836e-01 1.500000000000000000e+01
-1.740263581275939941e+00 2.555919408798218218e+00 -6.010483503341674805e-01 1.200000000000000000e+01
-2.104578018188477007e+00 3.093307495117187944e+00 -5.925737619400024414e-01 9.000000000000000000e+00
-2.638398647308350053e+00 3.880828619003295898e+00 -5.761982798576354980e-01 8.000000000000000000e+00
-3.489573955535889116e+00 5.134752273559570312e+00 -5.431545972824096680e-01 6.000000000000000000e+00
-5.209675312042236328e+00 7.671563625335693359e+00 -4.859916865825653076e-01 1.000000000000000000e+00
-1.029420280456542969e+01 1.517022991180419922e+01 -3.200073242187500000e-01 3.000000000000000000e+00
-1.302263021469115989e+00 1.924881458282470925e+00 -6.227186322212219238e-01 1.800000000000000000e+01
-1.494144201278686968e+00 2.210163831710814986e+00 -6.159160137176513672e-01 1.700000000000000000e+01
-1.729132652282715066e+00 2.558725118637084961e+00 -6.002851128578186035e-01 1.200000000000000000e+01
-2.098189592361450195e+00 3.107183218002318892e+00 -5.938252210617065430e-01 9.000000000000000000e+00
-2.630387783050537109e+00 3.898242473602294922e+00 -5.774169564247131348e-01 1.000000000000000000e+01
-3.476085662841796875e+00 5.153508663177490234e+00 -5.438518524169921875e-01 6.000000000000000000e+00
-5.202958106994628906e+00 7.719513416290283203e+00 -4.878757894039154053e-01 1.000000000000000000e+00
-1.027022933959960938e+01 1.524919509887694957e+01 -3.209148347377777100e-01 3.000000000000000000e+00
-1.291563868522644043e+00 1.922774672508239968e+00 -6.206480860710144043e-01 1.800000000000000000e+01
-1.485720753669738992e+00 2.213488578796387163e+00 -6.154660582542419434e-01 1.500000000000000000e+01
-1.721731901168823020e+00 2.566075325012207031e+00 -6.006667017936706543e-01 1.100000000000000000e+01
-2.083474159240723100e+00 3.107561111450194868e+00 -5.925737619400024414e-01 9.000000000000000000e+00
-2.611921787261962891e+00 3.898697614669799805e+00 -5.761982798576354980e-01 8.000000000000000000e+00
-3.444564580917357954e+00 5.143486976623535156e+00 -5.415858030319213867e-01 8.000000000000000000e+00
-5.157336711883544922e+00 7.706846714019775391e+00 -4.859916865825653076e-01 1.000000000000000000e+00
-1.019070434570313033e+01 1.523994827270507990e+01 -3.200073242187500000e-01 3.000000000000000000e+00
-1.288059115409851074e+00 1.932093620300292969e+00 -6.222009658813476562e-01 1.600000000000000000e+01
-1.480146050453186035e+00 2.221904754638671875e+00 -6.163659095764160156e-01 1.500000000000000000e+01
-1.712764143943787065e+00 2.572069644927978960e+00 -6.006667017936706543e-01 1.200000000000000000e+01
-2.066048145294189009e+00 3.104947566986083984e+00 -5.906965136528015137e-01 9.000000000000000000e+00
-2.608188867568970171e+00 3.922668695449829102e+00 -5.783919095993041992e-01 1.000000000000000000e+01
-3.416663646697998047e+00 5.140545368194580078e+00 -5.400170087814331055e-01 6.000000000000000000e+00
-5.125983238220214844e+00 7.718147277832031250e+00 -4.855729937553405762e-01 1.000000000000000000e+00
-1.013744544982909979e+01 1.527542781829833984e+01 -3.200073242187500000e-01 3.000000000000000000e+00
-1.284504890441894975e+00 1.941411375999450906e+00 -6.237539052963256836e-01 1.700000000000000000e+01
-1.465932726860045943e+00 2.217304468154906782e+00 -6.136664748191833496e-01 1.500000000000000000e+01
-1.711352705955504927e+00 2.589497804641724077e+00 -6.033380627632141113e-01 1.200000000000000000e+01
-2.059551477432250977e+00 3.118733882904053178e+00 -5.919480323791503906e-01 9.000000000000000000e+00
-2.587920427322388139e+00 3.921807765960692915e+00 -5.769294500350952148e-01 1.000000000000000000e+01
-3.411863803863524947e+00 5.172398090362548828e+00 -5.421087145805358887e-01 6.000000000000000000e+00
-5.096812248229979581e+00 7.732657909393311435e+00 -4.853636622428894043e-01 1.000000000000000000e+00
-1.008406257629395064e+01 1.531072139739990057e+01 -3.200073242187500000e-01 3.000000000000000000e+00
-1.281961679458617942e+00 1.952342629432678001e+00 -6.258244514465332031e-01 1.800000000000000000e+01
-1.453907728195189986e+00 2.215890645980834961e+00 -6.118668913841247559e-01 1.300000000000000000e+01
-1.696919560432434082e+00 2.587247610092163086e+00 -6.014299392700195312e-01 1.100000000000000000e+01
-2.048652410507202148e+00 3.125904083251953125e+00 -5.919480323791503906e-01 9.000000000000000000e+00
-2.563339471817017046e+00 3.914210796356201172e+00 -5.744920969009399414e-01 1.000000000000000000e+01
-3.392696619033813032e+00 5.182609558105468750e+00 -5.419344305992126465e-01 6.000000000000000000e+00
-5.076349258422851562e+00 7.760430812835693359e+00 -4.859916865825653076e-01 1.000000000000000000e+00
-9.975852012634277344e+00 1.526213550567626953e+01 -3.182620704174041748e-01 3.000000000000000000e+00
-1.269865393638611062e+00 1.948712944984436035e+00 -6.232362389564514160e-01 1.600000000000000000e+01
-1.455734252929687944e+00 2.235649585723876953e+00 -6.159160137176513672e-01 1.300000000000000000e+01
-1.683594107627869096e+00 2.586573600769042969e+00 -5.999034643173217773e-01 1.200000000000000000e+01
-2.042036771774291992e+00 3.139659881591796875e+00 -5.931994915008544922e-01 9.000000000000000000e+00
-2.556151151657104048e+00 3.933121442794799805e+00 -5.759544968605041504e-01 1.000000000000000000e+01
-3.375670671463013139e+00 5.196091175079345703e+00 -5.421087145805358887e-01 6.000000000000000000e+00
-5.044879436492919922e+00 7.771402359008789062e+00 -4.855729937553405762e-01 1.000000000000000000e+00
-9.889869689941406250e+00 1.524653530120849965e+01 -3.172149360179901123e-01 3.000000000000000000e+00
-1.263055443763732910e+00 1.953133821487426980e+00 -6.232362389564514160e-01 1.600000000000000000e+01
-1.443690896034240945e+00 2.234170436859130859e+00 -6.141163706779479980e-01 1.300000000000000000e+01
-1.672424554824829102e+00 2.589136362075806108e+00 -5.991402268409729004e-01 1.100000000000000000e+01
-2.024637460708618164e+00 3.136810779571533203e+00 -5.913223028182983398e-01 9.000000000000000000e+00
-2.546710252761840820e+00 3.948692798614501953e+00 -5.769294500350952148e-01 1.000000000000000000e+01
-3.344557285308837891e+00 5.187748432159423828e+00 -5.400170087814331055e-01 4.000000000000000000e+00
-4.991762161254882812e+00 7.748668670654296875e+00 -4.830608665943145752e-01 1.000000000000000000e+00
-9.836588859558105469e+00 1.528096389770507990e+01 -3.172149360179901123e-01 3.000000000000000000e+00
-1.255186676979064941e+00 1.955904960632323997e+00 -6.227186322212219238e-01 1.600000000000000000e+01
-1.431675672531127930e+00 2.232634544372559038e+00 -6.123167872428894043e-01 1.300000000000000000e+01
-1.669733405113219993e+00 2.604875564575194868e+00 -6.014299392700195312e-01 1.100000000000000000e+01
-2.007282972335814986e+00 3.133878469467163086e+00 -5.894450545310974121e-01 9.000000000000000000e+00
-2.532911062240601030e+00 3.957558631896973100e+00 -5.769294500350952148e-01 1.000000000000000000e+01
-3.339313268661499023e+00 5.219531059265136719e+00 -5.421087145805358887e-01 6.000000000000000000e+00
-4.964684009552001953e+00 7.766045570373535156e+00 -4.830608665943145752e-01 1.000000000000000000e+00
-9.761658668518066406e+00 1.528150272369384943e+01 -3.165168464183806818e-01 3.000000000000000000e+00
-1.251464724540710005e+00 1.965162873268126997e+00 -6.242715120315551758e-01 1.600000000000000000e+01
-1.420735001564026101e+00 2.232686042785644975e+00 -6.109670400619506836e-01 1.300000000000000000e+01
-1.665899038314818892e+00 2.618970632553101030e+00 -6.033380627632141113e-01 1.200000000000000000e+01
-1.994212150573730025e+00 3.137531757354735884e+00 -5.888193249702453613e-01 9.000000000000000000e+00
-2.512695789337158203e+00 3.956321716308594194e+00 -5.754670500755310059e-01 1.000000000000000000e+01
-3.305055141448975053e+00 5.205924987792968750e+00 -5.394940376281738281e-01 4.000000000000000000e+00
-4.914007663726806641e+00 7.746224880218505859e+00 -4.807581007480620783e-01 1.000000000000000000e+00
-9.708256721496582031e+00 1.531548404693604049e+01 -3.165168464183806818e-01 3.000000000000000000e+00
-1.245629429817199929e+00 1.971152424812316895e+00 -6.247891783714294434e-01 2.000000000000000000e+01
-1.411892294883728027e+00 2.235984086990356001e+00 -6.105171442031860352e-01 1.300000000000000000e+01
-1.646267890930176003e+00 2.608167886734008789e+00 -5.995218753814697266e-01 1.100000000000000000e+01
-1.983247995376586914e+00 3.144473791122436968e+00 -5.888193249702453613e-01 9.000000000000000000e+00
-2.496753454208374023e+00 3.961709737777709961e+00 -5.749795436859130859e-01 1.000000000000000000e+01
-3.296420812606811968e+00 5.232602119445800781e+00 -5.410628318786621094e-01 6.000000000000000000e+00
-4.893321990966796875e+00 7.773472309112548828e+00 -4.813861250877379816e-01 1.000000000000000000e+00
-9.601501464843750000e+00 1.526464462280273082e+01 -3.147715926170349121e-01 3.000000000000000000e+00
-1.234635949134827104e+00 1.968941688537598100e+00 -6.227186322212219238e-01 1.800000000000000000e+01
-1.405113458633423074e+00 2.242550134658813032e+00 -6.109670400619506836e-01 1.200000000000000000e+01
-1.631943106651305930e+00 2.605579376220703125e+00 -5.976137518882751465e-01 1.100000000000000000e+01
-1.979595303535460982e+00 3.163098812103271040e+00 -5.910094380378723145e-01 9.000000000000000000e+00
-2.480804204940795898e+00 3.967034816741942915e+00 -5.744920969009399414e-01 1.000000000000000000e+01
-3.273911237716674805e+00 5.237318992614746094e+00 -5.403655767440795898e-01 8.000000000000000000e+00
-4.851344585418701172e+00 7.766790390014648438e+00 -4.799207150936127264e-01 1.000000000000000000e+00
-1.228776216506958008e+00 1.974879622459412065e+00 -6.232362389564514160e-01 2.100000000000000000e+01
-1.406537175178528054e+00 2.262336015701293945e+00 -6.150161623954772949e-01 1.300000000000000000e+01
-1.628019452095031960e+00 2.619597434997559038e+00 -5.995218753814697266e-01 1.100000000000000000e+01
-1.964373588562011941e+00 3.163277149200439009e+00 -5.897579193115234375e-01 8.000000000000000000e+00
-2.462754964828491211e+00 3.968923330307006836e+00 -5.735171437263488770e-01 1.000000000000000000e+01
-3.240906953811645952e+00 5.225011348724365234e+00 -5.379252433776855469e-01 6.000000000000000000e+00
-4.828412532806395596e+00 7.790467739105224609e+00 -4.803394079208374023e-01 1.000000000000000000e+00
-9.494701385498046875e+00 1.533130359649658025e+01 -3.147715926170349121e-01 3.000000000000000000e+00
-1.215785980224608931e+00 1.969293951988219993e+00 -6.201304197311401367e-01 1.900000000000000000e+01
-1.391469597816467063e+00 2.255622148513793945e+00 -6.118668913841247559e-01 1.200000000000000000e+01
-1.620926380157470925e+00 2.628606319427489790e+00 -6.002851128578186035e-01 1.200000000000000000e+01
-1.948138475418091042e+00 3.161705970764160156e+00 -5.881935954093933105e-01 9.000000000000000000e+00
-2.456171274185181108e+00 3.989328384399414062e+00 -5.752233266830444336e-01 8.000000000000000000e+00
-3.224736928939818892e+00 5.239686012268066406e+00 -5.382738709449768066e-01 8.000000000000000000e+00
-4.782357215881347656e+00 7.776651382446289062e+00 -4.784553050994873047e-01 1.000000000000000000e+00
-9.441126823425292969e+00 1.536435317993164062e+01 -3.147715926170349121e-01 3.000000000000000000e+00
-3.225757217407227273e+01 5.251605224609375000e+01 1.651420783996582031e+01 2.600000000000000000e+01
-1.207895398139954057e+00 1.971878528594970925e+00 -6.196128129959106445e-01 1.800000000000000000e+01
-1.374431490898132102e+00 2.245506525039672852e+00 -6.078177690505981445e-01 1.100000000000000000e+01
-1.610716342926024947e+00 2.632573843002318892e+00 -5.999034643173217773e-01 1.100000000000000000e+01
-1.939150929450988992e+00 3.171857833862305132e+00 -5.888193249702453613e-01 9.000000000000000000e+00
-2.436021804809569868e+00 3.987713575363159180e+00 -5.737608671188354492e-01 8.000000000000000000e+00
-3.206427574157714844e+00 5.250910282135009766e+00 -5.382738709449768066e-01 8.000000000000000000e+00
-4.751020908355712891e+00 7.786477565765380859e+00 -4.780366122722625732e-01 1.000000000000000000e+00
-9.372864723205566406e+00 1.537331104278563920e+01 -3.142829239368439276e-01 3.000000000000000000e+00
-3.218381118774414062e+01 5.278767776489257812e+01 1.656597137451171875e+01 2.700000000000000000e+01
-1.210034966468811035e+00 1.990940570831299050e+00 -6.242715120315551758e-01 1.900000000000000000e+01
-1.372653961181641069e+00 2.260284423828125000e+00 -6.105171442031860352e-01 1.100000000000000000e+01
-1.605592250823975053e+00 2.644893169403076172e+00 -6.014299392700195312e-01 1.100000000000000000e+01
-1.926018357276916948e+00 3.175229310989379883e+00 -5.881935954093933105e-01 9.000000000000000000e+00
-2.419000387191772017e+00 3.991099834442139116e+00 -5.730296373367309570e-01 1.000000000000000000e+01
-3.188078880310059038e+00 5.262071132659912109e+00 -5.382738709449768066e-01 6.000000000000000000e+00
-4.709331512451171875e+00 7.779094696044921875e+00 -4.765712320804595947e-01 1.000000000000000000e+00
-1.197438955307007058e+00 1.985017180442810059e+00 -6.211656928062438965e-01 1.900000000000000000e+01
-1.371187090873718040e+00 2.274837970733643022e+00 -6.132165789604187012e-01 1.400000000000000000e+01
-1.588706970214843972e+00 2.636750221252440962e+00 -5.983769893646240234e-01 1.100000000000000000e+01
-1.922610402107238992e+00 3.193445205688477007e+00 -5.903836488723754883e-01 9.000000000000000000e+00
-2.409845352172852007e+00 4.005903720855712891e+00 -5.740045905113220215e-01 1.000000000000000000e+01
-3.162397623062133789e+00 5.258954524993895596e+00 -5.368793606758117676e-01 8.000000000000000000e+00
-4.704082489013671875e+00 7.828907966613770419e+00 -4.786646664142609198e-01 1.000000000000000000e+00
-9.230949401855468750e+00 1.537503433227539062e+01 -3.130263686180114746e-01 3.000000000000000000e+00
-1.187526345252990945e+00 1.984211921691894975e+00 -6.196128129959106445e-01 1.700000000000000000e+01
-1.358237266540526900e+00 2.271247863769530806e+00 -6.109670400619506836e-01 1.200000000000000000e+01
-1.582515239715575950e+00 2.647335052490233931e+00 -5.995218753814697266e-01 1.100000000000000000e+01
-1.908412575721740945e+00 3.195049285888671875e+00 -5.894450545310974121e-01 1.000000000000000000e+01
-2.393812894821166992e+00 4.010881900787354404e+00 -5.735171437263488770e-01 1.000000000000000000e+01
-3.145041942596435991e+00 5.271672248840332031e+00 -5.370537042617797852e-01 6.000000000000000000e+00
-4.666499137878417969e+00 7.828125000000000000e+00 -4.776179492473601740e-01 3.000000000000000000e+00
-1.176647782325745073e+00 1.981700658798217995e+00 -6.175422668457031250e-01 1.900000000000000000e+01
-1.350300788879394975e+00 2.275975227355957031e+00 -6.109670400619506836e-01 1.300000000000000000e+01
-1.574266195297240989e+00 2.654531478881835938e+00 -5.999034643173217773e-01 1.100000000000000000e+01
-1.889191865921020952e+00 3.188096046447753906e+00 -5.869421362876892090e-01 9.000000000000000000e+00
-2.379797697067261186e+00 4.019213676452636719e+00 -5.735171437263488770e-01 1.000000000000000000e+01
-3.115458250045775923e+00 5.263758182525634766e+00 -5.351362824440002441e-01 8.000000000000000000e+00
-4.635078907012938565e+00 7.837490081787109375e+00 -4.771992564201354980e-01 3.000000000000000000e+00
-9.072521209716796875e+00 1.535302448272705078e+01 -3.112811148166655939e-01 3.000000000000000000e+00
-1.175606131553649902e+00 1.995783090591431108e+00 -6.206480860710144043e-01 1.800000000000000000e+01
-1.330486297607422097e+00 2.260521411895751953e+00 -6.055682301521301270e-01 1.200000000000000000e+01
-1.568972706794738992e+00 2.666779041290283203e+00 -6.014299392700195312e-01 1.200000000000000000e+01
-1.878051877021789995e+00 3.194671154022216797e+00 -5.869421362876892090e-01 9.000000000000000000e+00
-2.365753412246704102e+00 4.027495861053466797e+00 -5.735171437263488770e-01 1.000000000000000000e+01
-3.099082946777344194e+00 5.278037071228027344e+00 -5.354849100112915039e-01 6.000000000000000000e+00
-4.597585678100585938e+00 7.836395263671875000e+00 -4.761525392532349188e-01 3.000000000000000000e+00
-9.018874168395996094e+00 1.538459968566895064e+01 -3.112811148166655939e-01 3.000000000000000000e+00
-1.169607043266295943e+00 2.001542568206787109e+00 -6.211656928062438965e-01 1.900000000000000000e+01
-1.326517939567565918e+00 2.271883487701416016e+00 -6.073678731918334961e-01 1.200000000000000000e+01
-1.551737308502197044e+00 2.658674955368041992e+00 -5.983769893646240234e-01 1.100000000000000000e+01
-1.868879199028014915e+00 3.204620122909545898e+00 -5.875678658485412598e-01 9.000000000000000000e+00
-2.348682165145874023e+00 4.030584335327148438e+00 -5.727859139442443848e-01 1.000000000000000000e+01
-3.080640316009521040e+00 5.288822650909423828e+00 -5.354849100112915039e-01 8.000000000000000000e+00
-4.582259654998779297e+00 7.873110294342041016e+00 -4.774085879325867254e-01 1.000000000000000000e+00
-8.934958457946777344e+00 1.536412906646729049e+01 -3.102339804172515869e-01 3.000000000000000000e+00
-3.125927543640137074e+01 5.375196075439453125e+01 1.666121673583984020e+01 2.700000000000000000e+01
-1.158737778663635032e+00 1.998927712440490945e+00 -6.190951466560363770e-01 1.900000000000000000e+01
-1.321509599685668945e+00 2.281558990478516069e+00 -6.087175607681274414e-01 1.200000000000000000e+01
-1.546382188796997070e+00 2.670871496200561968e+00 -5.999034643173217773e-01 1.100000000000000000e+01
