3.250794887542725053e+00 2.931140899658203125e+00 -5.374438166618347168e-01 9.000000000000000000e+00
4.201537132263183594e+00 3.787066459655762163e+00 -4.948703050613402765e-01 8.000000000000000000e+00
6.100803852081298828e+00 5.495117187500000000e+00 -4.303062260150908869e-01 2.000000000000000000e+00
9.999804496765136719e+00 9.000704765319824219e+00 -2.348395884037018100e-01 2.000000000000000000e+00
1.665742397308350053e+00 1.496160149574280007e+00 -5.999425649642944336e-01 1.800000000000000000e+01
1.896917343139647993e+00 1.702604293823241965e+00 -5.884719491004943848e-01 1.200000000000000000e+01
2.207983255386352983e+00 1.981110095977782981e+00 -5.766248106956481934e-01 1.400000000000000000e+01
2.623828887939453125e+00 2.352574348449707031e+00 -5.581581592559814453e-01 9.000000000000000000e+00
3.245202779769897017e+00 2.907666921615601030e+00 -5.350064039230346680e-01 9.000000000000000000e+00
4.231223106384277344e+00 3.789799690246582031e+00 -4.969620406627655029e-01 8.000000000000000000e+00
6.103155136108398438e+00 5.462603569030761719e+00 -4.292595088481903076e-01 2.000000000000000000e+00
1.003101253509520951e+01 8.971911430358886719e+00 -2.349093854427337924e-01 2.000000000000000000e+00
1.676721692085265891e+00 1.495480060577393022e+00 -6.020131111145019531e-01 1.900000000000000000e+01
1.918851494789123979e+00 1.710235238075255904e+00 -5.934208631515502930e-01 1.300000000000000000e+01
2.213419437408446822e+00 1.972084760665893999e+00 -5.762431621551513672e-01 1.400000000000000000e+01
2.637926340103148970e+00 2.348655223846435991e+00 -5.594096183776855469e-01 1.000000000000000000e+01
3.265714168548583984e+00 2.905557870864868164e+00 -5.367125868797302246e-01 1.000000000000000000e+01
4.236982822418212891e+00 3.768386363983153853e+00 -4.960905015468596857e-01 9.000000000000000000e+00
6.125171661376953125e+00 5.443919658660888672e+00 -4.294688701629639227e-01 2.000000000000000000e+00
1.006825065612792969e+01 8.942153930664062500e+00 -2.350490093231200894e-01 2.000000000000000000e+00
1.679039239883423074e+00 1.487056493759155051e+00 -6.009778380393981934e-01 2.000000000000000000e+01
1.917513251304626021e+00 1.697069048881530984e+00 -5.911713838577270508e-01 1.300000000000000000e+01
2.212937831878662109e+00 1.957841992378235085e+00 -5.743350982666015625e-01 1.400000000000000000e+01
2.646108627319335938e+00 2.339432954788208008e+00 -5.594096183776855469e-01 9.000000000000000000e+00
3.278811931610106978e+00 2.896769523620605025e+00 -5.372000932693481445e-01 1.000000000000000000e+01
4.256084442138671875e+00 3.758849143981934038e+00 -4.967877268791198730e-01 9.000000000000000000e+00
6.138147354125976562e+00 5.417219638824462891e+00 -4.290501773357390802e-01 2.000000000000000000e+00
1.005740928649901988e+01 8.869919776916503906e+00 -2.340716719627380094e-01 2.000000000000000000e+00
1.678417205810547097e+00 1.476083278656006081e+00 -5.989072918891906738e-01 1.900000000000000000e+01
1.930744409561157005e+00 1.696797490119934082e+00 -5.934208631515502930e-01 1.400000000000000000e+01
2.219758510589600053e+00 1.950105547904968040e+00 -5.743350982666015625e-01 1.300000000000000000e+01
2.651289701461791992e+00 2.327575683593750000e+00 -5.587838888168334961e-01 1.000000000000000000e+01
3.285918951034545898e+00 2.882688283920288086e+00 -5.367125868797302246e-01 1.000000000000000000e+01
4.269179344177246094e+00 3.743969678878784180e+00 -4.967877268791198730e-01 9.000000000000000000e+00
6.163027763366699219e+00 5.401025772094726562e+00 -4.294688701629639227e-01 2.000000000000000000e+00
1.013043212890625000e+01 8.871646881103515625e+00 -2.350490093231200894e-01 2.000000000000000000e+00
3.598854446411132812e+01 3.150558853149414062e+01 1.281620121002197088e+01 1.400000000000000000e+01
1.683815956115723100e+00 1.469921708106995073e+00 -5.989072918891906738e-01 1.800000000000000000e+01
1.935482025146483931e+00 1.688428521156311035e+00 -5.929709672927856445e-01 1.300000000000000000e+01
2.228370666503905806e+00 1.943246960639954057e+00 -5.747166872024536133e-01 1.300000000000000000e+01
2.650867223739624023e+00 2.310055732727050781e+00 -5.569067001342773438e-01 9.000000000000000000e+00
3.296462535858153853e+00 2.870625495910644975e+00 -5.367125868797302246e-01 1.000000000000000000e+01
4.269348144531250000e+00 3.716523647308350053e+00 -4.952189326286315918e-01 9.000000000000000000e+00
6.176754474639892578e+00 5.373157501220703125e+00 -4.290501773357390802e-01 2.000000000000000000e+00
3.629070663452147727e+01 3.155815315246582031e+01 1.110313415527343928e+01 1.400000000000000000e+01
1.021721172332764027e+01 8.881686210632324219e+00 -2.363055795431137085e-01 2.000000000000000000e+00
1.693315982818603960e+00 1.467831254005431907e+00 -6.004601716995239258e-01 1.600000000000000000e+01
1.933999061584473100e+00 1.675282597541809082e+00 -5.907214879989624023e-01 1.200000000000000000e+01
2.251466035842895952e+00 1.949593424797058105e+00 -5.789144635200500488e-01 1.300000000000000000e+01
2.661902189254761186e+00 2.303373575210570845e+00 -5.575324296951293945e-01 9.000000000000000000e+00
3.307964324951171875e+00 2.860399484634398970e+00 -5.369563102722167969e-01 9.000000000000000000e+00
4.298875808715820312e+00 3.715930461883544922e+00 -4.971363544464110773e-01 9.000000000000000000e+00
6.192450046539306641e+00 5.348952770233154297e+00 -4.288408160209655762e-01 2.000000000000000000e+00
1.019365692138672053e+01 8.798928260803222656e+00 -2.350490093231200894e-01 2.000000000000000000e+00
3.584201431274414062e+01 3.093799591064453125e+01 1.268679237365723012e+01 1.400000000000000000e+01
1.704029917716979980e+00 1.467249989509582964e+00 -6.025307178497314453e-01 1.900000000000000000e+01
1.946929812431335005e+00 1.675215125083922896e+00 -5.929709672927856445e-01 1.200000000000000000e+01
2.243034601211547852e+00 1.929314255714416948e+00 -5.750983357429504395e-01 1.100000000000000000e+01
2.683008432388306108e+00 2.306122303009033203e+00 -5.603482723236083984e-01 1.100000000000000000e+01
3.302372932434082031e+00 2.836479902267456055e+00 -5.345189571380615234e-01 9.000000000000000000e+00
4.317221164703369141e+00 3.706845998764038086e+00 -4.978336095809937079e-01 9.000000000000000000e+00
6.228343009948729581e+00 5.343995094299316406e+00 -4.300968945026398260e-01 1.000000000000000000e+00
1.017420005798340021e+01 8.723424911499023438e+00 -2.339320629835129062e-01 2.000000000000000000e+00
3.594441223144531250e+01 3.081896972656250000e+01 1.268679237365723012e+01 1.400000000000000000e+01
1.704736232757567915e+00 1.457526683807373047e+00 -6.009778380393981934e-01 1.800000000000000000e+01
1.948320746421813965e+00 1.664611220359802024e+00 -5.916212797164916992e-01 1.200000000000000000e+01
2.249755620956420898e+00 1.921472787857056108e+00 -5.750983357429504395e-01 1.100000000000000000e+01
2.694046974182128906e+00 2.299307584762572798e+00 -5.609740018844604492e-01 1.300000000000000000e+01
3.324337005615233931e+00 2.835240602493286133e+00 -5.364688634872436523e-01 9.000000000000000000e+00
4.334682464599609375e+00 3.695631504058837891e+00 -4.983565509319304865e-01 8.000000000000000000e+00
6.253040313720703125e+00 5.327402591705322266e+00 -4.305155873298645020e-01 2.000000000000000000e+00
1.021067905426025035e+01 8.693042755126953125e+00 -2.340716719627380094e-01 2.000000000000000000e+00
3.605712890625000000e+01 3.068702125549316051e+01 1.268679237365723012e+01 1.400000000000000000e+01
1.700725197792053001e+00 1.444362401962280051e+00 -5.978720188140869141e-01 1.700000000000000000e+01
1.956801652908324973e+00 1.660663127899169922e+00 -5.925210714340209961e-01 1.300000000000000000e+01
2.256114959716796875e+00 1.914001822471619096e+00 -5.750983357429504395e-01 8.000000000000000000e+00
2.692616224288939986e+00 2.282696723937987837e+00 -5.590967535972595215e-01 1.000000000000000000e+01
3.336750030517578125e+00 2.826767444610596147e+00 -5.369563102722167969e-01 9.000000000000000000e+00
4.337791442871093750e+00 3.673511266708374023e+00 -4.973106682300568182e-01 8.000000000000000000e+00
6.285918235778808594e+00 5.319539546966552734e+00 -4.315623044967650812e-01 2.000000000000000000e+00
1.023334217071533025e+01 8.653969764709472656e+00 -2.339320629835129062e-01 2.000000000000000000e+00
3.644837570190429688e+01 3.082308197021484020e+01 1.279031944274901988e+01 1.400000000000000000e+01
1.705756664276123047e+00 1.438416957855225053e+00 -5.978720188140869141e-01 1.800000000000000000e+01
1.965566873550415039e+00 1.656334042549133079e+00 -5.934208631515502930e-01 1.100000000000000000e+01
2.264283895492554155e+00 1.907379627227782981e+00 -5.754799246788024902e-01 7.000000000000000000e+00
2.697545528411864790e+00 2.270739555358887163e+00 -5.584710240364074707e-01 1.100000000000000000e+01
3.360268831253052202e+00 2.826603412628173828e+00 -5.391499996185302734e-01 1.000000000000000000e+01
4.356687545776367188e+00 3.663476228713988814e+00 -4.980079233646392822e-01 9.000000000000000000e+00
6.298332214355468750e+00 5.292425632476806641e+00 -4.311436116695404053e-01 2.000000000000000000e+00
3.637750244140625000e+01 3.055682182312012074e+01 1.096816349029541016e+01 1.400000000000000000e+01
1.026961421966552912e+01 8.623339653015136719e+00 -2.340716719627380094e-01 2.000000000000000000e+00
1.725579142570496050e+00 1.444856166839600053e+00 -6.030483841896057129e-01 1.900000000000000000e+01
1.963863730430603027e+00 1.643210053443908913e+00 -5.911713838577270508e-01 1.200000000000000000e+01
2.269422292709351030e+00 1.898204565048217995e+00 -5.750983357429504395e-01 6.000000000000000000e+00
2.708486795425415039e+00 2.263843297958374023e+00 -5.590967535972595215e-01 1.100000000000000000e+01
3.362497329711914062e+00 2.808493852615356001e+00 -5.379312634468078613e-01 9.000000000000000000e+00
4.377095699310302734e+00 3.654631137847899947e+00 -4.988794624805449884e-01 9.000000000000000000e+00
6.329036712646484375e+00 5.280644416809082031e+00 -4.319809973239899237e-01 2.000000000000000000e+00
1.033344173431395951e+01 8.615612030029296875e+00 -2.348395884037018100e-01 2.000000000000000000e+00
3.607212829589843750e+01 3.007550239562987926e+01 1.258430004119873047e+01 1.400000000000000000e+01
1.730612039566040039e+00 1.438823938369750977e+00 -6.030483841896057129e-01 2.000000000000000000e+01
1.971086621284485085e+00 1.637590289115905984e+00 -5.916212797164916992e-01 1.200000000000000000e+01
2.269993066787720171e+00 1.885254025459289995e+00 -5.735718607902526855e-01 9.000000000000000000e+00
2.725492954254149947e+00 2.261944293975830078e+00 -5.609740018844604492e-01 1.000000000000000000e+01
3.360056400299071822e+00 2.786601781845093218e+00 -5.359813570976257324e-01 9.000000000000000000e+00
4.394427776336669922e+00 3.643144607543944868e+00 -4.994024038314818781e-01 1.100000000000000000e+01
6.325898647308349609e+00 5.240681171417236328e+00 -4.305155873298645020e-01 2.000000000000000000e+00
1.033880710601806996e+01 8.559085845947265625e+00 -2.342811077833175937e-01 2.000000000000000000e+00
3.632797241210938211e+01 3.006379318237305043e+01 1.263502788543700994e+01 1.400000000000000000e+01
1.733884334564208984e+00 1.431847095489501953e+00 -6.025307178497314453e-01 1.900000000000000000e+01
1.975003123283386008e+00 1.629804491996764915e+00 -5.911713838577270508e-01 1.300000000000000000e+01
2.283804655075072798e+00 1.883962631225585938e+00 -5.754799246788024902e-01 1.200000000000000000e+01
2.736027240753173828e+00 2.255406856536864790e+00 -5.615997314453125000e-01 1.000000000000000000e+01
3.378471612930297852e+00 2.783016920089722124e+00 -5.374438166618347168e-01 9.000000000000000000e+00
4.392642021179199219e+00 3.617153644561768022e+00 -4.978336095809937079e-01 9.000000000000000000e+00
6.358664989471436435e+00 5.232365608215332031e+00 -4.315623044967650812e-01 1.000000000000000000e+00
1.037948989868164062e+01 8.534914970397949219e+00 -2.345603406429291049e-01 2.000000000000000000e+00
3.642224121093750000e+01 2.994951629638671875e+01 1.263502788543700994e+01 1.400000000000000000e+01
1.731402397155761941e+00 1.419661402702331987e+00 -5.999425649642944336e-01 1.900000000000000000e+01
1.991231799125670943e+00 1.631546139717102051e+00 -5.943207144737243652e-01 1.300000000000000000e+01
2.291885852813721147e+00 1.877223134040832964e+00 -5.758615732192993164e-01 1.400000000000000000e+01
2.740826129913330078e+00 2.243340253829956055e+00 -5.609740018844604492e-01 1.000000000000000000e+01
3.391238689422606978e+00 2.773720502853393999e+00 -5.379312634468078613e-01 1.000000000000000000e+01
4.403699398040770596e+00 3.600537300109862837e+00 -4.976592957973480225e-01 9.000000000000000000e+00
6.392356872558593750e+00 5.222774982452392578e+00 -4.326090216636658270e-01 2.000000000000000000e+00
1.039682769775390980e+01 8.488513946533203125e+00 -2.342811077833175937e-01 2.000000000000000000e+00
3.623924636840820312e+01 2.958761787414551137e+01 1.253564167022705078e+01 1.300000000000000000e+01
1.739343762397765891e+00 1.416048407554626021e+00 -6.009778380393981934e-01 1.800000000000000000e+01
1.993891477584839089e+00 1.622125864028931108e+00 -5.934208631515502930e-01 1.400000000000000000e+01
2.306040287017821822e+00 1.875405073165893999e+00 -5.777696371078491211e-01 1.400000000000000000e+01
2.747107267379761186e+00 2.232513427734375000e+00 -5.606611371040344238e-01 1.000000000000000000e+01
3.403982162475585938e+00 2.764368772506713867e+00 -5.384187698364257812e-01 9.000000000000000000e+00
4.411600112915039062e+00 3.581376314163208008e+00 -4.971363544464110773e-01 1.100000000000000000e+01
6.410549163818359375e+00 5.200429439544677734e+00 -4.326090216636658270e-01 2.000000000000000000e+00
1.047299671173096058e+01 8.489948272705078125e+00 -2.353282421827316007e-01 2.000000000000000000e+00
3.648853302001953125e+01 2.956892585754394887e+01 1.258430004119873047e+01 1.400000000000000000e+01
1.745778441429137962e+00 1.411182761192321999e+00 -6.014954447746276855e-01 1.900000000000000000e+01
1.990445852279663086e+00 1.607808828353882058e+00 -5.907214879989624023e-01 1.200000000000000000e+01
2.315627574920653853e+00 1.869810819625854048e+00 -5.785328745841979980e-01 1.400000000000000000e+01
2.754883527755736861e+00 2.222910642623900923e+00 -5.606611371040344238e-01 9.000000000000000000e+00
3.418246746063231978e+00 2.756207942962646040e+00 -5.391499996185302734e-01 1.000000000000000000e+01
4.451996326446533203e+00 3.588461160659790039e+00 -5.002739429473876953e-01 1.100000000000000000e+01
6.409997463226318359e+00 5.162986755371093750e+00 -4.313529431819915771e-01 2.000000000000000000e+00
3.685550689697266336e+01 2.967497444152832031e+01 1.092407321929931996e+01 1.300000000000000000e+01
1.048387432098389027e+01 8.438293457031250000e+00 -2.349093854427337924e-01 2.000000000000000000e+00
1.759733438491821067e+00 1.412335395812988059e+00 -6.046012639999389648e-01 2.100000000000000000e+01
1.996046066284179910e+00 1.600851058959960938e+00 -5.907214879989624023e-01 1.200000000000000000e+01
2.316013336181641069e+00 1.856804251670836958e+00 -5.770063996315002441e-01 1.500000000000000000e+01
2.759542703628540039e+00 2.210810661315917969e+00 -5.600354075431823730e-01 1.000000000000000000e+01
3.416999340057373047e+00 2.735574960708618164e+00 -5.374438166618347168e-01 1.000000000000000000e+01
4.466051101684570312e+00 3.574143886566162109e+00 -5.004482865333557129e-01 9.000000000000000000e+00
6.424860954284667969e+00 5.138085365295410156e+00 -4.311436116695404053e-01 2.000000000000000000e+00
1.055700588226318004e+01 8.436600685119628906e+00 -2.358867228031157892e-01 2.000000000000000000e+00
1.755587697029113992e+00 1.398960709571837935e+00 -6.014954447746276855e-01 1.900000000000000000e+01
2.007719755172729048e+00 1.598729491233825906e+00 -5.925210714340209961e-01 1.100000000000000000e+01
2.319408655166625977e+00 1.846263170242310014e+00 -5.762431621551513672e-01 1.300000000000000000e+01
2.779610633850098100e+00 2.211002111434936968e+00 -5.625383257865905762e-01 9.000000000000000000e+00
3.428081512451171875e+00 2.724865913391112837e+00 -5.376875400543212891e-01 1.000000000000000000e+01
4.478499889373779297e+00 3.558532714843750000e+00 -5.004482865333557129e-01 1.100000000000000000e+01
6.464655399322509766e+00 5.133014678955078125e+00 -4.326090216636658270e-01 2.000000000000000000e+00
1.055192756652832031e+01 8.372354507446289062e+00 -2.351188212633132935e-01 2.000000000000000000e+00
3.770127868652343750e+01 2.990309906005859020e+01 1.289384746551514027e+01 1.400000000000000000e+01
1.753127217292786089e+00 1.386524796485901101e+00 -5.989072918891906738e-01 1.900000000000000000e+01
2.018152713775635210e+00 1.594985127449036089e+00 -5.938707590103149414e-01 1.200000000000000000e+01
2.329240798950194868e+00 1.840183854103087935e+00 -5.770063996315002441e-01 1.400000000000000000e+01
2.783044576644897017e+00 2.197127580642700195e+00 -5.615997314453125000e-01 1.000000000000000000e+01
3.431811571121215820e+00 2.707365036010742188e+00 -5.367125868797302246e-01 1.000000000000000000e+01
4.447708129882813388e+00 3.507549285888671875e+00 -4.955675601959229071e-01 1.400000000000000000e+01
6.495975017547607422e+00 5.119175434112548828e+00 -4.334463775157927912e-01 2.000000000000000000e+00
1.055740642547607067e+01 8.313828468322753906e+00 -2.345603406429291049e-01 2.000000000000000000e+00
1.760995268821716087e+00 1.382782936096190962e+00 -5.999425649642944336e-01 1.800000000000000000e+01
2.020641565322875977e+00 1.585524797439574973e+00 -5.929709672927856445e-01 1.200000000000000000e+01
2.340284347534180132e+00 1.835677027702331987e+00 -5.781512856483459473e-01 1.300000000000000000e+01
2.786032915115356001e+00 2.183743715286254883e+00 -5.606611371040344238e-01 1.000000000000000000e+01
3.444366693496704102e+00 2.697817325592041016e+00 -5.372000932693481445e-01 1.000000000000000000e+01
4.459924697875976562e+00 3.492002487182617188e+00 -4.955675601959229071e-01 1.100000000000000000e+01
6.491782665252686435e+00 5.079238891601563388e+00 -4.319809973239899237e-01 2.000000000000000000e+00
1.063992500305175959e+01 8.318802833557128906e+00 -2.357470989227294922e-01 2.000000000000000000e+00
3.852313995361328125e+01 3.010840415954589844e+01 1.310090255737305043e+01 1.500000000000000000e+01
1.768617749214171919e+00 1.379311800003051980e+00 -6.009778380393981934e-01 1.800000000000000000e+01
2.021276950836182085e+00 1.575221657752990945e+00 -5.916212797164916992e-01 1.100000000000000000e+01
2.349456310272216797e+00 1.830319404602051003e+00 -5.789144635200500488e-01 1.300000000000000000e+01
2.799494028091431108e+00 2.179346561431885210e+00 -5.619125962257385254e-01 9.000000000000000000e+00
3.459561347961425781e+00 2.691256046295166016e+00 -5.381750464439392090e-01 1.000000000000000000e+01
4.474625587463378906e+00 3.479639768600463867e+00 -4.959161877632141113e-01 1.100000000000000000e+01
6.492819309234619141e+00 5.045428276062011719e+00 -4.309342503547667902e-01 2.000000000000000000e+00
1.067692947387694957e+01 8.290832519531250000e+00 -2.359565347433089932e-01 2.000000000000000000e+00
1.778004169464111106e+00 1.376677870750427024e+00 -6.025307178497314453e-01 1.600000000000000000e+01
2.026763200759888139e+00 1.568156480789185014e+00 -5.916212797164916992e-01 1.100000000000000000e+01
2.349619150161743164e+00 1.817302584648132102e+00 -5.773880481719970703e-01 1.300000000000000000e+01
2.807084321975708008e+00 2.169561386108397993e+00 -5.619125962257385254e-01 9.000000000000000000e+00
3.457937002182006836e+00 2.670669794082642046e+00 -5.364688634872436523e-01 1.000000000000000000e+01
4.505669116973876953e+00 3.478610038757324219e+00 -4.980079233646392822e-01 9.000000000000000000e+00
6.538856029510498047e+00 5.044693470001220703e+00 -4.328183531761168878e-01 2.000000000000000000e+00
1.068996715545653942e+01 8.241303443908691406e+00 -2.356074899435043057e-01 2.000000000000000000e+00
1.780789136886596902e+00 1.369907379150391069e+00 -6.020131111145019531e-01 1.800000000000000000e+01
2.034769773483275923e+00 1.564156889915466087e+00 -5.925210714340209961e-01 1.100000000000000000e+01
2.355316877365111861e+00 1.809912085533142090e+00 -5.773880481719970703e-01 1.300000000000000000e+01
2.813886404037476030e+00 2.160731792449951172e+00 -5.619125962257385254e-01 9.000000000000000000e+00
3.472609519958496094e+00 2.664627075195312944e+00 -5.374438166618347168e-01 9.000000000000000000e+00
4.514994621276854581e+00 3.463225364685059038e+00 -4.978336095809937079e-01 9.000000000000000000e+00
6.557842254638671875e+00 5.026556015014648438e+00 -4.330277144908905029e-01 2.000000000000000000e+00
1.068405532836914062e+01 8.183360099792480469e+00 -2.349093854427337924e-01 2.000000000000000000e+00
1.773277640342711958e+00 1.354302525520324929e+00 -5.978720188140869141e-01 1.900000000000000000e+01
2.038668155670166016e+00 1.555862426757812944e+00 -5.920711755752563477e-01 1.100000000000000000e+01
2.361620187759398970e+00 1.801679491996764915e+00 -5.773880481719970703e-01 1.200000000000000000e+01
2.824553489685059038e+00 2.153291702270507812e+00 -5.625383257865905762e-01 9.000000000000000000e+00
3.494522333145142046e+00 2.662112712860106978e+00 -5.393937230110168457e-01 9.000000000000000000e+00
4.557172775268554688e+00 3.470378637313843218e+00 -5.011455416679382324e-01 9.000000000000000000e+00
6.584884643554688388e+00 5.010891437530517578e+00 -4.336557388305664062e-01 2.000000000000000000e+00
1.074439048767090021e+01 8.170224189758300781e+00 -2.356074899435043057e-01 2.000000000000000000e+00
1.784151792526244895e+00 1.352773189544677956e+00 -5.999425649642944336e-01 1.700000000000000000e+01
2.050299882888793945e+00 1.553444027900696023e+00 -5.938707590103149414e-01 1.100000000000000000e+01
2.367894887924193892e+00 1.793424844741821067e+00 -5.773880481719970703e-01 1.200000000000000000e+01
2.825752019882202148e+00 2.138650417327880859e+00 -5.612868666648864746e-01 9.000000000000000000e+00
3.502210378646851030e+00 2.648700952529906782e+00 -5.391499996185302734e-01 7.000000000000000000e+00
4.564491271972656250e+00 3.450845479965209961e+00 -5.006225705146789551e-01 9.000000000000000000e+00
6.589587211608886719e+00 4.978243827819824219e+00 -4.328183531761168878e-01 2.000000000000000000e+00
1.080476379394531072e+01 8.156765937805175781e+00 -2.363055795431137085e-01 2.000000000000000000e+00
1.795036792755126953e+00 1.351184248924254927e+00 -6.020131111145019531e-01 1.800000000000000000e+01
2.049480438232421875e+00 1.541592001914978027e+00 -5.920711755752563477e-01 1.100000000000000000e+01
2.371002435684204102e+00 1.782788753509521040e+00 -5.766248106956481934e-01 1.000000000000000000e+01
2.836358785629272017e+00 2.131146907806396040e+00 -5.619125962257385254e-01 9.000000000000000000e+00
3.503497362136840820e+00 2.630500316619873047e+00 -5.379312634468078613e-01 9.000000000000000000e+00
4.595631122589111328e+00 3.449243307113647017e+00 -5.027143359184265137e-01 9.000000000000000000e+00
6.616510868072509766e+00 4.962401866912841797e+00 -4.334463775157927912e-01 2.000000000000000000e+00
1.079476642608642933e+01 8.090218544006347656e+00 -2.354678660631180087e-01 2.000000000000000000e+00
1.804384946823119895e+00 1.348379492759705034e+00 -6.035659909248352051e-01 1.900000000000000000e+01
2.051726102828979048e+00 1.532096624374390093e+00 -5.911713838577270508e-01 1.200000000000000000e+01
2.381930828094481978e+00 1.778024673461914062e+00 -5.777696371078491211e-01 1.000000000000000000e+01
2.842197179794311968e+00 2.120052099227904829e+00 -5.615997314453125000e-01 1.000000000000000000e+01
3.512658357620238814e+00 2.618254661560059038e+00 -5.379312634468078613e-01 9.000000000000000000e+00
4.606045246124267578e+00 3.431990146636962891e+00 -5.025399923324584961e-01 9.000000000000000000e+00
6.640200614929199219e+00 4.944046497344970703e+00 -4.338650703430175781e-01 1.000000000000000000e+00
3.145445632934569957e+01 2.341128730773926137e+01 9.052480697631835938e+00 1.200000000000000000e+01
1.084540176391601918e+01 8.069200515747070312e+00 -2.359565347433089932e-01 2.000000000000000000e+00
3.220575714111328125e+01 2.396174049377441051e+01 1.075600147247313920e+01 9.000000000000000000e+00
1.804426074028014915e+00 1.338619709014893022e+00 -6.020131111145019531e-01 1.700000000000000000e+01
2.063323736190795898e+00 1.529567480087280051e+00 -5.929709672927856445e-01 1.000000000000000000e+01
2.383390665054320845e+00 1.766192674636841042e+00 -5.766248106956481934e-01 1.100000000000000000e+01
2.854342699050902876e+00 2.113644838333129883e+00 -5.625383257865905762e-01 1.000000000000000000e+01
3.526563405990601030e+00 2.609519720077515093e+00 -5.386624932289123535e-01 7.000000000000000000e+00
4.611589908599854404e+00 3.411151647567749023e+00 -5.018427371978759766e-01 9.000000000000000000e+00
6.657418251037597656e+00 4.920837879180908203e+00 -4.338650703430175781e-01 2.000000000000000000e+00
3.147956085205078125e+01 2.325965690612792969e+01 9.036283493041992188e+00 1.200000000000000000e+01
1.085741710662841975e+01 8.019412994384765625e+00 -2.356074899435043057e-01 2.000000000000000000e+00
3.223586273193358664e+01 2.380108261108398082e+01 1.073684883117675959e+01 1.900000000000000000e+01
1.799754500389098899e+00 1.325439453125000000e+00 -5.989072918891906738e-01 1.700000000000000000e+01
2.076498031616210938e+00 1.528131127357482910e+00 -5.952205061912536621e-01 1.300000000000000000e+01
2.395867109298706055e+00 1.762515783309936968e+00 -5.781512856483459473e-01 1.100000000000000000e+01
2.863294839859008789e+00 2.104838371276855025e+00 -5.628511905670166016e-01 1.000000000000000000e+01
3.540450334548950195e+00 2.600719451904296875e+00 -5.393937230110168457e-01 9.000000000000000000e+00
4.629892826080322266e+00 3.399750471115111861e+00 -5.025399923324584961e-01 9.000000000000000000e+00
6.658451557159423828e+00 4.885753631591796875e+00 -4.328183531761168878e-01 2.000000000000000000e+00
3.152913475036621094e+01 2.312657928466796875e+01 9.027285575866699219e+00 1.200000000000000000e+01
1.091759681701659979e+01 8.005113601684570312e+00 -2.363055795431137085e-01 2.000000000000000000e+00
3.230059051513671875e+01 2.368377304077148082e+01 1.073219013214110973e+01 9.000000000000000000e+00
1.813727378845215066e+00 1.325989961624145952e+00 -6.020131111145019531e-01 1.800000000000000000e+01
2.073951721191405806e+00 1.515125632286071999e+00 -5.929709672927856445e-01 1.200000000000000000e+01
2.402004718780518022e+00 1.754141926765441895e+00 -5.781512856483459473e-01 1.100000000000000000e+01
2.864242076873778853e+00 2.090173006057738814e+00 -5.615997314453125000e-01 1.000000000000000000e+01
3.658910751342772727e+01 2.669101905822753906e+01 5.560898303985595703e+00 3.800000000000000000e+01
3.559130668640137163e+00 2.595362663269042969e+00 -5.408561229705810547e-01 9.000000000000000000e+00
4.582160472869873047e+00 3.340144157409667969e+00 -4.960905015468596857e-01 9.000000000000000000e+00
6.685152053833007812e+00 4.869536876678466797e+00 -4.334463775157927912e-01 2.000000000000000000e+00
3.167268371582030895e+01 2.306226539611816051e+01 9.045282363891601562e+00 1.200000000000000000e+01
1.094547367095947088e+01 7.966954708099365234e+00 -2.363055795431137085e-01 2.000000000000000000e+00
3.218626403808593750e+01 2.342763137817383168e+01 1.066696834564208984e+01 9.000000000000000000e+00
1.824598789215087891e+00 1.324189543724060059e+00 -6.040836572647094727e-01 1.900000000000000000e+01
2.076072692871094194e+00 1.505588889122009055e+00 -5.920711755752563477e-01 1.100000000000000000e+01
2.417650461196898970e+00 1.752660512924193892e+00 -5.804409384727478027e-01 1.100000000000000000e+01
2.873120307922362837e+00 2.081321001052856001e+00 -5.619125962257385254e-01 1.200000000000000000e+01
3.563344478607178178e+00 2.579431295394897017e+00 -5.401249527931213379e-01 1.000000000000000000e+01
4.682568550109863281e+00 3.388369083404541016e+00 -5.056776404380798340e-01 9.000000000000000000e+00
6.711820125579833984e+00 4.853193759918212891e+00 -4.340744316577910822e-01 2.000000000000000000e+00
3.178458023071289062e+01 2.297439765930176137e+01 9.054280281066894531e+00 1.200000000000000000e+01
1.095376586914063033e+01 7.914645671844482422e+00 -2.358867228031157892e-01 2.000000000000000000e+00
3.184506225585937855e+01 2.300965499877930043e+01 1.052720546722411932e+01 9.000000000000000000e+00
1.826075077056884988e+00 1.315554022789001021e+00 -6.030483841896057129e-01 1.800000000000000000e+01
2.078152418136597124e+00 1.496055722236633079e+00 -5.911713838577270508e-01 1.100000000000000000e+01
2.414192438125609907e+00 1.737330198287964089e+00 -5.781512856483459473e-01 1.100000000000000000e+01
2.885179281234741211e+00 2.074739217758179155e+00 -5.628511905670166016e-01 1.400000000000000000e+01
3.725811004638671875e+01 2.678252983093262074e+01 5.634019851684570312e+00 4.000000000000000000e+01
3.557818174362183061e+00 2.556551694869995117e+00 -5.379312634468078613e-01 9.000000000000000000e+00
3.159008598327637074e+01 2.269141960144042969e+01 6.160389423370361328e+00 1.400000000000000000e+01
4.717022418975830078e+00 3.388276338577270952e+00 -5.081179738044738770e-01 8.000000000000000000e+00
6.722229480743408203e+00 4.825077056884765625e+00 -4.336557388305664062e-01 2.000000000000000000e+00
1.100082588195800959e+01 7.890347480773925781e+00 -2.363055795431137085e-01 2.000000000000000000e+00
1.824370622634887917e+00 1.304676771163939986e+00 -6.009778380393981934e-01 1.900000000000000000e+01
2.086533069610596147e+00 1.491058588027954102e+00 -5.920711755752563477e-01 1.100000000000000000e+01
2.415449619293212891e+00 1.725468993186950906e+00 -5.770063996315002441e-01 1.200000000000000000e+01
2.892403841018677202e+00 2.064655303955078125e+00 -5.628511905670166016e-01 1.300000000000000000e+01
3.735137176513671875e+01 2.665231132507323863e+01 5.634019851684570312e+00 4.000000000000000000e+01
3.574800968170166016e+00 2.549880743026732954e+00 -5.391499996185302734e-01 1.000000000000000000e+01
4.732065200805664062e+00 3.374103546142578125e+00 -5.084666013717651367e-01 9.000000000000000000e+00
6.755297660827636719e+00 4.813172340393066406e+00 -4.347024559974669855e-01 2.000000000000000000e+00
3.235371780395507812e+01 2.304361915588378906e+01 9.170354843139648438e+00 1.200000000000000000e+01
1.100875377655028942e+01 7.837981700897216797e+00 -2.358867228031157892e-01 2.000000000000000000e+00
1.830488920211791992e+00 1.299418807029723899e+00 -6.014954447746276855e-01 1.900000000000000000e+01
2.099672317504882812e+00 1.489403486251831055e+00 -5.943207144737243652e-01 1.200000000000000000e+01
2.427863836288452148e+00 1.721569299697875977e+00 -5.785328745841979980e-01 1.200000000000000000e+01
2.902816772460937944e+00 2.056830644607543945e+00 -5.634769201278686523e-01 1.300000000000000000e+01
3.583679914474486861e+00 2.537386894226074219e+00 -5.391499996185302734e-01 1.000000000000000000e+01
4.727551937103270596e+00 3.346054553985596147e+00 -5.067234635353088379e-01 9.000000000000000000e+00
6.775318622589111328e+00 4.791869163513183594e+00 -4.349117875099182129e-01 1.000000000000000000e+00
1.107197284698485973e+01 7.824896812438964844e+00 -2.366546243429183960e-01 2.000000000000000000e+00
3.198645591735839844e+01 2.260579109191894887e+01 1.049511241912841975e+01 9.000000000000000000e+00
1.839751243591309038e+00 1.296359539031981978e+00 -6.030483841896057129e-01 1.900000000000000000e+01
2.092111587524414062e+00 1.473089814186095969e+00 -5.907214879989624023e-01 1.300000000000000000e+01
2.433858394622803178e+00 1.713083982467650923e+00 -5.785328745841979980e-01 1.200000000000000000e+01
2.901900053024291992e+00 2.041003227233887163e+00 -5.619125962257385254e-01 1.100000000000000000e+01
3.253165817260742188e+01 2.287211608886719105e+01 4.882817268371582031e+00 2.100000000000000000e+01
3.602259874343872070e+00 2.531710624694824219e+00 -5.406123995780944824e-01 1.000000000000000000e+01
4.760396480560302734e+00 3.344421625137329102e+00 -5.089895129203796387e-01 6.000000000000000000e+00
6.785465717315673828e+00 4.763599395751953125e+00 -4.344930946826934814e-01 1.000000000000000000e+00
1.110249328613281072e+01 7.788497447967529297e+00 -2.367244362831116000e-01 2.000000000000000000e+00
3.239728546142578125e+01 2.272698402404785156e+01 1.060381603240966975e+01 9.000000000000000000e+00
1.850597381591797097e+00 1.294358730316162109e+00 -6.051189303398132324e-01 1.900000000000000000e+01
2.095643520355225053e+00 1.464661598205565962e+00 -5.902715921401977539e-01 1.300000000000000000e+01
2.441432714462279829e+00 1.705702185630797896e+00 -5.789144635200500488e-01 1.200000000000000000e+01
2.915485620498656782e+00 2.035384416580200195e+00 -5.631640553474426270e-01 1.100000000000000000e+01
3.611075162887572798e+00 2.519120931625366211e+00 -5.406123995780944824e-01 1.000000000000000000e+01
3.186170005798339844e+01 2.221876335144042969e+01 6.152254581451416016e+00 1.400000000000000000e+01
4.775310039520263672e+00 3.330063581466674805e+00 -5.093381404876708984e-01 9.000000000000000000e+00
6.792220115661621094e+00 4.733033180236816406e+00 -4.338650703430175781e-01 2.000000000000000000e+00
3.030982017517089844e+01 2.111297988891601918e+01 8.527894020080566406e+00 1.100000000000000000e+01
1.112633037567139027e+01 7.747409820556640625e+00 -2.366546243429183960e-01 2.000000000000000000e+00
3.253744888305664062e+01 2.264781951904296875e+01 1.062245082855224965e+01 9.000000000000000000e+00
1.856466174125670943e+00 1.289316773414612038e+00 -6.056365370750427246e-01 2.100000000000000000e+01
2.105291843414307085e+00 1.461037278175354004e+00 -5.916212797164916992e-01 1.300000000000000000e+01
2.440623283386230025e+00 1.693120598793030007e+00 -5.773880481719970703e-01 1.100000000000000000e+01
2.925466060638428178e+00 2.027955770492554155e+00 -5.637897849082946777e-01 1.200000000000000000e+01
3.614513635635375977e+00 2.503741264343262163e+00 -5.398811697959899902e-01 9.000000000000000000e+00
4.791240692138671875e+00 3.317612409591674805e+00 -5.098611116409301758e-01 9.000000000000000000e+00
3.170432090759276988e+01 2.194492721557616832e+01 7.494977474212645596e+00 6.300000000000000000e+01
6.804593563079833984e+00 4.708210468292236328e+00 -4.336557388305664062e-01 2.000000000000000000e+00
3.039569282531737926e+01 2.102343940734862926e+01 8.532393455505371094e+00 1.100000000000000000e+01
1.114867115020751953e+01 7.708196640014648438e+00 -2.365848273038864136e-01 2.000000000000000000e+00
1.853002667427062988e+00 1.277346491813659890e+00 -6.030483841896057129e-01 1.800000000000000000e+01
2.113588809967041016e+00 1.455890536308289018e+00 -5.925210714340209961e-01 1.500000000000000000e+01
2.452986478805541992e+00 1.689044594764709029e+00 -5.789144635200500488e-01 1.200000000000000000e+01
2.937409400939940962e+00 2.021090745925902876e+00 -5.647284388542175293e-01 1.200000000000000000e+01
3.241543960571289062e+01 2.229517936706542969e+01 4.830657005310058594e+00 2.000000000000000000e+01
3.623231172561645952e+00 2.491108894348144975e+00 -5.398811697959899902e-01 1.000000000000000000e+01
4.820854187011718750e+00 3.313281297683715820e+00 -5.117785334587097168e-01 8.000000000000000000e+00
6.834157943725585938e+00 4.693474769592285156e+00 -4.344930946826934814e-01 2.000000000000000000e+00
3.050102615356444957e+01 2.093926811218262074e+01 8.541391372680664062e+00 1.100000000000000000e+01
1.118870067596436080e+01 7.678285121917724609e+00 -2.368640601634978970e-01 2.000000000000000000e+00
3.243526840209960938e+01 2.225881767272948863e+01 1.054066467285156072e+01 9.000000000000000000e+00
1.854482769966125044e+00 1.268365144729614036e+00 -6.020131111145019531e-01 1.700000000000000000e+01
2.130172967910767046e+00 1.455831050872802956e+00 -5.956704020500183105e-01 1.300000000000000000e+01
2.455918550491333008e+00 1.677827596664428933e+00 -5.781512856483459473e-01 1.100000000000000000e+01
2.943165779113769975e+00 2.009197473526000977e+00 -5.644155740737915039e-01 1.100000000000000000e+01
3.266090774536132812e+01 2.228811454772948863e+01 4.855031013488770419e+00 2.000000000000000000e+01
3.632337331771851030e+00 2.477812528610229048e+00 -5.398811697959899902e-01 9.000000000000000000e+00
4.823088645935058594e+00 3.288854837417602983e+00 -5.107326507568359375e-01 9.000000000000000000e+00
6.854615211486816406e+00 4.670644283294677734e+00 -4.347024559974669855e-01 2.000000000000000000e+00
3.068064689636230113e+01 2.089754676818848012e+01 8.570185661315917969e+00 1.100000000000000000e+01
1.122999095916748047e+01 7.646228790283203125e+00 -2.371432930231094083e-01 2.000000000000000000e+00
1.862095594406127930e+00 1.264054059982300027e+00 -6.030483841896057129e-01 1.700000000000000000e+01
2.128790855407714844e+00 1.444010734558105025e+00 -5.938707590103149414e-01 1.400000000000000000e+01
2.463385105133057085e+00 1.670346379280090110e+00 -5.785328745841979980e-01 1.200000000000000000e+01
2.940349340438843218e+00 1.992263317108154075e+00 -5.625383257865905762e-01 1.100000000000000000e+01
3.649183273315430132e+00 2.470682621002196822e+00 -5.410999059677124023e-01 1.000000000000000000e+01
3.179255294799805043e+01 2.151708602905273082e+01 6.080294609069824219e+00 1.400000000000000000e+01
4.839489936828613281e+00 3.275349140167235884e+00 -5.112555623054504395e-01 9.000000000000000000e+00
6.870877265930175781e+00 4.646688938140869141e+00 -4.347024559974669855e-01 2.000000000000000000e+00
1.124998569488525035e+01 7.602503299713134766e+00 -2.370036840438843051e-01 2.000000000000000000e+00
1.869700908660888894e+00 1.259705305099487083e+00 -6.040836572647094727e-01 1.900000000000000000e+01
2.125735759735106978e+00 1.431129455566406028e+00 -5.916212797164916992e-01 1.200000000000000000e+01
2.477344512939453125e+00 1.667218089103698953e+00 -5.804409384727478027e-01 1.100000000000000000e+01
2.955481529235839844e+00 1.987499117851257102e+00 -5.641027092933654785e-01 1.000000000000000000e+01
3.458178710937500000e+01 2.324675750732421875e+01 5.116318702697753906e+00 2.700000000000000000e+01
3.649546861648560014e+00 2.452393770217895952e+00 -5.398811697959899902e-01 9.000000000000000000e+00
4.855854988098145419e+00 3.261769056320189986e+00 -5.117785334587097168e-01 9.000000000000000000e+00
6.883738517761229581e+00 4.620450496673583984e+00 -4.344930946826934814e-01 2.000000000000000000e+00
3.228220367431641336e+01 2.166004180908203125e+01 8.975096702575683594e+00 1.200000000000000000e+01
1.128974056243895951e+01 7.572098255157470703e+00 -2.372829169034957886e-01 2.000000000000000000e+00
1.880510330200195090e+00 1.257466554641724077e+00 -6.061542034149169922e-01 1.500000000000000000e+01
2.135579347610474077e+00 1.426948547363281028e+00 -5.929709672927856445e-01 1.200000000000000000e+01
2.471721172332764116e+00 1.650927305221558061e+00 -5.777696371078491211e-01 1.100000000000000000e+01
2.955829143524169922e+00 1.972784042358397993e+00 -5.628511905670166016e-01 1.000000000000000000e+01
3.656433582305908203e+00 2.438538074493408203e+00 -5.396374464035034180e-01 1.000000000000000000e+01
3.192841720581055043e+01 2.129360771179198863e+01 6.078417778015136719e+00 1.400000000000000000e+01
4.893735408782958984e+00 3.262481927871704102e+00 -5.145674943923950195e-01 9.000000000000000000e+00
6.906474113464354581e+00 4.600822925567626953e+00 -4.349117875099182129e-01 2.000000000000000000e+00
3.206565093994141336e+01 2.135280227661133168e+01 8.894114494323730469e+00 1.200000000000000000e+01
1.129612827301025035e+01 7.519346714019775391e+00 -2.368640601634978970e-01 2.000000000000000000e+00
3.277944564819335938e+01 2.181161308288573863e+01 1.054998207092284979e+01 9.000000000000000000e+00
1.881451010704040971e+00 1.249086618423461914e+00 -6.051189303398132324e-01 1.700000000000000000e+01
2.140299558639525923e+00 1.419858813285828081e+00 -5.929709672927856445e-01 1.100000000000000000e+01
2.473909854888916016e+00 1.640551686286926047e+00 -5.770063996315002441e-01 1.100000000000000000e+01
2.967294931411743164e+00 1.966244697570801003e+00 -5.637897849082946777e-01 1.000000000000000000e+01
3.667810440063477007e+00 2.428591489791870117e+00 -5.401249527931213379e-01 1.000000000000000000e+01
4.887913227081298828e+00 3.235239028930664062e+00 -5.128244161605834961e-01 9.000000000000000000e+00
3.166575050354003906e+01 2.095115661621094105e+01 7.380491733551025391e+00 6.200000000000000000e+01
6.911697387695313388e+00 4.571283817291259766e+00 -4.342837631702423096e-01 2.000000000000000000e+00
3.083581161499023082e+01 2.038656806945801137e+01 8.534193038940429688e+00 1.100000000000000000e+01
1.135436630249023082e+01 7.503897190093994141e+00 -2.375621497631072998e-01 2.000000000000000000e+00
3.295417785644531250e+01 2.177882575988769887e+01 1.058414649963379084e+01 9.000000000000000000e+00
1.874507427215575950e+00 1.235071301460265891e+00 -6.014954447746276855e-01 1.900000000000000000e+01
2.146870374679564986e+00 1.413450717926024947e+00 -5.934208631515502930e-01 1.200000000000000000e+01
2.494380950927733931e+00 1.641619801521301047e+00 -5.804409384727478027e-01 1.300000000000000000e+01
2.975790739059447798e+00 1.956960320472717063e+00 -5.641027092933654785e-01 1.000000000000000000e+01
3.502833557128906250e+01 2.302682304382323863e+01 5.147029876708984375e+00 2.800000000000000000e+01
3.682901144027709961e+00 2.420134067535399947e+00 -5.410999059677124023e-01 1.000000000000000000e+01
4.889184951782226562e+00 3.211594104766846147e+00 -5.117785334587097168e-01 8.000000000000000000e+00
6.934290885925292969e+00 4.551513671875000000e+00 -4.347024559974669855e-01 2.000000000000000000e+00
3.239925384521483664e+01 2.125805664062500000e+01 8.946303367614746094e+00 1.200000000000000000e+01
1.140390014648438033e+01 7.479570865631104404e+00 -2.380508184432983121e-01 2.000000000000000000e+00
3.318241500854492188e+01 2.175534439086914062e+01 1.063176918029784979e+01 9.000000000000000000e+00
1.885274648666382058e+00 1.232749462127685991e+00 -6.035659909248352051e-01 1.900000000000000000e+01
2.150159835815430132e+00 1.404882311820984109e+00 -5.929709672927856445e-01 1.100000000000000000e+01
2.509958505630493164e+00 1.639344215393065962e+00 -5.827306509017944336e-01 1.300000000000000000e+01
2.967715501785277876e+00 1.936844348907470925e+00 -5.612868666648864746e-01 9.000000000000000000e+00
3.696314811706542969e+00 2.410516738891602007e+00 -5.418310761451721191e-01 9.000000000000000000e+00
3.295013809204102273e+01 2.148811912536621094e+01 6.230472087860107422e+00 1.400000000000000000e+01
4.898696422576904297e+00 3.193420171737670898e+00 -5.116041898727416992e-01 9.000000000000000000e+00
6.953483581542968750e+00 4.529460906982421875e+00 -4.349117875099182129e-01 2.000000000000000000e+00
3.114722061157226918e+01 2.028138732910155895e+01 8.580983161926269531e+00 1.100000000000000000e+01
1.139642047882080078e+01 7.417901039123535156e+00 -2.373527288436889926e-01 2.000000000000000000e+00
3.256788253784179688e+01 2.119835090637207031e+01 1.041229057312012074e+01 8.000000000000000000e+00
1.900910139083862083e+00 1.233522295951843040e+00 -6.071894764900207520e-01 1.800000000000000000e+01
2.153415679931641069e+00 1.396308064460753950e+00 -5.925210714340209961e-01 1.000000000000000000e+01
2.523902893066405806e+00 1.635912060737610085e+00 -5.846387743949890137e-01 1.400000000000000000e+01
2.981090307235718218e+00 1.930768609046936035e+00 -5.625383257865905762e-01 9.000000000000000000e+00
3.708039760589600053e+00 2.399756669998168945e+00 -5.423185825347900391e-01 9.000000000000000000e+00
3.304525756835938211e+01 2.137793731689453125e+01 6.233600616455078125e+00 1.400000000000000000e+01
4.933233737945556641e+00 3.191452026367187944e+00 -5.140445828437805176e-01 8.000000000000000000e+00
3.095361518859862926e+01 2.001712989807128906e+01 7.165259361267089844e+00 6.100000000000000000e+01
6.965897560119628906e+00 4.502992630004882812e+00 -4.347024559974669855e-01 2.000000000000000000e+00
3.082827949523926137e+01 1.992081832885741832e+01 8.473906517028808594e+00 1.100000000000000000e+01
1.147599601745604936e+01 7.412795543670654297e+00 -2.384696751832962036e-01 2.000000000000000000e+00
3.259991836547852273e+01 2.104949951171875000e+01 1.039779663085938033e+01 8.000000000000000000e+00
1.903580188751220925e+00 1.225833535194396973e+00 -6.066718697547912598e-01 1.900000000000000000e+01
3.225850677490233664e+01 2.076529121398926137e+01 6.696488261222839355e-01 3.200000000000000000e+01
2.159915208816527876e+00 1.389837145805359109e+00 -5.929709672927856445e-01 1.100000000000000000e+01
2.513086080551147017e+00 1.616471290588378906e+00 -5.808225870132446289e-01 1.300000000000000000e+01
3.002767324447631836e+00 1.929963350296020952e+00 -5.653541684150695801e-01 8.000000000000000000e+00
3.703031539916992188e+00 2.378216743469237837e+00 -5.403686761856079102e-01 1.000000000000000000e+01
4.942667484283447266e+00 3.173135995864868164e+00 -5.138702392578125000e-01 9.000000000000000000e+00
6.988297939300537109e+00 4.482963562011718750e+00 -4.351211488246917725e-01 2.000000000000000000e+00
3.099933433532714844e+01 1.987830543518066051e+01 8.501800537109375000e+00 1.100000000000000000e+01
1.149843502044677912e+01 7.370532989501953125e+00 -2.383998781442641934e-01 2.000000000000000000e+00
3.385030746459960938e+01 2.169815444946289062e+01 1.077360153198242010e+01 9.000000000000000000e+00
1.902963995933532937e+00 1.216060519218445046e+00 -6.051189303398132324e-01 1.900000000000000000e+01
2.168038368225098100e+00 1.384386777877808061e+00 -5.938707590103149414e-01 1.000000000000000000e+01
2.513748645782471147e+00 1.604520201683043990e+00 -5.796777009963989258e-01 1.500000000000000000e+01
3.001158714294434038e+00 1.914158821105957031e+00 -5.637897849082946777e-01 7.000000000000000000e+00
3.601596069335938211e+01 2.296237564086914062e+01 5.244525432586669922e+00 3.000000000000000000e+01
3.718006610870360884e+00 2.369543790817261186e+00 -5.413436293601989746e-01 1.000000000000000000e+01
4.941950798034667969e+00 3.148370027542113814e+00 -5.126500725746154785e-01 8.000000000000000000e+00
7.014012813568115234e+00 4.464977741241455078e+00 -4.357491731643676758e-01 2.000000000000000000e+00
3.091727638244628906e+01 1.967372703552246094e+01 8.460409164428710938e+00 1.100000000000000000e+01
1.149372196197509943e+01 7.311032772064208984e+00 -2.377715855836868009e-01 2.000000000000000000e+00
3.269717025756835938e+01 2.079030227661133168e+01 1.038226699829101918e+01 8.000000000000000000e+00
1.905565738677978960e+00 1.208375930786133035e+00 -6.046012639999389648e-01 1.900000000000000000e+01
2.176149845123291016e+00 1.378896594047545943e+00 -5.947706103324890137e-01 1.000000000000000000e+01
2.517675638198852983e+00 1.594685316085814986e+00 -5.792961120605468750e-01 1.400000000000000000e+01
3.636871337890625000e+01 2.302689933776855113e+01 3.765999555587768999e+00 5.400000000000000000e+01
3.004483699798583984e+00 1.901558279991149902e+00 -5.631640553474426270e-01 7.000000000000000000e+00
3.595497894287108664e+01 2.274736595153808949e+01 5.224051475524902344e+00 3.000000000000000000e+01
3.729610681533813032e+00 2.358673095703125000e+00 -5.418310761451721191e-01 1.000000000000000000e+01
4.946174621582031250e+00 3.126841783523560014e+00 -5.119528174400329590e-01 9.000000000000000000e+00
7.029555797576904297e+00 4.440466880798339844e+00 -4.357491731643676758e-01 2.000000000000000000e+00
3.107474136352539062e+01 1.962187004089355113e+01 8.484704017639160156e+00 1.100000000000000000e+01
1.156652069091797053e+01 7.300753593444824219e+00 -2.387489229440689087e-01 2.000000000000000000e+00
3.226930618286132812e+01 2.036828994750976918e+01 1.022490501403808949e+01 8.000000000000000000e+00
1.906502008438109907e+00 1.199659228324889915e+00 -6.035659909248352051e-01 1.600000000000000000e+01
2.184249401092528853e+00 1.373366594314574973e+00 -5.956704020500183105e-01 1.100000000000000000e+01
2.538186550140380859e+00 1.595289826393126997e+00 -5.827306509017944336e-01 1.300000000000000000e+01
3.007757425308227983e+00 1.888957977294922097e+00 -5.625383257865905762e-01 9.000000000000000000e+00
3.144436073303223012e+01 1.974030876159667969e+01 4.558644771575927734e+00 1.900000000000000000e+01
3.747909784317017046e+00 2.351971149444580078e+00 -5.432935357093811035e-01 1.000000000000000000e+01
3.127890968322753906e+01 1.962122344970703125e+01 5.848145961761474609e+00 1.300000000000000000e+01
