-4.486606121063231867e-01 2.227114915847777876e+00 -6.087424159049987793e-01 1.900000000000000000e+01
-5.082734823226928711e-01 2.527585029602050781e+00 -5.952205061912536621e-01 1.100000000000000000e+01
-5.939834713935852051e-01 2.956480741500854048e+00 -5.861652493476867676e-01 1.100000000000000000e+01
-7.092543244361877441e-01 3.536619901657104048e+00 -5.712986588478088379e-01 1.000000000000000000e+01
-8.782725930213928223e-01 4.387353897094726562e+00 -5.493869781494140625e-01 1.100000000000000000e+01
-1.148781538009643999e+00 5.743872165679931641e+00 -5.124757885932922363e-01 9.000000000000000000e+00
-1.666108012199402078e+00 8.345636367797851562e+00 -4.460070133209229071e-01 1.000000000000000000e+00
-3.017020940780640093e+00 1.513996601104735973e+01 -2.694651484489440918e-01 2.000000000000000000e+00
-4.397718608379364014e-01 2.221010208129882812e+00 -6.066718697547912598e-01 1.900000000000000000e+01
-4.976218342781066895e-01 2.517786264419556108e+00 -5.925210714340209961e-01 1.100000000000000000e+01
-5.818942189216613770e-01 2.946877717971802202e+00 -5.838755369186401367e-01 1.200000000000000000e+01
-6.967586278915405273e-01 3.535076141357421875e+00 -5.706729292869567871e-01 9.000000000000000000e+00
-8.606532216072082520e-01 4.374660491943359375e+00 -5.474370718002319336e-01 1.000000000000000000e+01
-1.127038002014159934e+00 5.733965396881104404e+00 -5.112555623054504395e-01 8.000000000000000000e+00
-1.634578585624695046e+00 8.331516265869140625e+00 -4.449602961540222168e-01 1.000000000000000000e+00
-2.966798305511475053e+00 1.514988803863525035e+01 -2.694651484489440918e-01 2.000000000000000000e+00
-4.309105575084685724e-01 2.216842651367187944e+00 -6.051189303398132324e-01 1.600000000000000000e+01
-4.910570979118347168e-01 2.530986309051514116e+00 -5.952205061912536621e-01 1.200000000000000000e+01
-5.712305307388305664e-01 2.946963548660277876e+00 -5.834938883781433105e-01 1.200000000000000000e+01
-6.851651072502136230e-01 3.541365623474121094e+00 -5.712986588478088379e-01 9.000000000000000000e+00
-8.427428007125854492e-01 4.363994121551513672e+00 -5.457309484481811523e-01 1.200000000000000000e+01
-1.104373812675476074e+00 5.724170207977294922e+00 -5.100353956222534180e-01 9.000000000000000000e+00
-1.613039612770081010e+00 8.376396179199218750e+00 -4.470537304878234863e-01 1.000000000000000000e+00
-2.906348228454589844e+00 1.512087631225585938e+01 -2.687670588493347168e-01 2.000000000000000000e+00
-4.238936901092528742e-01 2.222128629684447798e+00 -6.061542034149169922e-01 1.700000000000000000e+01
-4.814903438091278076e-01 2.528856277465819868e+00 -5.943207144737243652e-01 1.100000000000000000e+01
-5.624076724052429199e-01 2.956654310226439986e+00 -5.850203633308410645e-01 1.100000000000000000e+01
-6.680093407630920410e-01 3.518506526947021040e+00 -5.672313570976257324e-01 8.000000000000000000e+00
-8.297219872474670410e-01 4.378611564636229581e+00 -5.471933484077453613e-01 9.000000000000000000e+00
-1.086609601974487083e+00 5.739736080169677734e+00 -5.110812783241271973e-01 6.000000000000000000e+00
-1.578599214553833008e+00 8.354499816894531250e+00 -4.455883204936981201e-01 1.000000000000000000e+00
-2.849843025207519975e+00 1.511127853393555043e+01 -2.684180140495299738e-01 2.000000000000000000e+00
-4.172005355358123779e-01 2.229291200637816939e+00 -6.077071428298950195e-01 1.600000000000000000e+01
-4.719444215297698975e-01 2.526690244674683061e+00 -5.934208631515502930e-01 1.000000000000000000e+01
-5.520836114883422852e-01 2.958599567413330078e+00 -5.850203633308410645e-01 1.100000000000000000e+01
-6.568084359169006348e-01 3.526642799377440962e+00 -5.681699514389038086e-01 9.000000000000000000e+00
-8.126188516616821289e-01 4.371723175048828125e+00 -5.459746718406677246e-01 1.000000000000000000e+01
-1.064384937286376953e+00 5.731740951538085938e+00 -5.100353956222534180e-01 8.000000000000000000e+00
-1.550882816314697044e+00 8.367815017700195312e+00 -4.460070133209229071e-01 1.000000000000000000e+00
-2.807989358901977983e+00 1.518012428283691051e+01 -2.694651484489440918e-01 2.000000000000000000e+00
-4.087188243865966797e-01 2.226933717727661133e+00 -6.066718697547912598e-01 1.600000000000000000e+01
-4.617173075675963800e-01 2.520654916763306108e+00 -5.916212797164916992e-01 1.100000000000000000e+01
-5.399858355522155762e-01 2.950852632522583008e+00 -5.831122994422912598e-01 1.100000000000000000e+01
-6.459137201309204102e-01 3.536686897277832031e+00 -5.694214701652526855e-01 9.000000000000000000e+00
-7.969977855682373047e-01 4.372580051422119141e+00 -5.457309484481811523e-01 1.000000000000000000e+01
-1.046155571937561035e+00 5.745222091674804688e+00 -5.109069347381591797e-01 8.000000000000000000e+00
-1.515236139297484907e+00 8.337805747985839844e+00 -4.441229104995728094e-01 1.000000000000000000e+00
-2.742136478424071822e+00 1.511900043487549006e+01 -2.682085931301116943e-01 2.000000000000000000e+00
-3.999165892601013184e-01 2.222642898559569868e+00 -6.051189303398132324e-01 1.600000000000000000e+01
-4.556711316108704168e-01 2.537595748901367188e+00 -5.952205061912536621e-01 1.200000000000000000e+01
-5.269089341163635254e-01 2.937260389328002930e+00 -5.800593495368957520e-01 1.100000000000000000e+01
-6.332163214683532715e-01 3.536975622177124023e+00 -5.691086053848266602e-01 8.000000000000000000e+00
-7.813806533813476562e-01 4.373381137847900391e+00 -5.454871654510498047e-01 1.000000000000000000e+01
-1.027144908905029075e+00 5.754723072052001953e+00 -5.114299058914184570e-01 8.000000000000000000e+00
-1.486122608184814009e+00 8.343044281005859375e+00 -4.441229104995728094e-01 1.000000000000000000e+00
-2.693544626235961914e+00 1.515210628509520951e+01 -2.686274349689484198e-01 2.000000000000000000e+00
-9.865057945251464844e+00 5.555057525634766336e+01 1.511762046813965021e+01 2.000000000000000000e+01
-3.936042487621306818e-01 2.227693080902100053e+00 -6.061542034149169922e-01 1.800000000000000000e+01
-4.470200240612030029e-01 2.535176515579224077e+00 -5.943207144737243652e-01 1.100000000000000000e+01
-5.190410017967224121e-01 2.946635007858275923e+00 -5.815858244895935059e-01 1.100000000000000000e+01
-6.224434971809387207e-01 3.540893077850341797e+00 -5.694214701652526855e-01 9.000000000000000000e+00
-7.683234214782714844e-01 4.379724979400634766e+00 -5.459746718406677246e-01 1.000000000000000000e+01
-1.005277752876281960e+00 5.736334323883056641e+00 -5.095124840736389160e-01 6.000000000000000000e+00
-1.460592985153198020e+00 8.351607322692871094e+00 -4.443322718143463135e-01 2.000000000000000000e+00
-2.645241975784302202e+00 1.515655326843262074e+01 -2.685576379299163818e-01 2.000000000000000000e+00
-3.861552178859711248e-01 2.230957031250000000e+00 -6.066718697547912598e-01 1.600000000000000000e+01
-4.381678700447083075e-01 2.536721467971802202e+00 -5.943207144737243652e-01 1.100000000000000000e+01
-5.110889673233032227e-01 2.961971521377563032e+00 -5.842571258544921875e-01 1.100000000000000000e+01
-6.073980331420898438e-01 3.527470350265502930e+00 -5.669184923171997070e-01 9.000000000000000000e+00
-7.537029981613159180e-01 4.386292934417724609e+00 -5.464621186256408691e-01 1.000000000000000000e+01
-9.869334697723388672e-01 5.749626636505126953e+00 -5.103840231895446777e-01 9.000000000000000000e+00
-1.433454751968384011e+00 8.368466377258300781e+00 -4.449602961540222168e-01 1.000000000000000000e+00
-2.594341278076171875e+00 1.517752170562743963e+01 -2.687670588493347168e-01 2.000000000000000000e+00
-9.600470542907714844e+00 5.622415161132813211e+01 1.528326416015625000e+01 2.000000000000000000e+01
-3.790110647678375244e-01 2.236100673675537109e+00 -6.077071428298950195e-01 1.900000000000000000e+01
-4.280104339122772217e-01 2.530549764633179155e+00 -5.925210714340209961e-01 1.100000000000000000e+01
-5.007466077804565430e-01 2.963737487792969194e+00 -5.842571258544921875e-01 1.100000000000000000e+01
-5.960663557052612305e-01 3.535412788391112837e+00 -5.678570866584777832e-01 8.000000000000000000e+00
-7.360819578170776367e-01 4.375194072723388672e+00 -5.447559356689453125e-01 1.000000000000000000e+01
-9.648762345314025879e-01 5.741247653961181641e+00 -5.093381404876708984e-01 9.000000000000000000e+00
-1.399610042572021040e+00 8.345842361450195312e+00 -4.434948861598969061e-01 2.000000000000000000e+00
-2.538045644760131836e+00 1.516676235198974965e+01 -2.684180140495299738e-01 2.000000000000000000e+00
-3.718356788158416748e-01 2.241221666336060014e+00 -6.087424159049987793e-01 1.900000000000000000e+01
-4.204476773738861084e-01 2.539718627929687944e+00 -5.943207144737243652e-01 1.100000000000000000e+01
-4.887966513633728027e-01 2.955782651901245117e+00 -5.823490619659423828e-01 1.100000000000000000e+01
-5.846866965293884277e-01 3.543318986892700195e+00 -5.687957406044006348e-01 9.000000000000000000e+00
-7.182251811027526855e-01 4.362067222595214844e+00 -5.428060293197631836e-01 9.000000000000000000e+00
-9.467697739601135254e-01 5.756376743316650391e+00 -5.103840231895446777e-01 9.000000000000000000e+00
-1.372409701347351074e+00 8.362502098083496094e+00 -4.441229104995728094e-01 1.000000000000000000e+00
-2.488319873809814009e+00 1.519526290893555043e+01 -2.687670588493347168e-01 2.000000000000000000e+00
-3.615338206291198730e-01 2.227250814437866211e+00 -6.046012639999389648e-01 1.600000000000000000e+01
-4.115798473358153742e-01 2.541170835494995117e+00 -5.943207144737243652e-01 1.100000000000000000e+01
-4.772218763828278143e-01 2.949718713760375977e+00 -5.808225870132446289e-01 1.000000000000000000e+01
-5.723146200180053711e-01 3.545338153839110884e+00 -5.687957406044006348e-01 9.000000000000000000e+00
-7.048883438110351562e-01 4.376306533813476562e+00 -5.442684888839721680e-01 9.000000000000000000e+00
-9.241386055946350098e-01 5.743909835815429688e+00 -5.089895129203796387e-01 9.000000000000000000e+00
-1.343843936920166016e+00 8.371186256408691406e+00 -4.443322718143463135e-01 1.000000000000000000e+00
-2.433365583419799805e+00 1.519200992584229049e+01 -2.685576379299163818e-01 2.000000000000000000e+00
-3.531513214111328125e-01 2.224683284759521040e+00 -6.035659909248352051e-01 1.600000000000000000e+01
-4.033167064189910889e-01 2.546441555023192915e+00 -5.952205061912536621e-01 1.000000000000000000e+01
-4.669225215911865234e-01 2.951366662979125977e+00 -5.808225870132446289e-01 1.000000000000000000e+01
-5.593196153640747070e-01 3.543411970138549805e+00 -5.681699514389038086e-01 9.000000000000000000e+00
-6.905343532562255859e-01 4.384623527526854581e+00 -5.449997186660766602e-01 9.000000000000000000e+00
-9.034637212753295898e-01 5.743164062500000000e+00 -5.086408853530883789e-01 9.000000000000000000e+00
-1.317711710929871050e+00 8.395556449890136719e+00 -4.453789889812468927e-01 1.000000000000000000e+00
-2.388055086135863814e+00 1.524980163574218928e+01 -2.694302499294281006e-01 2.000000000000000000e+00
-3.457720577716826837e-01 2.225842237472534180e+00 -6.035659909248352051e-01 1.600000000000000000e+01
-3.948701918125153143e-01 2.547765016555786133e+00 -5.952205061912536621e-01 1.100000000000000000e+01
-4.583342671394348145e-01 2.960659265518188032e+00 -5.823490619659423828e-01 1.100000000000000000e+01
-5.457569956779479980e-01 3.533533811569213867e+00 -5.662927627563476562e-01 9.000000000000000000e+00
-6.762929558753967285e-01 4.388851165771484375e+00 -5.452434420585632324e-01 9.000000000000000000e+00
-8.801705241203308105e-01 5.718559741973876953e+00 -5.062005519866943359e-01 9.000000000000000000e+00
-1.289863824844359907e+00 8.399880409240722656e+00 -4.453789889812468927e-01 1.000000000000000000e+00
-2.325964689254761186e+00 1.518252468109131037e+01 -2.681038677692412775e-01 2.000000000000000000e+00
-3.391598463058472235e-01 2.234675645828247070e+00 -6.056365370750427246e-01 1.600000000000000000e+01
-3.842239677906035822e-01 2.537567138671875000e+00 -5.925210714340209961e-01 1.000000000000000000e+01
-4.494647383689879816e-01 2.971946954727172852e+00 -5.842571258544921875e-01 1.100000000000000000e+01
-5.334193706512451172e-01 3.535417318344116211e+00 -5.662927627563476562e-01 9.000000000000000000e+00
-6.580141782760620117e-01 4.371555328369140625e+00 -5.428060293197631836e-01 9.000000000000000000e+00
-8.622771501541137695e-01 5.735388755798339844e+00 -5.074207186698913574e-01 9.000000000000000000e+00
-1.255202412605286089e+00 8.368778228759765625e+00 -4.434948861598969061e-01 2.000000000000000000e+00
-2.272361755371094194e+00 1.518659591674805043e+01 -2.680340707302094061e-01 2.000000000000000000e+00
-3.327733576297760010e-01 2.245400667190552202e+00 -6.082247495651245117e-01 1.900000000000000000e+01
-3.753638565540314276e-01 2.538892745971680132e+00 -5.925210714340209961e-01 1.100000000000000000e+01
-4.379407763481140137e-01 2.965728998184204102e+00 -5.827306509017944336e-01 1.100000000000000000e+01
-5.222267508506774902e-01 3.545074939727783203e+00 -5.675442218780517578e-01 9.000000000000000000e+00
-6.418847441673278809e-01 4.367933273315429688e+00 -5.420748591423034668e-01 7.000000000000000000e+00
-8.408049941062927246e-01 5.728507518768311435e+00 -5.065491795539855957e-01 9.000000000000000000e+00
-1.227718472480773926e+00 8.384965896606445312e+00 -4.441229104995728094e-01 2.000000000000000000e+00
-3.229976296424865723e-01 2.233165025711060014e+00 -6.046012639999389648e-01 1.700000000000000000e+01
-1.085010528564452903e+00 7.510879039764404297e+00 1.324637681245804111e-01 4.000000000000000000e+00
-3.681688904762268066e-01 2.551760196685791016e+00 -5.952205061912536621e-01 1.000000000000000000e+01
-4.261856973171234131e-01 2.957523822784423828e+00 -5.808225870132446289e-01 1.100000000000000000e+01
-5.092868208885192871e-01 3.542965650558472124e+00 -5.669184923171997070e-01 9.000000000000000000e+00
-6.266338825225830078e-01 4.370147228240966797e+00 -5.420748591423034668e-01 7.000000000000000000e+00
-8.236281275749206543e-01 5.751130104064941406e+00 -5.082923173904418945e-01 9.000000000000000000e+00
-1.054226636886596902e+00 7.398126125335693359e+00 -1.304392814636229914e-01 4.000000000000000000e+00
-3.149306178092957098e-01 2.232365846633911133e+00 -6.040836572647094727e-01 1.600000000000000000e+01
-1.045394301414489968e+00 7.419574260711669922e+00 1.307883411645889005e-01 2.000000000000000000e+00
-3.603455424308776855e-01 2.560748815536499023e+00 -5.970200896263122559e-01 1.000000000000000000e+01
-1.055154204368591087e+00 7.507812023162841797e+00 3.973345756530762274e-01 1.000000000000000000e+00
-4.158594012260437012e-01 2.958993434906005859e+00 -5.808225870132446289e-01 1.100000000000000000e+01
-4.969164431095122736e-01 3.544721841812133789e+00 -5.669184923171997070e-01 9.000000000000000000e+00
-6.127499341964721680e-01 4.382138252258300781e+00 -5.432935357093811035e-01 9.000000000000000000e+00
-7.999656200408935547e-01 5.728318214416503906e+00 -5.060262680053710938e-01 8.000000000000000000e+00
-1.082077622413635032e+00 7.768234252929688388e+00 -4.110465943813323975e-01 1.000000000000000000e+00
-1.026744842529297097e+00 7.389876842498779297e+00 -1.302298605442047119e-01 9.000000000000000000e+00
-3.068730831146240234e-01 2.231537818908690962e+00 -6.035659909248352051e-01 1.600000000000000000e+01
-1.003163933753967063e+00 7.304312229156494141e+00 1.286940425634383878e-01 5.000000000000000000e+00
-3.508750498294829767e-01 2.558129549026488814e+00 -5.961202979087829590e-01 1.100000000000000000e+01
-4.052616059780120850e-01 2.958482027053833008e+00 -5.804409384727478027e-01 9.000000000000000000e+00
-4.845400452613831122e-01 3.546434879302978960e+00 -5.669184923171997070e-01 9.000000000000000000e+00
-5.982537865638732910e-01 4.390151023864746094e+00 -5.440247654914855957e-01 9.000000000000000000e+00
-7.764723896980285645e-01 5.705410957336425781e+00 -5.037602186203002930e-01 9.000000000000000000e+00
-1.047970175743103027e+00 7.720507144927979404e+00 -4.083251357078552246e-01 1.000000000000000000e+00
-9.963823556900024414e-01 7.359728336334229404e+00 -1.296364814043045044e-01 8.000000000000000000e+00
-3.003642261028289795e-01 2.242169141769409180e+00 -6.061542034149169922e-01 1.600000000000000000e+01
-9.699712991714477539e-01 7.250290393829345703e+00 1.276818066835402887e-01 1.200000000000000000e+01
-3.393626511096953791e-01 2.540023088455200195e+00 -5.916212797164916992e-01 1.100000000000000000e+01
-9.852468371391296387e-01 7.374263763427734375e+00 3.899028599262238104e-01 4.000000000000000000e+00
-3.962303698062896729e-01 2.969608545303345171e+00 -5.823490619659423828e-01 1.100000000000000000e+01
-4.716365635395050049e-01 3.544188499450684038e+00 -5.662927627563476562e-01 9.000000000000000000e+00
-5.797916054725646973e-01 4.368598461151123047e+00 -5.410999059677124023e-01 9.000000000000000000e+00
-7.586463093757629395e-01 5.723887920379638672e+00 -5.051546692848205566e-01 9.000000000000000000e+00
-1.017873406410217063e+00 7.700357913970947266e+00 -4.070690572261809748e-01 1.000000000000000000e+00
-9.628452658653259277e-01 7.303685188293457031e+00 -1.285893321037291925e-01 8.000000000000000000e+00
-2.927855849266052246e-01 2.245119571685791016e+00 -6.066718697547912598e-01 1.600000000000000000e+01
-9.423329234123229980e-01 7.235785484313964844e+00 1.273676604032515924e-01 1.300000000000000000e+01
-3.309969007968903143e-01 2.545057058334351030e+00 -5.925210714340209961e-01 1.100000000000000000e+01
-9.558970332145690918e-01 7.359999656677246094e+00 3.889608383178710938e-01 8.000000000000000000e+00
-3.858621120452880859e-01 2.970973491668701172e+00 -5.823490619659423828e-01 1.000000000000000000e+01
-4.582472443580626886e-01 3.537976980209351030e+00 -5.650413036346435547e-01 9.000000000000000000e+00
-5.663189291954040527e-01 4.384377002716063565e+00 -5.428060293197631836e-01 9.000000000000000000e+00
-7.384067177772521973e-01 5.724524974822998047e+00 -5.049803853034973145e-01 9.000000000000000000e+00
-9.940457940101623535e-01 7.727635383605957031e+00 -4.083251357078552246e-01 1.000000000000000000e+00
-9.279305934906005859e-01 7.233614444732666016e+00 -1.272978484630584994e-01 1.200000000000000000e+01
-2.839743494987487793e-01 2.238461971282958984e+00 -6.046012639999389648e-01 1.600000000000000000e+01
-9.153103232383728027e-01 7.225143909454345703e+00 1.271233260631561002e-01 1.200000000000000000e+01
-3.216218352317810059e-01 2.542330265045166016e+00 -5.916212797164916992e-01 1.000000000000000000e+01
-9.279757738113403320e-01 7.335388660430908203e+00 3.874954283237457275e-01 8.000000000000000000e+00
-3.732745647430419922e-01 2.954772472381591797e+00 -5.789144635200500488e-01 1.000000000000000000e+01
-4.476228654384613037e-01 3.553274393081665039e+00 -5.672313570976257324e-01 8.000000000000000000e+00
-5.512585639953613281e-01 4.388296604156494141e+00 -5.430498123168945312e-01 9.000000000000000000e+00
-7.174279093742370605e-01 5.719160079956054688e+00 -5.042831301689147949e-01 9.000000000000000000e+00
-9.640904068946838379e-01 7.707276344299316406e+00 -4.070690572261809748e-01 1.000000000000000000e+00
-8.989622592926025391e-01 7.207044601440429688e+00 -1.267742812633514127e-01 1.600000000000000000e+01
-2.756860554218292236e-01 2.235605001449584961e+00 -6.035659909248352051e-01 1.500000000000000000e+01
-8.871515989303588867e-01 7.204478263854979581e+00 1.267044693231582919e-01 1.200000000000000000e+01
-3.146481215953826904e-01 2.558910846710205078e+00 -5.952205061912536621e-01 1.100000000000000000e+01
-8.984648585319519043e-01 7.306865692138671875e+00 3.858206570148468018e-01 8.000000000000000000e+00
-3.639152646064757746e-01 2.963851928710937944e+00 -5.804409384727478027e-01 9.000000000000000000e+00
-4.344967305660247803e-01 3.548933029174805132e+00 -5.662927627563476562e-01 9.000000000000000000e+00
-5.344939231872558594e-01 4.378371238708496094e+00 -5.415873527526855469e-01 7.000000000000000000e+00
-6.967366933822631836e-01 5.715696334838867188e+00 -5.037602186203002930e-01 9.000000000000000000e+00
-8.709124922752380371e-01 7.186316490173339844e+00 -1.263554245233536044e-01 1.500000000000000000e+01
-2.691913247108458918e-01 2.244179248809814009e+00 -6.056365370750427246e-01 1.600000000000000000e+01
-8.589751720428466797e-01 7.171641349792479581e+00 1.260761767625808993e-01 1.300000000000000000e+01
-3.056978881359099787e-01 2.556070327758789062e+00 -5.943207144737243652e-01 1.000000000000000000e+01
-8.712958693504333496e-01 7.296075344085693359e+00 3.850879669189453125e-01 8.000000000000000000e+00
-3.538519740104674738e-01 2.963093042373656782e+00 -5.800593495368957520e-01 1.000000000000000000e+01
-8.988049626350402832e-01 7.537604808807373047e+00 6.641267538070678711e-01 3.000000000000000000e+00
-4.213243722915648859e-01 3.538585186004639116e+00 -5.644155740737915039e-01 9.000000000000000000e+00
-5.216098427772521973e-01 4.393918514251708984e+00 -5.432935357093811035e-01 9.000000000000000000e+00
-6.770753860473632812e-01 5.712039470672607422e+00 -5.032372474670410156e-01 9.000000000000000000e+00
-8.459070324897766113e-01 7.179235458374023438e+00 -1.261809021234512052e-01 1.300000000000000000e+01
-2.604624927043914795e-01 2.237429618835449219e+00 -6.035659909248352051e-01 1.600000000000000000e+01
-8.320891857147216797e-01 7.158705711364746094e+00 1.257969439029693881e-01 1.200000000000000000e+01
-2.954257428646088202e-01 2.545507431030272993e+00 -5.916212797164916992e-01 1.000000000000000000e+01
-8.464056253433227539e-01 7.292972564697265625e+00 3.847739398479462225e-01 1.000000000000000000e+00
-3.437326848506926935e-01 2.966260194778441939e+00 -5.804409384727478027e-01 9.000000000000000000e+00
-4.080630242824553888e-01 3.532185077667235884e+00 -5.631640553474426270e-01 9.000000000000000000e+00
-5.044519901275634766e-01 4.379936218261718750e+00 -5.413436293601989746e-01 9.000000000000000000e+00
-6.578153371810913086e-01 5.720306396484375000e+00 -5.037602186203002930e-01 9.000000000000000000e+00
-9.547397494316101074e-01 8.327947616577148438e+00 -4.393080174922943115e-01 1.000000000000000000e+00
-8.201604485511779785e-01 7.176184177398681641e+00 -1.260761767625808993e-01 1.500000000000000000e+01
-2.524341344833374023e-01 2.236405611038208008e+00 -6.030483841896057129e-01 1.400000000000000000e+01
-8.057519197463989258e-01 7.149643898010253906e+00 1.255875229835509976e-01 1.200000000000000000e+01
-2.869742512702941895e-01 2.550396203994750977e+00 -5.925210714340209961e-01 1.000000000000000000e+01
-8.240697979927062988e-01 7.323668956756591797e+00 3.862393498420714777e-01 1.000000000000000000e+00
-3.324996829032897949e-01 2.959638118743896040e+00 -5.789144635200500488e-01 1.100000000000000000e+01
-3.970500230789185125e-01 3.545366525650023970e+00 -5.650413036346435547e-01 9.000000000000000000e+00
-4.900410771369934082e-01 4.389561653137207031e+00 -5.423185825347900391e-01 9.000000000000000000e+00
-6.378437876701354980e-01 5.722567558288574219e+00 -5.037602186203002930e-01 9.000000000000000000e+00
-9.256640076637268066e-01 8.331230163574218750e+00 -4.393080174922943115e-01 1.000000000000000000e+00
-7.929046154022216797e-01 7.159127712249755859e+00 -1.257271319627762118e-01 1.500000000000000000e+01
-2.446260899305343905e-01 2.237272977828979048e+00 -6.030483841896057129e-01 1.400000000000000000e+01
-7.812241315841674805e-01 7.156388759613037109e+00 1.256573200225830078e-01 1.200000000000000000e+01
-2.789145112037659247e-01 2.559131383895874023e+00 -5.943207144737243652e-01 1.000000000000000000e+01
-7.904937863349914551e-01 7.253037452697753906e+00 3.823665082454680841e-01 2.000000000000000000e+00
-3.215294778347014826e-01 2.954925537109375000e+00 -5.777696371078491211e-01 1.000000000000000000e+01
-3.848849534988402765e-01 3.548694610595703125e+00 -5.653541684150695801e-01 1.000000000000000000e+01
-4.745022952556610107e-01 4.389271736145020419e+00 -5.420748591423034668e-01 7.000000000000000000e+00
-6.172230243682861328e-01 5.718816757202148438e+00 -5.032372474670410156e-01 8.000000000000000000e+00
-8.991404175758361816e-01 8.358240127563476562e+00 -4.405640661716461182e-01 1.000000000000000000e+00
-7.644987702369689941e-01 7.130039215087890625e+00 -1.251686662435531894e-01 1.600000000000000000e+01
-2.366117835044861117e-01 2.236192226409912109e+00 -6.025307178497314453e-01 1.800000000000000000e+01
-7.532979846000671387e-01 7.131231307983398438e+00 1.251686662435531894e-01 1.200000000000000000e+01
-2.691622972488402765e-01 2.552337408065795898e+00 -5.925210714340209961e-01 1.000000000000000000e+01
-7.639143466949462891e-01 7.243834972381591797e+00 3.817384541034697931e-01 2.400000000000000000e+01
-3.116240203380585272e-01 2.959934711456298828e+00 -5.785328745841979980e-01 1.000000000000000000e+01
-3.720830678939818781e-01 3.546087503433227983e+00 -5.647284388542175293e-01 1.100000000000000000e+01
-4.591779708862305243e-01 4.390901088714599609e+00 -5.420748591423034668e-01 7.000000000000000000e+00
-5.958086848258972168e-01 5.707065105438232422e+00 -5.020170807838439941e-01 9.000000000000000000e+00
-8.645852804183959961e-01 8.309678077697753906e+00 -4.378426074981688898e-01 1.000000000000000000e+00
-7.391930818557739258e-01 7.128686428070068359e+00 -1.250988543033600131e-01 1.500000000000000000e+01
-2.293942868709563931e-01 2.242769956588745117e+00 -6.040836572647094727e-01 1.600000000000000000e+01
-7.267757654190063477e-01 7.117902278900145596e+00 1.248894184827804982e-01 1.200000000000000000e+01
-2.598561048507689875e-01 2.549384117126464844e+00 -5.916212797164916992e-01 1.100000000000000000e+01
-7.380164265632629395e-01 7.240496635437011719e+00 3.814244568347930908e-01 2.800000000000000000e+01
-3.010912835597991943e-01 2.959051370620727983e+00 -5.781512856483459473e-01 9.000000000000000000e+00
-3.589055240154265802e-01 3.539503335952758789e+00 -5.634769201278686523e-01 1.000000000000000000e+01
-4.432493746280670166e-01 4.386552333831787109e+00 -5.413436293601989746e-01 9.000000000000000000e+00
-5.784831643104553223e-01 5.734880447387695312e+00 -5.042831301689147949e-01 9.000000000000000000e+00
-8.383703827857971191e-01 8.340466499328613281e+00 -4.393080174922943115e-01 1.000000000000000000e+00
-7.125111222267150879e-01 7.113315582275390625e+00 -1.247847080230713029e-01 1.300000000000000000e+01
-2.217540144920349121e-01 2.245479583740233931e+00 -6.046012639999389648e-01 1.600000000000000000e+01
-7.023175358772277832e-01 7.124376296997070312e+00 1.249592304229736051e-01 1.200000000000000000e+01
-2.513372004032135010e-01 2.554154396057128906e+00 -5.925210714340209961e-01 1.100000000000000000e+01
-7.101069688796997070e-01 7.229238986968994141e+00 3.806917369365692139e-01 2.800000000000000000e+01
-2.909523248672484796e-01 2.962038278579711914e+00 -5.785328745841979980e-01 1.000000000000000000e+01
-3.463557362556458075e-01 3.538768768310546875e+00 -5.631640553474426270e-01 9.000000000000000000e+00
-4.275493919849395752e-01 4.384121417999267578e+00 -5.408561229705810547e-01 9.000000000000000000e+00
-5.580751299858093262e-01 5.732898712158203125e+00 -5.039345026016235352e-01 9.000000000000000000e+00
-8.096372485160827637e-01 8.347317695617675781e+00 -4.395173490047454834e-01 1.000000000000000000e+00
-6.894078850746154785e-01 7.133673191070556641e+00 -1.250988543033600131e-01 1.600000000000000000e+01
-2.142807692289351862e-01 2.250086307525635210e+00 -6.056365370750427246e-01 1.700000000000000000e+01
-6.763091683387756348e-01 7.114840030670166016e+00 1.247498020529747009e-01 1.200000000000000000e+01
-2.416837215423583984e-01 2.547255992889403853e+00 -5.907214879989624023e-01 1.200000000000000000e+01
-6.837380528450012207e-01 7.219743728637695312e+00 3.800637125968933105e-01 2.700000000000000000e+01
-2.809813320636749268e-01 2.966944694519042969e+00 -5.792961120605468750e-01 1.100000000000000000e+01
-3.347432613372802734e-01 3.547822713851929155e+00 -5.644155740737915039e-01 9.000000000000000000e+00
-4.116860032081604004e-01 4.379657745361328125e+00 -5.401249527931213379e-01 7.000000000000000000e+00
-5.371295809745788574e-01 5.724893093109130859e+00 -5.030629634857177734e-01 9.000000000000000000e+00
-7.801229953765869141e-01 8.346116065979003906e+00 -4.393080174922943115e-01 1.000000000000000000e+00
-6.622776389122009277e-01 7.112143039703369141e+00 -1.246799901127814969e-01 1.500000000000000000e+01
-2.064252048730849942e-01 2.250820398330688032e+00 -6.056365370750427246e-01 1.500000000000000000e+01
-6.518341898918151855e-01 7.121140003204345703e+00 1.248196139931679050e-01 1.200000000000000000e+01
-2.334998548030852994e-01 2.555846691131591797e+00 -5.925210714340209961e-01 1.100000000000000000e+01
-6.570813655853271484e-01 7.206174373626708984e+00 3.792263269424437921e-01 3.000000000000000000e+01
-2.699099481105803888e-01 2.960087060928345171e+00 -5.777696371078491211e-01 1.100000000000000000e+01
-3.223569989204406738e-01 3.548969507217406782e+00 -5.644155740737915039e-01 1.000000000000000000e+01
-3.969322741031646729e-01 4.386999130249023438e+00 -5.408561229705810547e-01 9.000000000000000000e+00
-5.149924159049987793e-01 5.702921390533447266e+00 -5.009711980819702148e-01 9.000000000000000000e+00
-7.502691149711608887e-01 8.340831756591796875e+00 -4.388893246650695801e-01 2.000000000000000000e+00
-6.356630325317382812e-01 7.094494342803955078e+00 -1.243309453129767955e-01 1.600000000000000000e+01
-1.978882551193237027e-01 2.243829727172852007e+00 -6.035659909248352051e-01 1.600000000000000000e+01
-6.252195239067077637e-01 7.103452205657958984e+00 1.244705617427826067e-01 1.200000000000000000e+01
-2.255999892950057983e-01 2.568293809890747070e+00 -5.952205061912536621e-01 1.100000000000000000e+01
-6.320975422859191895e-01 7.210413455963134766e+00 3.793310225009918213e-01 2.800000000000000000e+01
-2.597471177577971857e-01 2.962966918945312944e+00 -5.781512856483459473e-01 1.000000000000000000e+01
-3.101386427879332941e-01 3.552041053771973100e+00 -5.647284388542175293e-01 1.100000000000000000e+01
-3.823042809963225763e-01 4.396268844604492188e+00 -5.418310761451721191e-01 9.000000000000000000e+00
-4.950823485851287842e-01 5.704684734344482422e+00 -5.009711980819702148e-01 9.000000000000000000e+00
-7.204616665840148926e-01 8.335439682006835938e+00 -4.384706318378447931e-01 1.000000000000000000e+00
-6.110662221908569336e-01 7.098662376403808594e+00 -1.243658512830733975e-01 1.800000000000000000e+01
-1.896296888589859009e-01 2.234848976135253906e+00 -6.009778380393981934e-01 1.500000000000000000e+01
-6.006478667259216309e-01 7.093531131744384766e+00 1.242611333727837025e-01 1.100000000000000000e+01
-2.167538106441498080e-01 2.565144300460814986e+00 -5.943207144737243652e-01 1.200000000000000000e+01
-6.085191369056701660e-01 7.216450691223145419e+00 3.795403540134429932e-01 2.800000000000000000e+01
-2.507449388504027765e-01 2.973593473434447798e+00 -5.800593495368957520e-01 1.000000000000000000e+01
-2.973661720752716064e-01 3.541239261627196822e+00 -5.628511905670166016e-01 1.000000000000000000e+01
-3.672273755073546808e-01 4.391577720642089844e+00 -5.410999059677124023e-01 7.000000000000000000e+00
-4.754995107650756836e-01 5.698352813720703125e+00 -5.002739429473876953e-01 9.000000000000000000e+00
-6.901701688766479492e-01 8.305936813354492188e+00 -4.367958903312683105e-01 2.000000000000000000e+00
-5.880175232887268066e-01 7.106628417968750000e+00 -1.244705617427826067e-01 1.800000000000000000e+01
-1.826105117797852118e-01 2.245124816894530806e+00 -6.035659909248352051e-01 1.700000000000000000e+01
-5.762066841125488281e-01 7.099570751190186435e+00 1.243309453129767955e-01 1.200000000000000000e+01
-2.068546414375304898e-01 2.554230928421020952e+00 -5.916212797164916992e-01 1.100000000000000000e+01
-5.825209617614746094e-01 7.208576679229736328e+00 3.790169954299926758e-01 2.600000000000000000e+01
-2.402055114507674893e-01 2.972493648529053178e+00 -5.796777009963989258e-01 1.200000000000000000e+01
-2.845278680324553888e-01 3.536348581314086914e+00 -5.619125962257385254e-01 9.000000000000000000e+00
-3.509446084499359131e-01 4.380960464477539062e+00 -5.396374464035034180e-01 7.000000000000000000e+00
-4.551294147968292236e-01 5.694019794464111328e+00 -4.997510313987731934e-01 9.000000000000000000e+00
-6.602221727371215820e-01 8.296349525451660156e+00 -4.361678659915924072e-01 2.000000000000000000e+00
-5.632072091102600098e-01 7.108637809753417969e+00 -1.244705617427826067e-01 1.800000000000000000e+01
-1.753720194101333896e-01 2.253452777862548828e+00 -6.056365370750427246e-01 1.500000000000000000e+01
-5.523499250411987305e-01 7.113501071929931641e+00 1.245403736829757968e-01 1.200000000000000000e+01
-1.985395401716232022e-01 2.562709093093872070e+00 -5.934208631515502930e-01 1.100000000000000000e+01
-5.558155179023742676e-01 7.190652847290039062e+00 3.779702782630919855e-01 2.600000000000000000e+01
-2.290716022253035944e-01 2.963526964187622070e+00 -5.777696371078491211e-01 1.100000000000000000e+01
-2.735459208488463800e-01 3.555046319961547852e+00 -5.647284388542175293e-01 1.000000000000000000e+01
-3.350436389446259100e-01 4.374241352081298828e+00 -5.386624932289123535e-01 9.000000000000000000e+00
-4.355544149875640869e-01 5.699547290802001953e+00 -5.000996589660644531e-01 8.000000000000000000e+00
-6.345912814140319824e-01 8.342416763305664062e+00 -4.384706318378447931e-01 1.000000000000000000e+00
-5.376350879669189453e-01 7.100590229034423828e+00 -1.242960393428801935e-01 1.800000000000000000e+01
-1.673617660999298096e-01 2.252124547958374023e+00 -6.051189303398132324e-01 1.600000000000000000e+01
-5.257416367530822754e-01 7.091454982757568359e+00 1.241215169429779053e-01 1.200000000000000000e+01
-1.895928084850311002e-01 2.563386440277100053e+00 -5.934208631515502930e-01 1.100000000000000000e+01
-5.299772620201110840e-01 7.182590007781982422e+00 3.774469196796417236e-01 2.800000000000000000e+01
-2.188700288534163874e-01 2.966266632080078125e+00 -5.781512856483459473e-01 1.100000000000000000e+01
-2.615688443183898926e-01 3.561889648437500000e+00 -5.656670331954956055e-01 9.000000000000000000e+00
-3.196279406547545832e-01 4.373404502868652344e+00 -5.384187698364257812e-01 9.000000000000000000e+00
-4.144976139068604071e-01 5.685135841369628906e+00 -4.987051486968994141e-01 9.000000000000000000e+00
-6.037324666976928711e-01 8.320676803588867188e+00 -4.372145831584929865e-01 1.000000000000000000e+00
-5.115499496459960938e-01 7.084473133087158203e+00 -1.239818930625915944e-01 1.600000000000000000e+01
-1.585442721843718927e-01 2.239205837249755859e+00 -6.014954447746276855e-01 1.500000000000000000e+01
-5.007028579711914062e-01 7.089257717132568359e+00 1.240517050027847012e-01 1.200000000000000000e+01
-1.806437671184540072e-01 2.564032554626464844e+00 -5.934208631515502930e-01 1.100000000000000000e+01
-5.054621696472167969e-01 7.192365646362304688e+00 3.778656125068665106e-01 2.800000000000000000e+01
-2.081016004085541049e-01 2.961137056350708008e+00 -5.770063996315002441e-01 1.100000000000000000e+01
-2.485827356576920111e-01 3.554898738861083984e+00 -5.644155740737915039e-01 1.000000000000000000e+01
-3.049111068248748779e-01 4.382414817810058594e+00 -5.393937230110168457e-01 9.000000000000000000e+00
-3.964434862136840820e-01 5.712387084960938388e+00 -5.009711980819702148e-01 6.000000000000000000e+00
-5.755097270011901855e-01 8.334689140319824219e+00 -4.378426074981688898e-01 1.000000000000000000e+00
-4.864062666893004816e-01 7.080230712890625000e+00 -1.238771826028823991e-01 1.800000000000000000e+01
-1.508567333221436102e-01 2.241673231124877930e+00 -6.020131111145019531e-01 1.600000000000000000e+01
-4.756858348846436102e-01 7.086971759796142578e+00 1.239818930625915944e-01 1.200000000000000000e+01
-1.716925203800201138e-01 2.564647674560546875e+00 -5.934208631515502930e-01 1.100000000000000000e+01
-4.803530275821685791e-01 7.194086551666259766e+00 3.778656125068665106e-01 2.800000000000000000e+01
-1.986795961856842041e-01 2.975557804107666016e+00 -5.796777009963989258e-01 1.200000000000000000e+01
-2.355177402496337891e-01 3.545889616012572798e+00 -5.628511905670166016e-01 1.000000000000000000e+01
-2.898735105991364081e-01 4.387413978576660156e+00 -5.398811697959899902e-01 9.000000000000000000e+00
-3.767631351947783869e-01 5.717711925506591797e+00 -5.013198256492614746e-01 9.000000000000000000e+00
-5.456289649009704590e-01 8.324688911437988281e+00 -4.372145831584929865e-01 1.000000000000000000e+00
-4.622090458869934082e-01 7.089867115020751953e+00 -1.240167990326880992e-01 1.900000000000000000e+01
-1.433998793363570889e-01 2.247969865798950195e+00 -6.035659909248352051e-01 1.600000000000000000e+01
-4.511986970901489258e-01 7.092580318450927734e+00 1.240517050027847012e-01 1.300000000000000000e+01
-1.622456610202789029e-01 2.557451963424683061e+00 -5.916212797164916992e-01 1.100000000000000000e+01
-4.546075463294982910e-01 7.185752868652343750e+00 3.773422539234160822e-01 2.700000000000000000e+01
-1.885396689176558893e-01 2.980151891708374023e+00 -5.804409384727478027e-01 1.100000000000000000e+01
-2.228907644748688022e-01 3.542747259140015093e+00 -5.622254610061645508e-01 1.000000000000000000e+01
-2.740609943866729736e-01 4.380474090576171875e+00 -5.389062166213989258e-01 9.000000000000000000e+00
-3.551895022392272949e-01 5.693141460418701172e+00 -4.990537762641906738e-01 9.000000000000000000e+00
-5.158250331878662109e-01 8.314582824707031250e+00 -4.365865588188170832e-01 1.000000000000000000e+00
-4.374579787254332941e-01 7.091437339782714844e+00 -1.240167990326880992e-01 1.900000000000000000e+01
-1.357846260070801059e-01 2.252313375473022017e+00 -6.046012639999389648e-01 1.600000000000000000e+01
-4.261982440948485773e-01 7.090119838714599609e+00 1.239818930625915944e-01 1.300000000000000000e+01
-1.530843228101730069e-01 2.554112195968627930e+00 -5.907214879989624023e-01 1.100000000000000000e+01
-4.288069307804108221e-01 7.175333976745604581e+00 3.767141997814177912e-01 3.000000000000000000e+01
-1.777845025062561035e-01 2.974912643432617188e+00 -5.792961120605468750e-01 1.200000000000000000e+01
-2.107572108507156095e-01 3.547447443008422852e+00 -5.628511905670166016e-01 1.100000000000000000e+01
-2.584174871444702148e-01 4.375459194183349609e+00 -5.381750464439392090e-01 7.000000000000000000e+00
-3.361344039440155029e-01 5.708269596099854404e+00 -5.002739429473876953e-01 9.000000000000000000e+00
-4.853980541229248047e-01 8.292406082153320312e+00 -4.353304803371428888e-01 2.000000000000000000e+00
-4.125854074954987127e-01 7.090925216674804688e+00 -1.239818930625915944e-01 1.600000000000000000e+01
-1.284877359867095947e-01 2.248871564865111861e+00 -6.035659909248352051e-01 1.600000000000000000e+01
-4.041493535041809082e-01 7.095416545867919922e+00 1.240517050027847012e-01 1.200000000000000000e+01
-1.457224786281585971e-01 2.566254138946533203e+00 -5.934208631515502930e-01 1.200000000000000000e+01
-4.062628746032714844e-01 7.176645278930664062e+00 3.767141997814177912e-01 3.000000000000000000e+01
-1.679938286542891901e-01 2.967615842819213867e+00 -5.777696371078491211e-01 1.200000000000000000e+01
-2.002772986888884943e-01 3.559925794601439986e+00 -5.647284388542175293e-01 1.000000000000000000e+01
-2.450027614831923883e-01 4.382195472717285156e+00 -5.389062166213989258e-01 9.000000000000000000e+00
-3.184214532375336248e-01 5.713275909423828125e+00 -5.006225705146789551e-01 9.000000000000000000e+00
-4.589025378227233887e-01 8.285913467407226562e+00 -4.349117875099182129e-01 1.000000000000000000e+00
-3.894275426864624023e-01 7.076212882995604581e+00 -1.237026602029799999e-01 1.600000000000000000e+01
-1.200161427259445052e-01 2.237731933593750000e+00 -6.004601716995239258e-01 1.800000000000000000e+01
-3.787387907505034845e-01 7.084803104400634766e+00 1.238422766327857971e-01 1.300000000000000000e+01
-1.369710564613342008e-01 2.570639133453369141e+00 -5.943207144737243652e-01 1.200000000000000000e+01
-3.812092244625092108e-01 7.178020000457763672e+00 3.767141997814177912e-01 3.000000000000000000e+01
-1.578421294689177912e-01 2.972105264663695845e+00 -5.785328745841979980e-01 1.300000000000000000e+01
-1.874333322048186978e-01 3.552712440490723100e+00 -5.634769201278686523e-01 1.000000000000000000e+01
-2.293928861618041992e-01 4.377077102661132812e+00 -5.381750464439392090e-01 9.000000000000000000e+00
-2.972293496131896973e-01 5.690476417541503906e+00 -4.985308349132537842e-01 9.000000000000000000e+00
-4.303904473781586248e-01 8.295442581176757812e+00 -4.353304803371428888e-01 1.000000000000000000e+00
-3.649304211139678955e-01 7.081522941589354581e+00 -1.237724646925925931e-01 1.500000000000000000e+01
-1.119993329048157016e-01 2.249752998352050781e+00 -6.035659909248352051e-01 1.800000000000000000e+01
-3.511360585689545233e-01 7.078216075897216797e+00 1.237026602029799999e-01 1.200000000000000000e+01
-1.269070953130722046e-01 2.567253351211547852e+00 -5.934208631515502930e-01 1.100000000000000000e+01
-3.550951480865479071e-01 7.183358669281005859e+00 3.769235610961914062e-01 2.700000000000000000e+01
-1.463323384523392001e-01 2.970728635787963867e+00 -5.781512856483459473e-01 1.300000000000000000e+01
-1.725360900163651068e-01 3.527756929397583008e+00 -5.594096183776855469e-01 1.000000000000000000e+01
-2.130658626556395929e-01 4.387839317321777344e+00 -5.393937230110168457e-01 9.000000000000000000e+00
-2.757624685764312744e-01 5.699535846710205078e+00 -4.992280900478363037e-01 9.000000000000000000e+00
-3.987267911434174139e-01 8.301024436950683594e+00 -4.355398416519165039e-01 1.000000000000000000e+00
-3.377366960048676092e-01 7.082872390747070312e+00 -1.237724646925925931e-01 1.500000000000000000e+01
-1.045028269290923933e-01 2.257849216461182085e+00 -6.056365370750427246e-01 1.800000000000000000e+01
-3.264263272285460871e-01 7.079398632049561435e+00 1.237026602029799999e-01 1.200000000000000000e+01
-1.172295808792113980e-01 2.552107334136962891e+00 -5.898216366767883301e-01 1.100000000000000000e+01
-3.289470076560974121e-01 7.188601970672607422e+00 3.771328926086425781e-01 1.200000000000000000e+01
-1.358719319105148038e-01 2.969259977340697798e+00 -5.777696371078491211e-01 1.200000000000000000e+01
-1.608481407165527066e-01 3.542150974273682085e+00 -5.615997314453125000e-01 1.000000000000000000e+01
-1.973907202482224066e-01 4.380623817443847656e+00 -5.384187698364257812e-01 9.000000000000000000e+00
-2.556870281696320135e-01 5.696483135223388672e+00 -4.988794624805449884e-01 9.000000000000000000e+00
-3.692152202129364014e-01 8.290393829345703125e+00 -4.349117875099182129e-01 1.000000000000000000e+00
-3.134521543979644775e-01 7.093996524810791016e+00 -1.239469870924950062e-01 1.500000000000000000e+01
-9.740907698869705200e-02 2.258166551589965820e+00 -6.056365370750427246e-01 1.700000000000000000e+01
-3.041841685771942139e-01 7.080389499664306641e+00 1.237026602029799999e-01 1.200000000000000000e+01
-1.093779429793357988e-01 2.556356906890869141e+00 -5.907214879989624023e-01 1.100000000000000000e+01
-3.065066933631896973e-01 7.163605690002441406e+00 3.757721781730651855e-01 1.000000000000000000e+00
-1.269609779119492132e-01 2.979479551315308061e+00 -5.796777009963989258e-01 1.100000000000000000e+01
-1.500529944896697998e-01 3.550533294677733931e+00 -5.628511905670166016e-01 1.000000000000000000e+01
-1.831288635730743131e-01 4.369322299957275391e+00 -5.369563102722167969e-01 9.000000000000000000e+00
-2.376236021518706998e-01 5.693276882171630859e+00 -4.985308349132537842e-01 9.000000000000000000e+00
-3.428380191326140802e-01 8.283531188964843750e+00 -4.344930946826934814e-01 1.000000000000000000e+00
-2.907542288303375244e-01 7.084956169128417969e+00 -1.237724646925925931e-01 1.500000000000000000e+01
-8.952601253986358643e-02 2.258492708206177202e+00 -6.056365370750427246e-01 1.700000000000000000e+01
-2.804134190082550049e-01 7.105385780334472656e+00 1.241215169429779053e-01 1.100000000000000000e+01
-1.004539281129837036e-01 2.556723117828369141e+00 -5.907214879989624023e-01 1.100000000000000000e+01
-2.812639176845551092e-01 7.158645153045654297e+00 3.754581511020659845e-01 1.000000000000000000e+01
-1.160227358341217041e-01 2.966172456741333008e+00 -5.770063996315002441e-01 1.000000000000000000e+01
-1.373523324728012085e-01 3.543139934539794922e+00 -5.615997314453125000e-01 1.000000000000000000e+01
-1.679521650075911920e-01 4.371918678283691406e+00 -5.372000932693481445e-01 9.000000000000000000e+00
-2.174443602561950961e-01 5.686108112335205078e+00 -4.978336095809937079e-01 9.000000000000000000e+00
-3.134672641754149836e-01 8.272702217102050781e+00 -4.338650703430175781e-01 1.000000000000000000e+00
-2.660963535308837891e-01 7.087926387786865234e+00 -1.238073706626891951e-01 1.600000000000000000e+01
-8.101384341716766357e-02 2.241416215896606001e+00 -6.009778380393981934e-01 1.100000000000000000e+01
-2.548904716968535822e-01 7.086337089538574219e+00 1.237724646925925931e-01 1.200000000000000000e+01
-9.180752187967300415e-02 2.564848184585570845e+00 -5.925210714340209961e-01 1.000000000000000000e+01
-2.559485435485839844e-01 7.185575485229492188e+00 3.768188953399658203e-01 1.500000000000000000e+01
-1.055283844470978061e-01 2.962635278701781782e+00 -5.762431621551513672e-01 1.100000000000000000e+01
-1.249140053987503052e-01 3.541623592376708984e+00 -5.612868666648864746e-01 9.000000000000000000e+00
-1.533138155937195102e-01 4.390333175659179688e+00 -5.393937230110168457e-01 9.000000000000000000e+00
-1.973180770874022882e-01 5.678867816925048828e+00 -4.971363544464110773e-01 9.000000000000000000e+00
-2.836270332336425781e-01 8.245800971984863281e+00 -4.323996603488922119e-01 1.000000000000000000e+00
-2.410130351781845093e-01 7.078819274902343750e+00 -1.236328482627869069e-01 1.300000000000000000e+01
-7.318934798240661621e-02 2.241685390472412109e+00 -6.009778380393981934e-01 7.000000000000000000e+00
-2.297635525465011874e-01 7.075191974639892578e+00 1.235630363225937028e-01 1.200000000000000000e+01
-8.310561627149581909e-02 2.572943925857543945e+00 -5.943207144737243652e-01 8.000000000000000000e+00
-2.320544421672821045e-01 7.184388637542724609e+00 3.767141997814177912e-01 2.800000000000000000e+01
-9.562747925519943237e-02 2.976721286773682085e+00 -5.789144635200500488e-01 1.100000000000000000e+01
-1.121742427349090993e-01 3.530191659927368164e+00 -5.594096183776855469e-01 9.000000000000000000e+00
-1.377383470535278043e-01 4.382905006408691406e+00 -5.384187698364257812e-01 9.000000000000000000e+00
-1.776183992624283114e-01 5.683504581451416016e+00 -4.974849820137023926e-01 9.000000000000000000e+00
-2.552122175693511963e-01 8.258718490600585938e+00 -4.330277144908905029e-01 2.000000000000000000e+00
-2.164240181446074884e-01 7.083614826202392578e+00 -1.237026602029799999e-01 1.300000000000000000e+01
-6.581187993288040161e-02 2.243846654891968218e+00 -6.014954447746276855e-01 6.000000000000000000e+00
-2.063001096248626987e-01 7.075914859771729404e+00 1.235630363225937028e-01 1.200000000000000000e+01
-7.400844991207122803e-02 2.553726196289062944e+00 -5.898216366767883301e-01 3.000000000000000000e+00
-2.081131488084793091e-01 7.181126117706298828e+00 3.765048682689666748e-01 3.100000000000000000e+01
-8.609496802091598511e-02 2.988796710968018022e+00 -5.812041759490966797e-01 1.100000000000000000e+01
-1.008042320609092990e-01 3.542391777038574219e+00 -5.612868666648864746e-01 9.000000000000000000e+00
-1.232033446431159973e-01 4.383337974548339844e+00 -5.384187698364257812e-01 9.000000000000000000e+00
-1.588815003633498868e-01 5.688045501708984375e+00 -4.978336095809937079e-01 9.000000000000000000e+00
-2.272732257843018133e-01 8.239554405212402344e+00 -4.319809973239899237e-01 2.000000000000000000e+00
-1.933137923479079923e-01 7.098286628723145419e+00 -1.239469870924950062e-01 1.600000000000000000e+01
-5.852784961462020874e-02 2.265305995941162109e+00 -6.071894764900207520e-01 1.900000000000000000e+01
-1.815993040800094882e-01 7.076591968536376953e+00 1.235630363225937028e-01 1.200000000000000000e+01
-6.544139981269836426e-02 2.567605733871459961e+00 -5.929709672927856445e-01 2.000000000000000000e+00
-1.829432994127274115e-01 7.177815437316895419e+00 3.762955367565155029e-01 3.100000000000000000e+01
-7.531383633613586426e-02 2.975340604782104048e+00 -5.785328745841979980e-01 5.000000000000000000e+00
-8.824117481708526611e-02 3.534822940826416016e+00 -5.600354075431823730e-01 6.000000000000000000e+00
