8.529493331909179688e+00 1.951948046684264915e+00 -4.585676491260529120e-01 3.000000000000000000e+00
3.303022384643554688e+01 7.552797317504882812e+00 7.822447776794433594e+00 9.000000000000000000e+00
1.514729595184325994e+01 3.460847854614257812e+00 -2.712104022502899170e-01 2.000000000000000000e+00
3.374343872070313211e+01 7.709686279296875000e+00 9.274521827697753906e+00 6.000000000000000000e+00
2.253166675567626953e+00 5.114933848381042480e-01 -6.190951466560363770e-01 1.600000000000000000e+01
2.601837158203125000e+00 5.896904468536376953e-01 -6.159160137176513672e-01 1.400000000000000000e+01
3.017676591873168945e+00 6.833841800689697266e-01 -6.014299392700195312e-01 1.200000000000000000e+01
3.620352983474731001e+00 8.185380697250366211e-01 -5.878807306289672852e-01 9.000000000000000000e+00
3.783525085449218750e+01 8.547361373901367188e+00 4.762653827667236328e+00 2.000000000000000000e+01
4.610505580902099609e+00 1.040713548660278098e+00 -5.803418159484863281e-01 1.100000000000000000e+01
3.577231597900391336e+01 8.068200111389160156e+00 5.808098793029785156e+00 1.300000000000000000e+01
5.896785736083984375e+00 1.329979538917541948e+00 -5.288610458374023438e-01 9.000000000000000000e+00
3.952635955810546875e+01 8.907649993896484375e+00 7.875832080841063565e+00 6.300000000000000000e+01
8.569378852844238281e+00 1.929621458053589089e+00 -4.603470563888549805e-01 6.000000000000000000e+00
3.303737258911132812e+01 7.433176994323729581e+00 7.817948818206787109e+00 9.000000000000000000e+00
1.513197040557860973e+01 3.401812314987183061e+00 -2.707217335700988770e-01 2.000000000000000000e+00
3.383932495117188211e+01 7.601200580596923828e+00 9.293156623840332031e+00 6.000000000000000000e+00
2.258620977401732954e+00 5.048615932464599609e-01 -6.201304197311401367e-01 1.500000000000000000e+01
2.601876497268677202e+00 5.806347727775573730e-01 -6.154660582542419434e-01 1.600000000000000000e+01
3.021842479705810991e+00 6.738007068634033203e-01 -6.018115878105163574e-01 1.200000000000000000e+01
3.619191169738769975e+00 8.056695461273193359e-01 -5.872550010681152344e-01 8.000000000000000000e+00
3.801840591430664062e+01 8.456328392028808594e+00 4.782153129577636719e+00 2.000000000000000000e+01
4.621682643890380859e+00 1.027141571044922097e+00 -5.813167691230773926e-01 1.100000000000000000e+01
3.602888488769531250e+01 8.007205963134765625e+00 5.845643043518066406e+00 1.300000000000000000e+01
5.924503803253173828e+00 1.315600752830504927e+00 -5.309528112411499023e-01 9.000000000000000000e+00
8.583530426025390625e+00 1.902922868728637917e+00 -4.607657492160797119e-01 4.000000000000000000e+00
1.522126579284667969e+01 3.368899345397949219e+00 -2.721179127693176270e-01 2.000000000000000000e+00
3.289352798461914062e+01 7.280273914337158203e+00 9.027091026306152344e+00 6.000000000000000000e+00
2.267916679382324219e+00 4.986338317394257147e-01 -6.222009658813476562e-01 1.500000000000000000e+01
2.598176956176757812e+00 5.702955722808837891e-01 -6.141163706779479980e-01 1.300000000000000000e+01
3.859059143066406250e+01 8.463511466979980469e+00 2.070515155792235884e+00 2.200000000000000000e+01
3.026093721389770952e+00 6.636689901351928711e-01 -6.021931767463684082e-01 1.300000000000000000e+01
3.635488986968994141e+00 7.959887981414794922e-01 -5.894450545310974121e-01 9.000000000000000000e+00
4.623300552368164062e+00 1.010578632354736106e+00 -5.810730457305908203e-01 9.000000000000000000e+00
3.601939392089843750e+01 7.866669654846191406e+00 5.839385509490966797e+00 1.300000000000000000e+01
5.932953357696533203e+00 1.295762658119202104e+00 -5.313013792037963867e-01 9.000000000000000000e+00
3.556187057495117188e+01 7.760243415832520419e+00 7.075197696685791016e+00 6.100000000000000000e+01
8.582314491271972656e+00 1.871247291564940962e+00 -4.603470563888549805e-01 4.000000000000000000e+00
3.327380371093750000e+01 7.248779296875000000e+00 7.862039566040039062e+00 9.000000000000000000e+00
1.524074840545653942e+01 3.317448139190673828e+00 -2.722575366497039795e-01 2.000000000000000000e+00
3.287845993041992188e+01 7.150631904602050781e+00 9.015702247619628906e+00 6.000000000000000000e+00
2.279084682464600053e+00 4.927555322647094727e-01 -6.247891783714294434e-01 1.500000000000000000e+01
2.602056741714477983e+00 5.616339445114135742e-01 -6.145662665367126465e-01 1.300000000000000000e+01
3.858085250854492188e+01 8.320332527160644531e+00 2.068421602249145952e+00 2.200000000000000000e+01
3.024553537368773970e+00 6.522741317749023438e-01 -6.014299392700195312e-01 1.300000000000000000e+01
3.634383201599121094e+00 7.824622392654418945e-01 -5.888193249702453613e-01 9.000000000000000000e+00
3.613581466674804688e+01 7.773238658905029297e+00 4.538414478302001953e+00 1.900000000000000000e+01
4.630681514739990234e+00 9.952684640884399414e-01 -5.815604925155639648e-01 9.000000000000000000e+00
5.949128150939941406e+00 1.277554750442505105e+00 -5.323472619056701660e-01 9.000000000000000000e+00
3.558874130249022727e+01 7.636062145233154297e+00 7.075197696685791016e+00 6.100000000000000000e+01
8.621994018554687500e+00 1.848395228385925071e+00 -4.621264934539794922e-01 3.000000000000000000e+00
1.532654190063476918e+01 3.280130386352539062e+00 -2.735839188098906916e-01 2.000000000000000000e+00
3.331003189086914062e+01 7.128890991210938388e+00 9.127511978149414062e+00 6.000000000000000000e+00
2.265673637390137163e+00 4.815838038921356201e-01 -6.206480860710144043e-01 1.500000000000000000e+01
2.607814073562622070e+00 5.533566474914550781e-01 -6.154660582542419434e-01 1.300000000000000000e+01
3.032573699951171875e+00 6.429340243339538574e-01 -6.025748252868652344e-01 1.100000000000000000e+01
3.644822597503662109e+00 7.714071273803710938e-01 -5.900707840919494629e-01 9.000000000000000000e+00
4.641896247863770419e+00 9.807397127151489258e-01 -5.825354456901550293e-01 9.000000000000000000e+00
5.941854476928710938e+00 1.254311561584473100e+00 -5.313013792037963867e-01 9.000000000000000000e+00
3.566896820068358664e+01 7.523132324218750000e+00 7.085882663726806641e+00 6.100000000000000000e+01
8.675296783447265625e+00 1.828171849250793013e+00 -4.646386206150054932e-01 1.000000000000000000e+00
1.530267429351806996e+01 3.219200849533081055e+00 -2.729556262493134100e-01 2.000000000000000000e+00
3.349729537963867188e+01 7.046775817871093750e+00 9.172029495239257812e+00 6.000000000000000000e+00
2.261750221252440962e+00 4.720922708511353094e-01 -6.190951466560363770e-01 1.600000000000000000e+01
5.946146774291992188e+01 1.240048789978026988e+01 1.060233712196350098e+00 6.100000000000000000e+01
2.623178958892821822e+00 5.465773940086364746e-01 -6.186153888702392578e-01 1.300000000000000000e+01
3.863940429687500000e+01 8.044043540954589844e+00 2.068421602249145952e+00 2.200000000000000000e+01
3.036831855773925781e+00 6.322149038314819336e-01 -6.029564142227172852e-01 1.200000000000000000e+01
3.651493549346923828e+00 7.588468790054321289e-01 -5.906965136528015137e-01 9.000000000000000000e+00
4.635741233825683594e+00 9.617035388946533203e-01 -5.813167691230773926e-01 1.100000000000000000e+01
5.946412086486816406e+00 1.232525110244750977e+00 -5.313013792037963867e-01 9.000000000000000000e+00
8.693675041198730469e+00 1.798791050910949929e+00 -4.652666449546813965e-01 1.000000000000000000e+00
3.396740722656250000e+01 7.021947860717773438e+00 8.007807731628417969e+00 1.000000000000000000e+01
1.541228866577148082e+01 3.183316469192504883e+00 -2.747008800506591797e-01 2.000000000000000000e+00
3.315964889526367188e+01 6.848927974700927734e+00 9.072643280029296875e+00 6.000000000000000000e+00
2.270954132080078125e+00 4.657469093799591064e-01 -6.211656928062438965e-01 1.600000000000000000e+01
2.611706972122191939e+00 5.346814990043640137e-01 -6.154660582542419434e-01 1.300000000000000000e+01
3.040943622589110884e+00 6.220039725303649902e-01 -6.033380627632141113e-01 1.200000000000000000e+01
3.642507553100585938e+00 7.437251210212707520e-01 -5.888193249702453613e-01 1.100000000000000000e+01
3.592477035522460938e+01 7.328567504882813388e+00 4.501853466033936435e+00 1.900000000000000000e+01
4.658521175384520596e+00 9.494803547859191895e-01 -5.837541818618774414e-01 1.100000000000000000e+01
5.966296672821044922e+00 1.214941263198852983e+00 -5.326958894729614258e-01 9.000000000000000000e+00
8.707729339599609375e+00 1.770024895668030007e+00 -4.656853377819060724e-01 3.000000000000000000e+00
3.423998260498046875e+01 6.953757286071777344e+00 8.066294670104980469e+00 1.000000000000000000e+01
1.546250152587890980e+01 3.137451171875000000e+00 -2.753989696502686102e-01 2.000000000000000000e+00
3.338522338867188211e+01 6.768031597137451172e+00 9.127511978149414062e+00 6.000000000000000000e+00
2.276273727416992188e+00 4.589772820472716730e-01 -6.222009658813476562e-01 1.600000000000000000e+01
2.617286443710327148e+00 5.267868638038635254e-01 -6.163659095764160156e-01 1.500000000000000000e+01
3.048763751983643022e+00 6.130775213241577148e-01 -6.044828891754150391e-01 1.200000000000000000e+01
3.648827314376831055e+00 7.324195504188537598e-01 -5.894450545310974121e-01 1.100000000000000000e+01
4.663590431213378906e+00 9.344169497489929199e-01 -5.839979052543640137e-01 9.000000000000000000e+00
3.634489440917968750e+01 7.275620937347412109e+00 5.870672702789306641e+00 1.300000000000000000e+01
5.970293045043945312e+00 1.195149660110474077e+00 -5.326958894729614258e-01 9.000000000000000000e+00
3.444440460205078125e+01 6.888923168182373047e+00 6.827908992767333984e+00 5.900000000000000000e+01
8.729219436645507812e+00 1.744270205497741921e+00 -4.665227234363555908e-01 3.000000000000000000e+00
3.437369155883789062e+01 6.862302780151367188e+00 8.092389106750488281e+00 1.000000000000000000e+01
1.550419807434082031e+01 3.092416763305664062e+00 -2.759574651718140204e-01 2.000000000000000000e+00
3.528569793701171875e+01 7.037970066070556641e+00 9.641009330749511719e+00 7.000000000000000000e+00
2.285442113876343218e+00 4.525297284126281738e-01 -6.242715120315551758e-01 1.400000000000000000e+01
2.613374233245850053e+00 5.165140628814697266e-01 -6.150161623954772949e-01 1.100000000000000000e+01
3.050885200500487837e+00 6.024316549301147461e-01 -6.044828891754150391e-01 1.300000000000000000e+01
3.662990093231201172e+00 7.219702601432800293e-01 -5.913223028182983398e-01 1.100000000000000000e+01
3.646074295043945312e+01 7.179750919342041016e+00 4.562788009643554688e+00 1.900000000000000000e+01
4.657084941864013672e+00 9.162163138389587402e-01 -5.827792286872863770e-01 1.100000000000000000e+01
6.005708217620849609e+00 1.180450320243835005e+00 -5.354849100112915039e-01 9.000000000000000000e+00
8.774453163146972656e+00 1.721479177474976030e+00 -4.686161577701569159e-01 1.000000000000000000e+00
3.368604278564453125e+01 6.602833271026611328e+00 7.925025463104248047e+00 9.000000000000000000e+00
1.544425106048583984e+01 3.024443387985229048e+00 -2.747008800506591797e-01 2.000000000000000000e+00
3.326253890991210938e+01 6.513793945312500000e+00 9.081960678100585938e+00 6.000000000000000000e+00
2.285111427307128906e+00 4.441806674003601074e-01 -6.237539052963256836e-01 1.500000000000000000e+01
2.590291261672974077e+00 5.025633573532104492e-01 -6.091674566268920898e-01 8.000000000000000000e+00
3.039477825164794922e+00 5.891631841659545898e-01 -6.018115878105163574e-01 1.200000000000000000e+01
3.663548469543457031e+00 7.088044285774230957e-01 -5.910094380378723145e-01 1.300000000000000000e+01
4.671949386596679688e+00 9.022127985954284668e-01 -5.842416286468505859e-01 1.100000000000000000e+01
5.994141578674316406e+00 1.156459808349608931e+00 -5.340903997421264648e-01 9.000000000000000000e+00
8.749029159545898438e+00 1.684797406196594016e+00 -4.669414162635803223e-01 1.000000000000000000e+00
3.375098419189453125e+01 6.493306636810302734e+00 7.934923648834229404e+00 9.000000000000000000e+00
1.555290126800536932e+01 2.989386796951293945e+00 -2.764461040496826172e-01 2.000000000000000000e+00
2.275262355804442915e+00 4.340294897556304932e-01 -6.206480860710144043e-01 1.600000000000000000e+01
2.605430364608765093e+00 4.960699081420897882e-01 -6.123167872428894043e-01 8.000000000000000000e+00
3.798778915405272727e+01 7.225945949554443359e+00 2.026552915573120117e+00 2.200000000000000000e+01
3.053087949752808061e+00 5.807510614395141602e-01 -6.041013002395629883e-01 1.200000000000000000e+01
3.666000366210937944e+00 6.960119605064392090e-01 -5.910094380378723145e-01 1.000000000000000000e+01
3.702096176147460938e+01 7.021955013275145596e+00 4.626647949218750000e+00 1.900000000000000000e+01
4.673119544982910156e+00 8.855295777320861816e-01 -5.839979052543640137e-01 9.000000000000000000e+00
5.986395835876464844e+00 1.133305668830872026e+00 -5.330445170402526855e-01 9.000000000000000000e+00
8.786256790161132812e+00 1.660180568695067915e+00 -4.686161577701569159e-01 1.000000000000000000e+00
3.688327789306641336e+01 6.962500572204589844e+00 8.665564537048339844e+00 1.100000000000000000e+01
1.556324195861816051e+01 2.935078859329224077e+00 -2.764461040496826172e-01 2.000000000000000000e+00
3.421955490112304688e+01 6.447297096252441406e+00 9.330426216125488281e+00 7.000000000000000000e+00
2.288156747817993164e+00 4.282169044017791748e-01 -6.237539052963256836e-01 1.400000000000000000e+01
2.607146024703979048e+00 4.869722425937653143e-01 -6.123167872428894043e-01 8.000000000000000000e+00
3.774453353881835938e+01 7.050061225891113281e+00 2.012317419052124023e+00 2.100000000000000000e+01
3.057026386260985884e+00 5.704504251480102539e-01 -6.044828891754150391e-01 1.200000000000000000e+01
3.668407678604125977e+00 6.832109689712524414e-01 -5.910094380378723145e-01 1.000000000000000000e+01
3.686569976806641336e+01 6.859278202056884766e+00 4.604223728179931641e+00 1.900000000000000000e+01
4.687892436981201172e+00 8.713886141777038574e-01 -5.854603052139282227e-01 9.000000000000000000e+00
3.741402053833007812e+01 6.947788238525390625e+00 6.027107238769531250e+00 1.300000000000000000e+01
6.005986690521240234e+00 1.115312457084655984e+00 -5.344390273094177246e-01 9.000000000000000000e+00
8.791998863220214844e+00 1.629500627517699973e+00 -4.686161577701569159e-01 1.000000000000000000e+00
1.564024734497069957e+01 2.893101930618286133e+00 -2.776328921318054199e-01 2.000000000000000000e+00
3.351129150390625000e+01 6.198852062225341797e+00 9.131653785705566406e+00 6.000000000000000000e+00
2.287737369537353960e+00 4.198783934116364081e-01 -6.232362389564514160e-01 1.600000000000000000e+01
2.601162672042847124e+00 4.764641523361206055e-01 -6.105171442031860352e-01 8.000000000000000000e+00
3.070586204528809038e+00 5.618962645530700684e-01 -6.067726016044616699e-01 1.300000000000000000e+01
3.672713279724121094e+00 6.707565784454345703e-01 -5.913223028182983398e-01 1.100000000000000000e+01
3.675271987915039062e+01 6.705609798431395596e+00 4.587162017822265625e+00 1.900000000000000000e+01
4.675282001495361328e+00 8.521718382835388184e-01 -5.835103988647460938e-01 9.000000000000000000e+00
6.037285327911376953e+00 1.099337935447693093e+00 -5.368793606758117676e-01 9.000000000000000000e+00
8.797633171081542969e+00 1.598800897598267046e+00 -4.686161577701569159e-01 1.000000000000000000e+00
1.568173313140868963e+01 2.844199419021606001e+00 -2.781913578510283869e-01 2.000000000000000000e+00
3.350611495971679688e+01 6.077011585235595703e+00 9.124406814575195312e+00 6.000000000000000000e+00
2.304399728775023970e+00 4.146269559860228937e-01 -6.273773908615112305e-01 1.500000000000000000e+01
2.610482215881348100e+00 4.687592089176177979e-01 -6.123167872428894043e-01 8.000000000000000000e+00
3.062866926193236861e+00 5.494412779808044434e-01 -6.048645377159118652e-01 1.200000000000000000e+01
3.673087835311890093e+00 6.575841903686523438e-01 -5.910094380378723145e-01 1.100000000000000000e+01
3.667819595336914062e+01 6.559803962707520419e+00 4.574975013732910156e+00 1.900000000000000000e+01
4.676274299621582031e+00 8.354976773262023926e-01 -5.832666754722595215e-01 1.100000000000000000e+01
3.648815536499022727e+01 6.519243717193604404e+00 5.870672702789306641e+00 1.300000000000000000e+01
6.041086196899414062e+00 1.078257083892822044e+00 -5.368793606758117676e-01 9.000000000000000000e+00
8.803160667419433594e+00 1.568081736564636008e+00 -4.686161577701569159e-01 1.000000000000000000e+00
3.393428802490233664e+01 6.038506507873535156e+00 7.957418441772460938e+00 9.000000000000000000e+00
1.571519088745117010e+01 2.793642520904541016e+00 -2.786102294921875000e-01 2.000000000000000000e+00
3.357381057739257812e+01 5.962271690368652344e+00 9.136830329895019531e+00 1.300000000000000000e+01
2.294418096542357954e+00 4.045678079128264826e-01 -6.242715120315551758e-01 1.600000000000000000e+01
2.612102508544921875e+00 4.596440494060515802e-01 -6.123167872428894043e-01 8.000000000000000000e+00
3.796184921264647727e+01 6.680036067962645596e+00 2.020063161849976030e+00 2.200000000000000000e+01
3.062832355499268022e+00 5.384066104888916016e-01 -6.044828891754150391e-01 1.200000000000000000e+01
3.679252386093140093e+00 6.454413533210754395e-01 -5.916351675987243652e-01 1.000000000000000000e+01
3.787405014038085938e+01 6.637329578399658203e+00 4.721218585968017578e+00 2.000000000000000000e+01
4.692849636077880859e+00 8.215656280517578125e-01 -5.849728584289550781e-01 9.000000000000000000e+00
6.046775817871093750e+00 1.057506442070007102e+00 -5.370537042617797852e-01 8.000000000000000000e+00
8.824320793151855469e+00 1.540090441703795943e+00 -4.694535136222838800e-01 1.000000000000000000e+00
1.576030731201172053e+01 2.744945526123046875e+00 -2.792384922504425049e-01 2.000000000000000000e+00
2.289967060089110884e+00 3.963692486286162775e-01 -6.227186322212219238e-01 1.500000000000000000e+01
2.625055551528931108e+00 4.534257948398590088e-01 -6.150161623954772949e-01 8.000000000000000000e+00
3.790785980224608664e+01 6.547824382781982422e+00 2.016085624694824219e+00 2.200000000000000000e+01
3.066443443298339844e+00 5.291156172752380371e-01 -6.048645377159118652e-01 1.100000000000000000e+01
3.683208465576171875e+00 6.342146992683410645e-01 -5.919480323791503906e-01 1.000000000000000000e+01
3.779689407348632812e+01 6.501486301422119141e+00 4.709031581878662109e+00 2.000000000000000000e+01
4.695407390594482422e+00 8.068185448646545410e-01 -5.849728584289550781e-01 9.000000000000000000e+00
3.672527313232421875e+01 6.310556411743164062e+00 5.901959419250488281e+00 1.300000000000000000e+01
6.034358978271484375e+00 1.035808205604553001e+00 -5.356591939926147461e-01 9.000000000000000000e+00
8.856676101684570312e+00 1.517081379890441895e+00 -4.709189236164093018e-01 1.000000000000000000e+00
3.397358703613281250e+01 5.813314914703369141e+00 7.957418441772460938e+00 9.000000000000000000e+00
1.578462219238281072e+01 2.698114871978760210e+00 -2.795177400112152100e-01 2.000000000000000000e+00
3.446192932128906250e+01 5.884495258331298828e+00 9.367696762084960938e+00 7.000000000000000000e+00
2.295145988464355025e+00 3.890190124511718750e-01 -6.237539052963256836e-01 1.500000000000000000e+01
5.949404144287108664e+01 1.007334518432617010e+01 1.053252696990967019e+00 6.200000000000000000e+01
2.618936300277709961e+00 4.429599344730377197e-01 -6.132165789604187012e-01 8.000000000000000000e+00
3.812741470336914062e+01 6.448769569396972656e+00 2.026552915573120117e+00 2.200000000000000000e+01
3.077950954437255859e+00 5.200438499450683594e-01 -6.067726016044616699e-01 1.200000000000000000e+01
3.691243648529053178e+00 6.223392486572265625e-01 -5.928866267204284668e-01 1.100000000000000000e+01
3.707550048828125000e+01 6.244230747222900391e+00 4.616410732269287109e+00 1.900000000000000000e+01
4.706025600433349609e+00 7.917409539222717285e-01 -5.859478116035461426e-01 9.000000000000000000e+00
6.059550762176513672e+00 1.018370389938354048e+00 -5.375766158103942871e-01 9.000000000000000000e+00
3.464176559448242188e+01 5.815691471099854404e+00 6.827908992767333984e+00 5.900000000000000000e+01
8.838280677795410156e+00 1.482192635536194070e+00 -4.696628749370574951e-01 3.000000000000000000e+00
1.579394435882568004e+01 2.642999887466431108e+00 -2.795177400112152100e-01 2.000000000000000000e+00
3.372390747070313211e+01 5.637395858764648438e+00 9.161676406860351562e+00 6.000000000000000000e+00
2.309830665588378906e+00 3.832184076309204102e-01 -6.273773908615112305e-01 1.500000000000000000e+01
2.612776279449462891e+00 4.325423240661621094e-01 -6.114169359207153320e-01 8.000000000000000000e+00
3.805117034912108664e+01 6.299330234527587891e+00 2.021319389343262163e+00 2.200000000000000000e+01
3.077810525894165039e+00 5.089763402938842773e-01 -6.063910126686096191e-01 1.100000000000000000e+01
3.691444396972655806e+00 6.091290116310119629e-01 -5.925737619400024414e-01 1.100000000000000000e+01
3.666616439819335938e+01 6.043747901916503906e+00 4.562788009643554688e+00 1.900000000000000000e+01
4.704843044281005859e+00 7.746640443801879883e-01 -5.854603052139282227e-01 1.100000000000000000e+01
6.072898864746093750e+00 9.988291859626770020e-01 -5.384481549263000488e-01 8.000000000000000000e+00
3.456499099731445312e+01 5.678819656372070312e+00 6.808828353881835938e+00 5.900000000000000000e+01
8.870992660522460938e+00 1.455860495567321999e+00 -4.711282849311829168e-01 3.000000000000000000e+00
1.596094703674316051e+01 2.613705158233643022e+00 -2.823101282119750977e-01 2.000000000000000000e+00
3.384536361694335938e+01 5.542390823364257812e+00 9.189628601074218750e+00 6.000000000000000000e+00
2.313060998916625977e+00 3.754627704620360773e-01 -6.278949975967407227e-01 1.500000000000000000e+01
2.600804567337036133e+00 4.212384223937987726e-01 -6.082676649093627930e-01 7.000000000000000000e+00
3.797434997558593750e+01 6.150502681732177734e+00 2.016085624694824219e+00 2.200000000000000000e+01
3.083444356918334961e+00 4.988567531108856201e-01 -6.071542501449584961e-01 1.100000000000000000e+01
3.733317565917968750e+01 6.033282279968261719e+00 3.308606386184691939e+00 4.800000000000000000e+01
3.699398517608643022e+00 5.971841812133789062e-01 -5.935123562812805176e-01 1.100000000000000000e+01
3.668703842163085938e+01 5.915722370147705078e+00 4.562788009643554688e+00 1.900000000000000000e+01
4.707518577575683594e+00 7.582363486289978027e-01 -5.854603052139282227e-01 9.000000000000000000e+00
3.834953689575195312e+01 6.176929950714111328e+00 6.152254581451416016e+00 1.400000000000000000e+01
6.088150978088378906e+00 9.795235991477966309e-01 -5.394940376281738281e-01 9.000000000000000000e+00
8.887852668762207031e+00 1.426785588264465110e+00 -4.717563092708588202e-01 3.000000000000000000e+00
3.326293945312500000e+01 5.333814144134520596e+00 7.777457714080811435e+00 9.000000000000000000e+00
1.593048286437987926e+01 2.551649808883666992e+00 -2.816120386123657227e-01 2.000000000000000000e+00
3.711598587036132812e+01 5.938373565673828125e+00 1.007168388366699041e+01 8.000000000000000000e+00
2.308633804321289062e+00 3.664777874946594238e-01 -6.263421177864074707e-01 1.800000000000000000e+01
2.584936380386352983e+00 4.094137251377106268e-01 -6.042185425758361816e-01 8.000000000000000000e+00
3.792561721801757812e+01 6.000042915344238281e+00 2.012317419052124023e+00 2.100000000000000000e+01
3.077410459518433061e+00 4.868633747100830078e-01 -6.056277751922607422e-01 1.100000000000000000e+01
3.733432769775391336e+01 5.899818420410156250e+00 3.306863307952880859e+00 4.800000000000000000e+01
3.703411817550659180e+00 5.845752358436584473e-01 -5.938252210617065430e-01 1.100000000000000000e+01
3.945268249511718750e+01 6.220459938049316406e+00 4.904022216796875000e+00 2.100000000000000000e+01
4.710136413574218750e+00 7.417994141578674316e-01 -5.854603052139282227e-01 9.000000000000000000e+00
3.817573165893554688e+01 6.012296199798583984e+00 6.120967864990234375e+00 1.400000000000000000e+01
6.075787544250488281e+00 9.557890892028808594e-01 -5.380995273590087891e-01 9.000000000000000000e+00
3.460379409790039062e+01 5.437374114990234375e+00 6.808828353881835938e+00 5.900000000000000000e+01
8.892779350280761719e+00 1.395752429962157981e+00 -4.717563092708588202e-01 1.000000000000000000e+00
3.334681320190429688e+01 5.227934360504150391e+00 7.792754650115966797e+00 9.000000000000000000e+00
1.599460983276367010e+01 2.504688978195189986e+00 -2.825893759727478027e-01 2.000000000000000000e+00
3.465811920166016336e+01 5.427316665649414062e+00 9.399789810180664062e+00 7.000000000000000000e+00
2.302262783050537109e+00 3.572320640087128241e-01 -6.242715120315551758e-01 1.800000000000000000e+01
2.451543807983397993e+00 3.795190155506134033e-01 -5.727253556251525879e-01 8.000000000000000000e+00
3.079091072082519975e+00 4.761182367801666260e-01 -6.056277751922607422e-01 1.100000000000000000e+01
3.707382202148437944e+00 5.719455480575561523e-01 -5.941380858421325684e-01 1.000000000000000000e+01
3.872077178955078125e+01 5.966614723205566406e+00 4.810426712036132812e+00 2.000000000000000000e+01
4.710735321044921875e+00 7.250514626502990723e-01 -5.852165818214416504e-01 1.100000000000000000e+01
6.073178768157958984e+00 9.336665868759155273e-01 -5.375766158103942871e-01 9.000000000000000000e+00
3.481661605834960938e+01 5.346349239349365234e+00 6.846990108489990234e+00 5.900000000000000000e+01
8.937080383300781250e+00 1.370758295059204102e+00 -4.738497436046599787e-01 1.000000000000000000e+00
3.354592514038085938e+01 5.139240264892578125e+00 7.835045337677001953e+00 9.000000000000000000e+00
1.599930191040039062e+01 2.448237180709838867e+00 -2.825195491313933771e-01 2.000000000000000000e+00
3.466250228881835938e+01 5.297916889190673828e+00 9.395648956298828125e+00 1.400000000000000000e+01
2.307315826416016069e+00 3.497726023197174072e-01 -6.253067851066589355e-01 1.800000000000000000e+01
4.010272216796875000e+01 6.072126388549804688e+00 7.079743146896362305e-01 3.600000000000000000e+01
2.439365863800048828e+00 3.689194023609160822e-01 -5.695760846138000488e-01 9.000000000000000000e+00
3.803767776489257812e+01 5.745867252349854404e+00 2.016085624694824219e+00 2.200000000000000000e+01
3.086558103561400923e+00 4.662470221519470215e-01 -6.067726016044616699e-01 1.000000000000000000e+01
3.703495979309082031e+00 5.581177473068237305e-01 -5.931994915008544922e-01 1.100000000000000000e+01
3.674697494506835938e+01 5.531219005584716797e+00 4.562788009643554688e+00 1.900000000000000000e+01
4.736793518066406250e+00 7.121450901031494141e-01 -5.881414413452148438e-01 1.100000000000000000e+01
6.100044727325438565e+00 9.160119891166687012e-01 -5.396683812141418457e-01 9.000000000000000000e+00
8.969463348388671875e+00 1.343696355819701926e+00 -4.753151535987854004e-01 1.000000000000000000e+00
3.339020538330078125e+01 4.996157646179199219e+00 7.794554233551025391e+00 9.000000000000000000e+00
1.605521583557128906e+01 2.399468183517456055e+00 -2.833572626113892157e-01 2.000000000000000000e+00
3.480216217041016336e+01 5.201217651367188388e+00 9.428777694702148438e+00 7.000000000000000000e+00
2.308522701263428178e+00 3.417164087295532227e-01 -6.253067851066589355e-01 1.800000000000000000e+01
5.949413299560546875e+01 8.795939445495605469e+00 1.049762248992919922e+00 6.300000000000000000e+01
2.430999517440795898e+00 3.589787781238555908e-01 -5.673265457153320312e-01 1.000000000000000000e+01
3.097877979278564009e+00 4.569023549556732178e-01 -6.086806654930114746e-01 1.100000000000000000e+01
3.707376003265380859e+00 5.454742908477783203e-01 -5.935123562812805176e-01 1.000000000000000000e+01
3.676605987548828125e+01 5.402914524078369141e+00 4.562788009643554688e+00 1.900000000000000000e+01
4.733358383178710938e+00 6.947414278984069824e-01 -5.874102115631103516e-01 9.000000000000000000e+00
6.103204727172851562e+00 8.947132825851440430e-01 -5.396683812141418457e-01 9.000000000000000000e+00
8.985957145690917969e+00 1.314112901687622070e+00 -4.759431779384613037e-01 1.000000000000000000e+00
3.400906372070313211e+01 4.967448234558104581e+00 7.934923648834229404e+00 9.000000000000000000e+00
1.611098289489746094e+01 2.350338459014893022e+00 -2.841949760913848877e-01 2.000000000000000000e+00
3.486304855346679688e+01 5.079754352569580078e+00 9.440165519714355469e+00 7.000000000000000000e+00
2.313467025756835938e+00 3.346122801303864081e-01 -6.263421177864074707e-01 1.700000000000000000e+01
2.445677995681763139e+00 3.528633117675781250e-01 -5.704758763313293457e-01 1.000000000000000000e+01
3.089660167694091797e+00 4.452268481254578192e-01 -6.067726016044616699e-01 1.000000000000000000e+01
3.705253839492797852e+00 5.326150655746459961e-01 -5.928866267204284668e-01 1.000000000000000000e+01
3.701956558227539062e+01 5.314816474914550781e+00 4.592036724090576172e+00 1.900000000000000000e+01
4.727776527404785156e+00 6.779142022132873535e-01 -5.864352583885192871e-01 9.000000000000000000e+00
6.129805564880371094e+00 8.778588175773620605e-01 -5.417600870132446289e-01 9.000000000000000000e+00
3.506417083740233664e+01 5.015347957611083984e+00 6.885151863098145419e+00 6.000000000000000000e+01
8.974448204040527344e+00 1.282047629356384055e+00 -4.751058220863341730e-01 1.000000000000000000e+00
3.390188217163085938e+01 4.837026596069335938e+00 7.906129837036132812e+00 9.000000000000000000e+00
1.614244651794433949e+01 2.300284862518310991e+00 -2.846138477325438898e-01 2.000000000000000000e+00
2.312708139419556108e+00 3.262648880481719971e-01 -6.258244514465332031e-01 1.900000000000000000e+01
2.446894884109497070e+00 3.443241417407990057e-01 -5.704758763313293457e-01 1.000000000000000000e+01
3.087307214736938032e+00 4.338927268981934149e-01 -6.060093641281127930e-01 1.100000000000000000e+01
3.718827962875366211e+00 5.213235020637512207e-01 -5.947638154029846191e-01 1.000000000000000000e+01
3.676266479492188211e+01 5.147027969360351562e+00 4.557913303375244141e+00 1.900000000000000000e+01
4.741909980773925781e+00 6.630564332008361816e-01 -5.878977179527282715e-01 9.000000000000000000e+00
6.128886222839354581e+00 8.559052944183349609e-01 -5.414114594459533691e-01 9.000000000000000000e+00
9.002606391906738281e+00 1.254019737243651900e+00 -4.763618707656859796e-01 1.000000000000000000e+00
3.379116821289063211e+01 4.700935363769531250e+00 7.876436233520507812e+00 9.000000000000000000e+00
1.617810630798339844e+01 2.247775793075561968e+00 -2.851025164127349854e-01 2.000000000000000000e+00
3.540581130981445312e+01 4.912962436676025391e+00 9.577857971191406250e+00 7.000000000000000000e+00
2.302405118942261186e+00 3.162090778350830078e-01 -6.227186322212219238e-01 1.600000000000000000e+01
5.945618820190429688e+01 8.155056953430175781e+00 1.047528386116028054e+00 6.300000000000000000e+01
2.452001810073852983e+00 3.358824551105499268e-01 -5.713756680488586426e-01 1.000000000000000000e+01
3.092767000198363814e+00 4.231064915657042902e-01 -6.067726016044616699e-01 1.100000000000000000e+01
3.724628210067749023e+00 5.082239508628845215e-01 -5.953895449638366699e-01 1.000000000000000000e+01
3.685209274291992188e+01 5.021900653839111328e+00 4.566688060760498047e+00 1.900000000000000000e+01
4.748241901397705078e+00 6.462073922157287598e-01 -5.883851647377014160e-01 9.000000000000000000e+00
6.130007743835449219e+00 8.331677317619323730e-01 -5.412371754646301270e-01 8.000000000000000000e+00
3.548435211181641336e+01 4.816593170166015625e+00 6.960711956024169922e+00 6.000000000000000000e+01
8.995266914367675781e+00 1.219405293464661089e+00 -4.757338464260100763e-01 1.000000000000000000e+00
3.560025405883789062e+01 4.819670677185058594e+00 8.293945312500000000e+00 1.000000000000000000e+01
1.624172210693359020e+01 2.195966958999633789e+00 -2.860798537731171209e-01 2.000000000000000000e+00
3.539977264404296875e+01 4.786236763000488281e+00 9.571645736694335938e+00 1.400000000000000000e+01
2.307324409484862837e+00 3.086825907230377197e-01 -6.237539052963256836e-01 1.600000000000000000e+01
5.941293716430664062e+01 7.937932491302490234e+00 1.046271800994873047e+00 6.300000000000000000e+01
2.451227664947510210e+00 3.270635902881621759e-01 -5.709257721900939941e-01 1.100000000000000000e+01
3.100063323974608931e+00 4.130860567092896063e-01 -6.079174876213073730e-01 1.100000000000000000e+01
3.720505237579346147e+00 4.944387674331665039e-01 -5.944509506225585938e-01 9.000000000000000000e+00
3.710553741455078125e+01 4.924572467803955078e+00 4.595936775207520419e+00 1.900000000000000000e+01
4.762276172637938565e+00 6.311939358711242676e-01 -5.898476243019104004e-01 9.000000000000000000e+00
3.703922271728516336e+01 4.902615070343017578e+00 5.917603015899658203e+00 1.300000000000000000e+01
6.124978065490722656e+00 8.107191920280456543e-01 -5.405399203300476074e-01 8.000000000000000000e+00
9.011348724365234375e+00 1.189566850662231001e+00 -4.763618707656859796e-01 1.000000000000000000e+00
3.554730987548828125e+01 4.686203956604003906e+00 8.277749061584472656e+00 1.000000000000000000e+01
1.625721931457519887e+01 2.140303611755371094e+00 -2.862194776535034180e-01 2.000000000000000000e+00
3.546304702758789062e+01 4.662501811981201172e+00 9.584069252014160156e+00 7.000000000000000000e+00
2.319934606552124023e+00 3.017186522483826239e-01 -6.268597245216369629e-01 1.600000000000000000e+01
2.413758993148804155e+00 3.130641579627990723e-01 -5.619277358055114746e-01 1.000000000000000000e+01
3.117132425308227983e+00 4.037384390830994207e-01 -6.109703779220581055e-01 1.200000000000000000e+01
3.726210594177246094e+00 4.813052117824553888e-01 -5.950766801834106445e-01 1.000000000000000000e+01
3.715090179443358664e+01 4.792096138000488281e+00 4.599349021911621094e+00 1.900000000000000000e+01
4.764557361602783203e+00 6.137350797653198242e-01 -5.898476243019104004e-01 9.000000000000000000e+00
3.708353805541992188e+01 4.776827335357666016e+00 5.921983242034912109e+00 1.300000000000000000e+01
6.147669315338134766e+00 7.908065319061279297e-01 -5.422830581665039062e-01 9.000000000000000000e+00
9.011686325073242188e+00 1.156022310256958008e+00 -4.761525392532349188e-01 3.000000000000000000e+00
3.546373367309570312e+01 4.543008804321289062e+00 8.254353523254394531e+00 1.000000000000000000e+01
1.630065917968750000e+01 2.085270881652832031e+00 -2.868477404117584229e-01 2.000000000000000000e+00
2.328639984130858931e+00 2.945885658264160156e-01 -6.289302706718444824e-01 1.600000000000000000e+01
5.946821594238281250e+01 7.512582778930664062e+00 1.046271800994873047e+00 6.300000000000000000e+01
2.099690198898314986e+00 2.648802399635314941e-01 -4.885936975479125977e-01 2.400000000000000000e+01
3.876202392578125000e+01 4.883036613464354581e+00 2.047487258911132812e+00 2.200000000000000000e+01
3.102939844131470171e+00 3.908920884132385254e-01 -6.079174876213073730e-01 1.100000000000000000e+01
3.741587638854980025e+00 4.700188636779785156e-01 -5.972667932510375977e-01 1.000000000000000000e+01
3.712406921386718750e+01 4.656950473785400391e+00 4.593986988067626953e+00 1.900000000000000000e+01
4.754852771759033203e+00 5.956194996833801270e-01 -5.883851647377014160e-01 9.000000000000000000e+00
6.160277366638183594e+00 7.705788612365722656e-01 -5.431545972824096680e-01 8.000000000000000000e+00
9.047377586364746094e+00 1.128514051437377930e+00 -4.778272807598114014e-01 1.000000000000000000e+00
3.572303390502929688e+01 4.449539184570313388e+00 8.311041831970214844e+00 1.000000000000000000e+01
1.627211952209473012e+01 2.023915529251099077e+00 -2.862194776535034180e-01 5.000000000000000000e+00
3.676000213623046875e+01 4.572185516357421875e+00 9.925710678100585938e+00 7.000000000000000000e+00
2.297008752822875977e+00 2.828511595726013184e-01 -6.201304197311401367e-01 1.600000000000000000e+01
2.087017536163330078e+00 2.562535107135773260e-01 -4.854443669319152832e-01 5.400000000000000000e+01
3.106167793273925781e+00 3.808391392230988104e-01 -6.082990765571594238e-01 1.000000000000000000e+01
3.745086669921875000e+00 4.578484594821929932e-01 -5.975796580314636230e-01 9.000000000000000000e+00
3.712354278564453125e+01 4.531892299652099609e+00 4.592036724090576172e+00 1.900000000000000000e+01
4.778477191925048828e+00 5.824908018112182617e-01 -5.910663008689880371e-01 8.000000000000000000e+00
6.154887676239013672e+00 7.491834163665771484e-01 -5.424573421478271484e-01 8.000000000000000000e+00
9.114516258239746094e+00 1.106205940246582031e+00 -4.811767935752869207e-01 1.000000000000000000e+00
3.607421112060546875e+01 4.371847629547119141e+00 8.389324188232421875e+00 1.100000000000000000e+01
1.635814857482910156e+01 1.979553580284119096e+00 -2.876156568527222235e-01 5.000000000000000000e+00
3.589274978637695312e+01 4.343499660491943359e+00 9.687597274780273438e+00 7.000000000000000000e+00
2.073554754257202148e+00 2.479905784130095880e-01 -5.595667958259582520e-01 3.500000000000000000e+01
5.951797485351563211e+01 7.107624530792236328e+00 1.046271800994873047e+00 6.300000000000000000e+01
2.122729778289794922e+00 2.531202137470244806e-01 -4.935426115989685059e-01 2.700000000000000000e+01
3.938933944702147727e+01 4.689922332763671875e+00 2.078888893127440962e+00 2.200000000000000000e+01
3.109427690505981001e+00 3.702263832092285156e-01 -6.086806654930114746e-01 1.100000000000000000e+01
3.744700431823730025e+00 4.445399940013884943e-01 -5.972667932510375977e-01 1.000000000000000000e+01
3.769110107421875000e+01 4.467706203460693359e+00 4.660283565521240234e+00 2.000000000000000000e+01
4.770624637603759766e+00 5.646406412124633789e-01 -5.898476243019104004e-01 9.000000000000000000e+00
6.163401126861572266e+00 7.283958196640014648e-01 -5.429802536964416504e-01 8.000000000000000000e+00
9.138157844543457031e+00 1.076720833778380904e+00 -4.822235107421875000e-01 3.000000000000000000e+00
3.589958190917968750e+01 4.223583698272705078e+00 8.345233917236328125e+00 1.000000000000000000e+01
1.646028900146484020e+01 1.933639645576477051e+00 -2.892910838127136230e-01 2.000000000000000000e+00
3.672579193115233664e+01 4.307790756225585938e+00 9.908110618591308594e+00 7.000000000000000000e+00
2.049419641494750977e+00 2.382134497165679932e-01 -5.528374910354614258e-01 5.500000000000000000e+01
2.125493288040161133e+00 2.463039010763168057e-01 -4.939925074577332098e-01 1.000000000000000000e+02
3.940269088745117188e+01 4.559047222137451172e+00 2.078784227371215820e+00 2.200000000000000000e+01
3.110638141632080078e+00 3.599131405353546143e-01 -6.086806654930114746e-01 1.300000000000000000e+01
3.736341953277587891e+00 4.309878945350646973e-01 -5.957024693489074707e-01 9.000000000000000000e+00
4.053363418579102273e+01 4.668395519256591797e+00 5.009805202484130859e+00 2.400000000000000000e+01
4.796135902404785156e+00 5.515390038490295410e-01 -5.927724838256835938e-01 9.000000000000000000e+00
6.179638385772705078e+00 7.095441222190856934e-01 -5.442004799842834473e-01 9.000000000000000000e+00
9.123819351196289062e+00 1.044367432594299094e+00 -4.812814593315125067e-01 1.000000000000000000e+01
3.568492507934570312e+01 4.078402519226074219e+00 8.292145729064941406e+00 1.000000000000000000e+01
1.650634765625000000e+01 1.883579015731811968e+00 -2.899891734123229980e-01 2.000000000000000000e+00
3.611342239379882812e+01 4.120989322662354404e+00 9.739360809326171875e+00 7.000000000000000000e+00
2.061756849288939986e+00 2.323562800884247104e-01 -5.559433102607727051e-01 1.600000000000000000e+01
2.108911037445067915e+00 2.369249910116195956e-01 -4.899433851242064875e-01 1.000000000000000000e+02
3.941836547851563211e+01 4.421478271484375000e+00 2.078784227371215820e+00 2.200000000000000000e+01
3.121630668640137163e+00 3.501469790935515802e-01 -6.105887889862060547e-01 1.200000000000000000e+01
3.735860586166381836e+00 4.177234768867493231e-01 -5.953895449638366699e-01 1.100000000000000000e+01
4.798032283782958984e+00 5.347939729690551758e-01 -5.927724838256835938e-01 1.100000000000000000e+01
3.703488540649414062e+01 4.121405601501464844e+00 5.901959419250488281e+00 1.300000000000000000e+01
6.186037540435791016e+00 6.884095668792724609e-01 -5.445491075515747070e-01 9.000000000000000000e+00
9.165125846862792969e+00 1.016696929931641069e+00 -4.832702279090880793e-01 1.000000000000000000e+00
3.584227752685546875e+01 3.969688415527344194e+00 8.325438499450683594e+00 1.000000000000000000e+01
1.650089645385741832e+01 1.824630975723267046e+00 -2.897797524929047186e-01 2.000000000000000000e+00
3.626967620849608664e+01 4.010617256164550781e+00 9.777666091918945312e+00 7.000000000000000000e+00
2.125970602035522017e+00 2.317051887512207031e-01 -5.730253458023071289e-01 3.000000000000000000e+00
5.948974609375000000e+01 6.473159790039063388e+00 1.044526576995850053e+00 6.300000000000000000e+01
2.094266653060913086e+00 2.275101542472839078e-01 -4.863441884517670233e-01 1.000000000000000000e+02
3.923500061035156250e+01 4.262285232543945312e+00 2.068316936492919922e+00 2.200000000000000000e+01
3.111182212829589844e+00 3.374331593513488770e-01 -6.082990765571594238e-01 1.200000000000000000e+01
3.751114130020142046e+00 4.055142402648925781e-01 -5.975796580314636230e-01 1.100000000000000000e+01
3.891999435424804688e+01 4.200574874877929688e+00 4.806527137756347656e+00 2.000000000000000000e+01
4.799960136413574219e+00 5.172047615051269531e-01 -5.927724838256835938e-01 9.000000000000000000e+00
6.208328723907470703e+00 6.678630113601684570e-01 -5.462921857833862305e-01 9.000000000000000000e+00
9.180706024169921875e+00 9.843758344650268555e-01 -4.838982522487639826e-01 3.000000000000000000e+00
3.593796539306641336e+01 3.847004890441894975e+00 8.344334602355957031e+00 1.000000000000000000e+01
1.663870620727539062e+01 1.778164625167846902e+00 -2.920834720134735107e-01 2.000000000000000000e+00
3.604594039916992188e+01 3.852199792861938032e+00 9.713479042053222656e+00 1.500000000000000000e+01
2.169032812118529829e+00 2.287400513887405118e-01 -5.844134092330932617e-01 1.000000000000000000e+01
5.951197814941406250e+01 6.265462398529052734e+00 1.044526576995850053e+00 6.300000000000000000e+01
2.106676340103148970e+00 2.214206010103225986e-01 -4.890435934066771906e-01 1.000000000000000000e+02
3.118198871612548828e+00 3.271856606006621759e-01 -6.094439029693603516e-01 1.300000000000000000e+01
3.760365486145019975e+00 3.932397663593292236e-01 -5.988311171531677246e-01 1.100000000000000000e+01
3.893442153930664062e+01 4.064692974090576172e+00 4.806527137756347656e+00 2.000000000000000000e+01
4.819505691528320312e+00 5.022985935211181641e-01 -5.949661135673522949e-01 1.100000000000000000e+01
3.627752304077147727e+01 3.774516105651855025e+00 5.776812076568604404e+00 1.300000000000000000e+01
6.192787170410156250e+00 6.443321704864501953e-01 -5.447233915328979492e-01 8.000000000000000000e+00
9.215871810913085938e+00 9.556191563606262207e-01 -4.855729937553405762e-01 1.000000000000000000e+00
1.664481163024901988e+01 1.720073938369750977e+00 -2.920834720134735107e-01 2.000000000000000000e+00
3.615782165527343750e+01 3.730169296264647993e+00 9.739878654479980469e+00 1.500000000000000000e+01
2.144833326339722124e+00 2.186206728219985962e-01 -5.776841044425964355e-01 8.000000000000000000e+00
5.943401336669921875e+01 6.047567367553710938e+00 1.042781233787537065e+00 6.300000000000000000e+01
2.107436418533325195e+00 2.140655815601348877e-01 -4.890435934066771906e-01 1.000000000000000000e+02
3.946250534057617188e+01 4.008455276489257812e+00 2.078784227371215820e+00 2.200000000000000000e+01
3.123228311538695845e+00 3.166952431201934814e-01 -6.102071404457092285e-01 1.300000000000000000e+01
3.763680458068848100e+00 3.803098499774932861e-01 -5.991439819335937500e-01 1.200000000000000000e+01
4.819254398345947266e+00 4.852734208106995184e-01 -5.947223901748657227e-01 9.000000000000000000e+00
6.206892967224121094e+00 6.239069700241088867e-01 -5.457692742347717285e-01 9.000000000000000000e+00
9.294669151306152344e+00 9.310082197189331055e-01 -4.895505309104918878e-01 1.000000000000000000e+00
1.670642852783203125e+01 1.667523264884948953e+00 -2.930608093738555908e-01 2.000000000000000000e+00
3.647755813598632812e+01 3.640944480895996094e+00 9.822700500488281250e+00 1.500000000000000000e+01
2.134047985076903853e+00 2.099973410367965976e-01 -5.745782852172851562e-01 4.000000000000000000e+00
5.945476150512695312e+01 5.840066909790039062e+00 1.042781233787537065e+00 6.300000000000000000e+01
2.112049579620360884e+00 2.070882767438889105e-01 -4.899433851242064875e-01 1.000000000000000000e+02
3.132130384445189986e+00 3.065561652183533270e-01 -6.117336153984069824e-01 1.300000000000000000e+01
3.749256610870360884e+00 3.656359612941741943e-01 -5.966410636901855469e-01 1.000000000000000000e+01
4.448407745361328125e+01 4.330349922180175781e+00 5.487776756286621094e+00 3.700000000000000000e+01
4.838701248168945312e+00 4.701760113239287775e-01 -5.969160199165344238e-01 1.100000000000000000e+01
3.610637283325195312e+01 3.502090930938721147e+00 5.745524883270263672e+00 1.300000000000000000e+01
6.199117660522460938e+00 6.012753248214721680e-01 -5.448976755142211914e-01 9.000000000000000000e+00
9.297863006591796875e+00 8.985581398010253906e-01 -4.895505309104918878e-01 1.000000000000000000e+00
3.585601806640625000e+01 3.458858013153076172e+00 8.316440582275390625e+00 1.000000000000000000e+01
1.674001502990723012e+01 1.611880064010619895e+00 -2.935494780540465753e-01 2.000000000000000000e+00
3.649966049194335938e+01 3.514517784118651900e+00 9.825288772583007812e+00 7.000000000000000000e+00
2.142389774322510210e+00 2.040245980024338046e-01 -5.766488313674926758e-01 3.000000000000000000e+00
5.947281646728516336e+01 5.653255939483642578e+00 1.042781233787537065e+00 6.300000000000000000e+01
2.089409589767456055e+00 1.982432305812835971e-01 -4.845445752143859863e-01 7.800000000000000000e+01
3.135032653808594194e+00 2.968998849391937256e-01 -6.121152639389038086e-01 1.200000000000000000e+01
3.760220050811768022e+00 3.547833263874053955e-01 -5.982053875923156738e-01 1.100000000000000000e+01
4.852012634277343750e+00 4.560871720314025879e-01 -5.983784794807434082e-01 1.100000000000000000e+01
6.208910465240479404e+00 5.825417637825012207e-01 -5.455949306488037109e-01 9.000000000000000000e+00
9.348365783691406250e+00 8.738046884536743164e-01 -4.920626580715178888e-01 1.000000000000000000e+00
1.678481674194335938e+01 1.562990069389343040e+00 -2.942475676536560059e-01 2.000000000000000000e+00
3.718820953369141336e+01 3.456392288208007812e+00 1.000749683380126953e+01 8.000000000000000000e+00
2.150784015655518022e+00 1.972507387399672907e-01 -5.787193775177001953e-01 6.000000000000000000e+00
5.949218750000000000e+01 5.445622444152832031e+00 1.042781233787537065e+00 6.300000000000000000e+01
3.128229379653931108e+00 2.852416634559630793e-01 -6.105887889862060547e-01 1.200000000000000000e+01
3.767337322235106978e+00 3.421916067600250244e-01 -5.991439819335937500e-01 1.100000000000000000e+01
4.873345375061035156e+00 4.409364759922028143e-01 -6.008158922195434570e-01 1.100000000000000000e+01
6.228765010833740234e+00 5.624777674674987793e-01 -5.471637248992919922e-01 8.000000000000000000e+00
9.303617477416992188e+00 8.368730545043945312e-01 -4.895505309104918878e-01 1.000000000000000000e+00
1.686585617065430043e+01 1.511171936988831010e+00 -2.955739498138427734e-01 2.000000000000000000e+00
3.735783004760742188e+01 3.340669631958007812e+00 1.004994392395020064e+01 8.000000000000000000e+00
2.116853237152100053e+00 1.863175630569458008e-01 -5.694019198417663574e-01 7.000000000000000000e+00
5.951174545288085938e+01 5.227536201477050781e+00 1.042781233787537065e+00 6.300000000000000000e+01
2.125717878341674805e+00 1.863500773906708041e-01 -4.926428198814392090e-01 1.000000000000000000e+00
3.129253864288330078e+00 2.737742364406586248e-01 -6.105887889862060547e-01 1.300000000000000000e+01
3.782341718673706055e+00 3.295816779136658270e-01 -6.013340950012207031e-01 1.000000000000000000e+01
4.867018222808837891e+00 4.223853051662445068e-01 -5.998408794403076172e-01 1.100000000000000000e+01
6.226814746856688565e+00 5.393006205558776855e-01 -5.468151569366455078e-01 6.000000000000000000e+00
9.278763771057128906e+00 8.003649711608886719e-01 -4.880851209163665771e-01 1.000000000000000000e+00
3.911272430419921875e+01 3.366896867752075195e+00 9.063278198242187500e+00 1.200000000000000000e+01
1.687128067016601918e+01 1.449345350265502930e+00 -2.955739498138427734e-01 2.000000000000000000e+00
