1.360544204711914062e+00 -2.276909589767456055e+00 -7.107170820236206055e-01 1.500000000000000000e+01
1.580428838729857954e+00 -2.646990776062012163e+00 -7.117451429367065430e-01 9.000000000000000000e+00
1.888549566268920898e+00 -3.164303302764893022e+00 -7.162969708442687988e-01 1.100000000000000000e+01
2.362491607666016069e+00 -3.961544275283813032e+00 -7.305489778518676758e-01 1.100000000000000000e+01
2.942784070968627930e+00 -4.938525676727294922e+00 -7.058672308921813965e-01 1.600000000000000000e+01
4.158913135528563565e+00 -6.982181549072265625e+00 -7.110165357589721680e-01 8.000000000000000000e+00
1.428750133514403942e+01 -2.400559425354003906e+01 -1.464046001434325950e+00 1.300000000000000000e+01
2.597889137268066051e+01 -4.368393707275391336e+01 1.361854076385498047e+01 1.600000000000000000e+01
1.349441528320312944e+00 -2.274526596069335938e+00 -7.086465358734130859e-01 1.500000000000000000e+01
1.582042694091797097e+00 -2.668705940246582031e+00 -7.162441611289978027e-01 9.000000000000000000e+00
1.872594237327575906e+00 -3.160086870193481001e+00 -7.140072584152221680e-01 1.100000000000000000e+01
2.350034236907958984e+00 -3.968946695327758789e+00 -7.305489778518676758e-01 1.100000000000000000e+01
2.902995824813843218e+00 -4.906743049621582031e+00 -7.000175118446350098e-01 1.500000000000000000e+01
4.124786853790283203e+00 -6.974633693695068359e+00 -7.089248299598693848e-01 8.000000000000000000e+00
1.424452972412109020e+01 -2.410538482666015980e+01 -1.467395544052124023e+00 1.300000000000000000e+01
2.545074081420898082e+01 -4.308632278442382812e+01 1.155303668975830078e+01 1.500000000000000000e+01
2.606366157531737926e+01 -4.415914916992188211e+01 1.373966789245604936e+01 1.600000000000000000e+01
1.338553905487060991e+00 -2.274228572845458984e+00 -7.070936560630798340e-01 1.500000000000000000e+01
1.574693322181702104e+00 -2.677571535110474077e+00 -7.171439528465270996e-01 9.000000000000000000e+00
1.867521762847899947e+00 -3.176759004592895952e+00 -7.162969708442687988e-01 1.000000000000000000e+01
2.336165666580200195e+00 -3.977125644683837891e+00 -7.305489778518676758e-01 1.100000000000000000e+01
2.918004751205443892e+00 -4.971630096435546875e+00 -7.078171372413635254e-01 1.600000000000000000e+01
4.075210094451904297e+00 -6.946027755737304688e+00 -7.045670151710510254e-01 6.000000000000000000e+00
1.408555316925049006e+01 -2.402745819091796875e+01 -1.459649801254272017e+00 1.300000000000000000e+01
1.331581354141234907e+00 -2.280555486679077148e+00 -7.076112627983093262e-01 1.500000000000000000e+01
1.567301273345947044e+00 -2.686418294906616211e+00 -7.180437445640563965e-01 1.000000000000000000e+01
1.860377550125122070e+00 -3.190042018890380859e+00 -7.178234457969665527e-01 1.000000000000000000e+01
2.310334205627440962e+00 -3.964775085449219194e+00 -7.267945408821105957e-01 1.100000000000000000e+01
2.869668722152709961e+00 -4.928605556488037109e+00 -7.002612352371215820e-01 1.400000000000000000e+01
4.020873069763183594e+00 -6.908551692962645596e+00 -6.993376612663269043e-01 5.000000000000000000e+00
1.397549057006835938e+01 -2.403158950805664062e+01 -1.456928372383117898e+00 1.300000000000000000e+01
1.329422235488892046e+00 -2.295219898223876953e+00 -7.107170820236206055e-01 1.500000000000000000e+01
1.545224666595458984e+00 -2.669946670532227007e+00 -7.121950387954711914e-01 1.000000000000000000e+01
1.847264647483825906e+00 -3.193117856979370117e+00 -7.170602083206176758e-01 1.000000000000000000e+01
2.310320615768433061e+00 -3.996758460998535156e+00 -7.311747074127197266e-01 1.100000000000000000e+01
2.844504356384276900e+00 -4.924840927124023438e+00 -6.983113288879394531e-01 1.400000000000000000e+01
4.011675834655761719e+00 -6.948426723480224609e+00 -7.019523382186889648e-01 5.000000000000000000e+00
1.387555122375487926e+01 -2.405254554748535156e+01 -1.455253601074218972e+00 1.300000000000000000e+01
1.317713856697082964e+00 -2.295281410217285156e+00 -7.091642022132873535e-01 1.300000000000000000e+01
1.540779352188109907e+00 -2.686002492904663086e+00 -7.148944735527038574e-01 1.100000000000000000e+01
1.840849876403809038e+00 -3.210406064987183061e+00 -7.193499207496643066e-01 1.000000000000000000e+01
2.296921253204346147e+00 -4.009027957916259766e+00 -7.318004369735717773e-01 1.200000000000000000e+01
2.848256826400756836e+00 -4.975350379943847656e+00 -7.039173245429992676e-01 1.800000000000000000e+01
3.999809980392456055e+00 -6.989718437194824219e+00 -7.045670151710510254e-01 5.000000000000000000e+00
1.372559452056884943e+01 -2.400508308410644887e+01 -1.449182629585265891e+00 1.300000000000000000e+01
2.618811798095703125e+01 -4.583827209472656250e+01 1.414549636840819957e+01 1.700000000000000000e+01
1.308737874031066895e+00 -2.298188209533690962e+00 -7.086465358734130859e-01 1.400000000000000000e+01
1.533321499824523926e+00 -2.694751977920531782e+00 -7.157942652702331543e-01 1.100000000000000000e+01
1.825749754905700906e+00 -3.209986209869385210e+00 -7.178234457969665527e-01 1.000000000000000000e+01
2.286817312240601030e+00 -4.023890972137451172e+00 -7.330518960952758789e-01 1.100000000000000000e+01
2.825971126556396040e+00 -4.976631164550781250e+00 -7.026986479759216309e-01 1.600000000000000000e+01
3.945881366729735884e+00 -6.951656341552734375e+00 -6.993376612663269043e-01 3.000000000000000000e+00
1.361609935760498047e+01 -2.400767898559569957e+01 -1.446461200714111106e+00 1.300000000000000000e+01
2.573498153686523082e+01 -4.539395141601563211e+01 1.204702854156493963e+01 1.600000000000000000e+01
1.302462100982666016e+00 -2.303970098495482954e+00 -7.091642022132873535e-01 1.500000000000000000e+01
1.612031173706055043e+01 -2.852739715576171875e+01 5.719502568244934082e-01 2.400000000000000000e+01
1.523889780044556108e+00 -2.697858810424805132e+00 -7.153443694114685059e-01 9.000000000000000000e+00
1.819517374038696067e+00 -3.222544431686400923e+00 -7.193499207496643066e-01 1.000000000000000000e+01
2.272223234176636186e+00 -4.027614116668701172e+00 -7.324261665344238281e-01 1.100000000000000000e+01
2.322183799743651988e+01 -4.117850494384766336e+01 5.804636955261229581e+00 4.500000000000000000e+01
2.818120956420897993e+00 -4.999318599700927734e+00 -7.046485543251037598e-01 2.000000000000000000e+01
2.391875839233398082e+01 -4.243163681030272727e+01 7.714722156524658203e+00 1.600000000000000000e+01
3.898592710494995117e+00 -6.918887615203857422e+00 -6.948055624961853027e-01 3.000000000000000000e+00
1.354060935974120916e+01 -2.405033683776855113e+01 -1.446461200714111106e+00 1.300000000000000000e+01
2.578339576721191051e+01 -4.581422805786132812e+01 1.213700962066650035e+01 1.600000000000000000e+01
2.621883392333984020e+01 -4.660698318481445312e+01 1.432874011993408025e+01 1.800000000000000000e+01
1.297246336936950906e+00 -2.313557624816894975e+00 -7.107170820236206055e-01 1.700000000000000000e+01
1.521130561828613059e+00 -2.715062618255614790e+00 -7.184936404228210449e-01 1.000000000000000000e+01
1.807298183441162109e+00 -3.227163076400756836e+00 -7.189682722091674805e-01 1.000000000000000000e+01
2.260079622268677202e+00 -4.038969039916992188e+00 -7.330518960952758789e-01 1.100000000000000000e+01
2.802590608596802202e+00 -5.012590885162354404e+00 -7.051360011100769043e-01 2.000000000000000000e+01
3.987170219421387163e+00 -7.134201049804688388e+00 -7.150257229804992676e-01 4.000000000000000000e+00
1.347020912170409979e+01 -2.412186813354491832e+01 -1.447926521301269975e+00 1.300000000000000000e+01
1.291573882102966087e+00 -2.323362350463867188e+00 -7.122700214385986328e-01 1.400000000000000000e+01
1.505491614341736062e+00 -2.710397958755493164e+00 -7.157942652702331543e-01 1.100000000000000000e+01
1.800222873687743919e+00 -3.242347717285155806e+00 -7.208763957023620605e-01 1.000000000000000000e+01
2.245260953903197798e+00 -4.047225475311279297e+00 -7.330518960952758789e-01 1.100000000000000000e+01
2.811146497726439986e+00 -5.071442604064941406e+00 -7.119607329368591309e-01 2.000000000000000000e+01
3.970651626586914062e+00 -7.166194438934326172e+00 -7.167688012123107910e-01 4.000000000000000000e+00
1.336816406250000000e+01 -2.414661407470703125e+01 -1.446461200714111106e+00 1.300000000000000000e+01
2.564713668823241832e+01 -4.636403274536132812e+01 1.419725990295409979e+01 1.700000000000000000e+01
1.281590580940247026e+00 -2.324473142623900923e+00 -7.112347483634948730e-01 1.500000000000000000e+01
1.496021389961242898e+00 -2.715636730194091797e+00 -7.157942652702331543e-01 1.000000000000000000e+01
1.785106062889098899e+00 -3.241732835769652876e+00 -7.193499207496643066e-01 1.000000000000000000e+01
2.233024358749390093e+00 -4.058499813079833984e+00 -7.336776256561279297e-01 1.100000000000000000e+01
2.789601564407349077e+00 -5.074266433715820312e+00 -7.109857201576232910e-01 2.000000000000000000e+01
3.940814971923828125e+00 -7.171280384063720703e+00 -7.158972620964050293e-01 5.000000000000000000e+00
1.328379535675049006e+01 -2.419313049316405895e+01 -1.446461200714111106e+00 1.300000000000000000e+01
2.564423370361328125e+01 -4.676261901855468750e+01 1.429043483734131037e+01 1.800000000000000000e+01
1.276249289512634055e+00 -2.334017515182495117e+00 -7.127876281738281250e-01 1.600000000000000000e+01
1.571541881561278942e+01 -2.875243377685546875e+01 5.719502568244934082e-01 2.400000000000000000e+01
1.486533045768738015e+00 -2.720842123031616211e+00 -7.157942652702331543e-01 1.100000000000000000e+01
1.771897435188293013e+00 -3.244498252868651900e+00 -7.185866832733154297e-01 1.000000000000000000e+01
2.220736265182495117e+00 -4.069737911224365234e+00 -7.343033552169799805e-01 1.100000000000000000e+01
2.741464138031005859e+00 -5.028200626373291016e+00 -7.031860947608947754e-01 2.000000000000000000e+01
3.941501379013061968e+00 -7.232227802276611328e+00 -7.206037044525146484e-01 6.000000000000000000e+00
1.319926452636718928e+01 -2.423935317993164062e+01 -1.446461200714111106e+00 1.300000000000000000e+01
2.511971092224121094e+01 -4.616862487792968750e+01 1.408337974548340021e+01 1.700000000000000000e+01
1.265331506729125977e+00 -2.333363533020019975e+00 -7.112347483634948730e-01 1.400000000000000000e+01
1.484453320503235085e+00 -2.739721775054932085e+00 -7.193934917449951172e-01 1.000000000000000000e+01
1.761496186256408913e+00 -3.252389907836914062e+00 -7.189682722091674805e-01 1.000000000000000000e+01
2.208396911621094194e+00 -4.080939292907714844e+00 -7.349291443824768066e-01 1.100000000000000000e+01
2.296461105346680043e+01 -4.245444869995117188e+01 5.926506042480468750e+00 4.800000000000000000e+01
2.704068422317504883e+00 -5.001070022583007812e+00 -6.980676054954528809e-01 2.100000000000000000e+01
3.599826335906981978e+00 -6.660517692565917969e+00 -6.623836159706115723e-01 2.000000000000000000e+00
1.311457252502441051e+01 -2.428527832031250000e+01 -1.446461200714111106e+00 1.300000000000000000e+01
1.564508438110351918e+01 -2.899542808532714844e+01 -5.750917196273803711e-01 6.000000000000000000e+00
2.498700714111328125e+01 -4.632839584350585938e+01 1.410408496856688920e+01 1.700000000000000000e+01
1.259008884429932085e+00 -2.341168880462646040e+00 -7.122700214385986328e-01 1.400000000000000000e+01
1.546696662902832031e+01 -2.877338027954101918e+01 5.702050328254699707e-01 2.400000000000000000e+01
1.465657114982604980e+00 -2.727720499038695845e+00 -7.148944735527038574e-01 1.100000000000000000e+01
1.533980655670166016e+01 -2.856072235107421875e+01 1.699034452438354048e+00 1.700000000000000000e+01
1.751990318298340066e+00 -3.261977910995482954e+00 -7.197315096855163574e-01 9.000000000000000000e+00
2.194138288497924805e+00 -4.088623046875000000e+00 -7.349291443824768066e-01 1.100000000000000000e+01
2.681904554367064986e+00 -5.001730918884277344e+00 -6.968489289283752441e-01 1.700000000000000000e+01
1.297503376007080078e+01 -2.422879028320312855e+01 -1.440390229225158913e+00 1.300000000000000000e+01
2.363454055786133168e+01 -4.417074584960938211e+01 -8.744353652000427246e-01 1.300000000000000000e+01
1.249919891357422097e+00 -2.343844890594481978e+00 -7.117523550987243652e-01 1.300000000000000000e+01
1.531940269470215021e+01 -2.873896217346191051e+01 5.684598088264465332e-01 2.400000000000000000e+01
1.459792137145996094e+00 -2.739699363708496094e+00 -7.166940569877624512e-01 1.000000000000000000e+01
1.526818466186523082e+01 -2.866697883605957031e+01 1.702174663543700950e+00 1.700000000000000000e+01
1.748899340629578081e+00 -3.283668994903564009e+00 -7.231661081314086914e-01 1.000000000000000000e+01
2.180781126022338867e+00 -4.098001003265380859e+00 -7.352420091629028320e-01 1.200000000000000000e+01
2.676544189453125000e+00 -5.033847808837890625e+00 -7.000175118446350098e-01 1.500000000000000000e+01
3.940356016159058061e+00 -7.413853168487548828e+00 -7.345486283302307129e-01 3.000000000000000000e+00
1.245754122734070046e+00 -2.354807376861571822e+00 -7.138229012489318848e-01 1.500000000000000000e+01
1.531749534606933949e+01 -2.896638107299805043e+01 5.719502568244934082e-01 2.400000000000000000e+01
1.448877573013306108e+00 -2.741079330444335938e+00 -7.157942652702331543e-01 1.000000000000000000e+01
1.730663537979125977e+00 -3.275563478469849077e+00 -7.201131582260131836e-01 1.000000000000000000e+01
2.167179584503173828e+00 -4.105210304260253906e+00 -7.352420091629028320e-01 1.500000000000000000e+01
2.668171882629394975e+00 -5.058497905731201172e+00 -7.022111415863037109e-01 1.600000000000000000e+01
1.275954723358153942e+01 -2.422112464904785156e+01 -1.434737920761107954e+00 1.300000000000000000e+01
1.241116285324096902e+00 -2.365984439849853960e+00 -7.158935070037841797e-01 1.400000000000000000e+01
1.444728612899780051e+00 -2.756476402282714844e+00 -7.184936404228210449e-01 1.100000000000000000e+01
1.488918304443359020e+01 -2.841994667053223012e+01 1.681449651718140093e+00 1.700000000000000000e+01
1.720130205154418945e+00 -3.283323764801024947e+00 -7.204947471618652344e-01 9.000000000000000000e+00
2.161081552505493164e+00 -4.128500938415527344e+00 -7.380577921867370605e-01 1.300000000000000000e+01
2.650498151779174805e+00 -5.067780971527099609e+00 -7.022111415863037109e-01 2.200000000000000000e+01
3.947030782699584961e+00 -7.549973487854003906e+00 -7.453559041023254395e-01 2.000000000000000000e+00
1.268601799011229936e+01 -2.428676033020019887e+01 -1.435993909835814986e+00 1.300000000000000000e+01
2.419632339477539062e+01 -4.634238052368164062e+01 1.206952381134033025e+01 1.600000000000000000e+01
2.477590179443359020e+01 -4.747262191772460938e+01 1.434841060638427912e+01 1.800000000000000000e+01
1.220851540565490945e+00 -2.348235130310059038e+00 -7.091642022132873535e-01 1.200000000000000000e+01
1.436412453651428001e+00 -2.765211820602416992e+00 -7.193934917449951172e-01 1.200000000000000000e+01
1.476651096343993963e+01 -2.843887519836426137e+01 1.679356217384337935e+00 1.700000000000000000e+01
1.708989381790160911e+00 -3.291348695755004883e+00 -7.208763957023620605e-01 9.000000000000000000e+00
2.140477180480957031e+00 -4.125873565673828125e+00 -7.361806035041809082e-01 1.500000000000000000e+01
2.635560274124145952e+00 -5.084510803222656250e+00 -7.031860947608947754e-01 2.400000000000000000e+01
1.262079143524169922e+01 -2.437920951843262074e+01 -1.438715457916259988e+00 1.300000000000000000e+01
2.435677719116210938e+01 -4.708951950073242188e+01 1.420554256439208984e+01 1.700000000000000000e+01
1.214417457580565962e+00 -2.355916500091553178e+00 -7.101994752883911133e-01 1.300000000000000000e+01
1.505403804779052912e+01 -2.921669387817383168e+01 5.736954808235168457e-01 2.400000000000000000e+01
1.424074530601501021e+00 -2.765011548995972124e+00 -7.180437445640563965e-01 1.200000000000000000e+01
1.701084494590759055e+00 -3.304276227951049805e+00 -7.224028706550598145e-01 1.000000000000000000e+01
2.120640754699707031e+00 -4.122780323028563565e+00 -7.343033552169799805e-01 1.300000000000000000e+01
2.615981101989746094e+00 -5.090148448944091797e+00 -7.026986479759216309e-01 2.400000000000000000e+01
3.368508815765380859e+00 -6.557223796844482422e+00 -6.449524760246276855e-01 1.000000000000000000e+00
1.251190280914306996e+01 -2.437691688537598012e+01 -1.435993909835814986e+00 1.300000000000000000e+01
1.212340354919434038e+00 -2.372182846069335938e+00 -7.138229012489318848e-01 1.400000000000000000e+01
1.495196151733398082e+01 -2.926906394958496094e+01 5.736954808235168457e-01 2.400000000000000000e+01
1.412641763687134011e+00 -2.766494512557982954e+00 -7.171439528465270996e-01 1.300000000000000000e+01
1.690432548522948997e+00 -3.311942577362060991e+00 -7.227844595909118652e-01 1.100000000000000000e+01
2.115210771560668945e+00 -4.147755146026611328e+00 -7.374320626258850098e-01 1.500000000000000000e+01
2.595493555068970171e+00 -5.093943119049072266e+00 -7.019674181938171387e-01 2.800000000000000000e+01
3.730795145034790039e+00 -7.325258255004882812e+00 -7.192091941833496094e-01 3.000000000000000000e+00
1.240861892700194957e+01 -2.438484191894530895e+01 -1.433900475502013938e+00 1.300000000000000000e+01
1.207545042037964089e+00 -2.383293390274047852e+00 -7.158935070037841797e-01 1.400000000000000000e+01
1.489487648010254084e+01 -2.941027641296387074e+01 5.754407644271850586e-01 2.400000000000000000e+01
1.404736518859863059e+00 -2.774885892868041992e+00 -7.180437445640563965e-01 1.200000000000000000e+01
1.680634260177612083e+00 -3.321326732635498047e+00 -7.235476970672607422e-01 9.000000000000000000e+00
2.104284763336182085e+00 -4.162164688110351562e+00 -7.386835217475891113e-01 1.300000000000000000e+01
2.567851305007935014e+00 -5.083481311798095703e+00 -6.992862820625305176e-01 2.600000000000000000e+01
3.680956125259398970e+00 -7.290215969085693359e+00 -7.145027518272399902e-01 5.000000000000000000e+00
1.230543327331542969e+01 -2.439234352111816051e+01 -1.431807041168212891e+00 1.300000000000000000e+01
1.195749998092650923e+00 -2.380588769912720171e+00 -7.138229012489318848e-01 1.400000000000000000e+01
1.397664070129394975e+00 -2.784997701644897017e+00 -7.193934917449951172e-01 1.200000000000000000e+01
1.665509223937988059e+00 -3.320153713226317915e+00 -7.220212221145629883e-01 1.000000000000000000e+01
2.087972879409790039e+00 -4.165952682495117188e+00 -7.380577921867370605e-01 1.300000000000000000e+01
2.553646326065063032e+00 -5.099514007568359375e+00 -7.002612352371215820e-01 2.900000000000000000e+01
3.552929162979125977e+00 -7.098129749298095703e+00 -6.944569349288940430e-01 3.000000000000000000e+00
1.222021293640137074e+01 -2.443514823913573863e+01 -1.431807041168212891e+00 1.300000000000000000e+01
1.182266473770142046e+00 -2.374372243881226030e+00 -7.107170820236206055e-01 1.500000000000000000e+01
1.394878149032592995e+00 -2.803817510604857954e+00 -7.229927182197570801e-01 1.000000000000000000e+01
1.657406210899353027e+00 -3.332978725433350053e+00 -7.235476970672607422e-01 9.000000000000000000e+00
2.075176239013671875e+00 -4.176753997802734375e+00 -7.386835217475891113e-01 1.300000000000000000e+01
2.531416893005371094e+00 -5.099506378173828125e+00 -6.990425586700439453e-01 3.600000000000000000e+01
3.763693571090697798e+00 -7.585235118865966797e+00 -7.408238053321838379e-01 2.000000000000000000e+00
1.217032814025879084e+01 -2.454923439025878906e+01 -1.435993909835814986e+00 1.300000000000000000e+01
2.394779014587401988e+01 -4.832719421386718750e+01 1.245194053649901988e+01 1.700000000000000000e+01
1.175681233406066895e+00 -2.381949186325072798e+00 -7.117523550987243652e-01 1.300000000000000000e+01
1.379911065101623979e+00 -2.798182725906372070e+00 -7.202932834625244141e-01 1.100000000000000000e+01
1.647497892379760964e+00 -3.342265844345093218e+00 -7.243109345436096191e-01 9.000000000000000000e+00
2.063202381134033203e+00 -4.189288616180419922e+00 -7.396221756935119629e-01 1.200000000000000000e+01
2.517982959747314009e+00 -5.117217063903808594e+00 -7.002612352371215820e-01 2.200000000000000000e+01
3.775004625320435014e+00 -7.675203800201416016e+00 -7.483192086219787598e-01 4.000000000000000000e+00
1.208456134796142933e+01 -2.459156608581542969e+01 -1.435993909835814986e+00 1.300000000000000000e+01
1.173302412033081055e+00 -2.398185729980469194e+00 -7.153758406639099121e-01 1.400000000000000000e+01
1.368423581123352051e+00 -2.799480915069580078e+00 -7.193934917449951172e-01 1.100000000000000000e+01
1.640992403030395952e+00 -3.358579874038695845e+00 -7.266006469726562500e-01 1.000000000000000000e+01
2.049432992935181108e+00 -4.198240280151367188e+00 -7.399350404739379883e-01 1.100000000000000000e+01
2.519249916076660156e+00 -5.165227413177490234e+00 -7.056235074996948242e-01 1.600000000000000000e+01
3.417287826538085938e+00 -7.009582996368408203e+00 -6.822551488876342773e-01 0.000000000000000000e+00
1.195491695404052912e+01 -2.454382133483887074e+01 -1.430760383605957031e+00 1.300000000000000000e+01
1.169136643409729004e+00 -2.408811807632445845e+00 -7.174463868141174316e-01 1.400000000000000000e+01
1.363023161888123003e+00 -2.810780048370360884e+00 -7.211930751800537109e-01 1.100000000000000000e+01
1.627864122390747070e+00 -3.358418703079224077e+00 -7.254558205604553223e-01 1.000000000000000000e+01
2.031067848205565962e+00 -4.193990707397460938e+00 -7.380577921867370605e-01 1.100000000000000000e+01
2.519437789916992188e+00 -5.207067966461181641e+00 -7.102545499801635742e-01 1.800000000000000000e+01
3.473321437835692915e+00 -7.181711196899414062e+00 -6.979432106018066406e-01 3.000000000000000000e+00
1.192119884490966975e+01 -2.467117309570312855e+01 -1.435993909835814986e+00 1.300000000000000000e+01
1.161558628082274947e+00 -2.414618968963623047e+00 -7.179640531539916992e-01 1.600000000000000000e+01
1.357424259185791016e+00 -2.824302673339844194e+00 -7.234426140785217285e-01 9.000000000000000000e+00
1.616981267929076926e+00 -3.365850210189818892e+00 -7.258374094963073730e-01 1.000000000000000000e+01
2.024963378906250000e+00 -4.218863487243652344e+00 -7.411864995956420898e-01 1.100000000000000000e+01
2.498671293258666992e+00 -5.210460662841796875e+00 -7.095233201980590820e-01 1.800000000000000000e+01
3.480956792831420898e+00 -7.262064456939697266e+00 -7.045670151710510254e-01 1.000000000000000000e+00
1.183500766754150035e+01 -2.471263504028319957e+01 -1.435993909835814986e+00 1.300000000000000000e+01
1.146471977233886941e+00 -2.404708385467528853e+00 -7.138229012489318848e-01 1.500000000000000000e+01
1.345881223678589089e+00 -2.825505256652832031e+00 -7.225427627563476562e-01 9.000000000000000000e+00
1.601846456527709961e+00 -3.364383697509766069e+00 -7.243109345436096191e-01 1.000000000000000000e+01
2.005981683731079102e+00 -4.216987133026123047e+00 -7.396221756935119629e-01 1.100000000000000000e+01
2.485580682754517046e+00 -5.229908466339111328e+00 -7.109857201576232910e-01 2.000000000000000000e+01
3.458151102066040039e+00 -7.279570102691650391e+00 -7.050899863243103027e-01 4.000000000000000000e+00
1.174867248535156072e+01 -2.475379753112792969e+01 -1.435993909835814986e+00 1.300000000000000000e+01
1.138896226882935014e+00 -2.410442352294921875e+00 -7.143405675888061523e-01 1.600000000000000000e+01
1.339337825775146040e+00 -2.837234973907471147e+00 -7.243424057960510254e-01 9.000000000000000000e+00
1.595119476318358931e+00 -3.380607843399047852e+00 -7.266006469726562500e-01 9.000000000000000000e+00
1.990407109260559082e+00 -4.222177028656005859e+00 -7.393093109130859375e-01 1.100000000000000000e+01
2.472384929656981978e+00 -5.249328136444091797e+00 -7.124481797218322754e-01 2.400000000000000000e+01
3.430173635482788086e+00 -7.286189079284667969e+00 -7.045670151710510254e-01 3.000000000000000000e+00
1.166219425201416016e+01 -2.479465675354003906e+01 -1.435993909835814986e+00 1.300000000000000000e+01
1.135786056518554910e+00 -2.426848411560059038e+00 -7.179640531539916992e-01 1.400000000000000000e+01
1.323151826858520952e+00 -2.829767704010010210e+00 -7.211930751800537109e-01 1.000000000000000000e+01
1.586043238639831987e+00 -3.393545866012572798e+00 -7.281271219253540039e-01 1.000000000000000000e+01
1.978261828422545943e+00 -4.236603260040283203e+00 -7.405607700347900391e-01 1.100000000000000000e+01
2.442218303680419922e+00 -5.234968185424804688e+00 -7.092795968055725098e-01 2.600000000000000000e+01
3.270406246185303178e+00 -7.013408660888671875e+00 -6.770257949829101562e-01 0.000000000000000000e+00
1.157123947143555043e+01 -2.483723449707030895e+01 -1.435993909835814986e+00 1.300000000000000000e+01
1.128933429718018022e+00 -2.434303522109984907e+00 -7.189993262290954590e-01 1.400000000000000000e+01
1.314085245132446067e+00 -2.836137294769287109e+00 -7.216429710388183594e-01 9.000000000000000000e+00
1.570887684822082964e+00 -3.391935586929320845e+00 -7.266006469726562500e-01 1.000000000000000000e+01
1.963461160659790039e+00 -4.243482589721679688e+00 -7.405607700347900391e-01 1.100000000000000000e+01
2.406437635421752930e+00 -5.205621719360351562e+00 -7.041610479354858398e-01 2.400000000000000000e+01
3.565146923065185991e+00 -7.715684890747070312e+00 -7.436128258705139160e-01 2.000000000000000000e+00
1.142252349853515980e+01 -2.474328613281250000e+01 -1.428248286247252974e+00 1.300000000000000000e+01
1.118815898895263894e+00 -2.434718608856201172e+00 -7.179640531539916992e-01 1.200000000000000000e+01
1.305803537368773970e+00 -2.844249248504639116e+00 -7.225427627563476562e-01 9.000000000000000000e+00
1.556581616401671919e+00 -3.392045259475708008e+00 -7.254558205604553223e-01 9.000000000000000000e+00
1.951929688453674094e+00 -4.257493495941162109e+00 -7.418122291564941406e-01 1.100000000000000000e+01
2.393212080001831055e+00 -5.224818706512451172e+00 -7.056235074996948242e-01 1.600000000000000000e+01
3.634402036666870117e+00 -7.938222408294677734e+00 -7.638329267501831055e-01 2.000000000000000000e+00
1.136433029174805043e+01 -2.484475898742676137e+01 -1.431807041168212891e+00 1.300000000000000000e+01
1.104706764221190962e+00 -2.426301717758179155e+00 -7.143405675888061523e-01 1.400000000000000000e+01
1.300708532333374023e+00 -2.859432935714722124e+00 -7.252421975135803223e-01 9.000000000000000000e+00
1.548794627189636008e+00 -3.406394004821776900e+00 -7.273638844490051270e-01 9.000000000000000000e+00
1.934605479240417036e+00 -4.258885383605957031e+00 -7.408736348152160645e-01 1.100000000000000000e+01
2.383983373641968218e+00 -5.253025054931640625e+00 -7.083046436309814453e-01 2.000000000000000000e+01
3.562224864959716797e+00 -7.852880954742431641e+00 -7.544201016426086426e-01 3.000000000000000000e+00
1.124455928802490057e+01 -2.481151008605957031e+01 -1.427620172500609907e+00 1.300000000000000000e+01
1.098982810974121094e+00 -2.437378883361815962e+00 -7.164111137390136719e-01 1.300000000000000000e+01
1.285417199134827104e+00 -2.853520393371582031e+00 -7.225427627563476562e-01 9.000000000000000000e+00
1.536299228668212891e+00 -3.412047863006591797e+00 -7.273638844490051270e-01 9.000000000000000000e+00
1.917362093925476074e+00 -4.262344360351563388e+00 -7.402479052543640137e-01 1.100000000000000000e+01
2.370410203933715820e+00 -5.274402141571044922e+00 -7.100107669830322266e-01 2.000000000000000000e+01
3.170933008193970171e+00 -7.058940887451171875e+00 -6.770257949829101562e-01 0.000000000000000000e+00
1.113718986511229936e+01 -2.481611442565917969e+01 -1.425526738166809082e+00 1.300000000000000000e+01
1.091255903244018999e+00 -2.442964076995850053e+00 -7.169287800788879395e-01 1.300000000000000000e+01
1.277037024497986062e+00 -2.861549139022827148e+00 -7.234426140785217285e-01 9.000000000000000000e+00
1.529978036880492942e+00 -3.429940462112427202e+00 -7.300352454185485840e-01 1.100000000000000000e+01
1.907296657562256081e+00 -4.279837131500244141e+00 -7.421250939369201660e-01 1.100000000000000000e+01
2.360866308212279829e+00 -5.302592277526854581e+00 -7.126919031143188477e-01 2.000000000000000000e+01
3.146273374557495117e+00 -7.069966316223145419e+00 -6.770257949829101562e-01 1.000000000000000000e+00
1.096935653686523082e+01 -2.467233848571776988e+01 -1.415059566497802956e+00 1.200000000000000000e+01
1.084285259246825950e+00 -2.450291633605957031e+00 -7.179640531539916992e-01 1.300000000000000000e+01
1.266252636909485085e+00 -2.864207029342650923e+00 -7.229927182197570801e-01 1.000000000000000000e+01
1.514821887016295943e+00 -3.428077220916748047e+00 -7.285087704658508301e-01 1.000000000000000000e+01
1.896334528923034890e+00 -4.295504093170166016e+00 -7.436894178390502930e-01 1.100000000000000000e+01
2.345546722412108931e+00 -5.318066120147705078e+00 -7.136668562889099121e-01 3.000000000000000000e+01
3.517800092697143999e+00 -7.979692459106445312e+00 -7.629613876342773438e-01 3.000000000000000000e+00
1.091375827789306996e+01 -2.477993583679198863e+01 -1.419037103652954102e+00 1.300000000000000000e+01
1.074174404144287109e+00 -2.450522899627685991e+00 -7.169287800788879395e-01 1.200000000000000000e+01
1.258592247962952104e+00 -2.873964786529541016e+00 -7.243424057960510254e-01 9.000000000000000000e+00
1.498123049736022949e+00 -3.422553062438964844e+00 -7.262190580368041992e-01 1.000000000000000000e+01
1.881328821182250977e+00 -4.302097797393798828e+00 -7.436894178390502930e-01 1.100000000000000000e+01
2.326174020767211914e+00 -5.324401855468750000e+00 -7.134231328964233398e-01 3.300000000000000000e+01
3.524209737777709961e+00 -8.070436477661132812e+00 -7.704567909240722656e-01 3.000000000000000000e+00
1.063305735588073953e+00 -2.448941469192504883e+00 -7.153758406639099121e-01 1.100000000000000000e+01
1.251654505729675071e+00 -2.885491847991942915e+00 -7.261419892311096191e-01 9.000000000000000000e+00
1.488509774208069070e+00 -3.433165311813354048e+00 -7.273638844490051270e-01 9.000000000000000000e+00
1.865515112876892090e+00 -4.306825637817382812e+00 -7.433765530586242676e-01 1.100000000000000000e+01
2.284711360931396040e+00 -5.279656410217285156e+00 -7.063547372817993164e-01 1.800000000000000000e+01
3.081557273864746094e+00 -7.124469757080078125e+00 -6.791175603866577148e-01 0.000000000000000000e+00
1.057040452957153098e+00 -2.457962274551392046e+00 -7.169287800788879395e-01 1.400000000000000000e+01
1.238497614860534890e+00 -2.882681369781494141e+00 -7.243424057960510254e-01 9.000000000000000000e+00
1.481164813041687012e+00 -3.449164152145386186e+00 -7.296535968780517578e-01 9.000000000000000000e+00
1.852806568145751953e+00 -4.318757534027099609e+00 -7.443152070045471191e-01 1.100000000000000000e+01
2.285036325454711914e+00 -5.331388950347900391e+00 -7.122044563293457031e-01 2.600000000000000000e+01
3.056669235229492188e+00 -7.135182857513427734e+00 -6.791175603866577148e-01 0.000000000000000000e+00
1.066310024261474965e+01 -2.491489791870116832e+01 -1.420293211936950906e+00 1.300000000000000000e+01
1.050398349761962891e+00 -2.465008497238159180e+00 -7.179640531539916992e-01 1.300000000000000000e+01
1.227404952049254927e+00 -2.883186340332030806e+00 -7.234426140785217285e-01 9.000000000000000000e+00
1.470487475395203081e+00 -3.455863237380981001e+00 -7.300352454185485840e-01 1.000000000000000000e+01
1.835383653640747070e+00 -4.317605972290039062e+00 -7.430636882781982422e-01 1.100000000000000000e+01
2.262688398361206055e+00 -5.327974319458007812e+00 -7.107419967651367188e-01 2.200000000000000000e+01
1.054143333435058949e+01 -2.485818290710448863e+01 -1.415059566497802956e+00 1.200000000000000000e+01
1.042538642883301003e+00 -2.470439910888671875e+00 -7.184816598892211914e-01 1.100000000000000000e+01
1.217333197593688965e+00 -2.887453317642211914e+00 -7.234426140785217285e-01 9.000000000000000000e+00
1.456128120422363059e+00 -3.455547571182250977e+00 -7.288903594017028809e-01 1.000000000000000000e+01
1.823366999626159890e+00 -4.331269264221191406e+00 -7.443152070045471191e-01 1.100000000000000000e+01
2.226376295089722124e+00 -5.293753623962402344e+00 -7.051360011100769043e-01 2.000000000000000000e+01
3.032737970352172852e+00 -7.214598178863525391e+00 -6.846955418586730957e-01 1.000000000000000000e+00
1.054739665985107067e+01 -2.511580467224121094e+01 -1.427620172500609907e+00 1.300000000000000000e+01
1.034340620040893999e+00 -2.473883390426636186e+00 -7.184816598892211914e-01 1.100000000000000000e+01
1.210755705833435059e+00 -2.898667097091674805e+00 -7.252421975135803223e-01 9.000000000000000000e+00
1.444661140441894975e+00 -3.460357427597045898e+00 -7.288903594017028809e-01 1.000000000000000000e+01
1.813556432723999023e+00 -4.348230838775634766e+00 -7.461923956871032715e-01 1.100000000000000000e+01
2.227133512496947798e+00 -5.345084667205811435e+00 -7.109857201576232910e-01 1.600000000000000000e+01
2.992711067199707031e+00 -7.185991287231445312e+00 -6.810349822044372559e-01 2.000000000000000000e+00
1.044870758056640980e+01 -2.511376190185546875e+01 -1.425526738166809082e+00 1.300000000000000000e+01
1.024220824241637962e+00 -2.473909139633179155e+00 -7.174463868141174316e-01 1.200000000000000000e+01
1.202864527702331987e+00 -2.908277988433837891e+00 -7.265918850898742676e-01 9.000000000000000000e+00
1.437073707580565962e+00 -3.476265192031859907e+00 -7.311800718307495117e-01 9.000000000000000000e+00
1.794597029685973899e+00 -4.345405578613281250e+00 -7.446280717849731445e-01 1.100000000000000000e+01
2.206190824508666992e+00 -5.347321510314941406e+00 -7.102545499801635742e-01 1.500000000000000000e+01
2.942543506622314009e+00 -7.135610580444335938e+00 -6.752827167510986328e-01 2.000000000000000000e+00
1.033359241485596058e+01 -2.508360099792480113e+01 -1.421758532524109109e+00 1.300000000000000000e+01
1.014113545417786089e+00 -2.473894357681273970e+00 -7.164111137390136719e-01 1.200000000000000000e+01
1.192705392837523970e+00 -2.912459135055541992e+00 -7.265918850898742676e-01 9.000000000000000000e+00
1.424186825752258079e+00 -3.479443311691284180e+00 -7.307984232902526855e-01 1.000000000000000000e+01
1.778670191764831987e+00 -4.349814891815186435e+00 -7.443152070045471191e-01 1.100000000000000000e+01
2.179254055023192915e+00 -5.334775447845458984e+00 -7.075734138488769531e-01 1.100000000000000000e+01
2.962805271148682085e+00 -7.256512165069580078e+00 -6.857413649559020996e-01 0.000000000000000000e+00
1.024295425415039062e+01 -2.511212158203125000e+01 -1.421339869499206987e+00 1.300000000000000000e+01
1.010557413101196067e+00 -2.489949464797974077e+00 -7.200345993041992188e-01 1.200000000000000000e+01
1.179602861404418945e+00 -2.909380912780762163e+00 -7.247923016548156738e-01 9.000000000000000000e+00
1.413507342338562012e+00 -3.488032579421997070e+00 -7.315616607666015625e-01 1.000000000000000000e+01
1.765699386596679910e+00 -4.361490249633789062e+00 -7.452538013458251953e-01 9.000000000000000000e+00
2.150943517684936968e+00 -5.318426132202148438e+00 -7.044048309326171875e-01 1.100000000000000000e+01
2.910576581954956055e+00 -7.200311660766601562e+00 -6.794661879539489746e-01 0.000000000000000000e+00
1.015523433685302912e+01 -2.514772224426269887e+01 -1.421339869499206987e+00 1.300000000000000000e+01
1.003584265708922896e+00 -2.499014616012572798e+00 -7.215874791145324707e-01 1.100000000000000000e+01
1.168931603431702104e+00 -2.913684844970703125e+00 -7.247923016548156738e-01 9.000000000000000000e+00
1.404366970062256081e+00 -3.502300977706909180e+00 -7.334697842597961426e-01 1.100000000000000000e+01
1.750436425209044966e+00 -4.369766235351563388e+00 -7.455666661262512207e-01 1.100000000000000000e+01
2.124060869216918945e+00 -5.307844161987304688e+00 -7.019674181938171387e-01 9.000000000000000000e+00
2.897485017776488814e+00 -7.244229316711425781e+00 -6.826037764549255371e-01 0.000000000000000000e+00
1.005558490753174006e+01 -2.516622734069823863e+01 -1.420293211936950906e+00 1.300000000000000000e+01
9.905729889869689941e-01 -2.491731405258179155e+00 -7.184816598892211914e-01 1.100000000000000000e+01
1.161630868911742942e+00 -2.924991846084595171e+00 -7.265918850898742676e-01 9.000000000000000000e+00
1.383441329002379927e+00 -3.485284566879272017e+00 -7.288903594017028809e-01 1.100000000000000000e+01
1.739541292190551980e+00 -4.386867523193359375e+00 -7.474438548088073730e-01 1.100000000000000000e+01
2.108444452285767046e+00 -5.322608470916748047e+00 -7.029423713684082031e-01 9.000000000000000000e+00
3.227168798446654829e+00 -8.150897979736328125e+00 -7.669705152511596680e-01 1.000000000000000000e+00
9.967677116394042969e+00 -2.520117568969726918e+01 -1.420293211936950906e+00 1.300000000000000000e+01
9.808892011642456055e-01 -2.491407394409180132e+00 -7.174463868141174316e-01 1.100000000000000000e+01
1.153351426124572976e+00 -2.932455062866210938e+00 -7.274917364120483398e-01 9.000000000000000000e+00
1.376903891563415971e+00 -3.502643108367919922e+00 -7.315616607666015625e-01 1.000000000000000000e+01
1.723540306091309038e+00 -4.388934612274169922e+00 -7.468181252479553223e-01 1.100000000000000000e+01
2.095132112503052202e+00 -5.340658664703369141e+00 -7.044048309326171875e-01 1.100000000000000000e+01
2.919383764266968218e+00 -7.445563793182373047e+00 -6.996862888336181641e-01 0.000000000000000000e+00
9.847630500793457031e+00 -2.514110565185546875e+01 -1.415059566497802956e+00 1.200000000000000000e+01
9.777981042861938477e-01 -2.509216308593750000e+00 -7.215874791145324707e-01 1.100000000000000000e+01
1.143108248710632102e+00 -2.936463117599486861e+00 -7.274917364120483398e-01 9.000000000000000000e+00
1.363957166671752930e+00 -3.505598545074462891e+00 -7.311800718307495117e-01 1.000000000000000000e+01
1.706778287887573020e+00 -4.391242027282714844e+00 -7.461923956871032715e-01 1.100000000000000000e+01
2.085817575454711914e+00 -5.371995925903320312e+00 -7.075734138488769531e-01 1.100000000000000000e+01
9.787244796752929688e+00 -2.524609184265137074e+01 -1.419037103652954102e+00 1.300000000000000000e+01
9.662527441978454590e-01 -2.505404472351074219e+00 -7.195169329643249512e-01 1.100000000000000000e+01
1.130749344825745073e+00 -2.934979915618896040e+00 -7.261419892311096191e-01 1.000000000000000000e+01
1.354533910751342995e+00 -3.517666578292847124e+00 -7.327065467834472656e-01 1.000000000000000000e+01
1.690021157264709029e+00 -4.393485546112061435e+00 -7.455666661262512207e-01 1.100000000000000000e+01
2.080581903457642046e+00 -5.414451122283936435e+00 -7.122044563293457031e-01 1.300000000000000000e+01
2.827330589294434038e+00 -7.361607074737548828e+00 -6.899248361587524414e-01 0.000000000000000000e+00
9.671874046325683594e+00 -2.520924186706542969e+01 -1.415059566497802956e+00 1.200000000000000000e+01
9.616344571113586426e-01 -2.519591093063354048e+00 -7.226227521896362305e-01 1.200000000000000000e+01
1.120497465133666992e+00 -2.938909292221068892e+00 -7.261419892311096191e-01 1.100000000000000000e+01
1.342945814132689986e+00 -3.524208068847655806e+00 -7.330881357192993164e-01 1.000000000000000000e+01
1.676080346107482910e+00 -4.403050422668457031e+00 -7.461923956871032715e-01 1.100000000000000000e+01
2.077897310256958008e+00 -5.464356422424316406e+00 -7.178104519844055176e-01 1.600000000000000000e+01
3.111648797988892046e+00 -8.187169075012207031e+00 -7.662733197212219238e-01 1.000000000000000000e+00
9.569640159606933594e+00 -2.520550537109375000e+01 -1.412966132164001021e+00 1.200000000000000000e+01
9.494208693504333496e-01 -2.513896226882935014e+00 -7.200345993041992188e-01 1.300000000000000000e+01
1.111607670783997026e+00 -2.946449041366577148e+00 -7.270417809486389160e-01 1.100000000000000000e+01
1.327865123748779075e+00 -3.521526336669921875e+00 -7.315616607666015625e-01 1.100000000000000000e+01
1.662789463996886985e+00 -4.414419651031494141e+00 -7.471309900283813477e-01 9.000000000000000000e+00
2.081880331039429155e+00 -5.532887935638427734e+00 -7.258538007736206055e-01 1.300000000000000000e+01
2.794102907180786133e+00 -7.429652690887451172e+00 -6.944569349288940430e-01 0.000000000000000000e+00
9.467550277709960938e+00 -2.520136260986328125e+01 -1.410872697830199973e+00 1.200000000000000000e+01
9.392874836921691895e-01 -2.513575792312622070e+00 -7.189993262290954590e-01 1.400000000000000000e+01
1.102678894996643066e+00 -2.953962802886962891e+00 -7.279416322708129883e-01 1.000000000000000000e+01
1.316937088966370073e+00 -3.529818773269652876e+00 -7.323248982429504395e-01 1.100000000000000000e+01
1.644610762596129927e+00 -4.412793159484863281e+00 -7.458795309066772461e-01 9.000000000000000000e+00
2.083332061767578125e+00 -5.595931529998779297e+00 -7.331659793853759766e-01 1.300000000000000000e+01
3.044688940048218218e+00 -8.182550430297851562e+00 -7.638329267501831055e-01 1.000000000000000000e+00
9.354472160339355469e+00 -2.516686058044433949e+01 -1.407104492187500000e+00 1.200000000000000000e+01
9.309470057487487793e-01 -2.516676664352416992e+00 -7.189993262290954590e-01 1.200000000000000000e+01
1.091526269912719949e+00 -2.953947305679320845e+00 -7.270417809486389160e-01 1.100000000000000000e+01
1.305224657058716042e+00 -3.534166574478148970e+00 -7.323248982429504395e-01 1.000000000000000000e+01
1.634070634841918945e+00 -4.429342269897460938e+00 -7.477567195892333984e-01 9.000000000000000000e+00
2.083983659744263139e+00 -5.654963493347167969e+00 -7.399906516075134277e-01 1.500000000000000000e+01
2.820592164993286133e+00 -7.657895088195800781e+00 -7.139798402786254883e-01 0.000000000000000000e+00
9.254412651062011719e+00 -2.515275764465332031e+01 -1.404592394828795943e+00 1.200000000000000000e+01
9.254759550094604492e-01 -2.528981924057006836e+00 -7.215874791145324707e-01 1.300000000000000000e+01
1.079870223999022993e+00 -2.954078912734984907e+00 -7.261419892311096191e-01 1.100000000000000000e+01
1.298943638801574929e+00 -3.555297374725341797e+00 -7.357594966888427734e-01 1.100000000000000000e+01
1.617244958877563032e+00 -4.431307792663574219e+00 -7.471309900283813477e-01 9.000000000000000000e+00
2.082589387893677202e+00 -5.712558746337890625e+00 -7.465716004371643066e-01 1.600000000000000000e+01
2.784294605255126953e+00 -7.641486167907714844e+00 -7.115395069122314453e-01 0.000000000000000000e+00
9.118740081787109375e+00 -2.505353164672851918e+01 -1.397265315055846946e+00 1.200000000000000000e+01
9.181722998619079590e-01 -2.537806749343872070e+00 -7.231404185295104980e-01 1.300000000000000000e+01
1.073009848594665971e+00 -2.969013214111328125e+00 -7.288414239883422852e-01 1.000000000000000000e+01
1.283903241157531960e+00 -3.554494857788085938e+00 -7.346146106719970703e-01 1.100000000000000000e+01
1.600322008132935014e+00 -4.435347557067871094e+00 -7.468181252479553223e-01 8.000000000000000000e+00
2.082503318786621094e+00 -5.778046131134033203e+00 -7.541275024414062500e-01 1.600000000000000000e+01
2.823791027069091797e+00 -7.839087963104248047e+00 -7.289706468582153320e-01 2.000000000000000000e+00
9.017385482788085938e+00 -2.506047439575194957e+01 -1.395799994468688965e+00 1.200000000000000000e+01
9.054027199745178223e-01 -2.530082941055297852e+00 -7.200345993041992188e-01 1.200000000000000000e+01
1.062639594078063965e+00 -2.972740650177001953e+00 -7.288414239883422852e-01 1.100000000000000000e+01
1.267524838447571023e+00 -3.547862052917480025e+00 -7.323248982429504395e-01 1.000000000000000000e+01
1.586157917976378950e+00 -4.444627761840820312e+00 -7.474438548088073730e-01 8.000000000000000000e+00
2.084984302520751953e+00 -5.848854541778563565e+00 -7.624146342277526855e-01 1.800000000000000000e+01
8.937889099121093750e+00 -2.511437797546387074e+01 -1.397055983543395996e+00 1.200000000000000000e+01
8.952764868736267090e-01 -2.529585838317871094e+00 -7.189993262290954590e-01 1.400000000000000000e+01
1.053555369377136008e+00 -2.980106592178345171e+00 -7.297412157058715820e-01 1.000000000000000000e+01
1.256440877914428933e+00 -3.555967092514038086e+00 -7.330881357192993164e-01 1.000000000000000000e+01
1.573920845985413042e+00 -4.459451198577880859e+00 -7.490082383155822754e-01 9.000000000000000000e+00
2.086996078491210938e+00 -5.919750213623046875e+00 -7.707017064094543457e-01 1.600000000000000000e+01
2.821965217590332031e+00 -8.008942604064941406e+00 -7.429155707359313965e-01 1.000000000000000000e+00
8.847517013549804688e+00 -2.513788795471191051e+01 -1.396637320518494096e+00 1.200000000000000000e+01
8.877174854278564453e-01 -2.536342144012451172e+00 -7.200345993041992188e-01 1.200000000000000000e+01
1.041860103607177956e+00 -2.980086803436278853e+00 -7.288414239883422852e-01 1.000000000000000000e+01
1.244020581245421919e+00 -3.560331344604492188e+00 -7.330881357192993164e-01 1.000000000000000000e+01
1.558344841003417969e+00 -4.464918136596679688e+00 -7.490082383155822754e-01 9.000000000000000000e+00
2.092458963394165039e+00 -6.001976966857910156e+00 -7.804512977600097656e-01 1.200000000000000000e+01
2.850369691848754883e+00 -8.180549621582031250e+00 -7.579063177108764648e-01 3.000000000000000000e+00
8.704568862915039062e+00 -2.501017189025878906e+01 -1.387844920158386008e+00 1.200000000000000000e+01
8.830946087837219238e-01 -2.550225019454956055e+00 -7.231404185295104980e-01 1.300000000000000000e+01
1.027513027191162109e+00 -2.970633506774901900e+00 -7.256920933723449707e-01 9.000000000000000000e+00
1.236697316169738992e+00 -3.577425479888916016e+00 -7.357594966888427734e-01 1.100000000000000000e+01
1.542240619659424050e+00 -4.466326713562011719e+00 -7.483825087547302246e-01 9.000000000000000000e+00
2.084194898605347124e+00 -6.042661666870117188e+00 -7.848385572433471680e-01 1.200000000000000000e+01
2.820629119873046875e+00 -8.182421684265136719e+00 -7.572091221809387207e-01 3.000000000000000000e+00
8.615081787109375000e+00 -2.502001571655273082e+01 -1.386798143386841042e+00 1.200000000000000000e+01
8.741872906684875488e-01 -2.553292036056518999e+00 -7.231404185295104980e-01 1.300000000000000000e+01
1.020920753479003906e+00 -2.985265493392943892e+00 -7.283915281295776367e-01 9.000000000000000000e+00
1.225472092628479004e+00 -3.585436105728148970e+00 -7.365227341651916504e-01 9.000000000000000000e+00
1.529193758964539018e+00 -4.479160785675048828e+00 -7.496339678764343262e-01 9.000000000000000000e+00
1.379323387145995916e+01 -4.042482757568358664e+01 5.244525432586669922e+00 3.000000000000000000e+01
2.085514307022095171e+00 -6.115659713745117188e+00 -7.933694124221801758e-01 1.000000000000000000e+01
2.796549081802368164e+00 -8.205419540405273438e+00 -7.584292888641357422e-01 6.000000000000000000e+00
8.530267715454101562e+00 -2.505749702453612926e+01 -1.387216806411742942e+00 1.200000000000000000e+01
1.386042022705077947e+01 -4.076134872436522727e+01 -7.515006065368652344e-01 1.000000000000000000e+01
8.669548630714416504e-01 -2.559836387634276900e+00 -7.241756916046142578e-01 1.200000000000000000e+01
1.013513565063477007e+00 -2.996018648147583008e+00 -7.301911115646362305e-01 1.000000000000000000e+01
1.208545327186584029e+00 -3.574601650238037109e+00 -7.334697842597961426e-01 9.000000000000000000e+00
1.519388079643249956e+00 -4.499179363250732422e+00 -7.521368861198425293e-01 9.000000000000000000e+00
2.090601682662963867e+00 -6.197780609130859375e+00 -8.031189441680908203e-01 7.000000000000000000e+00
2.756593942642211914e+00 -8.176887512207031250e+00 -7.549430727958679199e-01 3.000000000000000000e+00
8.425457000732421875e+00 -2.502129173278808949e+01 -1.383658051490783913e+00 1.200000000000000000e+01
8.561741709709167480e-01 -2.557351350784302202e+00 -7.226227521896362305e-01 1.400000000000000000e+01
1.005521416664123979e+00 -3.006930589675902876e+00 -7.319907546043395996e-01 9.000000000000000000e+00
8.950462341308593750e+00 -2.678117752075194957e+01 1.479851484298706055e+00 1.400000000000000000e+01
1.201038718223571999e+00 -3.593694448471068892e+00 -7.365227341651916504e-01 1.000000000000000000e+01
1.506175756454467995e+00 -4.511950492858886719e+00 -7.533884048461914062e-01 9.000000000000000000e+00
1.336069488525390980e+01 -4.004701614379882812e+01 5.183590888977050781e+00 2.900000000000000000e+01
2.085280179977416992e+00 -6.254002571105957031e+00 -8.094561696052551270e-01 5.000000000000000000e+00
2.768347263336182085e+00 -8.307433128356933594e+00 -7.660989761352539062e-01 3.000000000000000000e+00
8.330495834350585938e+00 -2.502780914306640980e+01 -1.382401943206787109e+00 1.200000000000000000e+01
8.452600240707397461e-01 -2.552840709686278853e+00 -7.205522060394287109e-01 1.300000000000000000e+01
9.943207502365112305e-01 -3.006548166275023970e+00 -7.310909032821655273e-01 9.000000000000000000e+00
