-1.232634663581847922e+00 -3.701122283935546875e+00 -7.582749724388122559e-01 7.000000000000000000e+00
-1.550213575363158958e+00 -4.649274349212645596e+00 -7.762278318405151367e-01 9.000000000000000000e+00
-1.954836010932921919e+00 -5.855972290039063388e+00 -7.580273151397705078e-01 1.300000000000000000e+01
-1.461140537261963068e+01 -4.377041625976563211e+01 7.308618068695068359e+00 1.500000000000000000e+01
-8.329961776733398438e+00 -2.491007995605469105e+01 -1.376540303230286089e+00 1.200000000000000000e+01
-9.429966926574707031e+00 -2.816686248779296875e+01 -5.184760689735412598e-01 8.000000000000000000e+00
-1.242412209510803001e+00 -3.687494754791260210e+00 -7.563668489456176758e-01 8.000000000000000000e+00
-1.566433072090148926e+00 -4.643834590911865234e+00 -7.762278318405151367e-01 9.000000000000000000e+00
-1.961927413940429910e+00 -5.809617042541503906e+00 -7.529088258743286133e-01 1.100000000000000000e+01
-8.443744659423828125e+00 -2.496031188964844105e+01 -1.380936503410338911e+00 1.200000000000000000e+01
-9.497440338134765625e+00 -2.804286193847655895e+01 -5.168006420135498047e-01 4.000000000000000000e+00
-1.252725243568419966e+00 -3.679856300354003906e+00 -7.556036114692687988e-01 8.000000000000000000e+00
-1.581014394760132058e+00 -4.638890743255615234e+00 -7.762278318405151367e-01 1.000000000000000000e+01
-1.455375003814697088e+01 -4.267810058593750000e+01 5.536524295806884766e+00 3.800000000000000000e+01
-1.968630552291869895e+00 -5.769607543945313388e+00 -7.485215067863464355e-01 1.100000000000000000e+01
-8.525993347167968750e+00 -2.494500160217285156e+01 -1.381564617156981978e+00 1.200000000000000000e+01
-9.584197998046875000e+00 -2.800910186767578125e+01 -5.167308449745178223e-01 8.000000000000000000e+00
-1.263006091117859109e+00 -3.668035984039307085e+00 -7.540771365165710449e-01 8.000000000000000000e+00
-1.597197532653809038e+00 -4.633343696594238281e+00 -7.762278318405151367e-01 9.000000000000000000e+00
-1.470263576507568004e+01 -4.262703704833983664e+01 5.536524295806884766e+00 3.800000000000000000e+01
-1.978396773338318093e+00 -5.732676982879638672e+00 -7.446216940879821777e-01 9.000000000000000000e+00
-8.615626335144042969e+00 -2.492263984680176137e+01 -1.381983280181884988e+00 1.200000000000000000e+01
-9.696297645568847656e+00 -2.801704978942871094e+01 -5.174987316131591797e-01 8.000000000000000000e+00
-1.283547282218933105e+00 -3.683775424957274947e+00 -7.582749724388122559e-01 9.000000000000000000e+00
-1.611566424369812012e+00 -4.619997978210449219e+00 -7.749763131141662598e-01 9.000000000000000000e+00
-1.990232229232788086e+00 -5.699149608612061435e+00 -7.412093281745910645e-01 5.000000000000000000e+00
-2.506562471389770952e+00 -7.173669815063476562e+00 -6.648240089416503906e-01 1.000000000000000000e+00
-8.704276084899902344e+00 -2.488335227966308949e+01 -1.381564617156981978e+00 1.200000000000000000e+01
-9.809494972229003906e+00 -2.801152038574219105e+01 -5.180572271347045898e-01 4.000000000000000000e+00
-1.289221405982970969e+00 -3.658904075622559038e+00 -7.540771365165710449e-01 8.000000000000000000e+00
-1.630311846733093040e+00 -4.621796131134033203e+00 -7.762278318405151367e-01 1.000000000000000000e+01
-2.009452819824219194e+00 -5.690296173095703125e+00 -7.409656047821044922e-01 5.000000000000000000e+00
-1.602325439453125000e+01 -4.537407302856445312e+01 7.621487140655517578e+00 1.600000000000000000e+01
-2.523622751235961914e+00 -7.142333507537841797e+00 -6.627322435379028320e-01 6.000000000000000000e+00
-8.812396049499511719e+00 -2.491307067871094105e+01 -1.384914040565490945e+00 1.200000000000000000e+01
-1.100957989692687988e+00 -3.093557596206665039e+00 -7.580850720405578613e-01 1.000000000000000000e+00
-1.299371957778931108e+00 -3.649060249328612837e+00 -7.529323101043701172e-01 9.000000000000000000e+00
-1.648282527923583984e+00 -4.623806953430175781e+00 -7.774792909622192383e-01 9.000000000000000000e+00
-2.024308204650878906e+00 -5.672383785247802734e+00 -7.395032048225402832e-01 9.000000000000000000e+00
-2.527194023132324219e+00 -7.077634811401367188e+00 -6.575029492378234863e-01 7.000000000000000000e+00
-8.900340080261230469e+00 -2.489875793457030895e+01 -1.385751485824584961e+00 1.200000000000000000e+01
-9.599027633666992188e-01 -2.670619249343872070e+00 -7.604103684425354004e-01 1.000000000000000000e+00
-1.105151891708374023e+00 -3.071359157562255859e+00 -7.535860538482666016e-01 2.000000000000000000e+00
-1.317421913146973100e+00 -3.659280061721802202e+00 -7.559852600097656250e-01 9.000000000000000000e+00
-1.660393834114074929e+00 -4.606874942779541016e+00 -7.756021022796630859e-01 9.000000000000000000e+00
-2.035337686538695845e+00 -5.641008377075195312e+00 -7.363345623016357422e-01 1.100000000000000000e+01
-2.550531148910522017e+00 -7.065021991729736328e+00 -6.571543216705322266e-01 2.000000000000000000e+00
-8.988556861877441406e+00 -2.487129402160644887e+01 -1.385960817337035911e+00 1.200000000000000000e+01
-9.415082931518554688e-01 -2.590993165969849077e+00 -7.386695742607116699e-01 1.000000000000000000e+00
-1.107205748558043990e+00 -3.043675422668457031e+00 -7.477372884750366211e-01 5.000000000000000000e+00
-1.330858588218688965e+00 -3.656503915786743164e+00 -7.563668489456176758e-01 1.000000000000000000e+01
-1.676464676856995073e+00 -4.601051330566406250e+00 -7.756021022796630859e-01 9.000000000000000000e+00
-2.062498807907104048e+00 -5.654383182525634766e+00 -7.390156984329223633e-01 1.500000000000000000e+01
-2.571078777313231978e+00 -7.044846534729003906e+00 -6.561084389686584473e-01 1.000000000000000000e+00
-9.101364135742187500e+00 -2.491105461120605113e+01 -1.389938354492187944e+00 1.200000000000000000e+01
-9.485484957695007324e-01 -2.582250833511352983e+00 -7.371166348457336426e-01 4.000000000000000000e+00
-1.116478204727173074e+00 -3.036134004592895952e+00 -7.468374967575073242e-01 7.000000000000000000e+00
-1.345647811889647993e+00 -3.657363653182982954e+00 -7.575117349624633789e-01 9.000000000000000000e+00
-1.696611642837523970e+00 -4.606293201446533203e+00 -7.774792909622192383e-01 1.000000000000000000e+01
-2.078789949417113814e+00 -5.637836933135986328e+00 -7.377970218658447266e-01 1.600000000000000000e+01
-3.883826971054077148e+00 -1.052757358551025035e+01 -9.817222952842712402e-01 2.000000000000000000e+00
-9.181344985961914062e+00 -2.486039733886719105e+01 -1.388891577720642090e+00 1.200000000000000000e+01
-9.510571956634521484e-01 -2.562790632247924805e+00 -7.324578762054443359e-01 6.000000000000000000e+00
-1.125182986259460005e+00 -3.028761386871337891e+00 -7.459377050399780273e-01 9.000000000000000000e+00
-1.354348540306091087e+00 -3.643679857254027876e+00 -7.556036114692687988e-01 9.000000000000000000e+00
-1.710499525070189986e+00 -4.596938610076904297e+00 -7.768535614013671875e-01 9.000000000000000000e+00
-2.075993776321411133e+00 -5.573245048522949219e+00 -7.302411198616027832e-01 1.600000000000000000e+01
-2.632887601852416992e+00 -7.064521312713623047e+00 -6.595946550369262695e-01 1.000000000000000000e+00
-9.290264129638671875e+00 -2.490092086791991832e+01 -1.392869114875793013e+00 2.500000000000000000e+01
-9.654247760772705078e-01 -2.573925495147705078e+00 -7.365990281105041504e-01 9.000000000000000000e+00
-1.139858603477478027e+00 -3.035761594772338867e+00 -7.486370801925659180e-01 9.000000000000000000e+00
-1.364987850189208984e+00 -3.633416652679442915e+00 -7.544587850570678711e-01 9.000000000000000000e+00
-1.725144743919373003e+00 -4.587242126464843750e+00 -7.762278318405151367e-01 9.000000000000000000e+00
-1.615938949584960938e+01 -4.294583511352539062e+01 5.634019851684570312e+00 4.000000000000000000e+01
-2.086343050003052202e+00 -5.541813373565673828e+00 -7.270724773406982422e-01 1.600000000000000000e+01
-9.396859169006347656e+00 -2.492066764831542969e+01 -1.395799994468688965e+00 1.200000000000000000e+01
-9.702950119972229004e-01 -2.559701442718505859e+00 -7.334931492805480957e-01 1.100000000000000000e+01
-1.148374319076538086e+00 -3.026298522949219194e+00 -7.472873926162719727e-01 1.000000000000000000e+01
-1.378359317779541016e+00 -3.630465269088745117e+00 -7.548403739929199219e-01 1.000000000000000000e+01
-1.742550253868103027e+00 -4.584885120391845703e+00 -7.768535614013671875e-01 9.000000000000000000e+00
-2.113439559936522993e+00 -5.554905414581298828e+00 -7.297536134719848633e-01 1.800000000000000000e+01
-2.682142496109008789e+00 -7.045968532562255859e+00 -6.595946550369262695e-01 2.000000000000000000e+00
-9.489480972290039062e+00 -2.490264511108398082e+01 -1.396637320518494096e+00 1.200000000000000000e+01
-9.812973141670227051e-01 -2.561710834503173828e+00 -7.350460886955261230e-01 1.200000000000000000e+01
-1.160326480865478960e+00 -3.025910377502440962e+00 -7.481871843338012695e-01 1.000000000000000000e+01
-1.392430067062377930e+00 -3.629297733306885210e+00 -7.556036114692687988e-01 9.000000000000000000e+00
-1.757835626602173074e+00 -4.576930522918701172e+00 -7.765406966209411621e-01 1.000000000000000000e+01
-2.113583087921143022e+00 -5.497467041015625000e+00 -7.231726646423339844e-01 2.200000000000000000e+01
-3.942771673202515093e+00 -1.024987697601318004e+01 -9.608048796653747559e-01 2.000000000000000000e+00
-9.566301345825195312e+00 -2.484327507019042969e+01 -1.395171880722045898e+00 1.200000000000000000e+01
-9.944174289703369141e-01 -2.569079637527465820e+00 -7.381519079208374023e-01 1.300000000000000000e+01
-1.165249228477478027e+00 -3.007304906845093218e+00 -7.445880174636840820e-01 1.200000000000000000e+01
-1.405090212821960005e+00 -3.624415159225463867e+00 -7.556036114692687988e-01 9.000000000000000000e+00
-1.773086786270142046e+00 -4.568925380706787109e+00 -7.762278318405151367e-01 9.000000000000000000e+00
-1.664414787292480113e+01 -4.286678695678710938e+01 5.646206855773925781e+00 4.100000000000000000e+01
-2.114070415496826172e+00 -5.441946029663085938e+00 -7.168354988098144531e-01 1.500000000000000000e+01
-3.982856988906859907e+00 -1.024719429016112926e+01 -9.618507623672485352e-01 2.000000000000000000e+00
-9.663101196289062500e+00 -2.483579063415526988e+01 -1.396637320518494096e+00 1.200000000000000000e+01
-1.002675533294677956e+00 -2.563793659210205078e+00 -7.376343011856079102e-01 1.200000000000000000e+01
-1.180712461471558061e+00 -3.015921592712401900e+00 -7.477372884750366211e-01 1.300000000000000000e+01
-1.419165372848510964e+00 -3.623144388198852983e+00 -7.563668489456176758e-01 8.000000000000000000e+00
-1.792629957199096902e+00 -4.571903228759765625e+00 -7.777921557426452637e-01 1.000000000000000000e+01
-2.133053541183472124e+00 -5.434533596038818359e+00 -7.168354988098144531e-01 1.500000000000000000e+01
-3.992384433746337891e+00 -1.016646671295166016e+01 -9.555755853652954102e-01 2.000000000000000000e+00
-9.762887954711914062e+00 -2.483536720275878906e+01 -1.398521423339843972e+00 1.200000000000000000e+01
-1.008779048919677956e+00 -2.553091287612915039e+00 -7.355637550354003906e-01 1.100000000000000000e+01
-1.189082622528075950e+00 -3.006345272064208984e+00 -7.463876008987426758e-01 1.200000000000000000e+01
-1.427469372749329057e+00 -3.607215404510498047e+00 -7.540771365165710449e-01 8.000000000000000000e+00
-1.812942981719970925e+00 -4.576637268066406250e+00 -7.796693444252014160e-01 1.000000000000000000e+01
-1.697957801818848012e+01 -4.284181976318358664e+01 5.658393383026123047e+00 4.100000000000000000e+01
-2.161523103713988814e+00 -5.451043605804443359e+00 -7.200040817260742188e-01 1.300000000000000000e+01
-4.027847766876220703e+00 -1.015246868133544922e+01 -9.555755853652954102e-01 2.000000000000000000e+00
-9.907020568847656250e+00 -2.494592285156250000e+01 -1.406685829162598100e+00 1.200000000000000000e+01
-1.016252517700195090e+00 -2.545965909957886186e+00 -7.345284223556518555e-01 1.100000000000000000e+01
-1.203907847404479980e+00 -3.013034105300902876e+00 -7.490870356559753418e-01 1.100000000000000000e+01
-1.439323425292968972e+00 -3.600387573242187944e+00 -7.536955475807189941e-01 9.000000000000000000e+00
-1.825971722602844016e+00 -4.562945365905761719e+00 -7.784178853034973145e-01 1.000000000000000000e+01
-2.185704708099364790e+00 -5.456364631652832031e+00 -7.217102646827697754e-01 1.500000000000000000e+01
-2.706864833831787109e+00 -6.753966331481933594e+00 -6.365855336189270020e-01 2.000000000000000000e+00
-1.001634693145751953e+01 -2.496679878234862926e+01 -1.409826040267943892e+00 1.200000000000000000e+01
-1.026299953460692915e+00 -2.544015645980834961e+00 -7.350460886955261230e-01 1.100000000000000000e+01
-1.213483691215514915e+00 -3.004987478256226030e+00 -7.481871843338012695e-01 1.200000000000000000e+01
-1.455451607704163042e+00 -3.602369308471680132e+00 -7.552220225334167480e-01 9.000000000000000000e+00
-1.839720964431762917e+00 -4.548896789550781250e+00 -7.771664261817932129e-01 1.000000000000000000e+01
-2.207178592681885210e+00 -5.451996803283691406e+00 -7.221977114677429199e-01 1.500000000000000000e+01
-4.062994956970214844e+00 -1.003105258941650035e+01 -9.468600153923034668e-01 2.000000000000000000e+00
-1.012729930877686080e+01 -2.497804260253905895e+01 -1.412547469139098899e+00 1.200000000000000000e+01
-1.036631941795348899e+00 -2.543995857238769975e+00 -7.360813617706298828e-01 1.000000000000000000e+01
-1.223229646682739036e+00 -2.998928785324097124e+00 -7.477372884750366211e-01 1.200000000000000000e+01
-1.468759179115294966e+00 -3.599084615707397017e+00 -7.556036114692687988e-01 8.000000000000000000e+00
-1.860070466995239036e+00 -4.553419589996337891e+00 -7.790436148643493652e-01 1.000000000000000000e+01
-2.230704069137572798e+00 -5.455283641815186435e+00 -7.236601710319519043e-01 1.800000000000000000e+01
-4.135705947875976562e+00 -1.010901165008544922e+01 -9.555755853652954102e-01 2.000000000000000000e+00
-1.023259353637694957e+01 -2.498689842224121094e+01 -1.415059566497802956e+00 1.200000000000000000e+01
-1.049471974372863992e+00 -2.551263809204102007e+00 -7.391871809959411621e-01 1.100000000000000000e+01
-1.229457855224608931e+00 -2.985846281051636186e+00 -7.454878091812133789e-01 1.200000000000000000e+01
-1.482181787490844949e+00 -3.597824573516846147e+00 -7.563668489456176758e-01 8.000000000000000000e+00
-1.872147679328918013e+00 -4.539921283721923828e+00 -7.777921557426452637e-01 1.000000000000000000e+01
-2.232876300811768022e+00 -5.409323215484619141e+00 -7.185416221618652344e-01 1.800000000000000000e+01
-4.149432182312011719e+00 -1.004736137390137074e+01 -9.510434865951538086e-01 2.000000000000000000e+00
-1.033676147460938033e+01 -2.500450897216796875e+01 -1.417990446090698020e+00 1.200000000000000000e+01
-1.056147694587707964e+00 -2.542232751846313032e+00 -7.376343011856079102e-01 1.100000000000000000e+01
-1.241369366645812988e+00 -2.985135078430175781e+00 -7.463876008987426758e-01 1.100000000000000000e+01
-1.490206599235534890e+00 -3.581753253936768022e+00 -7.540771365165710449e-01 8.000000000000000000e+00
-1.894059062004088911e+00 -4.547947406768798828e+00 -7.802951335906982422e-01 1.000000000000000000e+01
-2.253272533416748047e+00 -5.405160427093505859e+00 -7.190291285514831543e-01 1.800000000000000000e+01
-4.155334472656250000e+00 -9.962939262390136719e+00 -9.444196224212646484e-01 2.000000000000000000e+00
-1.043475341796875000e+01 -2.499407768249512074e+01 -1.419455766677856001e+00 1.300000000000000000e+01
-1.059783577919005904e+00 -2.526060819625854048e+00 -7.340108156204223633e-01 1.200000000000000000e+01
-1.255554676055907981e+00 -2.989767313003540039e+00 -7.486370801925659180e-01 1.200000000000000000e+01
-1.501939654350280984e+00 -3.574719667434691939e+00 -7.536955475807189941e-01 9.000000000000000000e+00
-1.912220239639282005e+00 -4.546770572662354404e+00 -7.812337279319763184e-01 1.200000000000000000e+01
-2.273666620254517046e+00 -5.400921344757080078e+00 -7.195165753364562988e-01 1.800000000000000000e+01
-4.162245273590087891e+00 -9.882271766662597656e+00 -9.381443858146667480e-01 2.000000000000000000e+00
-1.055141925811767933e+01 -2.502743721008301137e+01 -1.423433303833008035e+00 1.300000000000000000e+01
-1.070855498313904031e+00 -2.527682304382324219e+00 -7.355637550354003906e-01 1.300000000000000000e+01
-1.265222430229187012e+00 -2.983572483062744141e+00 -7.481871843338012695e-01 1.100000000000000000e+01
-1.519776105880737083e+00 -3.582106351852416992e+00 -7.563668489456176758e-01 8.000000000000000000e+00
-1.918041706085205078e+00 -4.516431331634520596e+00 -7.771664261817932129e-01 1.600000000000000000e+01
-2.304154396057128906e+00 -5.420355319976806641e+00 -7.231726646423339844e-01 1.800000000000000000e+01
-4.196715354919433594e+00 -9.867682456970214844e+00 -9.381443858146667480e-01 2.000000000000000000e+00
-1.065436363220215021e+01 -2.502720642089844105e+01 -1.425526738166809082e+00 1.300000000000000000e+01
-1.081510186195373979e+00 -2.529446363449097124e+00 -7.371166348457336426e-01 1.200000000000000000e+01
-1.266675114631653054e+00 -2.959653139114379883e+00 -7.432382702827453613e-01 1.200000000000000000e+01
-1.530100941658020020e+00 -3.573437213897705078e+00 -7.556036114692687988e-01 9.000000000000000000e+00
-1.932229995727539062e+00 -4.508230209350585938e+00 -7.768535614013671875e-01 1.200000000000000000e+01
-2.301767587661743164e+00 -5.365252971649169922e+00 -7.168354988098144531e-01 2.800000000000000000e+01
-4.213697910308837891e+00 -9.817093849182128906e+00 -9.346581697463989258e-01 2.000000000000000000e+00
-1.073729801177979049e+01 -2.499173736572265980e+01 -1.425526738166809082e+00 1.300000000000000000e+01
-1.091864347457885964e+00 -2.529202938079833984e+00 -7.381519079208374023e-01 1.200000000000000000e+01
-1.282409429550170898e+00 -2.967735767364501953e+00 -7.463876008987426758e-01 1.200000000000000000e+01
-1.537890791893004927e+00 -3.557262182235718218e+00 -7.533138990402221680e-01 8.000000000000000000e+00
-1.948739409446716087e+00 -4.503271102905273438e+00 -7.771664261817932129e-01 1.800000000000000000e+01
-2.310224533081055132e+00 -5.333505153656005859e+00 -7.136668562889099121e-01 3.000000000000000000e+01
-4.192483901977539062e+00 -9.674358367919921875e+00 -9.224563837051391602e-01 2.000000000000000000e+00
-1.084354496002197088e+01 -2.499808120727539062e+01 -1.428038954734802024e+00 1.300000000000000000e+01
-1.100686311721801980e+00 -2.525376319885253906e+00 -7.381519079208374023e-01 1.200000000000000000e+01
-1.291981697082519975e+00 -2.961455106735229048e+00 -7.459377050399780273e-01 1.200000000000000000e+01
-1.548727869987488015e+00 -3.548273563385010210e+00 -7.525506615638732910e-01 8.000000000000000000e+00
-1.960492730140686035e+00 -4.487390518188476562e+00 -7.756021022796630859e-01 2.100000000000000000e+01
-2.327237129211425781e+00 -5.321771144866943359e+00 -7.131794095039367676e-01 2.800000000000000000e+01
-4.210256099700927734e+00 -9.623158454895019531e+00 -9.189701676368713379e-01 2.000000000000000000e+00
-1.092753410339354936e+01 -2.495275878906250000e+01 -1.427620172500609907e+00 1.300000000000000000e+01
-1.104826569557189941e+00 -2.510909318923950195e+00 -7.350460886955261230e-01 1.300000000000000000e+01
-1.303096771240233931e+00 -2.958710670471190962e+00 -7.463876008987426758e-01 1.200000000000000000e+01
-1.565853953361511008e+00 -3.553625345230102983e+00 -7.548403739929199219e-01 9.000000000000000000e+00
-1.972956061363219993e+00 -4.473290443420410156e+00 -7.743505835533142090e-01 2.400000000000000000e+01
-2.353816509246826172e+00 -5.331775188446044922e+00 -7.156167626380920410e-01 2.800000000000000000e+01
-4.251871585845947266e+00 -9.626627922058105469e+00 -9.207132458686828613e-01 2.000000000000000000e+00
-1.101779937744140980e+01 -2.492177009582519887e+01 -1.428038954734802024e+00 1.300000000000000000e+01
-1.114368677139282005e+00 -2.508802890777587891e+00 -7.355637550354003906e-01 1.300000000000000000e+01
-1.314208388328552024e+00 -2.955924510955810991e+00 -7.468374967575073242e-01 1.300000000000000000e+01
-1.578248977661133035e+00 -3.548137903213500977e+00 -7.548403739929199219e-01 9.000000000000000000e+00
-1.988558769226073997e+00 -4.466376304626464844e+00 -7.743505835533142090e-01 1.900000000000000000e+01
-2.374837636947631836e+00 -5.328965663909912109e+00 -7.163479924201965332e-01 2.000000000000000000e+01
-4.316279411315917969e+00 -9.680876731872558594e+00 -9.273371100425720215e-01 2.000000000000000000e+00
-1.126280784606934038e+00 -2.511948823928833008e+00 -7.376343011856079102e-01 1.300000000000000000e+01
-1.318933129310607910e+00 -2.938873767852783203e+00 -7.436881661415100098e-01 1.100000000000000000e+01
-1.591428756713866965e+00 -3.544398069381713867e+00 -7.552220225334167480e-01 9.000000000000000000e+00
-2.004946947097777876e+00 -4.461209297180175781e+00 -7.746634483337402344e-01 1.600000000000000000e+01
-2.378766059875487837e+00 -5.288056850433349609e+00 -7.119607329368591309e-01 1.500000000000000000e+01
-4.299349308013916016e+00 -9.553105354309082031e+00 -9.165297746658325195e-01 2.000000000000000000e+00
-1.002339172363281072e+01 -2.225110435485839844e+01 -1.278986096382140891e+00 1.000000000000000000e+01
-1.138228297233581987e+00 -2.515042066574097124e+00 -7.397048473358154297e-01 1.300000000000000000e+01
-1.334008336067199929e+00 -2.944902658462523970e+00 -7.463876008987426758e-01 1.100000000000000000e+01
-1.604601740837096946e+00 -3.540609598159790039e+00 -7.556036114692687988e-01 9.000000000000000000e+00
-2.018059253692626953e+00 -4.448786735534667969e+00 -7.737248539924621582e-01 1.500000000000000000e+01
-2.406237840652465820e+00 -5.299603939056395596e+00 -7.146418094635009766e-01 1.800000000000000000e+01
-4.316189765930175781e+00 -9.501759529113769531e+00 -9.130435585975646973e-01 2.000000000000000000e+00
-1.144592523574829102e+00 -2.505782127380371094e+00 -7.381519079208374023e-01 1.300000000000000000e+01
-1.344279766082763894e+00 -2.940228223800659180e+00 -7.463876008987426758e-01 1.100000000000000000e+01
-1.614501118659972922e+00 -3.529630899429320845e+00 -7.544587850570678711e-01 1.000000000000000000e+01
-2.039332151412963867e+00 -4.454288005828857422e+00 -7.759149670600891113e-01 1.300000000000000000e+01
-2.408182621002196822e+00 -5.255079746246337891e+00 -7.097670435905456543e-01 1.600000000000000000e+01
-4.302831649780273438e+00 -9.385212898254394531e+00 -9.032821059226989746e-01 2.000000000000000000e+00
-1.149288415908813032e+00 -2.492999315261840820e+00 -7.355637550354003906e-01 1.400000000000000000e+01
-1.354534864425658958e+00 -2.935517787933350053e+00 -7.463876008987426758e-01 1.100000000000000000e+01
-1.628457665443419966e+00 -3.527538776397705078e+00 -7.552220225334167480e-01 1.000000000000000000e+01
-2.053210973739624023e+00 -4.443555831909179688e+00 -7.752892374992370605e-01 1.600000000000000000e+01
-1.376142501831055043e+01 -2.976880645751953125e+01 4.026806831359863281e+00 1.600000000000000000e+01
-2.425678253173828125e+00 -5.244839668273925781e+00 -7.095233201980590820e-01 1.800000000000000000e+01
-4.064488410949707031e+00 -8.784276008605957031e+00 -8.468052148818969727e-01 1.000000000000000000e+00
-1.155538916587830034e+00 -2.483717679977416992e+00 -7.340108156204223633e-01 1.200000000000000000e+01
-1.364773511886596902e+00 -2.930771589279174805e+00 -7.463876008987426758e-01 1.100000000000000000e+01
-1.639103055000304954e+00 -3.518273591995238814e+00 -7.544587850570678711e-01 1.000000000000000000e+01
-2.068709373474121094e+00 -4.436361789703369141e+00 -7.752892374992370605e-01 2.200000000000000000e+01
-2.442292213439940962e+00 -5.232743263244628906e+00 -7.090358138084411621e-01 1.800000000000000000e+01
-4.368247032165527344e+00 -9.354945182800292969e+00 -9.032821059226989746e-01 2.000000000000000000e+00
-1.169948816299438032e+00 -2.491909980773925781e+00 -7.376343011856079102e-01 1.400000000000000000e+01
-1.371680259704590066e+00 -2.918935060501099077e+00 -7.445880174636840820e-01 1.100000000000000000e+01
-1.652209401130676047e+00 -3.514307260513306108e+00 -7.548403739929199219e-01 9.000000000000000000e+00
-2.091752290725708008e+00 -4.445199966430664062e+00 -7.781050205230712891e-01 1.500000000000000000e+01
-2.459697246551514116e+00 -5.222390174865722656e+00 -7.087920904159545898e-01 1.800000000000000000e+01
-4.358412265777587891e+00 -9.249524116516113281e+00 -8.945665359497070312e-01 2.000000000000000000e+00
-1.176985859870911089e+00 -2.484319210052489790e+00 -7.365990281105041504e-01 1.300000000000000000e+01
-1.377686142921447976e+00 -2.905325174331665039e+00 -7.423384785652160645e-01 1.300000000000000000e+01
-1.664466500282288042e+00 -3.508518695831298828e+00 -7.548403739929199219e-01 9.000000000000000000e+00
-2.104714155197143999e+00 -4.432518005371093750e+00 -7.771664261817932129e-01 1.600000000000000000e+01
-1.409625244140625000e+01 -2.967327308654785156e+01 4.033631324768066406e+00 1.600000000000000000e+01
-2.450644493103026900e+00 -5.156399250030517578e+00 -7.009924650192260742e-01 2.200000000000000000e+01
-4.390672683715820312e+00 -9.234253883361816406e+00 -8.945665359497070312e-01 2.000000000000000000e+00
-1.186483740806580034e+00 -2.481938600540161133e+00 -7.371166348457336426e-01 1.400000000000000000e+01
-1.392024636268615945e+00 -2.909287929534912109e+00 -7.445880174636840820e-01 1.200000000000000000e+01
-1.419700622558593928e+01 -2.965800094604491832e+01 1.723213672637939009e+00 1.700000000000000000e+01
-1.673312664031981978e+00 -3.495603799819945845e+00 -7.533138990402221680e-01 1.000000000000000000e+01
-2.125294923782349077e+00 -4.435832977294921875e+00 -7.790436148643493652e-01 1.300000000000000000e+01
-1.411050987243651988e+01 -2.943771934509276988e+01 4.008282661437988281e+00 1.600000000000000000e+01
-2.471203804016112837e+00 -5.153183460235595703e+00 -7.017236948013305664e-01 1.600000000000000000e+01
-1.194300889968872070e+00 -2.476041793823242188e+00 -7.365990281105041504e-01 1.500000000000000000e+01
-1.406407713890075906e+00 -2.913185834884643999e+00 -7.468374967575073242e-01 1.300000000000000000e+01
-1.688919901847838911e+00 -3.496813058853148970e+00 -7.548403739929199219e-01 1.100000000000000000e+01
-2.139046430587768999e+00 -4.424829959869384766e+00 -7.784178853034973145e-01 1.300000000000000000e+01
-1.414922332763672053e+01 -2.925604248046875000e+01 3.990246057510375977e+00 1.600000000000000000e+01
-2.512521028518677202e+00 -5.192772388458251953e+00 -7.083046436309814453e-01 1.800000000000000000e+01
-2.937613010406494141e+00 -6.068633079528808594e+00 -5.898700952529907227e-01 1.000000000000000000e+00
-1.213164615631104049e+01 -2.503972625732421875e+01 -1.458184361457824929e+00 1.300000000000000000e+01
-1.204627275466918945e+00 -2.475332021713256836e+00 -7.376343011856079102e-01 1.500000000000000000e+01
-1.411447882652282937e+00 -2.897747039794921875e+00 -7.441380620002746582e-01 1.200000000000000000e+01
-1.702835798263550027e+00 -3.494426012039185014e+00 -7.556036114692687988e-01 1.200000000000000000e+01
-2.151881217956542969e+00 -4.412010192871093750e+00 -7.774792909622192383e-01 1.200000000000000000e+01
-1.424603652954101918e+01 -2.919577026367187855e+01 3.988783597946166992e+00 1.600000000000000000e+01
-2.509731769561768022e+00 -5.141157150268554688e+00 -7.024549245834350586e-01 2.200000000000000000e+01
-1.439889144897460938e+01 -2.949596595764160156e+01 5.198630332946777344e+00 1.300000000000000000e+01
-4.466146945953369141e+00 -9.144802093505859375e+00 -8.903830647468566895e-01 1.000000000000000000e+00
-1.217862987518311080e+01 -2.491468620300292969e+01 -1.453369498252869096e+00 1.300000000000000000e+01
-1.213260412216186968e+00 -2.471112012863159180e+00 -7.376343011856079102e-01 1.400000000000000000e+01
-1.422413825988769975e+00 -2.894551277160644975e+00 -7.445880174636840820e-01 1.200000000000000000e+01
-1.455085849761963068e+01 -2.959732437133789062e+01 1.728447318077086958e+00 1.700000000000000000e+01
-1.711558580398560014e+00 -3.481413364410399947e+00 -7.540771365165710449e-01 1.200000000000000000e+01
-2.164652347564696822e+00 -4.399154663085938388e+00 -7.765406966209411621e-01 1.300000000000000000e+01
-1.391650581359862926e+01 -2.826961708068848012e+01 3.868864059448242188e+00 1.600000000000000000e+01
-2.546957731246947798e+00 -5.171543598175048828e+00 -7.078171372413635254e-01 1.600000000000000000e+01
-1.440226936340332031e+01 -2.924350357055664062e+01 5.162962913513183594e+00 1.300000000000000000e+01
-4.475145816802979404e+00 -9.082688331604003906e+00 -8.858509659767150879e-01 1.000000000000000000e+00
-1.223902320861816051e+01 -2.481828498840332031e+01 -1.450229406356811968e+00 1.300000000000000000e+01
-1.448857402801514027e+01 -2.935408592224121094e+01 -5.713917613029479980e-01 5.000000000000000000e+00
-1.222736358642577903e+00 -2.468593120574951172e+00 -7.381519079208374023e-01 1.200000000000000000e+01
-1.456218910217284979e+01 -2.938683509826660156e+01 5.724738240242004395e-01 2.400000000000000000e+01
-1.427315592765808105e+00 -2.879092931747436968e+00 -7.418885827064514160e-01 1.100000000000000000e+01
-1.724572777748107910e+00 -3.477176427841186968e+00 -7.544587850570678711e-01 1.200000000000000000e+01
-2.185265064239501953e+00 -4.402187824249267578e+00 -7.784178853034973145e-01 1.300000000000000000e+01
-1.454310512542724965e+01 -2.928406143188476918e+01 4.014619827270507812e+00 1.600000000000000000e+01
-2.555278301239014116e+00 -5.143066406250000000e+00 -7.051360011100769043e-01 2.000000000000000000e+01
-1.445132446289063033e+01 -2.907377243041991832e+01 5.142313957214354581e+00 1.200000000000000000e+01
-4.506823062896729404e+00 -9.067011833190917969e+00 -8.858509659767150879e-01 1.000000000000000000e+00
-1.233269786834716975e+01 -2.478971672058105113e+01 -1.451066732406615989e+00 1.300000000000000000e+01
-1.227891802787780984e+00 -2.457397460937500000e+00 -7.360813617706298828e-01 1.200000000000000000e+01
-1.442586779594420943e+00 -2.884550571441649947e+00 -7.445880174636840820e-01 1.200000000000000000e+01
-1.448903083801270064e+01 -2.895916938781737926e+01 1.697045683860779031e+00 1.700000000000000000e+01
-1.732307672500609907e+00 -3.462356567382812944e+00 -7.525506615638732910e-01 1.200000000000000000e+01
-1.427860164642333984e+01 -2.852614402770996094e+01 2.790901184082030806e+00 3.200000000000000000e+01
-2.200618267059326172e+00 -4.394533157348632812e+00 -7.784178853034973145e-01 1.300000000000000000e+01
-1.398015117645264027e+01 -2.790555000305176137e+01 3.832303285598754883e+00 1.500000000000000000e+01
-2.575883865356444868e+00 -5.139439582824707031e+00 -7.058672308921813965e-01 2.800000000000000000e+01
-4.538444995880126953e+00 -9.051225662231445312e+00 -8.858509659767150879e-01 1.000000000000000000e+00
-1.246932220458984020e+01 -2.484648132324219105e+01 -1.456928372383117898e+00 1.300000000000000000e+01
-1.234723210334778054e+00 -2.449645996093750000e+00 -7.350460886955261230e-01 1.200000000000000000e+01
-1.453524708747863992e+00 -2.881237268447875977e+00 -7.450379133224487305e-01 1.200000000000000000e+01
-1.456303215026854936e+01 -2.885492515563964844e+01 1.693905591964721902e+00 1.700000000000000000e+01
-1.747921347618103027e+00 -3.463299512863159180e+00 -7.540771365165710449e-01 1.100000000000000000e+01
-1.442299079895020064e+01 -2.856505584716796875e+01 2.799616813659667969e+00 3.200000000000000000e+01
-2.215054035186768022e+00 -4.385061740875244141e+00 -7.781050205230712891e-01 1.200000000000000000e+01
-1.415626430511474965e+01 -2.801249122619628906e+01 3.853752374649047852e+00 1.600000000000000000e+01
-2.596495151519774947e+00 -5.135731220245361328e+00 -7.065984606742858887e-01 2.400000000000000000e+01
-1.480551242828368963e+01 -2.927183914184569957e+01 5.195501327514648438e+00 1.300000000000000000e+01
-4.552027225494384766e+00 -8.999770164489746094e+00 -8.823647499084472656e-01 1.000000000000000000e+00
-1.256319332122802912e+01 -2.481705856323241832e+01 -1.457765698432921919e+00 1.300000000000000000e+01
-1.246768712997436968e+00 -2.452209472656250000e+00 -7.371166348457336426e-01 1.300000000000000000e+01
-1.464457035064697044e+00 -2.877882957458496094e+00 -7.454878091812133789e-01 1.200000000000000000e+01
-1.762671828269958052e+00 -3.462425708770751953e+00 -7.552220225334167480e-01 1.000000000000000000e+01
-2.223172664642333984e+00 -4.363222122192382812e+00 -7.756021022796630859e-01 1.300000000000000000e+01
-1.426477813720702947e+01 -2.798412895202637074e+01 3.856677293777465820e+00 1.600000000000000000e+01
-2.627933740615845171e+00 -5.153162956237792969e+00 -7.102545499801635742e-01 2.200000000000000000e+01
-1.489682674407958984e+01 -2.919886398315430043e+01 5.191747188568115234e+00 1.300000000000000000e+01
-4.583414554595947266e+00 -8.983825683593750000e+00 -8.823647499084472656e-01 1.000000000000000000e+00
-1.266972732543944957e+01 -2.481218719482421875e+01 -1.460068464279175027e+00 1.300000000000000000e+01
-1.257965564727782981e+00 -2.452999353408813032e+00 -7.386695742607116699e-01 1.400000000000000000e+01
-1.468264698982238992e+00 -2.860617399215697798e+00 -7.423384785652160645e-01 1.300000000000000000e+01
-1.481017494201659979e+01 -2.885463523864746094e+01 1.699767231941222922e+00 1.700000000000000000e+01
-1.775644063949584961e+00 -3.457998275756835938e+00 -7.556036114692687988e-01 9.000000000000000000e+00
-2.239292621612548828e+00 -4.357192039489746094e+00 -7.759149670600891113e-01 1.300000000000000000e+01
-2.651353597640991211e+00 -5.154549598693847656e+00 -7.117169499397277832e-01 2.600000000000000000e+01
-1.483816051483153942e+01 -2.884716606140137074e+01 5.137933731079101562e+00 1.200000000000000000e+01
-4.596512794494628906e+00 -8.932339668273925781e+00 -8.788785338401794434e-01 1.000000000000000000e+00
-1.279832744598389027e+01 -2.484948730468750000e+01 -1.464883446693419966e+00 1.300000000000000000e+01
-1.270070672035217063e+00 -2.455456972122191939e+00 -7.407401204109191895e-01 1.400000000000000000e+01
-1.484512567520142046e+00 -2.867588996887207031e+00 -7.454878091812133789e-01 1.100000000000000000e+01
-1.784092426300049050e+00 -3.444805622100830078e+00 -7.540771365165710449e-01 9.000000000000000000e+00
-2.258124828338623047e+00 -4.356364250183104581e+00 -7.771664261817932129e-01 1.300000000000000000e+01
-2.669330120086669922e+00 -5.145263195037841797e+00 -7.117169499397277832e-01 1.800000000000000000e+01
-1.499657058715819957e+01 -2.889427757263183949e+01 5.156079769134520596e+00 1.300000000000000000e+01
-4.664377689361572266e+00 -8.986976623535156250e+00 -8.858509659767150879e-01 1.000000000000000000e+00
-1.286105251312256037e+01 -2.475857925415039062e+01 -1.462161898612976074e+00 1.300000000000000000e+01
-1.270167231559752974e+00 -2.435815095901488814e+00 -7.360813617706298828e-01 1.200000000000000000e+01
-1.492210388183593972e+00 -2.859195232391356978e+00 -7.445880174636840820e-01 1.300000000000000000e+01
-1.793688654899596946e+00 -3.435389757156372070e+00 -7.533138990402221680e-01 9.000000000000000000e+00
-2.277132987976074219e+00 -4.357605934143066406e+00 -7.787307500839233398e-01 1.900000000000000000e+01
-1.515549564361572088e+01 -2.898978996276855113e+01 4.016569614410400391e+00 1.600000000000000000e+01
-2.657858133316040039e+00 -5.081853389739990234e+00 -7.041610479354858398e-01 2.000000000000000000e+01
-1.526264286041259943e+01 -2.916993904113769887e+01 5.214273452758789062e+00 1.300000000000000000e+01
-4.694153785705566406e+00 -8.971459388732910156e+00 -8.858509659767150879e-01 1.000000000000000000e+00
-1.299867725372313920e+01 -2.482195472717285156e+01 -1.468442201614380105e+00 1.300000000000000000e+01
-1.280460476875304954e+00 -2.434786319732666016e+00 -7.371166348457336426e-01 1.300000000000000000e+01
-1.506720066070557085e+00 -2.862591266632080078e+00 -7.468374967575073242e-01 1.300000000000000000e+01
-1.516791057586669922e+01 -2.881724929809569957e+01 1.706675529479980025e+00 1.700000000000000000e+01
-1.806584239006042036e+00 -3.430844783782958984e+00 -7.536955475807189941e-01 1.000000000000000000e+01
-2.293250799179077148e+00 -4.351377964019775391e+00 -7.790436148643493652e-01 1.600000000000000000e+01
-1.516216278076172053e+01 -2.875760078430176137e+01 3.991708517074584961e+00 1.600000000000000000e+01
-2.650575399398804155e+00 -5.025137424468994141e+00 -6.975800991058349609e-01 2.800000000000000000e+01
-1.531827735900879084e+01 -2.902913093566894887e+01 5.198630332946777344e+00 1.300000000000000000e+01
-4.691967487335205078e+00 -8.891583442687988281e+00 -8.795757293701171875e-01 1.000000000000000000e+00
-1.309083938598632990e+01 -2.478702545166015980e+01 -1.469070315361022949e+00 1.300000000000000000e+01
-1.294382691383362038e+00 -2.440541744232178178e+00 -7.402224540710449219e-01 1.400000000000000000e+01
-1.514875888824462891e+00 -2.853871822357178178e+00 -7.459377050399780273e-01 1.200000000000000000e+01
-1.530340480804443004e+01 -2.881790924072265980e+01 1.710025072097778098e+00 1.700000000000000000e+01
-1.820390582084655984e+00 -3.427985668182373047e+00 -7.544587850570678711e-01 1.000000000000000000e+01
-2.300082445144652876e+00 -4.327647686004638672e+00 -7.762278318405151367e-01 1.800000000000000000e+01
-1.522890281677245916e+01 -2.864140129089355113e+01 3.982933998107910156e+00 1.600000000000000000e+01
-2.685812950134276900e+00 -5.049153327941895419e+00 -7.022111415863037109e-01 3.100000000000000000e+01
-3.206681728363037109e+00 -6.025815963745117188e+00 -5.971911549568176270e-01 1.000000000000000000e+00
-1.317728233337401988e+01 -2.474117851257323863e+01 -1.469070315361022949e+00 1.300000000000000000e+01
-1.299249410629272017e+00 -2.429194688796997070e+00 -7.381519079208374023e-01 1.500000000000000000e+01
-1.515631675720215066e+00 -2.831385850906372070e+00 -7.414386868476867676e-01 1.200000000000000000e+01
-1.837906479835510032e+00 -3.431994676589965820e+00 -7.567484974861145020e-01 1.000000000000000000e+01
-2.316107749938964844e+00 -4.321333885192871094e+00 -7.765406966209411621e-01 1.800000000000000000e+01
-1.555767345428466975e+01 -2.901493835449219105e+01 4.042406082153320312e+00 1.700000000000000000e+01
-2.705298185348511186e+00 -5.043246269226074219e+00 -7.026986479759216309e-01 2.400000000000000000e+01
-4.716242790222167969e+00 -8.788388252258300781e+00 -8.726032972335815430e-01 1.000000000000000000e+00
-1.326734542846680043e+01 -2.470207023620605113e+01 -1.469488978385925071e+00 1.300000000000000000e+01
-1.311881542205810991e+00 -2.433375120162963867e+00 -7.407401204109191895e-01 1.700000000000000000e+01
-1.528714060783386008e+00 -2.833204269409180132e+00 -7.432382702827453613e-01 1.300000000000000000e+01
-1.840884089469909890e+00 -3.410332441329956055e+00 -7.533138990402221680e-01 1.100000000000000000e+01
-2.331364154815673828e+00 -4.315367221832275391e+00 -7.768535614013671875e-01 1.600000000000000000e+01
-2.723895788192749023e+00 -5.037739753723145419e+00 -7.031860947608947754e-01 2.400000000000000000e+01
-1.338341808319091975e+01 -2.472116851806640980e+01 -1.473257184028625044e+00 1.300000000000000000e+01
-1.314831495285033958e+00 -2.418597459793090820e+00 -7.376343011856079102e-01 1.600000000000000000e+01
-1.542319893836975098e+00 -2.834697961807250977e+00 -7.450379133224487305e-01 1.300000000000000000e+01
-1.850900053977966087e+00 -3.400437116622924805e+00 -7.525506615638732910e-01 1.100000000000000000e+01
-2.348303318023682085e+00 -4.310672283172607422e+00 -7.774792909622192383e-01 1.600000000000000000e+01
-2.744314908981322798e+00 -5.033429622650145596e+00 -7.039173245429992676e-01 2.200000000000000000e+01
-3.323895931243896040e+00 -6.093925476074218750e+00 -6.073012351989746094e-01 1.000000000000000000e+00
-1.348494148254395064e+01 -2.470234870910644887e+01 -1.474931955337523970e+00 1.300000000000000000e+01
-1.319042682647705078e+00 -2.405292749404906782e+00 -7.350460886955261230e-01 1.600000000000000000e+01
-1.549886345863342063e+00 -2.823900938034058061e+00 -7.436881661415100098e-01 1.100000000000000000e+01
-1.865240573883057085e+00 -3.397072315216064009e+00 -7.533138990402221680e-01 1.100000000000000000e+01
-2.361232995986938032e+00 -4.296843051910400391e+00 -7.765406966209411621e-01 1.800000000000000000e+01
-2.773267745971680132e+00 -5.042470455169677734e+00 -7.065984606742858887e-01 1.800000000000000000e+01
-4.784963607788085938e+00 -8.696623802185058594e+00 -8.684198260307312012e-01 1.000000000000000000e+00
-1.360043811798096058e+01 -2.469824600219726918e+01 -1.477653384208678977e+00 1.300000000000000000e+01
-1.330235123634337935e+00 -2.405745744705200195e+00 -7.365990281105041504e-01 1.600000000000000000e+01
-1.565395593643188032e+00 -2.828703880310059038e+00 -7.463876008987426758e-01 1.200000000000000000e+01
-1.877087235450745073e+00 -3.390540599822998047e+00 -7.533138990402221680e-01 1.200000000000000000e+01
-2.374302625656127930e+00 -4.285119056701660156e+00 -7.759149670600891113e-01 2.100000000000000000e+01
-2.808180809020996094e+00 -5.064007759094238281e+00 -7.109857201576232910e-01 2.200000000000000000e+01
-1.340506076812743919e+00 -2.404462337493896040e+00 -7.376343011856079102e-01 1.500000000000000000e+01
-1.569562911987304910e+00 -2.813011884689331055e+00 -7.436881661415100098e-01 1.400000000000000000e+01
-1.892738580703734907e+00 -3.390824794769287109e+00 -7.548403739929199219e-01 1.100000000000000000e+01
-2.388282537460327148e+00 -4.275080204010009766e+00 -7.756021022796630859e-01 1.900000000000000000e+01
-2.837465524673461914e+00 -5.074966430664063388e+00 -7.139106392860412598e-01 2.000000000000000000e+01
-3.408037424087523970e+00 -6.092969894409179688e+00 -6.107874512672424316e-01 1.000000000000000000e+00
-1.378814125061034979e+01 -2.463058090209960938e+01 -1.479328155517577903e+00 1.300000000000000000e+01
-1.350784182548522949e+00 -2.403136491775513139e+00 -7.386695742607116699e-01 1.500000000000000000e+01
-1.580328106880187988e+00 -2.809214353561400923e+00 -7.441380620002746582e-01 1.200000000000000000e+01
-1.903600335121155007e+00 -3.382486343383789062e+00 -7.544587850570678711e-01 1.100000000000000000e+01
-2.412884950637816939e+00 -4.283928871154785156e+00 -7.787307500839233398e-01 1.800000000000000000e+01
-2.854188203811645952e+00 -5.063301563262938565e+00 -7.136668562889099121e-01 2.800000000000000000e+01
-3.410690307617187944e+00 -6.048062801361083984e+00 -6.074755191802978516e-01 7.000000000000000000e+00
-1.388581466674805043e+01 -2.460317230224609020e+01 -1.480584144592284934e+00 1.300000000000000000e+01
-1.359164476394653098e+00 -2.398406744003295898e+00 -7.386695742607116699e-01 1.800000000000000000e+01
-1.589163064956665039e+00 -2.801985740661621094e+00 -7.436881661415100098e-01 1.400000000000000000e+01
-1.913458228111267090e+00 -3.372405767440795898e+00 -7.536955475807189941e-01 1.200000000000000000e+01
-2.427824020385742188e+00 -4.275480270385742188e+00 -7.787307500839233398e-01 1.600000000000000000e+01
-2.872825860977172852e+00 -5.055033683776854581e+00 -7.139106392860412598e-01 2.800000000000000000e+01
-3.444582700729370117e+00 -6.058637142181395596e+00 -6.097415685653686523e-01 8.000000000000000000e+00
-1.394395351409911932e+01 -2.450594711303710938e+01 -1.477653384208678977e+00 1.300000000000000000e+01
-1.359861612319946067e+00 -2.380228519439696822e+00 -7.345284223556518555e-01 1.700000000000000000e+01
-1.600868701934814009e+00 -2.799804925918579102e+00 -7.445880174636840820e-01 1.400000000000000000e+01
-1.926193237304687944e+00 -3.367410182952880859e+00 -7.540771365165710449e-01 1.100000000000000000e+01
-2.436845064163208008e+00 -4.256693840026854581e+00 -7.768535614013671875e-01 1.200000000000000000e+01
-2.881572246551514116e+00 -5.029473304748535156e+00 -7.117169499397277832e-01 1.800000000000000000e+01
-3.476608753204346147e+00 -6.065590381622313565e+00 -6.116589903831481934e-01 6.000000000000000000e+00
-1.372018575668334961e+00 -2.382163524627685991e+00 -7.365990281105041504e-01 1.800000000000000000e+01
-1.614524841308593972e+00 -2.800953149795531782e+00 -7.463876008987426758e-01 1.400000000000000000e+01
-1.935974478721619096e+00 -3.357264518737792969e+00 -7.533138990402221680e-01 1.100000000000000000e+01
-2.455638408660889116e+00 -4.255005359649658203e+00 -7.781050205230712891e-01 1.200000000000000000e+01
-2.908046483993529829e+00 -5.034854888916015625e+00 -7.139106392860412598e-01 2.000000000000000000e+01
-3.493773221969604048e+00 -6.046517372131347656e+00 -6.109617352485656738e-01 7.000000000000000000e+00
-1.423067760467528942e+01 -2.460856437683105113e+01 -1.489795327186584029e+00 1.400000000000000000e+01
-1.382265567779541016e+00 -2.380701065063477007e+00 -7.376343011856079102e-01 1.600000000000000000e+01
-1.615480542182921919e+00 -2.780136108398437944e+00 -7.423384785652160645e-01 1.500000000000000000e+01
-1.951628327369689941e+00 -3.357275485992432085e+00 -7.548403739929199219e-01 1.100000000000000000e+01
-2.460542440414429155e+00 -4.229332923889160156e+00 -7.749763131141662598e-01 9.000000000000000000e+00
-2.942584037780762163e+00 -5.053836345672607422e+00 -7.180541753768920898e-01 1.800000000000000000e+01
-3.530903339385985884e+00 -6.061830997467041016e+00 -6.137507557868957520e-01 7.000000000000000000e+00
-1.437483119964599965e+01 -2.465881919860839844e+01 -1.495866298675537109e+00 1.400000000000000000e+01
-1.395446538925170898e+00 -2.384197950363159180e+00 -7.402224540710449219e-01 1.600000000000000000e+01
-1.627145051956176980e+00 -2.777842998504639116e+00 -7.432382702827453613e-01 1.300000000000000000e+01
-1.963335514068603960e+00 -3.350442647933959961e+00 -7.548403739929199219e-01 1.100000000000000000e+01
-2.479287862777709961e+00 -4.227534294128417969e+00 -7.762278318405151367e-01 9.000000000000000000e+00
-2.963221788406372070e+00 -5.048669815063476562e+00 -7.187854051589965820e-01 2.000000000000000000e+01
-3.558094501495360884e+00 -6.059777736663818359e+00 -6.147966384887695312e-01 1.200000000000000000e+01
-1.445879554748534979e+01 -2.460504722595214844e+01 -1.495656967163085938e+00 1.400000000000000000e+01
-1.400815486907958984e+00 -2.374320745468140093e+00 -7.386695742607116699e-01 1.500000000000000000e+01
-1.638813257217407005e+00 -2.775502443313599077e+00 -7.441380620002746582e-01 1.200000000000000000e+01
-1.973021864891052024e+00 -3.340188026428223100e+00 -7.540771365165710449e-01 1.200000000000000000e+01
-2.494029760360718218e+00 -4.218853950500488281e+00 -7.762278318405151367e-01 9.000000000000000000e+00
-2.972740411758422852e+00 -5.024627685546875000e+00 -7.168354988098144531e-01 2.800000000000000000e+01
-3.501085042953491211e+00 -5.915297985076904297e+00 -6.013746261596679688e-01 5.000000000000000000e+00
-1.459345340728759943e+01 -2.463690948486328125e+01 -1.500681161880492942e+00 1.400000000000000000e+01
-1.401195287704467995e+00 -2.356133222579956055e+00 -7.345284223556518555e-01 1.600000000000000000e+01
-1.650484919548034890e+00 -2.773114204406737837e+00 -7.450379133224487305e-01 1.200000000000000000e+01
-1.986678004264831987e+00 -3.336654424667357954e+00 -7.548403739929199219e-01 1.300000000000000000e+01
-2.507729768753052202e+00 -4.208425521850585938e+00 -7.759149670600891113e-01 1.000000000000000000e+01
-3.000429153442382812e+00 -5.031270027160645419e+00 -7.192728519439697266e-01 3.700000000000000000e+01
-3.577855348587036133e+00 -5.997147560119628906e+00 -6.109617352485656738e-01 6.000000000000000000e+00
-1.472646141052245916e+01 -2.466470336914062855e+01 -1.505496144294738992e+00 1.400000000000000000e+01
-1.784356307983398082e+01 -2.986171150207519887e+01 -6.072041392326354980e-01 6.000000000000000000e+00
-1.413384079933166948e+00 -2.357855558395386186e+00 -7.365990281105041504e-01 1.600000000000000000e+01
-1.659152388572693093e+00 -2.765664815902709961e+00 -7.445880174636840820e-01 1.400000000000000000e+01
-1.994271993637084961e+00 -3.322965860366820845e+00 -7.533138990402221680e-01 1.700000000000000000e+01
-2.509182453155518022e+00 -4.177632331848145419e+00 -7.718476653099060059e-01 1.000000000000000000e+01
-3.012859821319580078e+00 -5.012259006500244141e+00 -7.180541753768920898e-01 4.300000000000000000e+01
-3.584392786026000977e+00 -5.960717678070068359e+00 -6.085214018821716309e-01 5.000000000000000000e+00
-1.481658744812012074e+01 -2.461999320983887074e+01 -1.505914807319640891e+00 1.400000000000000000e+01
-1.813133621215819957e+01 -3.010415649414062855e+01 -6.134172081947326660e-01 7.000000000000000000e+00
-1.424602985382080078e+00 -2.357868194580078125e+00 -7.381519079208374023e-01 1.600000000000000000e+01
