-2.515985250473022017e+00 -8.638679981231689453e-01 -7.127876281738281250e-01 2.100000000000000000e+01
-2.938289880752563032e+00 -1.007720589637755904e+00 -7.171439528465270996e-01 1.400000000000000000e+01
-3.502649307250977007e+00 -1.200590968132019043e+00 -7.197315096855163574e-01 1.100000000000000000e+01
-4.397462844848632812e+00 -1.505588054656981978e+00 -7.361806035041809082e-01 1.100000000000000000e+01
-5.892199039459229404e+00 -2.015053033828734907e+00 -7.646082639694213867e-01 1.100000000000000000e+01
-8.894883155822753906e+00 -3.040196895599364790e+00 -8.224015831947326660e-01 1.000000000000000000e+00
-1.484706115722656072e+01 -5.068814277648925781e+00 -8.221978545188903809e-01 1.300000000000000000e+01
-2.515326738357543945e+00 -8.538383841514587402e-01 -7.117523550987243652e-01 2.200000000000000000e+01
-2.941789627075194868e+00 -9.974579215049743652e-01 -7.171439528465270996e-01 1.300000000000000000e+01
-3.516115665435791016e+00 -1.191507697105407937e+00 -7.216396331787109375e-01 1.200000000000000000e+01
-4.412046909332275391e+00 -1.493395447731018066e+00 -7.377449274063110352e-01 1.200000000000000000e+01
-5.899197101593017578e+00 -1.994473218917846902e+00 -7.646082639694213867e-01 1.100000000000000000e+01
-8.931867599487304688e+00 -3.018058776855469194e+00 -8.248419761657714844e-01 1.000000000000000000e+00
-1.502173137664794922e+01 -5.069969177246093750e+00 -8.308856487274169922e-01 1.300000000000000000e+01
-5.374116134643554688e+01 -1.810678482055664062e+01 1.519526576995849965e+01 2.000000000000000000e+01
-2.523786306381226030e+00 -8.468967676162719727e-01 -7.133052945137023926e-01 1.900000000000000000e+01
-2.936014890670775923e+00 -9.840865731239318848e-01 -7.148944735527038574e-01 1.300000000000000000e+01
-3.516530275344849077e+00 -1.177979707717895952e+00 -7.208763957023620605e-01 1.100000000000000000e+01
-4.417232990264892578e+00 -1.477985501289367898e+00 -7.377449274063110352e-01 1.200000000000000000e+01
-5.879765033721923828e+00 -1.965059876441956010e+00 -7.611958980560302734e-01 1.100000000000000000e+01
-8.919671058654785156e+00 -2.979287862777709961e+00 -8.227502107620239258e-01 1.000000000000000000e+00
-1.504312705993651988e+01 -5.018766880035400391e+00 -8.310949802398681641e-01 1.300000000000000000e+01
-2.526727199554442915e+00 -8.380819559097290039e-01 -7.133052945137023926e-01 1.800000000000000000e+01
-2.935732364654541016e+00 -9.726062417030334473e-01 -7.139946222305297852e-01 1.200000000000000000e+01
-3.511301994323730025e+00 -1.162611961364746094e+00 -7.189682722091674805e-01 1.100000000000000000e+01
-4.426115989685058594e+00 -1.463797926902770996e+00 -7.383706569671630859e-01 1.200000000000000000e+01
-5.897898197174072266e+00 -1.948259592056273970e+00 -7.626583576202392578e-01 1.100000000000000000e+01
-8.945151329040527344e+00 -2.953130960464477983e+00 -8.241447210311889648e-01 3.000000000000000000e+00
-1.513452911376952947e+01 -4.990619182586669922e+00 -8.351771831512451172e-01 1.300000000000000000e+01
-5.366807937622070312e+01 -1.766592788696289062e+01 1.513936138153075994e+01 2.000000000000000000e+01
-2.516787052154541016e+00 -8.250444531440734863e-01 -7.096818089485168457e-01 1.900000000000000000e+01
-2.950221538543701172e+00 -9.659910798072814941e-01 -7.166940569877624512e-01 1.300000000000000000e+01
-3.522802352905272993e+00 -1.152790546417236106e+00 -7.204947471618652344e-01 1.200000000000000000e+01
-4.423688411712645596e+00 -1.445884227752685991e+00 -7.371191978454589844e-01 1.200000000000000000e+01
-5.908436775207520419e+00 -1.928892374038696067e+00 -7.631458044052124023e-01 1.100000000000000000e+01
-8.925099372863769531e+00 -2.912000656127930132e+00 -8.213557004928588867e-01 1.000000000000000000e+00
-1.532086563110351918e+01 -4.992836475372313565e+00 -8.444929718971252441e-01 1.400000000000000000e+01
-2.521489620208739790e+00 -8.168495893478393555e-01 -7.101994752883911133e-01 1.900000000000000000e+01
-2.948013067245482954e+00 -9.538872241973876953e-01 -7.153443694114685059e-01 1.300000000000000000e+01
-3.521200895309447798e+00 -1.138674378395081010e+00 -7.193499207496643066e-01 1.000000000000000000e+01
-4.417429924011229581e+00 -1.426790952682494895e+00 -7.352420091629028320e-01 1.200000000000000000e+01
-5.920801639556884766e+00 -1.910084724426269975e+00 -7.638770341873168945e-01 1.100000000000000000e+01
-8.920040130615234375e+00 -2.875937461853026900e+00 -8.199612498283386230e-01 3.000000000000000000e+00
-1.542755222320556996e+01 -4.968100070953369141e+00 -8.494125604629516602e-01 1.400000000000000000e+01
-2.524043321609497070e+00 -8.089240789413452148e-01 -7.101994752883911133e-01 1.700000000000000000e+01
-2.943571567535399947e+00 -9.422446489334106445e-01 -7.135447263717651367e-01 1.300000000000000000e+01
-3.530370473861693892e+00 -1.129401206970215066e+00 -7.204947471618652344e-01 1.100000000000000000e+01
-4.421890258789063388e+00 -1.412906169891356978e+00 -7.352420091629028320e-01 1.300000000000000000e+01
-5.911643981933593750e+00 -1.886646270751952903e+00 -7.619271278381347656e-01 9.000000000000000000e+00
-8.963197708129882812e+00 -2.858797788619995117e+00 -8.230988383293151855e-01 1.000000000000000000e+00
-1.529084205627441051e+01 -4.871109962463378906e+00 -8.410388231277465820e-01 9.000000000000000000e+00
-2.534218549728393999e+00 -8.024412393569946289e-01 -7.122700214385986328e-01 1.700000000000000000e+01
-2.948700666427611861e+00 -9.325515627861022949e-01 -7.139946222305297852e-01 1.300000000000000000e+01
-3.526803493499755859e+00 -1.114704370498657005e+00 -7.189682722091674805e-01 1.200000000000000000e+01
-4.423027992248535156e+00 -1.396273016929626021e+00 -7.346162199974060059e-01 1.200000000000000000e+01
-5.910620689392089844e+00 -1.863611578941344993e+00 -7.609521746635437012e-01 9.000000000000000000e+00
-8.961720466613769531e+00 -2.823900222778319868e+00 -8.220529556274414062e-01 1.000000000000000000e+00
-1.526202869415283025e+01 -4.803315162658691406e+00 -8.385266661643981934e-01 9.000000000000000000e+00
-3.212511825561522727e+01 -1.009819793701172053e+01 -5.877970457077026367e-01 6.000000000000000000e+00
-2.525941610336304155e+00 -7.901298999786376953e-01 -7.091642022132873535e-01 1.800000000000000000e+01
-2.950077772140502930e+00 -9.216718673706054688e-01 -7.135447263717651367e-01 1.400000000000000000e+01
-3.519428730010985884e+00 -1.098875999450684038e+00 -7.166785597801208496e-01 1.100000000000000000e+01
-4.427875041961669922e+00 -1.380825161933898926e+00 -7.346162199974060059e-01 1.300000000000000000e+01
-5.924671173095703125e+00 -1.845329642295836958e+00 -7.619271278381347656e-01 9.000000000000000000e+00
-8.944890022277832031e+00 -2.784310579299927202e+00 -8.196126222610473633e-01 3.000000000000000000e+00
-1.576694965362549006e+01 -4.901803016662597656e+00 -8.653227090835571289e-01 1.000000000000000000e+01
-3.237024688720703125e+01 -1.005122852325438920e+01 -5.916365981101989746e-01 6.000000000000000000e+00
-2.519455432891846147e+00 -7.784563899040222168e-01 -7.065759897232055664e-01 1.700000000000000000e+01
-2.960725307464600053e+00 -9.136670827865600586e-01 -7.153443694114685059e-01 1.400000000000000000e+01
-3.523243188858031782e+00 -1.086584210395812988e+00 -7.166785597801208496e-01 1.100000000000000000e+01
-4.427004337310791016e+00 -1.363616108894347922e+00 -7.336776256561279297e-01 1.300000000000000000e+01
-5.925384521484375000e+00 -1.822886347770690918e+00 -7.611958980560302734e-01 7.000000000000000000e+00
-8.950746536254882812e+00 -2.751899242401123047e+00 -8.192639946937561035e-01 1.000000000000000000e+00
-1.595579910278319957e+01 -4.899500846862792969e+00 -8.747431635856628418e-01 1.000000000000000000e+01
-3.247778320312500000e+01 -9.960453987121582031e+00 -5.929629802703857422e-01 1.300000000000000000e+01
-2.524005174636840820e+00 -7.702209949493408203e-01 -7.070936560630798340e-01 1.900000000000000000e+01
-2.956440210342406782e+00 -9.010541439056396484e-01 -7.135447263717651367e-01 1.400000000000000000e+01
-3.530770778656005859e+00 -1.075423240661621094e+00 -7.174417972564697266e-01 1.200000000000000000e+01
-4.437407016754150391e+00 -1.349879384040832964e+00 -7.346162199974060059e-01 1.200000000000000000e+01
-5.927912712097167969e+00 -1.801037669181823953e+00 -7.607084512710571289e-01 7.000000000000000000e+00
-8.964110374450683594e+00 -2.721796035766602007e+00 -8.196126222610473633e-01 1.000000000000000000e+00
-1.609894943237305043e+01 -4.882029056549072266e+00 -8.816515207290649414e-01 5.000000000000000000e+00
-3.255445861816406250e+01 -9.859777450561523438e+00 -5.937308669090270996e-01 6.000000000000000000e+00
-2.532227516174315962e+00 -7.630780339241027832e-01 -7.086465358734130859e-01 1.900000000000000000e+01
-2.957701444625854048e+00 -8.901671171188354492e-01 -7.130948305130004883e-01 1.400000000000000000e+01
-3.538263320922852007e+00 -1.064222931861876997e+00 -7.182050347328186035e-01 1.100000000000000000e+01
-4.426957130432128906e+00 -1.329835295677185059e+00 -7.321133017539978027e-01 1.200000000000000000e+01
-5.926558017730712891e+00 -1.778052568435668945e+00 -7.597334980964660645e-01 7.000000000000000000e+00
-8.954472541809082031e+00 -2.684767007827758789e+00 -8.178694844245910645e-01 3.000000000000000000e+00
-1.646794509887694957e+01 -4.931222915649414062e+00 -9.009111523628234863e-01 1.100000000000000000e+01
-2.538578987121582031e+00 -7.553361654281616211e-01 -7.096818089485168457e-01 2.000000000000000000e+01
-2.957054853439331055e+00 -8.787271976470947266e-01 -7.121950387954711914e-01 1.400000000000000000e+01
-3.543838500976562944e+00 -1.052424550056457964e+00 -7.185866832733154297e-01 1.200000000000000000e+01
-4.439147472381591797e+00 -1.316621065139770952e+00 -7.333647608757019043e-01 1.300000000000000000e+01
-5.928921699523925781e+00 -1.756226658821105957e+00 -7.592459917068481445e-01 7.000000000000000000e+00
-8.979072570800781250e+00 -2.658017873764038086e+00 -8.192639946937561035e-01 1.000000000000000000e+00
-1.661146736145019887e+01 -4.911081314086914062e+00 -9.078195095062255859e-01 1.100000000000000000e+01
-2.541200160980225053e+00 -7.464702725410461426e-01 -7.096818089485168457e-01 1.900000000000000000e+01
-2.971323728561400923e+00 -8.716912269592285156e-01 -7.148944735527038574e-01 1.300000000000000000e+01
-3.530534982681273970e+00 -1.035076737403870073e+00 -7.151521444320678711e-01 1.100000000000000000e+01
-4.439924716949462891e+00 -1.300007343292236106e+00 -7.327390313148498535e-01 1.200000000000000000e+01
-5.935016155242919922e+00 -1.735520124435425027e+00 -7.592459917068481445e-01 7.000000000000000000e+00
-8.976821899414062500e+00 -2.623305797576903853e+00 -8.182181119918823242e-01 1.000000000000000000e+00
-1.678956031799316051e+01 -4.900069713592529297e+00 -9.166119098663330078e-01 5.000000000000000000e+00
-2.530802249908446822e+00 -7.338292598724365234e-01 -7.060583829879760742e-01 2.100000000000000000e+01
-2.979963779449462891e+00 -8.629402518272399902e-01 -7.162441611289978027e-01 1.500000000000000000e+01
-3.539784193038939986e+00 -1.024383902549744096e+00 -7.162969708442687988e-01 1.200000000000000000e+01
-4.444435596466063565e+00 -1.284501194953918013e+00 -7.327390313148498535e-01 1.200000000000000000e+01
-5.351623153686522727e+01 -1.545678615570068004e+01 6.839551448822020596e+00 5.900000000000000000e+01
-5.929594516754150391e+00 -1.711489558219909890e+00 -7.577835917472839355e-01 7.000000000000000000e+00
-8.962951660156250000e+00 -2.585328578948975053e+00 -8.161263465881347656e-01 1.000000000000000000e+00
-1.654554939270019887e+01 -4.766243934631347656e+00 -9.023765325546264648e-01 5.000000000000000000e+00
-2.533348321914672852e+00 -7.249906659126281738e-01 -7.060583829879760742e-01 2.100000000000000000e+01
-2.969841957092285156e+00 -8.487843871116638184e-01 -7.130948305130004883e-01 1.400000000000000000e+01
-3.550889492034912109e+00 -1.014178156852721946e+00 -7.178234457969665527e-01 1.200000000000000000e+01
-4.437494277954101562e+00 -1.265728354454040971e+00 -7.308618426322937012e-01 1.200000000000000000e+01
-5.943169116973876953e+00 -1.692956328392029031e+00 -7.587585449218750000e-01 7.000000000000000000e+00
-8.933596611022949219e+00 -2.543116331100463867e+00 -8.126401305198669434e-01 1.000000000000000000e+00
-1.681567573547362926e+01 -4.780553340911865234e+00 -9.161932468414306641e-01 1.100000000000000000e+01
-2.543300151824951172e+00 -7.182433605194091797e-01 -7.081289291381835938e-01 2.200000000000000000e+01
-2.970911026000977007e+00 -8.378835916519165039e-01 -7.126449346542358398e-01 1.500000000000000000e+01
-3.554408073425292969e+00 -1.001777052879333052e+00 -7.178234457969665527e-01 1.200000000000000000e+01
-4.430476665496826172e+00 -1.247019648551940918e+00 -7.289845943450927734e-01 1.100000000000000000e+01
-5.952864646911621094e+00 -1.673274755477905051e+00 -7.592459917068481445e-01 7.000000000000000000e+00
-8.961601257324218750e+00 -2.517304897308350053e+00 -8.143832683563232422e-01 1.000000000000000000e+00
-1.675533866882323863e+01 -4.700248718261718750e+00 -9.120063781738281250e-01 5.000000000000000000e+00
-3.326600265502929688e+01 -9.319335937500000000e+00 -6.030155420303344727e-01 6.000000000000000000e+00
-2.549513816833496094e+00 -7.103982567787170410e-01 -7.091642022132873535e-01 2.200000000000000000e+01
-2.971940279006958008e+00 -8.269856572151184082e-01 -7.121950387954711914e-01 1.400000000000000000e+01
-3.550317287445067915e+00 -9.872598648071289062e-01 -7.162969708442687988e-01 1.200000000000000000e+01
-4.442416191101074219e+00 -1.233661055564879927e+00 -7.302360534667968750e-01 1.200000000000000000e+01
-5.933801651000976562e+00 -1.645588755607604980e+00 -7.560774087905883789e-01 7.000000000000000000e+00
-8.989533424377441406e+00 -2.491328716278076172e+00 -8.161263465881347656e-01 1.000000000000000000e+00
-1.694103431701660156e+01 -4.688613891601563388e+00 -9.212175011634826660e-01 5.000000000000000000e+00
-2.551978111267089844e+00 -7.014944553375244141e-01 -7.091642022132873535e-01 2.100000000000000000e+01
-2.972929716110229048e+00 -8.160907030105590820e-01 -7.117451429367065430e-01 1.600000000000000000e+01
-4.516903305053710938e+01 -1.239074993133544922e+01 2.454661130905150923e+00 3.900000000000000000e+01
-3.549955129623413086e+00 -9.738221764564514160e-01 -7.155337333679199219e-01 1.200000000000000000e+01
-4.458126068115234375e+00 -1.221278190612792969e+00 -7.321133017539978027e-01 1.200000000000000000e+01
-5.931850433349609375e+00 -1.622770667076111062e+00 -7.551024556159973145e-01 5.000000000000000000e+00
-8.959737777709960938e+00 -2.449426174163817915e+00 -8.126401305198669434e-01 1.000000000000000000e+00
-1.684169387817383168e+01 -4.597888946533203125e+00 -9.149371981620788574e-01 1.700000000000000000e+01
-4.507957458496093750e+01 -1.229010295867919922e+01 -8.155858516693115234e-01 1.200000000000000000e+01
-2.541359424591064009e+00 -6.890434026718139648e-01 -7.055407166481018066e-01 1.900000000000000000e+01
-4.513935470581054688e+01 -1.223025894165039062e+01 8.163188695907592773e-01 5.400000000000000000e+01
-2.979522228240966797e+00 -8.067268729209899902e-01 -7.126449346542358398e-01 1.500000000000000000e+01
-4.519830703735352273e+01 -1.223776340484618963e+01 2.454032897949219194e+00 3.900000000000000000e+01
-3.555227994918822798e+00 -9.619373679161071777e-01 -7.159153223037719727e-01 1.200000000000000000e+01
-4.443292140960693359e+00 -1.200556278228759988e+00 -7.289845943450927734e-01 1.200000000000000000e+01
-5.943228721618652344e+00 -1.603606104850769043e+00 -7.558336853981018066e-01 7.000000000000000000e+00
-8.956691741943359375e+00 -2.415023803710937944e+00 -8.115942478179931641e-01 3.000000000000000000e+00
-1.690778350830078125e+01 -4.552574157714843750e+00 -9.176586270332336426e-01 1.100000000000000000e+01
-4.509902572631835938e+01 -1.212644004821776988e+01 -8.151670098304748535e-01 1.200000000000000000e+01
-2.545496463775635210e+00 -6.811115145683288574e-01 -7.060583829879760742e-01 2.200000000000000000e+01
-4.511398315429688211e+01 -1.206294155120849965e+01 8.151320815086364746e-01 5.400000000000000000e+01
-2.984063863754272017e+00 -7.973450422286987305e-01 -7.130948305130004883e-01 1.400000000000000000e+01
-4.519232940673828125e+01 -1.207543945312500000e+01 2.451520919799805132e+00 3.900000000000000000e+01
-3.556501388549805132e+00 -9.496360421180725098e-01 -7.155337333679199219e-01 1.200000000000000000e+01
-4.424344539642333984e+00 -1.179708003997802956e+00 -7.252301573753356934e-01 1.200000000000000000e+01
-5.956186771392822266e+00 -1.585931897163390891e+00 -7.568086385726928711e-01 7.000000000000000000e+00
-8.976202964782714844e+00 -2.388382911682128906e+00 -8.126401305198669434e-01 1.000000000000000000e+00
-1.738991546630859020e+01 -4.620599269866943359e+00 -9.429892301559448242e-01 6.000000000000000000e+00
-2.545990705490111861e+00 -6.717290878295898438e-01 -7.055407166481018066e-01 2.000000000000000000e+01
-4.511327743530272727e+01 -1.189417457580566051e+01 8.143641948699951172e-01 5.300000000000000000e+01
-2.977406740188599077e+00 -7.844414710998535156e-01 -7.108453512191772461e-01 1.500000000000000000e+01
-4.517240524291992188e+01 -1.190133190155028942e+01 2.448171377182006836e+00 3.800000000000000000e+01
-3.557896137237548828e+00 -9.367159008979797363e-01 -7.151521444320678711e-01 1.200000000000000000e+01
-4.439898490905761719e+00 -1.167270660400391069e+00 -7.271074056625366211e-01 1.100000000000000000e+01
-5.957846164703369141e+00 -1.564123153686522993e+00 -7.563211321830749512e-01 7.000000000000000000e+00
-8.965213775634765625e+00 -2.351979732513428178e+00 -8.108970522880554199e-01 1.000000000000000000e+00
-1.774404907226562855e+01 -4.648444652557373047e+00 -9.613068699836730957e-01 1.900000000000000000e+01
-3.377802276611328125e+01 -8.836297988891601562e+00 -6.094380617141723633e-01 7.000000000000000000e+00
-2.554160594940185991e+00 -6.634051799774169922e-01 -7.070936560630798340e-01 2.100000000000000000e+01
-4.514699935913085938e+01 -1.171785068511963068e+01 8.141547441482543945e-01 5.300000000000000000e+01
-2.987941980361938032e+00 -7.749602794647216797e-01 -7.126449346542358398e-01 1.500000000000000000e+01
-4.518296813964843750e+01 -1.171877002716063920e+01 2.446287155151367188e+00 3.800000000000000000e+01
-3.563367128372191939e+00 -9.235402345657348633e-01 -7.155337333679199219e-01 1.200000000000000000e+01
-4.448172569274902344e+00 -1.151203870773314986e+00 -7.277331352233886719e-01 1.100000000000000000e+01
-5.940744876861572266e+00 -1.535274863243103027e+00 -7.533962726593017578e-01 7.000000000000000000e+00
-8.985753059387207031e+00 -2.320527553558350053e+00 -8.119428753852844238e-01 1.000000000000000000e+00
-1.780624961853026988e+01 -4.591748714447020596e+00 -9.637143015861511230e-01 1.200000000000000000e+01
-3.377297210693358664e+01 -8.696561813354492188e+00 -6.087399125099182129e-01 6.000000000000000000e+00
-2.558332204818726030e+00 -6.549646258354187012e-01 -7.076112627983093262e-01 1.900000000000000000e+01
-4.516825485229492188e+01 -1.155523109436034979e+01 8.138056993484497070e-01 5.300000000000000000e+01
-2.990628957748413086e+00 -7.645256519317626953e-01 -7.126449346542358398e-01 1.500000000000000000e+01
-4.521199035644531250e+01 -1.155801200866699041e+01 2.445659160614014116e+00 3.800000000000000000e+01
-3.547547340393065962e+00 -9.062369465827941895e-01 -7.117175459861755371e-01 1.200000000000000000e+01
-4.448335647583007812e+00 -1.134693384170532005e+00 -7.271074056625366211e-01 1.100000000000000000e+01
-5.951838970184326172e+00 -1.515998482704163042e+00 -7.541275024414062500e-01 9.000000000000000000e+00
-8.943596839904785156e+00 -2.276369810104370117e+00 -8.074107766151428223e-01 1.000000000000000000e+00
-1.785313987731933949e+01 -4.537436962127686435e+00 -9.653890728950500488e-01 1.300000000000000000e+01
-3.413262557983397727e+01 -8.662240982055664062e+00 -6.146737337112426758e-01 7.000000000000000000e+00
-2.551012277603148970e+00 -6.445579528808593750e-01 -7.050230503082275391e-01 2.100000000000000000e+01
-4.513065719604492188e+01 -1.139467239379882990e+01 8.124793171882629395e-01 5.300000000000000000e+01
-2.996795177459716797e+00 -7.560800313949584961e-01 -7.135447263717651367e-01 1.500000000000000000e+01
-4.520359039306641336e+01 -1.139630222320556996e+01 2.443147182464600053e+00 3.800000000000000000e+01
-3.561799049377440962e+00 -8.979671597480773926e-01 -7.140072584152221680e-01 1.200000000000000000e+01
-4.444215774536132812e+00 -1.118784070014954057e+00 -7.258559465408325195e-01 1.100000000000000000e+01
-5.962347507476806641e+00 -1.498744487762450950e+00 -7.548587322235107422e-01 7.000000000000000000e+00
-8.923650741577148438e+00 -2.241466283798218218e+00 -8.049704432487487793e-01 1.000000000000000000e+00
-1.801066398620605113e+01 -4.517282962799072266e+00 -9.731347560882568359e-01 6.000000000000000000e+00
-2.556995868682860884e+00 -6.365827322006225586e-01 -7.060583829879760742e-01 2.100000000000000000e+01
-4.515075302124022727e+01 -1.123223972320556996e+01 8.121302723884582520e-01 5.300000000000000000e+01
-2.991851329803466797e+00 -7.437341809272766113e-01 -7.117451429367065430e-01 1.500000000000000000e+01
-4.516556167602539062e+01 -1.121918296813965021e+01 2.438960313796997070e+00 3.800000000000000000e+01
-3.559195756912231001e+00 -8.841088414192199707e-01 -7.128624320030212402e-01 1.200000000000000000e+01
-4.444259643554688388e+00 -1.102312922477721946e+00 -7.252301573753356934e-01 1.100000000000000000e+01
-5.940566539764404297e+00 -1.471241950988769975e+00 -7.514463663101196289e-01 7.000000000000000000e+00
-8.939157485961914062e+00 -2.212217807769774947e+00 -8.056676983833312988e-01 3.000000000000000000e+00
-2.559202432632445845e+00 -6.276532411575317383e-01 -7.060583829879760742e-01 2.100000000000000000e+01
-4.515472412109375000e+01 -1.106599807739257990e+01 8.115019798278808594e-01 5.300000000000000000e+01
-2.981179475784302202e+00 -7.300415039062500000e-01 -7.085958123207092285e-01 1.300000000000000000e+01
-4.518892669677733664e+01 -1.105766010284424006e+01 2.438122749328612837e+00 3.800000000000000000e+01
-3.575609207153319868e+00 -8.749459981918334961e-01 -7.155337333679199219e-01 1.200000000000000000e+01
-4.451918125152587891e+00 -1.087730526924133079e+00 -7.258559465408325195e-01 1.100000000000000000e+01
-5.947594642639160156e+00 -1.450967073440551980e+00 -7.516900897026062012e-01 9.000000000000000000e+00
-8.946825027465820312e+00 -2.181000709533690962e+00 -8.056676983833312988e-01 3.000000000000000000e+00
-3.412140655517578125e+01 -8.292669296264648438e+00 -6.129285097122192383e-01 7.000000000000000000e+00
-2.561377763748168945e+00 -6.187161803245544434e-01 -7.060583829879760742e-01 2.100000000000000000e+01
-4.514642333984375000e+01 -1.089705085754395064e+01 8.106642961502075195e-01 5.300000000000000000e+01
-2.991287469863892046e+00 -7.214584350585937500e-01 -7.103954553604125977e-01 1.400000000000000000e+01
-4.519618225097656250e+01 -1.089236640930175959e+01 2.436448097229003906e+00 3.800000000000000000e+01
-3.567189931869506836e+00 -8.596996068954467773e-01 -7.132440209388732910e-01 1.200000000000000000e+01
-4.444164752960205078e+00 -1.069410920143126997e+00 -7.239786982536315918e-01 1.200000000000000000e+01
-5.935251712799072266e+00 -1.426023483276366965e+00 -7.494964599609375000e-01 7.000000000000000000e+00
-8.954382896423339844e+00 -2.149757146835327148e+00 -8.056676983833312988e-01 3.000000000000000000e+00
-1.775787544250487926e+01 -4.256733417510986328e+00 -9.570152759552001953e-01 6.000000000000000000e+00
-3.402178955078125000e+01 -8.142792701721191406e+00 -6.106247901916503906e-01 7.000000000000000000e+00
-2.557883501052856001e+00 -6.084303855895996094e-01 -7.045054435729980469e-01 2.000000000000000000e+01
-4.514916610717772727e+01 -1.073107051849365057e+01 8.100360035896301270e-01 5.300000000000000000e+01
-2.991891384124755859e+00 -7.105621695518493652e-01 -7.099454998970031738e-01 1.500000000000000000e+01
-4.517563247680664062e+01 -1.072070121765137074e+01 2.433307886123656782e+00 3.800000000000000000e+01
-3.566348552703856978e+00 -8.463358879089355469e-01 -7.124807834625244141e-01 1.200000000000000000e+01
-4.451714992523193359e+00 -1.054802298545836958e+00 -7.246044278144836426e-01 1.100000000000000000e+01
-5.934397697448729581e+00 -1.403925895690917969e+00 -7.487652301788330078e-01 9.000000000000000000e+00
-8.942442893981933594e+00 -2.113903999328612837e+00 -8.039245605468750000e-01 1.000000000000000000e+00
-1.795340347290039062e+01 -4.237388134002686435e+00 -9.667497873306274414e-01 1.900000000000000000e+01
-2.554348945617675781e+00 -5.981765389442443848e-01 -7.029525041580200195e-01 2.100000000000000000e+01
-4.517077636718750000e+01 -1.056976032257080078e+01 8.097567558288574219e-01 5.300000000000000000e+01
-3.005738973617554155e+00 -7.027762532234191895e-01 -7.126449346542358398e-01 1.600000000000000000e+01
-4.518943786621093750e+01 -1.055749130249023082e+01 2.432051897048950195e+00 3.800000000000000000e+01
-3.563545942306518999e+00 -8.325419425964355469e-01 -7.113359570503234863e-01 1.200000000000000000e+01
-4.451522350311279297e+00 -1.038358926773071067e+00 -7.239786982536315918e-01 1.100000000000000000e+01
-5.948929309844970703e+00 -1.385453701019287109e+00 -7.499839663505554199e-01 7.000000000000000000e+00
-8.949768066406250000e+00 -2.082676172256470171e+00 -8.039245605468750000e-01 1.000000000000000000e+00
-1.813733863830566051e+01 -4.214017868041992188e+00 -9.758562445640563965e-01 6.000000000000000000e+00
-3.423754119873046875e+01 -7.942132949829101562e+00 -6.134870052337646484e-01 7.000000000000000000e+00
-2.562171936035155806e+00 -5.901111364364624023e-01 -7.045054435729980469e-01 1.900000000000000000e+01
-4.517413330078125000e+01 -1.039605712890625000e+01 8.091284632682800293e-01 5.300000000000000000e+01
-3.004496335983275923e+00 -6.908814907073974609e-01 -7.117451429367065430e-01 1.500000000000000000e+01
-4.519668579101563211e+01 -1.038463687896729049e+01 2.430377244949340820e+00 3.800000000000000000e+01
-3.570400238037108931e+00 -8.203545808792114258e-01 -7.120991945266723633e-01 1.200000000000000000e+01
-4.443745613098145419e+00 -1.019386291503906028e+00 -7.221015095710754395e-01 1.100000000000000000e+01
-5.961707115173339844e+00 -1.365413188934325950e+00 -7.509589195251464844e-01 9.000000000000000000e+00
-8.972878456115722656e+00 -2.053415298461914062e+00 -8.053190708160400391e-01 1.000000000000000000e+00
-1.838241767883301137e+01 -4.200006961822509766e+00 -9.882075190544128418e-01 1.300000000000000000e+01
-3.428591537475585938e+01 -7.821040153503417969e+00 -6.138360500335693359e-01 1.400000000000000000e+01
-2.554795742034912109e+00 -5.790287852287292480e-01 -7.019172310829162598e-01 2.100000000000000000e+01
-4.513603591918945312e+01 -1.022152328491210938e+01 8.078020811080932617e-01 5.200000000000000000e+01
-2.995485305786132812e+00 -6.778091788291931152e-01 -7.090457081794738770e-01 1.500000000000000000e+01
-4.519759368896483664e+01 -1.021887969970702947e+01 2.428493022918701172e+00 3.800000000000000000e+01
-3.582816600799560991e+00 -8.100513219833374023e-01 -7.140072584152221680e-01 1.200000000000000000e+01
-4.447277069091796875e+00 -1.003868579864501953e+00 -7.221015095710754395e-01 1.100000000000000000e+01
-5.978055953979492188e+00 -1.347213149070739968e+00 -7.524213194847106934e-01 7.000000000000000000e+00
-8.945004463195800781e+00 -2.014203310012816939e+00 -8.021814823150634766e-01 1.000000000000000000e+00
-1.845932388305664062e+01 -4.149833202362061435e+00 -9.915570020675659180e-01 1.300000000000000000e+01
-3.433251953125000000e+01 -7.705691337585449219e+00 -6.141850948333740234e-01 7.000000000000000000e+00
-2.573671102523804155e+00 -5.743404626846313477e-01 -7.065759897232055664e-01 1.900000000000000000e+01
-4.513455200195313211e+01 -1.006395721435547053e+01 8.071737885475158691e-01 5.200000000000000000e+01
-2.992010354995727983e+00 -6.666007041931152344e-01 -7.076960206031799316e-01 1.600000000000000000e+01
-4.518054580688477273e+01 -1.005765914916992010e+01 2.425771474838256836e+00 3.700000000000000000e+01
-3.587399482727050781e+00 -7.985923886299133301e-01 -7.143889069557189941e-01 1.200000000000000000e+01
-4.454438209533691406e+00 -9.899724125862121582e-01 -7.227272391319274902e-01 1.100000000000000000e+01
-5.966987133026123047e+00 -1.323941826820373979e+00 -7.504714131355285645e-01 7.000000000000000000e+00
-8.951634407043457031e+00 -1.984529614448546919e+00 -8.021814823150634766e-01 1.000000000000000000e+00
-1.861338806152344105e+01 -4.119672775268554688e+00 -9.990934133529663086e-01 1.300000000000000000e+01
-3.418996047973632812e+01 -7.554693698883056641e+00 -6.111832857131958008e-01 7.000000000000000000e+00
-2.560564994812012163e+00 -5.620397329330444336e-01 -7.024348974227905273e-01 1.700000000000000000e+01
-4.516159439086914062e+01 -9.904633522033691406e+00 8.070341944694519043e-01 5.200000000000000000e+01
-3.003836870193481001e+00 -6.582382321357727051e-01 -7.099454998970031738e-01 1.500000000000000000e+01
-4.518025970458983664e+01 -9.892198562622070312e+00 2.423887491226195845e+00 3.700000000000000000e+01
-3.570986986160277876e+00 -7.818661332130432129e-01 -7.105727195739746094e-01 1.200000000000000000e+01
-4.461726188659667969e+00 -9.752611517906188965e-01 -7.233529686927795410e-01 1.100000000000000000e+01
-5.959935188293457031e+00 -1.300565719604491965e+00 -7.490090131759643555e-01 7.000000000000000000e+00
-8.970187187194824219e+00 -1.955817103385925071e+00 -8.032273054122924805e-01 1.000000000000000000e+00
-3.417704391479492188e+01 -7.426809787750244141e+00 -6.104851961135864258e-01 7.000000000000000000e+00
-2.551181077957152876e+00 -5.506527423858642578e-01 -6.993290781974792480e-01 1.800000000000000000e+01
-4.514115905761718750e+01 -9.735125541687011719e+00 8.060568571090698242e-01 5.200000000000000000e+01
-3.004211187362670898e+00 -6.473383903503417969e-01 -7.094956040382385254e-01 1.400000000000000000e+01
-4.519498825073242188e+01 -9.730226516723632812e+00 2.422840833663939986e+00 3.700000000000000000e+01
-3.567936658859252930e+00 -7.681566476821899414e-01 -7.094278335571289062e-01 1.200000000000000000e+01
-4.457378387451171875e+00 -9.580205678939819336e-01 -7.221015095710754395e-01 1.100000000000000000e+01
-5.946970462799072266e+00 -1.276005744934082031e+00 -7.468153238296508789e-01 9.000000000000000000e+00
-8.973063468933105469e+00 -1.923658132553101030e+00 -8.028786778450012207e-01 1.000000000000000000e+00
-3.419493484497070312e+01 -7.305793285369873047e+00 -6.103455424308776855e-01 7.000000000000000000e+00
-2.562536478042602983e+00 -5.437490940093994141e-01 -7.019172310829162598e-01 1.900000000000000000e+01
-4.517877960205078125e+01 -9.578324317932128906e+00 8.061266541481018066e-01 5.200000000000000000e+01
-3.004546165466309038e+00 -6.364439725875854492e-01 -7.090457081794738770e-01 1.500000000000000000e+01
-4.518178176879882812e+01 -9.562481880187988281e+00 2.420328617095946822e+00 3.700000000000000000e+01
-3.578279018402100053e+00 -7.573235630989074707e-01 -7.109543085098266602e-01 1.200000000000000000e+01
-4.449099063873291016e+00 -9.400054812431335449e-01 -7.202242612838745117e-01 1.100000000000000000e+01
-5.959157943725585938e+00 -1.256877899169922097e+00 -7.477902770042419434e-01 1.100000000000000000e+01
-8.932933807373046875e+00 -1.882464408874511941e+00 -7.986952066421508789e-01 1.000000000000000000e+00
-3.426719665527343750e+01 -7.196249485015869141e+00 -6.111832857131958008e-01 7.000000000000000000e+00
-2.568107604980469194e+00 -5.360378623008728027e-01 -7.029525041580200195e-01 1.900000000000000000e+01
-4.517505645751953125e+01 -9.421104431152343750e+00 8.054983615875244141e-01 5.200000000000000000e+01
-2.985654592514038086e+00 -6.221044063568115234e-01 -7.040967941284179688e-01 1.400000000000000000e+01
-4.515849304199218750e+01 -9.401203155517578125e+00 2.417397737503052202e+00 3.700000000000000000e+01
-3.575004577636719194e+00 -7.442529797554016113e-01 -7.098094820976257324e-01 1.200000000000000000e+01
-4.459928035736083984e+00 -9.268543124198913574e-01 -7.214757800102233887e-01 1.100000000000000000e+01
-5.951631069183349609e+00 -1.234690308570862038e+00 -7.463278770446777344e-01 9.000000000000000000e+00
-8.931324005126953125e+00 -1.851213932037353960e+00 -7.979979515075683594e-01 2.000000000000000000e+00
-3.441229248046875000e+01 -7.107654094696044922e+00 -6.133473515510559082e-01 7.000000000000000000e+00
-2.575640439987183061e+00 -5.282346010208129883e-01 -7.045054435729980469e-01 1.900000000000000000e+01
-4.515673446655272727e+01 -9.252920150756835938e+00 8.045908212661743164e-01 5.200000000000000000e+01
-2.999262809753417969e+00 -6.140238642692565918e-01 -7.067962288856506348e-01 1.400000000000000000e+01
-4.519495010375977273e+01 -9.244314193725585938e+00 2.417607069015502930e+00 3.700000000000000000e+01
-3.566040277481079102e+00 -7.294088006019592285e-01 -7.075197696685791016e-01 1.200000000000000000e+01
-4.463136196136474609e+00 -9.112806320190429688e-01 -7.214757800102233887e-01 1.100000000000000000e+01
-5.936453342437744141e+00 -1.209943294525146040e+00 -7.438904643058776855e-01 9.000000000000000000e+00
-8.914303779602050781e+00 -1.815255761146544966e+00 -7.959062457084655762e-01 2.000000000000000000e+00
-3.424091720581054688e+01 -6.947724342346191406e+00 -6.098569035530090332e-01 7.000000000000000000e+00
-2.566105842590332031e+00 -5.169516801834106445e-01 -7.013996243476867676e-01 1.800000000000000000e+01
-4.517307281494141336e+01 -9.092081069946289062e+00 8.043115735054016113e-01 5.200000000000000000e+01
-3.005208969116210938e+00 -6.043190956115722656e-01 -7.076960206031799316e-01 1.400000000000000000e+01
-4.518227767944335938e+01 -9.085728645324707031e+00 2.415304422378540039e+00 3.700000000000000000e+01
-3.570489406585692915e+00 -7.173432707786560059e-01 -7.079013586044311523e-01 1.300000000000000000e+01
-4.470163345336914062e+00 -8.964726328849792480e-01 -7.221015095710754395e-01 1.100000000000000000e+01
-5.940640926361083984e+00 -1.189213752746582031e+00 -7.438904643058776855e-01 9.000000000000000000e+00
-8.908863067626953125e+00 -1.781783580780029075e+00 -7.948603630065917969e-01 1.000000000000000000e+00
-3.435909271240233664e+01 -6.846917629241943359e+00 -6.115323305130004883e-01 1.400000000000000000e+01
-2.556524038314818892e+00 -5.057417154312133789e-01 -6.982938051223754883e-01 1.900000000000000000e+01
-4.516922378540039062e+01 -8.927363395690917969e+00 8.036833405494689941e-01 5.200000000000000000e+01
-3.009212017059326172e+00 -5.942027568817138672e-01 -7.081459164619445801e-01 1.500000000000000000e+01
-4.518784332275391336e+01 -8.914654731750488281e+00 2.413838863372803178e+00 3.700000000000000000e+01
-3.584528446197510210e+00 -7.071555256843566895e-01 -7.101910710334777832e-01 1.300000000000000000e+01
-4.461636543273925781e+00 -8.785734772682189941e-01 -7.202242612838745117e-01 1.100000000000000000e+01
-5.938912391662597656e+00 -1.167321324348449929e+00 -7.431592345237731934e-01 1.100000000000000000e+01
-8.915028572082519531e+00 -1.750674962997436968e+00 -7.948603630065917969e-01 2.000000000000000000e+00
-3.444558334350585938e+01 -6.739226818084716797e+00 -6.126492619514465332e-01 7.000000000000000000e+00
-2.562066555023192915e+00 -4.975512623786926270e-01 -6.993290781974792480e-01 1.800000000000000000e+01
-4.518048095703125000e+01 -8.765830039978027344e+00 8.033342957496643066e-01 5.200000000000000000e+01
-3.003615140914916992e+00 -5.822117328643798828e-01 -7.063463330268859863e-01 1.500000000000000000e+01
-4.518578338623046875e+01 -8.758676528930664062e+00 2.412164211273192915e+00 3.700000000000000000e+01
-3.583120107650756836e+00 -6.938923597335815430e-01 -7.094278335571289062e-01 1.300000000000000000e+01
-4.449160575866699219e+00 -8.599949479103088379e-01 -7.177213430404663086e-01 1.100000000000000000e+01
-5.941001892089843750e+00 -1.146207451820373979e+00 -7.429155111312866211e-01 9.000000000000000000e+00
-8.905434608459472656e+00 -1.716528296470642090e+00 -7.934658527374267578e-01 1.000000000000000000e+00
-3.444140625000000000e+01 -6.613668918609619141e+00 -6.121606230735778809e-01 7.000000000000000000e+00
-2.571378707885742188e+00 -4.900515973567963202e-01 -7.013996243476867676e-01 1.900000000000000000e+01
-4.518722915649414062e+01 -8.603578567504882812e+00 8.029153943061828613e-01 5.200000000000000000e+01
-2.990314006805419922e+00 -5.688103437423706055e-01 -7.027471065521240234e-01 1.500000000000000000e+01
-4.520038604736328125e+01 -8.597908973693847656e+00 2.411326885223389116e+00 3.700000000000000000e+01
-3.593235254287720171e+00 -6.828467845916748047e-01 -7.109543085098266602e-01 1.400000000000000000e+01
-4.459898471832275391e+00 -8.459317088127136230e-01 -7.189728021621704102e-01 1.100000000000000000e+01
-5.933263778686523438e+00 -1.123247027397155984e+00 -7.414531111717224121e-01 9.000000000000000000e+00
-8.907456398010253906e+00 -1.684691548347472922e+00 -7.931172847747802734e-01 1.000000000000000000e+00
-3.441711807250977273e+01 -6.484519958496093750e+00 -6.113228797912597656e-01 7.000000000000000000e+00
-2.567376613616942915e+00 -4.800077080726624090e-01 -6.998466849327087402e-01 1.900000000000000000e+01
-4.518946838378906250e+01 -8.440653800964355469e+00 8.024267554283142090e-01 5.100000000000000000e+01
-2.996112585067749023e+00 -5.590837001800537109e-01 -7.036468982696533203e-01 1.500000000000000000e+01
-4.520018005371093750e+01 -8.426327705383300781e+00 2.409651994705200195e+00 3.700000000000000000e+01
-3.587877035140991211e+00 -6.688607335090637207e-01 -7.094278335571289062e-01 1.400000000000000000e+01
-4.470592021942138672e+00 -8.318039774894714355e-01 -7.202242612838745117e-01 1.100000000000000000e+01
-5.941051959991455078e+00 -1.103254079818726030e+00 -7.419405579566955566e-01 9.000000000000000000e+00
-8.878021240234375000e+00 -1.647046804428101030e+00 -7.899796366691589355e-01 1.000000000000000000e+00
-3.439628219604492188e+01 -6.356347560882568359e+00 -6.105549931526184082e-01 1.400000000000000000e+01
-2.572836875915526900e+00 -4.717397987842559814e-01 -7.008819580078125000e-01 1.900000000000000000e+01
-4.515964508056641336e+01 -8.272052764892578125e+00 8.013796210289001465e-01 5.100000000000000000e+01
-3.001879692077637163e+00 -5.493234395980834961e-01 -7.045466899871826172e-01 1.600000000000000000e+01
-4.522394561767578125e+01 -8.275672912597656250e+00 2.409442663192749023e+00 3.700000000000000000e+01
-3.570877552032471147e+00 -6.528020501136779785e-01 -7.056116461753845215e-01 1.300000000000000000e+01
-4.469582080841063565e+00 -8.154845237731933594e-01 -7.195985317230224609e-01 1.100000000000000000e+01
-5.937055110931395596e+00 -1.081086754798888938e+00 -7.409656047821044922e-01 9.000000000000000000e+00
-8.907238960266113281e+00 -1.620325684547424094e+00 -7.920714020729064941e-01 1.000000000000000000e+00
-3.445367813110352273e+01 -6.242660999298095703e+00 -6.111832857131958008e-01 1.400000000000000000e+01
-2.559257030487060991e+00 -4.600218832492827814e-01 -6.967408657073974609e-01 1.800000000000000000e+01
-4.518824768066406250e+01 -8.114365577697753906e+00 8.013796210289001465e-01 5.100000000000000000e+01
-3.013369560241699219e+00 -5.405620336532592773e-01 -7.067962288856506348e-01 1.400000000000000000e+01
-4.520734405517578125e+01 -8.109650611877441406e+00 2.407035350799560991e+00 3.700000000000000000e+01
-3.580864191055297852e+00 -6.417186260223388672e-01 -7.071381211280822754e-01 1.300000000000000000e+01
-4.466567516326904297e+00 -7.988345026969909668e-01 -7.186599373817443848e-01 1.200000000000000000e+01
-5.940792560577392578e+00 -1.060356020927428977e+00 -7.409656047821044922e-01 9.000000000000000000e+00
-8.873612403869628906e+00 -1.582228899002074973e+00 -7.885851860046386719e-01 2.000000000000000000e+00
-3.447132110595703125e+01 -6.121657848358154297e+00 -6.111134886741638184e-01 1.400000000000000000e+01
-2.564652204513549805e+00 -4.517558515071868896e-01 -6.977761387825012207e-01 1.900000000000000000e+01
-4.514145660400391336e+01 -7.943410396575927734e+00 8.000532388687133789e-01 5.100000000000000000e+01
-3.005641460418701172e+00 -5.283531546592712402e-01 -7.045466899871826172e-01 1.600000000000000000e+01
-4.521570587158203125e+01 -7.948339939117431641e+00 2.405988693237305132e+00 3.700000000000000000e+01
-3.588883399963378906e+00 -6.302338838577270508e-01 -7.082830071449279785e-01 1.300000000000000000e+01
-4.459600448608398438e+00 -7.815334796905517578e-01 -7.170956134796142578e-01 1.100000000000000000e+01
-5.967922687530517578e+00 -1.043715953826904075e+00 -7.438904643058776855e-01 9.000000000000000000e+00
-8.859454154968261719e+00 -1.547815680503844993e+00 -7.868420481681823730e-01 2.000000000000000000e+00
-3.426789093017578125e+01 -5.962216854095458984e+00 -6.071343421936035156e-01 1.300000000000000000e+01
-2.579539537429810014e+00 -4.451002180576323908e-01 -7.013996243476867676e-01 2.200000000000000000e+01
-4.514920425415039062e+01 -7.782392024993895596e+00 7.997041940689086914e-01 5.100000000000000000e+01
-2.999785661697388139e+00 -5.165355205535888672e-01 -7.027471065521240234e-01 1.500000000000000000e+01
-4.524317169189453125e+01 -7.790459156036376953e+00 2.405988693237305132e+00 3.700000000000000000e+01
-3.583322048187255859e+00 -6.163712739944458008e-01 -7.067565321922302246e-01 1.200000000000000000e+01
-4.464248180389404297e+00 -7.662959694862365723e-01 -7.174084782600402832e-01 1.200000000000000000e+01
-5.940224170684813565e+00 -1.017515301704406960e+00 -7.399906516075134277e-01 9.000000000000000000e+00
-8.841237068176269531e+00 -1.512848496437072976e+00 -7.847502827644348145e-01 2.000000000000000000e+00
-3.444225311279296875e+01 -5.868762969970703125e+00 -6.098569035530090332e-01 1.400000000000000000e+01
-2.584887266159058061e+00 -4.367369115352631170e-01 -7.024348974227905273e-01 2.200000000000000000e+01
-4.516820526123046875e+01 -7.623413562774658203e+00 7.995645403861999512e-01 5.100000000000000000e+01
-3.003491878509521040e+00 -5.063851475715637207e-01 -7.031970024108886719e-01 1.400000000000000000e+01
-4.519919204711914062e+01 -7.620529651641845703e+00 2.402220487594604048e+00 3.600000000000000000e+01
-3.585451841354370117e+00 -6.038593649864196777e-01 -7.067565321922302246e-01 1.200000000000000000e+01
-4.468843936920166016e+00 -7.510355710983276367e-01 -7.177213430404663086e-01 1.100000000000000000e+01
-5.916330814361572266e+00 -9.921774268150329590e-01 -7.365782856941223145e-01 1.100000000000000000e+01
-8.858254432678222656e+00 -1.483952760696410911e+00 -7.857961654663085938e-01 1.000000000000000000e+00
-3.442308044433593750e+01 -5.741920948028563565e+00 -6.091588139533996582e-01 1.300000000000000000e+01
-2.571148157119750977e+00 -4.251897931098937988e-01 -6.982938051223754883e-01 2.100000000000000000e+01
-4.518270492553710938e+01 -7.463745117187500000e+00 7.993551492691040039e-01 5.100000000000000000e+01
-3.005241394042969194e+00 -4.958979487419127863e-01 -7.031970024108886719e-01 1.400000000000000000e+01
-4.515587234497070312e+01 -7.443121433258056641e+00 2.398452281951903853e+00 3.600000000000000000e+01
-3.572041034698485884e+00 -5.887857675552368164e-01 -7.037035822868347168e-01 1.200000000000000000e+01
-4.475336551666259766e+00 -7.360730171203613281e-01 -7.183470726013183594e-01 1.100000000000000000e+01
-5.925634860992431641e+00 -9.724839925765991211e-01 -7.373095154762268066e-01 1.100000000000000000e+01
-8.859447479248046875e+00 -1.452378034591675027e+00 -7.854475378990173340e-01 2.000000000000000000e+00
-3.444291305541992188e+01 -5.621726989746093750e+00 -6.091588139533996582e-01 6.000000000000000000e+00
-2.559267520904541016e+00 -4.140524864196776789e-01 -6.946703195571899414e-01 2.000000000000000000e+01
-4.518084335327147727e+01 -7.301516056060791016e+00 7.988664507865905762e-01 5.100000000000000000e+01
-3.006953954696654829e+00 -4.854046702384948730e-01 -7.031970024108886719e-01 1.400000000000000000e+01
-4.516580581665039062e+01 -7.282908916473388672e+00 2.397614717483520952e+00 3.600000000000000000e+01
-3.579889059066772017e+00 -5.772510170936584473e-01 -7.048484086990356445e-01 1.300000000000000000e+01
-4.477878570556640625e+00 -7.204467058181762695e-01 -7.183470726013183594e-01 1.100000000000000000e+01
-5.938793659210205078e+00 -9.533669352531433105e-01 -7.385281920433044434e-01 9.000000000000000000e+00
-8.840856552124023438e+00 -1.417658448219299094e+00 -7.833558320999145508e-01 2.000000000000000000e+00
-3.447812652587891336e+01 -5.503986835479736328e+00 -6.094380617141723633e-01 7.000000000000000000e+00
-2.566350698471068892e+00 -4.064700007438660223e-01 -6.962232589721679688e-01 2.100000000000000000e+01
-4.517715835571289062e+01 -7.147276401519775391e+00 7.983778119087219238e-01 5.100000000000000000e+01
-3.012396812438964844e+00 -4.760389328002930243e-01 -7.040967941284179688e-01 1.400000000000000000e+01
-4.520154571533203125e+01 -7.134962081909179688e+00 2.398242950439453125e+00 3.600000000000000000e+01
-3.577905178070067915e+00 -5.647642612457275391e-01 -7.040851712226867676e-01 1.300000000000000000e+01
-4.466583728790283203e+00 -7.034423351287841797e-01 -7.161569595336914062e-01 1.000000000000000000e+01
-5.947805404663085938e+00 -9.345923662185668945e-01 -7.392594218254089355e-01 1.100000000000000000e+01
-8.845508575439453125e+00 -1.388333320617676003e+00 -7.833558320999145508e-01 2.000000000000000000e+00
-3.472142028808593750e+01 -5.424812793731688565e+00 -6.134172081947326660e-01 1.400000000000000000e+01
-2.575390338897705078e+00 -3.986914753913878839e-01 -6.982938051223754883e-01 2.200000000000000000e+01
-4.515835571289063211e+01 -6.982812404632568359e+00 7.976098656654357910e-01 5.100000000000000000e+01
-2.990929365158081055e+00 -4.619513154029846191e-01 -6.986979842185974121e-01 1.400000000000000000e+01
-4.520248794555664062e+01 -6.973481655120849609e+00 2.396986722946166992e+00 3.600000000000000000e+01
-3.593436956405640093e+00 -5.543669462203979492e-01 -7.067565321922302246e-01 1.200000000000000000e+01
-4.470964431762695312e+00 -6.881472468376159668e-01 -7.164698243141174316e-01 1.100000000000000000e+01
-5.935334682464599609e+00 -9.114146232604980469e-01 -7.373095154762268066e-01 1.100000000000000000e+01
-8.873933792114257812e+00 -1.361072897911071999e+00 -7.854475378990173340e-01 1.000000000000000000e+00
-3.475200653076171875e+01 -5.305389881134033203e+00 -6.136265993118286133e-01 1.400000000000000000e+01
-2.580654621124268022e+00 -3.898266255855559748e-01 -6.993290781974792480e-01 2.100000000000000000e+01
-4.516782379150391336e+01 -6.814865112304688388e+00 7.973306179046630859e-01 5.100000000000000000e+01
-2.996456384658813032e+00 -4.515667259693145752e-01 -6.995977759361267090e-01 1.400000000000000000e+01
-4.518824386596679688e+01 -6.801814079284667969e+00 2.394893407821654829e+00 3.600000000000000000e+01
-3.579913616180419922e+00 -5.388548970222473145e-01 -7.037035822868347168e-01 1.300000000000000000e+01
-4.471503257751464844e+00 -6.714624166488647461e-01 -7.161569595336914062e-01 1.000000000000000000e+01
-5.932745933532714844e+00 -8.887720704078674316e-01 -7.365782856941223145e-01 1.100000000000000000e+01
-8.851276397705078125e+00 -1.324411511421204057e+00 -7.830072045326232910e-01 2.000000000000000000e+00
-3.474748229980468750e+01 -5.174447536468505859e+00 -6.132077574729919434e-01 1.400000000000000000e+01
-2.572443723678588867e+00 -3.794066905975341797e-01 -6.967408657073974609e-01 1.900000000000000000e+01
-4.517947006225585938e+01 -6.655409812927246094e+00 7.971212267875671387e-01 5.100000000000000000e+01
-2.999942302703856978e+00 -4.413880407810211182e-01 -7.000476717948913574e-01 1.200000000000000000e+01
-4.521566390991210938e+01 -6.644616603851318359e+00 2.395102739334106001e+00 3.600000000000000000e+01
-3.572060585021973100e+00 -5.249281525611877441e-01 -7.017954587936401367e-01 1.300000000000000000e+01
-4.483592510223388672e+00 -6.572824716567993164e-01 -7.177213430404663086e-01 1.100000000000000000e+01
-5.916170120239257812e+00 -8.651850819587707520e-01 -7.341409325599670410e-01 9.000000000000000000e+00
-8.828245162963867188e+00 -1.289475321769713911e+00 -7.805668115615844727e-01 2.000000000000000000e+00
-3.476533508300781250e+01 -5.053124427795410156e+00 -6.132077574729919434e-01 1.400000000000000000e+01
