1.770535707473754883e-01 2.544749021530150923e+00 -5.889218449592590332e-01 1.200000000000000000e+01
2.407938241958617887e-01 3.460872411727904829e+00 1.818151175975800116e-01 5.100000000000000000e+01
2.061412930488585871e-01 2.955370187759398970e+00 -5.758615732192993164e-01 1.000000000000000000e+01
2.466931492090224942e-01 3.527876377105712891e+00 3.094028830528259277e-01 7.000000000000000000e+00
2.469929605722427091e-01 3.523326635360718218e+00 -5.594096183776855469e-01 9.000000000000000000e+00
2.503565251827239990e-01 3.562394618988037109e+00 4.384858906269072931e-01 3.100000000000000000e+01
3.066427111625670832e-01 4.352444171905517578e+00 -5.357376337051391602e-01 7.000000000000000000e+00
2.557533979415894110e-01 3.621113061904906782e+00 -3.175955116748809814e-01 1.000000000000000000e+00
2.418078631162642878e-01 3.406742095947266069e+00 -1.789889633655548096e-01 2.550000000000000000e+02
2.398787885904312134e-01 3.362941980361938032e+00 -5.884951353073120117e-02 5.900000000000000000e+01
1.622503697872161865e-01 2.225381851196289062e+00 -5.978720188140869141e-01 1.500000000000000000e+01
2.495375722646712979e-01 3.414371967315673828e+00 5.975703895092009804e-02 4.600000000000000000e+01
1.868064999580383023e-01 2.549913406372069868e+00 -5.902715921401977539e-01 1.100000000000000000e+01
2.552510201930999756e-01 3.475857496261597124e+00 1.826524883508681973e-01 5.200000000000000000e+01
2.172594517469406128e-01 2.958510875701903853e+00 -5.766248106956481934e-01 1.000000000000000000e+01
2.591830193996428888e-01 3.520987510681151900e+00 3.088799417018889826e-01 6.000000000000000000e+00
2.593235075473784845e-01 3.514517784118651900e+00 -5.581581592559814453e-01 9.000000000000000000e+00
2.634116709232329767e-01 3.561453104019165039e+00 4.384858906269072931e-01 2.800000000000000000e+01
3.236205279827117920e-01 4.365149021148681641e+00 -5.374438166618347168e-01 9.000000000000000000e+00
2.542925775051116943e-01 3.405833005905150923e+00 -1.789889633655548096e-01 2.550000000000000000e+02
2.528013288974761963e-01 3.370016574859619141e+00 -5.898913368582726219e-02 5.800000000000000000e+01
1.706062257289885919e-01 2.232506752014160156e+00 -5.999425649642944336e-01 1.500000000000000000e+01
2.616071403026580811e-01 3.415473937988280806e+00 5.979194492101669312e-02 4.500000000000000000e+01
1.952587217092514038e-01 2.543416738510131836e+00 -5.889218449592590332e-01 1.200000000000000000e+01
2.664702236652374268e-01 3.471009016036986861e+00 1.824431419372558871e-01 5.100000000000000000e+01
2.283383607864379883e-01 2.967521667480469194e+00 -5.785328745841979980e-01 1.100000000000000000e+01
2.702463567256926935e-01 3.504169464111328125e+00 3.074854612350463867e-01 1.000000000000000000e+00
2.712853848934174139e-01 3.509652137756348100e+00 -5.575324296951293945e-01 9.000000000000000000e+00
2.772218286991118830e-01 3.578324317932128906e+00 4.406795501708983820e-01 2.900000000000000000e+01
3.382410705089569092e-01 4.356076240539550781e+00 -5.364688634872436523e-01 9.000000000000000000e+00
2.990252375602722168e-01 3.842341899871826172e+00 6.104072928428649902e-01 1.100000000000000000e+01
2.915523648262023926e-01 3.746318578720093218e+00 -3.287514746189116877e-01 1.000000000000000000e+00
2.658682763576508123e-01 3.400942325592041016e+00 -1.787796318531036099e-01 2.550000000000000000e+02
2.658157050609589178e-01 3.385061979293822798e+00 -5.926837399601936340e-02 5.400000000000000000e+01
1.781621277332305908e-01 2.233854532241820845e+00 -6.004601716995239258e-01 1.600000000000000000e+01
2.738878130912780762e-01 3.426547765731811968e+00 6.000137329101563194e-02 4.400000000000000000e+01
2.032251060009002963e-01 2.536927700042725053e+00 -5.875721573829650879e-01 1.100000000000000000e+01
2.779790163040161133e-01 3.470106363296508789e+00 1.824431419372558871e-01 5.100000000000000000e+01
2.367637753486633023e-01 2.949135541915893999e+00 -5.750983357429504395e-01 1.000000000000000000e+01
2.857000231742858887e-01 3.550917387008666992e+00 3.116689324378966730e-01 1.000000000000000000e+00
2.835573852062224787e-01 3.516609191894530806e+00 -5.587838888168334961e-01 9.000000000000000000e+00
2.897260189056395929e-01 3.585299968719481978e+00 4.416545033454895020e-01 2.600000000000000000e+01
3.498001992702484131e-01 4.319315433502197266e+00 -5.320815443992614746e-01 6.000000000000000000e+00
3.098191916942595880e-01 3.825632095336914062e+00 6.079043149948120117e-01 5.000000000000000000e+00
2.959153056144713800e-01 3.646038293838500977e+00 -3.200358748435974121e-01 1.000000000000000000e+00
2.774692773818969727e-01 3.404023170471190962e+00 -1.789889633655548096e-01 2.550000000000000000e+02
2.767131924629210871e-01 3.380175828933715820e+00 -5.919856205582618713e-02 5.400000000000000000e+01
1.856380403041839877e-01 2.229368686676024947e+00 -5.994248986244201660e-01 1.500000000000000000e+01
2.865121662616729736e-01 3.433541774749755859e+00 6.014099344611167908e-02 4.500000000000000000e+01
2.124041616916655939e-01 2.540086746215819868e+00 -5.884719491004943848e-01 1.100000000000000000e+01
2.907559871673583984e-01 3.477076053619385210e+00 1.828618347644805908e-01 5.000000000000000000e+01
2.470567375421524048e-01 2.948291301727294922e+00 -5.750983357429504395e-01 1.100000000000000000e+01
2.960926592350006104e-01 3.526073694229125977e+00 3.095771968364716131e-01 1.000000000000000000e+00
2.961622178554534912e-01 3.519534826278686968e+00 -5.594096183776855469e-01 9.000000000000000000e+00
3.037405014038085938e-01 3.602069377899169922e+00 4.438481628894805908e-01 2.100000000000000000e+01
3.364607989788054865e-01 3.981800794601439986e+00 -4.906459748744965155e-01 1.000000000000000000e+00
2.895312011241912842e-01 3.391144037246704102e+00 -5.940799042582511902e-02 5.200000000000000000e+01
1.925837099552155096e-01 2.219084024429320845e+00 -5.968367457389831543e-01 1.600000000000000000e+01
2.988422214984893799e-01 3.436505317687987837e+00 6.021080166101455688e-02 4.400000000000000000e+01
2.216077595949172974e-01 2.543212652206420898e+00 -5.893717408180236816e-01 1.100000000000000000e+01
3.046252727508544922e-01 3.495937108993529829e+00 1.839085519313811978e-01 4.800000000000000000e+01
2.578589916229248047e-01 2.953278303146361861e+00 -5.762431621551513672e-01 1.100000000000000000e+01
3.115248382091522217e-01 3.560745000839232954e+00 3.127148151397705078e-01 5.000000000000000000e+00
3.077558279037476141e-01 3.510608196258544922e+00 -5.581581592559814453e-01 9.000000000000000000e+00
3.175281286239624023e-01 3.614829540252685991e+00 4.455543160438538153e-01 2.200000000000000000e+01
3.451364040374755859e-01 3.921278476715087891e+00 -4.833338260650634766e-01 0.000000000000000000e+00
3.252127766609191895e-01 3.687546730041503906e+00 -3.238707482814788818e-01 1.000000000000000000e+00
3.020749986171721857e-01 3.398080110549927202e+00 -5.954761058092117310e-02 5.000000000000000000e+01
2.006760835647583008e-01 2.222246170043944868e+00 -5.978720188140869141e-01 1.600000000000000000e+01
3.101152479648590088e-01 3.427474975585937944e+00 6.007118150591850281e-02 4.500000000000000000e+01
2.311876565217972079e-01 2.550186872482299805e+00 -5.911713838577270508e-01 1.100000000000000000e+01
3.171871602535247803e-01 3.498830795288085938e+00 1.841178983449935913e-01 5.000000000000000000e+01
2.681662738323212225e-01 2.952360153198242188e+00 -5.762431621551513672e-01 1.100000000000000000e+01
3.257580101490020752e-01 3.579477787017821822e+00 3.144579231739044189e-01 5.000000000000000000e+00
3.203670084476470947e-01 3.513447046279906782e+00 -5.587838888168334961e-01 9.000000000000000000e+00
3.310473263263701837e-01 3.623583555221558061e+00 4.467730224132537842e-01 1.200000000000000000e+01
3.559269309043884277e-01 3.888420581817626953e+00 -4.794339835643767755e-01 0.000000000000000000e+00
3.355352878570557196e-01 3.658612012863159180e+00 -3.214303851127625067e-01 1.000000000000000000e+00
3.145650327205657959e-01 3.416841745376586914e+00 -1.798263490200043002e-01 4.900000000000000000e+01
3.154068291187285822e-01 3.412934780120850053e+00 -5.982685089111328125e-02 4.800000000000000000e+01
2.091537863016129095e-01 2.229225873947143999e+00 -5.999425649642944336e-01 1.600000000000000000e+01
3.239489495754241943e-01 3.446280717849731001e+00 6.042023003101348877e-02 4.300000000000000000e+01
2.386263310909270963e-01 2.533843040466309038e+00 -5.875721573829650879e-01 1.200000000000000000e+01
3.303841054439545233e-01 3.501621484756470171e+00 1.843272447586060125e-01 4.900000000000000000e+01
2.782858908176422119e-01 2.949451446533203125e+00 -5.758615732192993164e-01 1.000000000000000000e+01
3.393757343292235773e-01 3.590220212936400923e+00 3.155037760734558105e-01 2.000000000000000000e+00
3.324430584907531738e-01 3.510340690612792969e+00 -5.584710240364074707e-01 9.000000000000000000e+00
3.459440171718596857e-01 3.646120548248291016e+00 4.496978819370269775e-01 9.000000000000000000e+00
3.668680191040039062e-01 3.859488010406494141e+00 -4.760216474533081055e-01 2.000000000000000000e+00
3.426376283168792725e-01 3.597916126251221147e+00 -3.162010312080382746e-01 1.000000000000000000e+00
3.259200155735015869e-01 3.409758329391479048e+00 -1.795123368501662930e-01 4.500000000000000000e+01
3.290369808673859198e-01 3.429728031158446822e+00 -6.014099344611167908e-02 4.300000000000000000e+01
2.178698331117630005e-01 2.238095998764038086e+00 -6.025307178497314453e-01 1.900000000000000000e+01
3.363649249076843262e-01 3.449109315872191939e+00 6.049004197120667198e-02 4.300000000000000000e+01
2.470906674861907959e-01 2.529115676879882812e+00 -5.866723656654357910e-01 1.100000000000000000e+01
3.433832228183745783e-01 3.508398056030272993e+00 1.847459226846694946e-01 4.800000000000000000e+01
2.891534268856049139e-01 2.954324007034302202e+00 -5.770063996315002441e-01 1.100000000000000000e+01
3.544333875179290771e-01 3.614791154861450195e+00 3.177698254585266113e-01 1.000000000000000000e+00
3.446944057941436768e-01 3.509158849716186968e+00 -5.584710240364074707e-01 8.000000000000000000e+00
3.619740605354309082e-01 3.678475141525268999e+00 4.538414478302001953e-01 4.000000000000000000e+00
3.783904314041138250e-01 3.838428735733031782e+00 -4.735842645168303888e-01 3.000000000000000000e+00
3.551946282386779785e-01 3.596698045730590820e+00 -3.162010312080382746e-01 1.000000000000000000e+00
3.403810262680054266e-01 3.434437513351439986e+00 -1.808730661869049072e-01 4.300000000000000000e+01
3.421944379806519110e-01 3.440497636795043945e+00 -6.035042181611061096e-02 4.500000000000000000e+01
2.254870235919952115e-01 2.235399723052978960e+00 -6.020131111145019531e-01 1.800000000000000000e+01
3.506139516830443781e-01 3.469799518585205078e+00 6.087399274110794067e-02 4.200000000000000000e+01
2.563099265098571777e-01 2.532115459442139116e+00 -5.875721573829650879e-01 1.100000000000000000e+01
3.566351830959320068e-01 3.517113447189331055e+00 1.852692812681198120e-01 4.600000000000000000e+01
2.988699972629547119e-01 2.947436809539794922e+00 -5.758615732192993164e-01 1.000000000000000000e+01
3.670491874217987061e-01 3.613532066345214844e+00 3.177698254585266113e-01 1.000000000000000000e+00
3.575414419174193781e-01 3.513829946517943892e+00 -5.594096183776855469e-01 9.000000000000000000e+00
3.938031494617462158e-01 3.856832742691040039e+00 -4.760216474533081055e-01 2.000000000000000000e+00
3.681527376174926758e-01 3.599400520324707031e+00 -3.165496587753295898e-01 1.000000000000000000e+00
3.544065654277802069e-01 3.453096866607666016e+00 -1.819197833538054865e-01 3.700000000000000000e+01
3.548165261745452881e-01 3.445249795913695845e+00 -6.045513600111007690e-02 4.000000000000000000e+01
2.318845093250274936e-01 2.221149206161499023e+00 -5.983896255493164062e-01 1.600000000000000000e+01
3.633476197719573975e-01 3.474520921707152876e+00 6.097870692610740662e-02 4.200000000000000000e+01
2.667712867259979248e-01 2.546710252761840820e+00 -5.911713838577270508e-01 1.100000000000000000e+01
3.705774247646331787e-01 3.531737804412841797e+00 1.861066669225693027e-01 4.300000000000000000e+01
3.087469041347504217e-01 2.942470550537108931e+00 -5.750983357429504395e-01 1.000000000000000000e+01
3.871579468250275213e-01 3.683561801910399947e+00 3.240450620651245117e-01 1.000000000000000000e+00
3.693911731243134100e-01 3.508631467819213867e+00 -5.587838888168334961e-01 9.000000000000000000e+00
4.051782786846160889e-01 3.835693597793579102e+00 -4.735842645168303888e-01 3.000000000000000000e+00
3.781990110874176025e-01 3.574317455291748047e+00 -3.144579231739044189e-01 6.000000000000000000e+00
3.687773048877716064e-01 3.473685741424560991e+00 -1.830711811780930121e-01 2.900000000000000000e+01
3.689585328102111816e-01 3.463874816894530806e+00 -6.080418452620506287e-02 3.900000000000000000e+01
2.390144616365433017e-01 2.214564085006713867e+00 -5.968367457389831543e-01 1.600000000000000000e+01
3.754737377166748047e-01 3.473231554031372070e+00 6.097870692610740662e-02 4.300000000000000000e+01
2.748201787471771240e-01 2.538013935089110884e+00 -5.893717408180236816e-01 1.100000000000000000e+01
3.841953575611115057e-01 3.542336463928223100e+00 1.867346912622452060e-01 4.300000000000000000e+01
3.188044726848601740e-01 2.939423084259033203e+00 -5.747166872024536133e-01 1.200000000000000000e+01
3.892547786235808771e-01 3.583151102066040039e+00 3.153294920921326239e-01 1.500000000000000000e+01
3.807815909385681152e-01 3.499465465545653853e+00 -5.575324296951293945e-01 9.000000000000000000e+00
4.179186224937438965e-01 3.828335762023925781e+00 -4.728530645370482843e-01 3.000000000000000000e+00
3.943549096584320068e-01 3.606645584106444868e+00 -3.174212276935576837e-01 6.000000000000000000e+00
3.826427459716796875e-01 3.488260030746459961e+00 -1.839085519313811978e-01 2.200000000000000000e+01
3.823599219322205145e-01 3.474491834640502930e+00 -6.101361289620398781e-02 3.100000000000000000e+01
2.480272799730300903e-01 2.225235939025878906e+00 -5.999425649642944336e-01 1.600000000000000000e+01
3.889264762401580811e-01 3.483823776245117188e+00 6.118813529610633850e-02 4.300000000000000000e+01
2.823785543441771906e-01 2.525419235229492188e+00 -5.866723656654357910e-01 1.000000000000000000e+01
3.978917896747589111e-01 3.552882909774779829e+00 1.873627305030823031e-01 3.800000000000000000e+01
3.312480449676514227e-01 2.957803010940552202e+00 -5.785328745841979980e-01 1.100000000000000000e+01
4.048691987991333008e-01 3.609490156173706055e+00 3.177698254585266113e-01 1.000000000000000000e+00
3.927741646766663153e-01 3.496151924133300781e+00 -5.572195649147033691e-01 8.000000000000000000e+00
4.339471757411956787e-01 3.850524902343750000e+00 -4.757779240608214777e-01 2.000000000000000000e+00
4.105176031589508057e-01 3.636924028396606001e+00 -3.202101886272429865e-01 5.000000000000000000e+00
3.975132405757904053e-01 3.510718107223511186e+00 -1.851646155118941983e-01 1.500000000000000000e+01
3.971939682960510254e-01 3.496979236602783203e+00 -6.143246963620185852e-02 2.500000000000000000e+01
2.556254267692565918e-01 2.226320505142211914e+00 -6.004601716995239258e-01 1.500000000000000000e+01
4.034470021724700928e-01 3.508340835571289062e+00 6.164189800620079041e-02 3.400000000000000000e+01
2.916434705257415771e-01 2.532212734222412109e+00 -5.884719491004943848e-01 1.000000000000000000e+01
4.108157157897949219e-01 3.561464548110961914e+00 1.878860890865325928e-01 3.400000000000000000e+01
3.388049602508544922e-01 2.937185049057006836e+00 -5.747166872024536133e-01 1.100000000000000000e+01
4.282691776752471924e-01 3.707088947296143022e+00 3.264854252338408869e-01 1.000000000000000000e+00
4.043656587600708008e-01 3.494830369949340820e+00 -5.572195649147033691e-01 9.000000000000000000e+00
4.448828101158142090e-01 3.833289861679077148e+00 -4.738280177116394043e-01 2.000000000000000000e+00
4.379882216453552246e-01 3.768140077590941939e+00 -3.318890631198883057e-01 2.000000000000000000e+00
4.140101075172423761e-01 3.551040887832642046e+00 -1.873627305030823031e-01 1.700000000000000000e+01
4.122721850872039795e-01 3.525435209274291992e+00 -6.195604428648948669e-02 1.800000000000000000e+01
2.627139985561370850e-01 2.219659328460692915e+00 -5.989072918891906738e-01 1.500000000000000000e+01
4.182801842689514160e-01 3.528754711151123047e+00 6.202585250139235756e-02 2.300000000000000000e+01
2.995618581771851141e-01 2.523438692092895952e+00 -5.866723656654357910e-01 1.100000000000000000e+01
4.263103306293488104e-01 3.585791587829589844e+00 1.892468184232712070e-01 2.800000000000000000e+01
3.485920131206511896e-01 2.932085514068603960e+00 -5.739534497261047363e-01 1.100000000000000000e+01
4.181996881961823065e-01 3.507127761840819868e+00 -5.594096183776855469e-01 9.000000000000000000e+00
4.582607746124268133e-01 3.831713438034058061e+00 -4.738280177116394043e-01 3.000000000000000000e+00
4.497171640396118164e-01 3.754718780517578125e+00 -3.308432102203369141e-01 1.000000000000000000e+00
4.294998049736022949e-01 3.575353145599364790e+00 -1.887234598398208896e-01 2.100000000000000000e+01
4.284029006958007812e-01 3.555739879608153853e+00 -6.251452118158340454e-02 1.200000000000000000e+01
2.697591781616210938e-01 2.212975740432738814e+00 -5.973543524742126465e-01 1.900000000000000000e+01
4.342300295829772949e-01 3.557047605514525923e+00 6.254942715167999268e-02 1.200000000000000000e+01
3.102602958679199219e-01 2.537852287292480025e+00 -5.902715921401977539e-01 1.100000000000000000e+01
4.422224760055541992e-01 3.612035989761352983e+00 1.907122284173964899e-01 1.700000000000000000e+01
3.590633571147919256e-01 2.932799577713013139e+00 -5.743350982666015625e-01 1.100000000000000000e+01
4.531690180301666260e-01 3.696098566055297852e+00 3.257881700992584229e-01 1.000000000000000000e+00
4.292356073856353760e-01 3.495843410491942915e+00 -5.578452944755554199e-01 8.000000000000000000e+00
4.755148887634276789e-01 3.861613988876343218e+00 -4.777278304100037176e-01 2.000000000000000000e+00
4.640400707721710205e-01 3.763013124465941939e+00 -3.317147493362426758e-01 3.000000000000000000e+00
4.456545412540435791e-01 3.603564500808715820e+00 -1.902935355901717862e-01 2.500000000000000000e+01
4.462268948554993231e-01 3.597881793975830078e+00 -6.328242272138595581e-02 1.100000000000000000e+01
2.782036066055297852e-01 2.217771053314208984e+00 -5.989072918891906738e-01 1.800000000000000000e+01
4.523763954639434814e-01 3.601144552230834961e+00 6.335223466157913208e-02 8.000000000000000000e+00
3.191171884536743164e-01 2.536753654479980025e+00 -5.902715921401977539e-01 1.100000000000000000e+01
4.590718448162078857e-01 3.644157409667969194e+00 1.924916505813598910e-01 6.000000000000000000e+00
3.697893321514130194e-01 2.935423851013184038e+00 -5.750983357429504395e-01 1.000000000000000000e+01
4.406930208206176758e-01 3.488444328308105025e+00 -5.569067001342773438e-01 9.000000000000000000e+00
4.914864003658295233e-01 3.879624128341674805e+00 -4.801652133464813232e-01 3.000000000000000000e+00
4.744143784046173096e-01 3.739628314971923828e+00 -3.297973275184630793e-01 1.000000000000000000e+00
4.604990780353546143e-01 3.619818449020386186e+00 -1.912355870008468905e-01 2.600000000000000000e+01
4.618197679519652765e-01 3.620105504989624023e+00 -6.370128691196441650e-02 1.800000000000000000e+01
2.861905097961425781e-01 2.218702554702758789e+00 -5.994248986244201660e-01 1.600000000000000000e+01
4.746783375740051270e-01 3.674905776977539062e+00 6.467861682176589966e-02 7.000000000000000000e+00
3.264702856540679932e-01 2.524028539657593218e+00 -5.875721573829650879e-01 1.100000000000000000e+01
4.841037988662719727e-01 3.737607002258300781e+00 1.975159049034118930e-01 1.000000000000000000e+00
3.810423314571381170e-01 2.941903114318848100e+00 -5.766248106956481934e-01 1.000000000000000000e+01
4.541393816471099854e-01 3.496679544448852983e+00 -5.584710240364074707e-01 9.000000000000000000e+00
5.032313466072082520e-01 3.864105463027954102e+00 -4.784590303897858221e-01 1.000000000000000000e+00
4.941640198230742853e-01 3.789316892623900923e+00 -3.343294262886046808e-01 2.000000000000000000e+00
4.749445617198944092e-01 3.632051706314086914e+00 -1.919682919979094904e-01 2.700000000000000000e+01
4.804328978061676025e-01 3.664074182510375977e+00 -6.450409442186355591e-02 2.300000000000000000e+01
2.936796545982360840e-01 2.215774774551392046e+00 -5.989072918891906738e-01 1.600000000000000000e+01
4.909234046936035156e-01 3.698996543884276900e+00 6.513237953186035156e-02 9.000000000000000000e+00
3.345086276531218927e-01 2.517078399658203125e+00 -5.862224698066711426e-01 1.100000000000000000e+01
3.900142908096312921e-01 2.930824756622314009e+00 -5.747166872024536133e-01 1.100000000000000000e+01
4.668648242950438898e-01 3.498989105224608931e+00 -5.590967535972595215e-01 8.000000000000000000e+00
5.214546322822570801e-01 3.897741556167602983e+00 -4.828463494777678888e-01 1.000000000000000000e+00
5.026264786720275879e-01 3.752023220062255859e+00 -3.311918079853057861e-01 1.000000000000000000e+00
4.900127947330474854e-01 3.648187160491942915e+00 -1.929103285074234009e-01 2.100000000000000000e+01
4.948213398456572931e-01 3.674265623092650923e+00 -6.471352279186248779e-02 2.500000000000000000e+01
3.019334077835083008e-01 2.218564748764038086e+00 -5.999425649642944336e-01 1.600000000000000000e+01
5.119324922561645508e-01 3.756701946258544922e+00 6.617952883243560791e-02 9.000000000000000000e+00
3.454005420207976740e-01 2.531342029571533203e+00 -5.898216366767883301e-01 1.000000000000000000e+01
3.989135921001433771e-01 2.919719457626343218e+00 -5.728086233139038086e-01 1.000000000000000000e+01
4.782714545726776123e-01 3.491466760635375977e+00 -5.581581592559814453e-01 9.000000000000000000e+00
5.898862481117248535e-01 4.295123577117919922e+00 -5.323252677917480469e-01 7.000000000000000000e+00
5.195204615592956543e-01 3.777879238128662109e+00 -3.336321711540222168e-01 1.000000000000000000e+00
5.207481980323791504e-01 3.777038335800170898e+00 -1.998186856508255005e-01 1.000000000000000000e+00
5.087391138076782227e-01 3.680439472198485884e+00 -6.485313922166824341e-02 2.500000000000000000e+01
3.075382709503173828e-01 2.202190876007080078e+00 -5.958014130592346191e-01 1.500000000000000000e+01
5.308580994606018066e-01 3.796481132507324219e+00 6.691252440214157104e-02 5.000000000000000000e+00
3.553152978420258123e-01 2.537840604782104048e+00 -5.916212797164916992e-01 1.000000000000000000e+01
4.096479713916779120e-01 2.922197818756103960e+00 -5.735718607902526855e-01 1.000000000000000000e+01
4.890814423561096191e-01 3.479995250701903853e+00 -5.565938353538513184e-01 8.000000000000000000e+00
6.057063341140747070e-01 4.298935413360595703e+00 -5.330564975738525391e-01 9.000000000000000000e+00
7.943253517150878906e-01 5.630525588989257812e+00 -4.974849820137023926e-01 1.000000000000000000e+00
1.140298604965209961e+00 8.062587738037109375e+00 -4.267473816871643066e-01 2.000000000000000000e+00
5.260747671127319336e-01 3.710319519042969194e+00 -6.541161984205245972e-02 1.000000000000000000e+01
3.159334361553192139e-01 2.208808422088623047e+00 -5.978720188140869141e-01 1.500000000000000000e+01
3.626227080821990967e-01 2.528932332992554155e+00 -5.898216366767883301e-01 1.000000000000000000e+01
4.193360805511475164e-01 2.920823335647583008e+00 -5.735718607902526855e-01 1.100000000000000000e+01
4.986490011215209961e-01 3.464667558670043945e+00 -5.544037222862243652e-01 9.000000000000000000e+00
6.216596364974975586e-01 4.308691978454589844e+00 -5.345189571380615234e-01 9.000000000000000000e+00
8.061558604240417480e-01 5.580534458160400391e+00 -4.933015108108521063e-01 8.000000000000000000e+00
1.168746352195739968e+00 8.070621490478515625e+00 -4.273754060268402100e-01 1.000000000000000000e+00
2.117304801940917969e+00 1.458487033843993963e+01 -2.572484612464904785e-01 2.000000000000000000e+00
3.244823217391967773e-01 2.213426589965819868e+00 -5.994248986244201660e-01 1.500000000000000000e+01
3.691814839839934748e-01 2.512227058410644975e+00 -5.862224698066711426e-01 1.000000000000000000e+01
4.303864538669586182e-01 2.925168752670288086e+00 -5.747166872024536133e-01 1.000000000000000000e+01
5.144868493080139160e-01 3.488311052322388139e+00 -5.584710240364074707e-01 9.000000000000000000e+00
6.352443099021911621e-01 4.296676635742188388e+00 -5.333002209663391113e-01 7.000000000000000000e+00
8.259223699569702148e-01 5.579657554626464844e+00 -4.934758245944976807e-01 8.000000000000000000e+00
1.193393230438231978e+00 8.042785644531250000e+00 -4.261193573474884033e-01 1.000000000000000000e+00
2.168202400207519975e+00 1.457739067077637074e+01 -2.572484612464904785e-01 2.000000000000000000e+00
3.324935138225554865e-01 2.214190721511840820e+00 -5.999425649642944336e-01 1.600000000000000000e+01
3.782385885715485174e-01 2.512850046157836914e+00 -5.866723656654357910e-01 1.000000000000000000e+01
4.403020143508911133e-01 2.921707153320312944e+00 -5.743350982666015625e-01 1.000000000000000000e+01
5.257750749588012695e-01 3.480634212493896040e+00 -5.575324296951293945e-01 9.000000000000000000e+00
6.481583714485168457e-01 4.280694007873535156e+00 -5.315940976142883301e-01 9.000000000000000000e+00
8.462898731231689453e-01 5.582650184631347656e+00 -4.939987361431121826e-01 9.000000000000000000e+00
1.220260381698607954e+00 8.030672073364257812e+00 -4.257006645202637274e-01 2.000000000000000000e+00
2.229913234710692915e+00 1.464090156555175959e+01 -2.585050463676453192e-01 2.000000000000000000e+00
3.396333754062653143e-01 2.209197759628295898e+00 -5.989072918891906738e-01 1.500000000000000000e+01
3.890852630138397217e-01 2.524996519088745117e+00 -5.898216366767883301e-01 1.000000000000000000e+01
4.490013122558593750e-01 2.910450935363769975e+00 -5.724269747734069824e-01 9.000000000000000000e+00
5.379215478897094727e-01 3.478777647018433061e+00 -5.575324296951293945e-01 9.000000000000000000e+00
6.643129587173461914e-01 4.286252498626708984e+00 -5.325690507888793945e-01 9.000000000000000000e+00
8.654662966728210449e-01 5.577692985534667969e+00 -4.938244521617888849e-01 9.000000000000000000e+00
1.250126719474792036e+00 8.038205146789550781e+00 -4.263286888599395752e-01 1.000000000000000000e+00
2.276077985763549805e+00 1.460141563415526988e+01 -2.579465806484221857e-01 2.000000000000000000e+00
3.458417952060698908e-01 2.198457002639770952e+00 -5.963190793991088867e-01 1.400000000000000000e+01
3.985038101673126221e-01 2.527472734451293945e+00 -5.907214879989624023e-01 1.100000000000000000e+01
4.600762724876403809e-01 2.914683818817139116e+00 -5.735718607902526855e-01 1.000000000000000000e+01
5.497527718544006348e-01 3.474927663803101030e+00 -5.572195649147033691e-01 9.000000000000000000e+00
6.780272126197814941e-01 4.276064872741699219e+00 -5.315940976142883301e-01 9.000000000000000000e+00
8.827442526817321777e-01 5.560863971710205078e+00 -4.926042556762694757e-01 8.000000000000000000e+00
1.279433012008666992e+00 8.041682243347167969e+00 -4.267473816871643066e-01 2.000000000000000000e+00
2.325773000717163086e+00 1.458548259735107067e+01 -2.578069567680358887e-01 2.000000000000000000e+00
3.547412157058715820e-01 2.204865694046020952e+00 -5.983896255493164062e-01 1.600000000000000000e+01
4.073238968849182129e-01 2.526066303253173828e+00 -5.907214879989624023e-01 1.000000000000000000e+01
4.699347317218781073e-01 2.911121845245360884e+00 -5.731902122497558594e-01 9.000000000000000000e+00
5.603017807006835938e-01 3.463237285614014116e+00 -5.556552410125732422e-01 9.000000000000000000e+00
6.942201852798461914e-01 4.281509876251220703e+00 -5.325690507888793945e-01 9.000000000000000000e+00
9.008729457855224609e-01 5.549881935119628906e+00 -4.919070005416870117e-01 9.000000000000000000e+00
1.306213140487670898e+00 8.029281616210937500e+00 -4.263286888599395752e-01 2.000000000000000000e+00
2.371523380279541016e+00 1.454569721221924006e+01 -2.572484612464904785e-01 2.000000000000000000e+00
3.626048266887664795e-01 2.209459304809569868e+00 -5.999425649642944336e-01 1.500000000000000000e+01
4.120950698852539062e-01 2.505545139312744141e+00 -5.862224698066711426e-01 1.100000000000000000e+01
4.800348579883574884e-01 2.915442705154418945e+00 -5.743350982666015625e-01 1.000000000000000000e+01
5.721439123153686523e-01 3.467307090759276900e+00 -5.565938353538513184e-01 8.000000000000000000e+00
7.063720226287841797e-01 4.271473884582520419e+00 -5.315940976142883301e-01 9.000000000000000000e+00
9.179785251617431641e-01 5.545058727264404297e+00 -4.917326867580413818e-01 9.000000000000000000e+00
1.331431388854980025e+00 8.025138854980468750e+00 -4.263286888599395752e-01 1.000000000000000000e+00
2.423767805099486861e+00 1.457762718200683949e+01 -2.579465806484221857e-01 2.000000000000000000e+00
3.690370023250579834e-01 2.200559139251708984e+00 -5.978720188140869141e-01 1.600000000000000000e+01
4.221304655075073242e-01 2.511778593063354048e+00 -5.880220532417297363e-01 1.000000000000000000e+01
4.902087152004241943e-01 2.913749217987060991e+00 -5.743350982666015625e-01 1.000000000000000000e+01
5.839151740074157715e-01 3.463340997695922852e+00 -5.562809705734252930e-01 9.000000000000000000e+00
7.226007580757141113e-01 4.276811599731445312e+00 -5.325690507888793945e-01 9.000000000000000000e+00
9.423128366470336914e-01 5.571288108825683594e+00 -4.943473637104033869e-01 8.000000000000000000e+00
1.360771298408508079e+00 8.028319358825683594e+00 -4.267473816871643066e-01 2.000000000000000000e+00
2.467941045761107954e+00 1.452964878082275035e+01 -2.572484612464904785e-01 2.000000000000000000e+00
3.774838149547576904e-01 2.199126005172729048e+00 -5.978720188140869141e-01 1.600000000000000000e+01
4.324325621128082275e-01 2.513980388641356978e+00 -5.889218449592590332e-01 1.100000000000000000e+01
4.987278580665587824e-01 2.896367311477661133e+00 -5.712821483612060547e-01 1.000000000000000000e+01
5.995603203773498535e-01 3.474699735641479048e+00 -5.584710240364074707e-01 8.000000000000000000e+00
7.369878292083740234e-01 4.262269020080566406e+00 -5.311065912246704102e-01 9.000000000000000000e+00
9.592805504798889160e-01 5.542107105255126953e+00 -4.920813143253325861e-01 9.000000000000000000e+00
1.390222430229187012e+00 8.015163421630859375e+00 -4.263286888599395752e-01 2.000000000000000000e+00
2.523712635040283203e+00 1.452006530761718928e+01 -2.572484612464904785e-01 2.000000000000000000e+00
3.844909667968750000e-01 2.193989276885985884e+00 -5.968367457389831543e-01 1.700000000000000000e+01
4.405312538146973211e-01 2.508616924285889116e+00 -5.880220532417297363e-01 1.100000000000000000e+01
5.108744502067565918e-01 2.906210422515869141e+00 -5.735718607902526855e-01 1.000000000000000000e+01
6.110002398490905762e-01 3.468694686889647993e+00 -5.578452944755554199e-01 9.000000000000000000e+00
7.546218633651733398e-01 4.275309562683104581e+00 -5.330564975738525391e-01 9.000000000000000000e+00
9.810468554496765137e-01 5.552458763122558594e+00 -4.933015108108521063e-01 9.000000000000000000e+00
1.418192028999329057e+00 8.010261535644531250e+00 -4.263286888599395752e-01 2.000000000000000000e+00
2.574381828308105025e+00 1.451116752624512074e+01 -2.572484612464904785e-01 2.000000000000000000e+00
3.917210996150969904e-01 2.194672346115111861e+00 -5.973543524742126465e-01 1.600000000000000000e+01
4.477239549160004217e-01 2.503383874893188032e+00 -5.871222615242004395e-01 1.000000000000000000e+01
5.189641118049621582e-01 2.898793458938599077e+00 -5.724269747734069824e-01 9.000000000000000000e+00
6.191041469573974609e-01 3.451203346252440962e+00 -5.553423762321472168e-01 8.000000000000000000e+00
7.694541215896606445e-01 4.280733108520507812e+00 -5.340314507484436035e-01 9.000000000000000000e+00
9.963686466217041016e-01 5.537584304809570312e+00 -4.922556281089783270e-01 9.000000000000000000e+00
1.438388824462891069e+00 7.978248596191406250e+00 -4.248632788658142090e-01 2.000000000000000000e+00
2.619957208633422852e+00 1.450300788879395064e+01 -2.572484612464904785e-01 2.000000000000000000e+00
3.997256457805634100e-01 2.195192098617554155e+00 -5.978720188140869141e-01 1.500000000000000000e+01
4.564596712589263916e-01 2.501805782318114790e+00 -5.871222615242004395e-01 1.100000000000000000e+01
5.297850370407104492e-01 2.900826930999755859e+00 -5.731902122497558594e-01 9.000000000000000000e+00
6.300805807113647461e-01 3.443192005157471147e+00 -5.544037222862243652e-01 9.000000000000000000e+00
7.808119058609008789e-01 4.258495330810546875e+00 -5.315940976142883301e-01 9.000000000000000000e+00
1.016411662101746050e+00 5.537991523742675781e+00 -4.926042556762694757e-01 9.000000000000000000e+00
1.466951727867126021e+00 7.977108001708984375e+00 -4.250726401805878241e-01 2.000000000000000000e+00
2.670566082000731978e+00 1.449377441406250000e+01 -2.572484612464904785e-01 2.000000000000000000e+00
4.095339775085449219e-01 2.203208923339844194e+00 -6.004601716995239258e-01 1.600000000000000000e+01
4.634853601455687921e-01 2.488621234893798828e+00 -5.844228267669677734e-01 1.100000000000000000e+01
5.407733917236328125e-01 2.900795698165893999e+00 -5.735718607902526855e-01 1.000000000000000000e+01
6.448724269866943359e-01 3.452510356903076172e+00 -5.562809705734252930e-01 9.000000000000000000e+00
7.949542403221130371e-01 4.247800350189208984e+00 -5.306191444396972656e-01 9.000000000000000000e+00
1.035235285758971946e+00 5.526395797729492188e+00 -4.919070005416870117e-01 8.000000000000000000e+00
1.498390078544616921e+00 7.983455657958984375e+00 -4.257006645202637274e-01 1.000000000000000000e+00
2.723670482635498047e+00 1.448388862609862926e+01 -2.572484612464904785e-01 2.000000000000000000e+00
4.161430895328521729e-01 2.196071624755858931e+00 -5.989072918891906738e-01 1.600000000000000000e+01
4.754408299922943115e-01 2.504219055175780806e+00 -5.884719491004943848e-01 1.100000000000000000e+01
5.494295954704284668e-01 2.891175508499145952e+00 -5.720453858375549316e-01 1.000000000000000000e+01
6.569200158119201660e-01 3.450238227844237837e+00 -5.562809705734252930e-01 9.000000000000000000e+00
8.105208873748779297e-01 4.248899459838867188e+00 -5.311065912246704102e-01 9.000000000000000000e+00
1.055266976356505904e+00 5.526662826538085938e+00 -4.922556281089783270e-01 9.000000000000000000e+00
1.522495627403259055e+00 7.958559513092041016e+00 -4.246539473533629816e-01 1.000000000000000000e+00
2.774212121963500977e+00 1.447429370880126953e+01 -2.572484612464904785e-01 2.000000000000000000e+00
4.234399795532227118e-01 2.192708969116210938e+00 -5.983896255493164062e-01 1.900000000000000000e+01
4.841792881488800049e-01 2.502544164657593218e+00 -5.884719491004943848e-01 1.100000000000000000e+01
5.591450929641723633e-01 2.887312412261962891e+00 -5.716637372970581055e-01 1.000000000000000000e+01
6.667021512985229492e-01 3.436288833618164062e+00 -5.544037222862243652e-01 9.000000000000000000e+00
8.253473639488220215e-01 4.246044158935546875e+00 -5.311065912246704102e-01 9.000000000000000000e+00
1.074552178382873979e+00 5.522945404052734375e+00 -4.922556281089783270e-01 9.000000000000000000e+00
1.552559614181518999e+00 7.964958667755126953e+00 -4.252819716930388849e-01 1.000000000000000000e+00
2.832385540008544922e+00 1.450377368927001953e+01 -2.579465806484221857e-01 2.000000000000000000e+00
4.314642846584320068e-01 2.193113088607788086e+00 -5.989072918891906738e-01 1.500000000000000000e+01
4.925349950790405273e-01 2.498926877975463867e+00 -5.880220532417297363e-01 1.000000000000000000e+01
5.699802637100219727e-01 2.889195442199707031e+00 -5.724269747734069824e-01 1.000000000000000000e+01
6.786929965019226074e-01 3.433940649032593218e+00 -5.544037222862243652e-01 9.000000000000000000e+00
8.424772620201110840e-01 4.254821300506591797e+00 -5.325690507888793945e-01 9.000000000000000000e+00
1.091113090515136941e+00 5.505480289459229404e+00 -4.910354614257813055e-01 9.000000000000000000e+00
1.581908941268920898e+00 7.967327117919921875e+00 -4.257006645202637274e-01 1.000000000000000000e+00
2.875193357467650923e+00 1.445457363128661932e+01 -2.572484612464904785e-01 2.000000000000000000e+00
4.391097724437714178e-01 2.195535421371459961e+00 -5.999425649642944336e-01 1.700000000000000000e+01
4.980860948562622070e-01 2.485902547836304155e+00 -5.853226184844970703e-01 1.200000000000000000e+01
5.813702940940856934e-01 2.898940086364746094e+00 -5.747166872024536133e-01 1.100000000000000000e+01
6.906449198722839355e-01 3.437601566314696822e+00 -5.553423762321472168e-01 8.000000000000000000e+00
8.566233515739440918e-01 4.256045341491699219e+00 -5.330564975738525391e-01 9.000000000000000000e+00
1.111551403999329057e+00 5.517650604248046875e+00 -4.924299418926239014e-01 8.000000000000000000e+00
1.603770256042480025e+00 7.946655750274658203e+00 -4.248632788658142090e-01 2.000000000000000000e+00
2.920589447021483931e+00 1.444546890258789062e+01 -2.572484612464904785e-01 2.000000000000000000e+00
4.483128488063812256e-01 2.201561212539672852e+00 -6.020131111145019531e-01 1.700000000000000000e+01
5.063709616661071777e-01 2.482239484786986861e+00 -5.848727226257324219e-01 1.100000000000000000e+01
5.871657133102416992e-01 2.875733852386475053e+00 -5.705189108848571777e-01 1.000000000000000000e+01
7.022443413734436035e-01 3.433234453201293945e+00 -5.550295114517211914e-01 9.000000000000000000e+00
8.690836429595947266e-01 4.241361141204833984e+00 -5.315940976142883301e-01 9.000000000000000000e+00
1.134807586669922097e+00 5.533254623413085938e+00 -4.941730499267578125e-01 9.000000000000000000e+00
1.631499528884887917e+00 7.941009044647216797e+00 -4.248632788658142090e-01 2.000000000000000000e+00
2.970995903015137163e+00 1.443518638610840021e+01 -2.572484612464904785e-01 2.000000000000000000e+00
4.532396495342255194e-01 2.184770584106444868e+00 -5.978720188140869141e-01 1.600000000000000000e+01
5.178444981575012207e-01 2.491814613342285156e+00 -5.875721573829650879e-01 1.100000000000000000e+01
5.977018475532531738e-01 2.873562335968018022e+00 -5.705189108848571777e-01 1.000000000000000000e+01
7.172407507896423340e-01 3.442240715026855025e+00 -5.569067001342773438e-01 9.000000000000000000e+00
8.842175602912902832e-01 4.236204147338867188e+00 -5.313503146171569824e-01 9.000000000000000000e+00
1.150191187858581987e+00 5.505654335021972656e+00 -4.920813143253325861e-01 9.000000000000000000e+00
1.663866639137268066e+00 7.950615406036376953e+00 -4.257006645202637274e-01 2.000000000000000000e+00
3.023883342742919922e+00 1.442420005798340021e+01 -2.572484612464904785e-01 2.000000000000000000e+00
4.624592363834381104e-01 2.190736055374145952e+00 -5.999425649642944336e-01 1.700000000000000000e+01
5.281520485877990723e-01 2.497618198394774947e+00 -5.893717408180236816e-01 1.100000000000000000e+01
6.069157719612121582e-01 2.867617130279541016e+00 -5.697556734085083008e-01 1.000000000000000000e+01
7.272035479545593262e-01 3.430053949356079102e+00 -5.553423762321472168e-01 8.000000000000000000e+00
8.989992737770080566e-01 4.233091831207275391e+00 -5.313503146171569824e-01 9.000000000000000000e+00
1.170230984687804954e+00 5.505503654479979581e+00 -4.924299418926239014e-01 9.000000000000000000e+00
1.688281893730164018e+00 7.929131031036376953e+00 -4.248632788658142090e-01 2.000000000000000000e+00
3.074214935302733931e+00 1.441355705261229936e+01 -2.572484612464904785e-01 2.000000000000000000e+00
4.672897458076477051e-01 2.177857160568236861e+00 -5.968367457389831543e-01 1.500000000000000000e+01
5.339746475219726562e-01 2.484421491622924805e+00 -5.866723656654357910e-01 1.100000000000000000e+01
6.197248101234436035e-01 2.880943536758422852e+00 -5.728086233139038086e-01 1.000000000000000000e+01
7.377418279647827148e-01 3.423761367797852007e+00 -5.547165870666503906e-01 8.000000000000000000e+00
9.138694405555725098e-01 4.233968257904052734e+00 -5.318378210067749023e-01 9.000000000000000000e+00
1.186798572540282981e+00 5.493803024291992188e+00 -4.917326867580413818e-01 9.000000000000000000e+00
1.715411424636841042e+00 7.927392959594726562e+00 -4.250726401805878241e-01 2.000000000000000000e+00
3.121994972229003906e+00 1.440328311920166016e+01 -2.572484612464904785e-01 2.000000000000000000e+00
4.757127761840819757e-01 2.179987668991088867e+00 -5.978720188140869141e-01 1.600000000000000000e+01
5.418113470077514648e-01 2.478734970092772993e+00 -5.857725739479064941e-01 1.100000000000000000e+01
6.293578147888183594e-01 2.876844882965087891e+00 -5.724269747734069824e-01 1.200000000000000000e+01
7.471514940261840820e-01 3.409587860107421875e+00 -5.528393983840942383e-01 8.000000000000000000e+00
9.282175898551940918e-01 4.228813648223876953e+00 -5.315940976142883301e-01 9.000000000000000000e+00
1.208533287048340066e+00 5.501302719116210938e+00 -4.927785694599152166e-01 8.000000000000000000e+00
1.743931174278259055e+00 7.925258159637451172e+00 -4.252819716930388849e-01 2.000000000000000000e+00
3.161061763763428178e+00 1.434152412414550959e+01 -2.563409507274628241e-01 2.000000000000000000e+00
4.849932789802551270e-01 2.185857772827147993e+00 -5.999425649642944336e-01 1.500000000000000000e+01
5.504604578018188477e-01 2.476828575134276900e+00 -5.857725739479064941e-01 1.100000000000000000e+01
6.389697790145874023e-01 2.872714042663574219e+00 -5.720453858375549316e-01 1.100000000000000000e+01
7.624851465225219727e-01 3.422383785247803178e+00 -5.553423762321472168e-01 8.000000000000000000e+00
9.421085119247436523e-01 4.221673011779785156e+00 -5.311065912246704102e-01 9.000000000000000000e+00
1.225991964340209961e+00 5.489272594451904297e+00 -4.920813143253325861e-01 9.000000000000000000e+00
1.771584868431091087e+00 7.919122219085693359e+00 -4.252819716930388849e-01 2.000000000000000000e+00
3.222471952438354048e+00 1.438113689422607067e+01 -2.572484612464904785e-01 2.000000000000000000e+00
4.909202456474304199e-01 2.176613569259643999e+00 -5.978720188140869141e-01 1.600000000000000000e+01
5.582439899444580078e-01 2.471090316772460938e+00 -5.848727226257324219e-01 1.100000000000000000e+01
6.481276154518127441e-01 2.866636276245117188e+00 -5.712821483612060547e-01 1.000000000000000000e+01
7.744268774986267090e-01 3.419701337814331055e+00 -5.553423762321472168e-01 8.000000000000000000e+00
9.568391442298889160e-01 4.218358516693115234e+00 -5.311065912246704102e-01 9.000000000000000000e+00
1.248233079910278098e+00 5.498560428619384766e+00 -4.933015108108521063e-01 9.000000000000000000e+00
1.794788599014282005e+00 7.893414497375488281e+00 -4.242352545261383057e-01 1.000000000000000000e+00
3.254001855850220171e+00 1.428791046142577947e+01 -2.557824552059174139e-01 2.000000000000000000e+00
4.967885911464691162e-01 2.167354583740233931e+00 -5.958014130592346191e-01 1.500000000000000000e+01
5.694826245307922363e-01 2.480522632598876953e+00 -5.875721573829650879e-01 1.000000000000000000e+01
6.581301093101501465e-01 2.864356279373168945e+00 -5.712821483612060547e-01 1.000000000000000000e+01
7.872451543807983398e-01 3.420827388763428178e+00 -5.559681057929992676e-01 8.000000000000000000e+00
9.702205657958984375e-01 4.209189891815186435e+00 -5.303753614425659180e-01 7.000000000000000000e+00
1.260701298713684082e+00 5.465048789978027344e+00 -4.906868338584899902e-01 8.000000000000000000e+00
1.826827049255371094e+00 7.906561374664306641e+00 -4.252819716930388849e-01 2.000000000000000000e+00
3.306561231613159180e+00 1.428815364837645951e+01 -2.559919059276580811e-01 2.000000000000000000e+00
5.056656002998352051e-01 2.171251773834228960e+00 -5.973543524742126465e-01 1.600000000000000000e+01
5.781377553939819336e-01 2.478519678115845171e+00 -5.875721573829650879e-01 1.100000000000000000e+01
6.690171957015991211e-01 2.865865230560303178e+00 -5.720453858375549316e-01 1.000000000000000000e+01
7.942342162132263184e-01 3.396900177001953125e+00 -5.525265336036682129e-01 9.000000000000000000e+00
9.889810681343078613e-01 4.223172664642333984e+00 -5.325690507888793945e-01 9.000000000000000000e+00
1.280679464340209961e+00 5.464494705200195312e+00 -4.910354614257813055e-01 9.000000000000000000e+00
1.853502154350280984e+00 7.896247863769531250e+00 -4.250726401805878241e-01 2.000000000000000000e+00
3.345432519912720171e+00 1.422980594635009943e+01 -2.551541924476624090e-01 2.000000000000000000e+00
5.133073925971984863e-01 2.171442985534667969e+00 -5.978720188140869141e-01 1.500000000000000000e+01
5.836598873138427734e-01 2.465210914611815962e+00 -5.848727226257324219e-01 1.100000000000000000e+01
6.803276538848876953e-01 2.871272563934326172e+00 -5.735718607902526855e-01 1.000000000000000000e+01
8.068627119064331055e-01 3.400013685226439986e+00 -5.534651279449462891e-01 8.000000000000000000e+00
1.001144051551819070e+00 4.212144851684570312e+00 -5.315940976142883301e-01 9.000000000000000000e+00
1.300637602806091087e+00 5.467970848083496094e+00 -4.917326867580413818e-01 9.000000000000000000e+00
1.880602598190308061e+00 7.893943786621093750e+00 -4.252819716930388849e-01 2.000000000000000000e+00
3.405596733093262163e+00 1.427309608459473012e+01 -2.561315298080443781e-01 2.000000000000000000e+00
5.235899090766906738e-01 2.180908918380736861e+00 -6.009778380393981934e-01 1.600000000000000000e+01
5.922614932060241699e-01 2.463158607482910156e+00 -5.848727226257324219e-01 1.100000000000000000e+01
6.866716146469116211e-01 2.853610038757324219e+00 -5.705189108848571777e-01 1.000000000000000000e+01
8.201144933700561523e-01 3.402937650680541992e+00 -5.544037222862243652e-01 9.000000000000000000e+00
1.013046503067017046e+00 4.197046279907226562e+00 -5.301316380500793457e-01 9.000000000000000000e+00
1.322523355484009011e+00 5.475017547607421875e+00 -4.927785694599152166e-01 8.000000000000000000e+00
1.902510523796081987e+00 7.864036083221436435e+00 -4.240259230136870783e-01 2.000000000000000000e+00
3.451631307601929155e+00 1.424557399749756037e+01 -2.558522820472716730e-01 2.000000000000000000e+00
5.292904973030090332e-01 2.169591188430786133e+00 -5.983896255493164062e-01 1.500000000000000000e+01
6.022105216979980469e-01 2.464757442474364790e+00 -5.857725739479064941e-01 1.100000000000000000e+01
6.952608227729797363e-01 2.843445777893065962e+00 -5.689924359321594238e-01 1.100000000000000000e+01
8.339909315109252930e-01 3.405664920806885210e+00 -5.553423762321472168e-01 8.000000000000000000e+00
1.028422594070435014e+00 4.193305015563964844e+00 -5.301316380500793457e-01 9.000000000000000000e+00
1.334032893180846946e+00 5.435304164886474609e+00 -4.896409511566162109e-01 9.000000000000000000e+00
1.937995314598083052e+00 7.884163379669188565e+00 -4.254913330078125000e-01 2.000000000000000000e+00
3.489480257034302202e+00 1.417457580566406072e+01 -2.548051476478577215e-01 2.000000000000000000e+00
5.368605256080627441e-01 2.167730331420897993e+00 -5.983896255493164062e-01 1.500000000000000000e+01
6.126869916915893555e-01 2.470206022262572798e+00 -5.875721573829650879e-01 1.100000000000000000e+01
7.075468301773071289e-01 2.850528717041016069e+00 -5.709004998207092285e-01 1.100000000000000000e+01
8.468269705772399902e-01 3.406567096710205078e+00 -5.559681057929992676e-01 8.000000000000000000e+00
1.043053746223449929e+00 4.189689636230468750e+00 -5.301316380500793457e-01 9.000000000000000000e+00
1.352034211158751997e+00 5.426747798919677734e+00 -4.892923533916472834e-01 9.000000000000000000e+00
1.965987920761107954e+00 7.879288196563720703e+00 -4.255959987640380859e-01 3.000000000000000000e+00
3.540876626968383789e+00 1.417006874084473012e+01 -2.549447417259215753e-01 2.000000000000000000e+00
5.440460443496704102e-01 2.165938138961791992e+00 -5.983896255493164062e-01 1.500000000000000000e+01
6.199243068695068359e-01 2.464380979537963867e+00 -5.866723656654357910e-01 1.100000000000000000e+01
7.160370945930480957e-01 2.844359159469604048e+00 -5.701372623443603516e-01 1.100000000000000000e+01
8.528069257736206055e-01 3.382670402526855025e+00 -5.525265336036682129e-01 9.000000000000000000e+00
1.062772870063781960e+00 4.209303855895996094e+00 -5.330564975738525391e-01 9.000000000000000000e+00
1.374903321266174094e+00 5.441551208496093750e+00 -4.910354614257813055e-01 9.000000000000000000e+00
1.988186240196228027e+00 7.857235431671142578e+00 -4.247586131095886230e-01 3.000000000000000000e+00
3.582934617996215820e+00 1.413886547088623047e+01 -2.545956969261168878e-01 2.000000000000000000e+00
