6.138745784759520596e+00 5.440660953521729404e+00 -4.298875331878662109e-01 2.000000000000000000e+00
1.003881072998047053e+01 8.890964508056640625e+00 -2.340716719627380094e-01 2.000000000000000000e+00
1.686905860900878906e+00 1.489825844764709029e+00 -6.030483841896057129e-01 1.800000000000000000e+01
1.919880867004394975e+00 1.694390058517456055e+00 -5.911713838577270508e-01 1.300000000000000000e+01
2.224502563476562944e+00 1.962543249130249023e+00 -5.766248106956481934e-01 1.400000000000000000e+01
2.649372339248656782e+00 2.335736036300659180e+00 -5.594096183776855469e-01 9.000000000000000000e+00
3.273916244506835938e+00 2.884315013885498047e+00 -5.357376337051391602e-01 1.000000000000000000e+01
4.273290157318115234e+00 3.763437271118164062e+00 -4.981822371482849121e-01 9.000000000000000000e+00
6.154701232910156250e+00 5.416560649871826172e+00 -4.296782016754149836e-01 1.000000000000000000e+00
1.011182975769042969e+01 8.892844200134277344e+00 -2.350490093231200894e-01 2.000000000000000000e+00
1.687480330467223899e+00 1.480401635169982910e+00 -6.014954447746276855e-01 1.900000000000000000e+01
1.929885268211364968e+00 1.691868185997009055e+00 -5.925210714340209961e-01 1.200000000000000000e+01
2.225092411041260210e+00 1.949980020523071067e+00 -5.750983357429504395e-01 1.300000000000000000e+01
2.663047790527344194e+00 2.332143068313599077e+00 -5.606611371040344238e-01 9.000000000000000000e+00
3.281969308853148970e+00 2.872135162353516069e+00 -5.354939103126525879e-01 9.000000000000000000e+00
4.273750305175781250e+00 3.738751173019409180e+00 -4.967877268791198730e-01 9.000000000000000000e+00
6.178644180297851562e+00 5.401379108428955078e+00 -4.300968945026398260e-01 2.000000000000000000e+00
3.621348953247070312e+01 3.164673423767089844e+01 1.110313415527343928e+01 1.400000000000000000e+01
1.014126396179199041e+01 8.859263420104980469e+00 -2.350490093231200894e-01 2.000000000000000000e+00
1.682441115379333052e+00 1.465619683265686035e+00 -5.978720188140869141e-01 1.600000000000000000e+01
1.940188765525818093e+00 1.688959836959839089e+00 -5.938707590103149414e-01 1.100000000000000000e+01
2.233366489410399947e+00 1.943489909172058105e+00 -5.754799246788024902e-01 1.300000000000000000e+01
2.662228584289550781e+00 2.315055847167969194e+00 -5.587838888168334961e-01 9.000000000000000000e+00
3.308457136154174805e+00 2.874984264373778853e+00 -5.381750464439392090e-01 1.000000000000000000e+01
4.286775112152099609e+00 3.723810195922852007e+00 -4.967877268791198730e-01 9.000000000000000000e+00
6.200477123260498047e+00 5.382397651672363281e+00 -4.303062260150908869e-01 2.000000000000000000e+00
3.632373809814453125e+01 3.152013206481933949e+01 1.110313415527343928e+01 1.400000000000000000e+01
1.015097808837890980e+01 8.805464744567871094e+00 -2.345603406429291049e-01 2.000000000000000000e+00
1.692879676818848100e+00 1.465384364128113015e+00 -5.999425649642944336e-01 1.700000000000000000e+01
1.936642050743103027e+00 1.675206899642943892e+00 -5.911713838577270508e-01 1.200000000000000000e+01
2.237976074218750000e+00 1.935179829597472922e+00 -5.750983357429504395e-01 1.300000000000000000e+01
2.669488430023192915e+00 2.306680917739868164e+00 -5.587838888168334961e-01 9.000000000000000000e+00
3.309960365295410156e+00 2.858089447021483931e+00 -5.369563102722167969e-01 9.000000000000000000e+00
4.298452377319335938e+00 3.710324525833129883e+00 -4.967877268791198730e-01 9.000000000000000000e+00
6.229454994201660156e+00 5.373327732086181641e+00 -4.311436116695404053e-01 2.000000000000000000e+00
1.019676780700683949e+01 8.789198875427246094e+00 -2.349791973829269132e-01 2.000000000000000000e+00
1.699449539184570090e+00 1.460725426673888938e+00 -6.004601716995239258e-01 1.600000000000000000e+01
1.933608055114746094e+00 1.660818099975585938e+00 -5.884719491004943848e-01 1.100000000000000000e+01
2.253654718399047852e+00 1.935029625892638938e+00 -5.773880481719970703e-01 1.100000000000000000e+01
2.680522203445435014e+00 2.299921035766602007e+00 -5.594096183776855469e-01 9.000000000000000000e+00
3.319916963577270952e+00 2.846518278121947798e+00 -5.369563102722167969e-01 9.000000000000000000e+00
4.308351993560791016e+00 3.692704439163208008e+00 -4.964390993118286133e-01 9.000000000000000000e+00
6.239071846008300781e+00 5.343754768371582031e+00 -4.305155873298645020e-01 2.000000000000000000e+00
1.020915508270264027e+01 8.737948417663574219e+00 -2.345603406429291049e-01 2.000000000000000000e+00
3.601825714111328125e+01 3.082778930664062855e+01 1.270335674285889027e+01 1.400000000000000000e+01
1.707985520362854004e+00 1.456696510314940962e+00 -6.014954447746276855e-01 1.600000000000000000e+01
1.945903539657592995e+00 1.658437490463257058e+00 -5.902715921401977539e-01 1.100000000000000000e+01
2.249112606048583984e+00 1.916176319122314009e+00 -5.743350982666015625e-01 9.000000000000000000e+00
2.695349931716918945e+00 2.294734001159667969e+00 -5.606611371040344238e-01 1.500000000000000000e+01
3.705688476562500000e+01 3.153788185119628906e+01 5.974766254425048828e+00 4.900000000000000000e+01
3.315702676773070845e+00 2.820886611938477007e+00 -5.345189571380615234e-01 9.000000000000000000e+00
4.330088138580322266e+00 3.682588338851929155e+00 -4.973106682300568182e-01 9.000000000000000000e+00
6.259544372558593750e+00 5.319758892059326172e+00 -4.305155873298645020e-01 2.000000000000000000e+00
3.650330352783203125e+01 3.101185798645019887e+01 1.105814361572265980e+01 1.400000000000000000e+01
1.019690513610840021e+01 8.659850120544433594e+00 -2.335131913423537930e-01 2.000000000000000000e+00
3.640680694580078125e+01 3.090800285339355113e+01 1.279653167724609020e+01 1.400000000000000000e+01
1.711585760116576926e+00 1.449477195739746094e+00 -6.009778380393981934e-01 1.700000000000000000e+01
1.954655766487122026e+00 1.654152750968933105e+00 -5.911713838577270508e-01 1.300000000000000000e+01
2.252789974212646040e+00 1.905777812004088911e+00 -5.735718607902526855e-01 8.000000000000000000e+00
2.707869291305541992e+00 2.289137363433837891e+00 -5.615997314453125000e-01 1.100000000000000000e+01
3.343726396560668945e+00 2.824667692184447798e+00 -5.374438166618347168e-01 9.000000000000000000e+00
4.338349342346191406e+00 3.663594484329224077e+00 -4.967877268791198730e-01 9.000000000000000000e+00
6.293339729309082031e+00 5.310757637023925781e+00 -4.315623044967650812e-01 2.000000000000000000e+00
1.023318576812743963e+01 8.629360198974609375e+00 -2.336528152227402011e-01 2.000000000000000000e+00
3.653810501098632812e+01 3.080065345764160156e+01 1.280481338500976918e+01 1.400000000000000000e+01
1.716634869575500044e+00 1.443493723869323953e+00 -6.009778380393981934e-01 1.700000000000000000e+01
1.963401794433593972e+00 1.649827003479003906e+00 -5.920711755752563477e-01 1.200000000000000000e+01
2.259428501129149947e+00 1.897902488708496094e+00 -5.735718607902526855e-01 6.000000000000000000e+00
2.712817430496215820e+00 2.277131080627440962e+00 -5.609740018844604492e-01 1.000000000000000000e+01
3.361170530319213867e+00 2.819357395172119141e+00 -5.386624932289123535e-01 1.000000000000000000e+01
4.348058223724365234e+00 3.645868301391602007e+00 -4.964390993118286133e-01 9.000000000000000000e+00
6.296530246734619141e+00 5.275929927825927734e+00 -4.305155873298645020e-01 2.000000000000000000e+00
3.656952285766602273e+01 3.063113021850585938e+01 1.101315402984618963e+01 1.400000000000000000e+01
1.030310916900634943e+01 8.626964569091796875e+00 -2.345603406429291049e-01 2.000000000000000000e+00
3.601432037353516336e+01 3.014470100402832031e+01 1.258430004119873047e+01 1.400000000000000000e+01
1.718697309494018999e+00 1.435016512870789018e+00 -5.999425649642944336e-01 2.000000000000000000e+01
1.972141504287719949e+00 1.645460247993469016e+00 -5.929709672927856445e-01 1.200000000000000000e+01
2.261516571044921875e+00 1.886231660842895952e+00 -5.724269747734069824e-01 7.000000000000000000e+00
2.708610057830810991e+00 2.257529973983765093e+00 -5.584710240364074707e-01 1.000000000000000000e+01
3.367940664291381836e+00 2.805066585540771040e+00 -5.381750464439392090e-01 1.000000000000000000e+01
4.366882801055908203e+00 3.635767698287963867e+00 -4.971363544464110773e-01 9.000000000000000000e+00
6.330262184143066406e+00 5.266692638397216797e+00 -4.315623044967650812e-01 1.000000000000000000e+00
1.036391353607177912e+01 8.616516113281250000e+00 -2.352584451436995905e-01 2.000000000000000000e+00
1.727657437324523926e+00 1.433310389518738015e+00 -6.014954447746276855e-01 1.900000000000000000e+01
1.968299746513366921e+00 1.631793975830077903e+00 -5.902715921401977539e-01 1.200000000000000000e+01
2.284059047698975053e+00 1.892897725105286089e+00 -5.766248106956481934e-01 9.000000000000000000e+00
2.726338863372803178e+00 2.257829189300537109e+00 -5.606611371040344238e-01 1.000000000000000000e+01
3.369089841842650923e+00 2.788144111633300781e+00 -5.369563102722167969e-01 9.000000000000000000e+00
4.385959148406982422e+00 3.628380775451660156e+00 -4.980079233646392822e-01 1.100000000000000000e+01
6.340619087219238281e+00 5.241689205169677734e+00 -4.311436116695404053e-01 2.000000000000000000e+00
1.037551498413085938e+01 8.571178436279296875e+00 -2.349093854427337924e-01 2.000000000000000000e+00
3.640185546875000000e+01 3.007145118713378906e+01 1.265159225463867010e+01 1.400000000000000000e+01
1.734141230583190918e+00 1.428499341011046919e+00 -6.020131111145019531e-01 1.800000000000000000e+01
1.976992845535278098e+00 1.627390384674072044e+00 -5.911713838577270508e-01 1.300000000000000000e+01
2.286104679107666016e+00 1.881170988082885964e+00 -5.754799246788024902e-01 1.300000000000000000e+01
2.732677698135375977e+00 2.247044086456298828e+00 -5.603482723236083984e-01 1.000000000000000000e+01
3.371133089065552202e+00 2.770065546035767046e+00 -5.357376337051391602e-01 1.000000000000000000e+01
4.401676654815673828e+00 3.615578174591064009e+00 -4.983565509319304865e-01 9.000000000000000000e+00
6.365052700042724609e+00 5.224593162536621094e+00 -4.315623044967650812e-01 2.000000000000000000e+00
1.037754058837890980e+01 8.512082099914550781e+00 -2.342811077833175937e-01 2.000000000000000000e+00
1.735878467559814009e+00 1.420294165611267090e+00 -6.009778380393981934e-01 1.700000000000000000e+01
1.980870008468627930e+00 1.619592070579529031e+00 -5.907214879989624023e-01 1.200000000000000000e+01
2.296890735626221147e+00 1.877306938171386941e+00 -5.766248106956481934e-01 1.300000000000000000e+01
2.743174076080321822e+00 2.240468978881835938e+00 -5.609740018844604492e-01 1.000000000000000000e+01
3.394141435623168945e+00 2.770167827606201172e+00 -5.379312634468078613e-01 9.000000000000000000e+00
4.409010887145996094e+00 3.597183227539062944e+00 -4.978336095809937079e-01 1.100000000000000000e+01
6.382342815399169922e+00 5.203457355499267578e+00 -4.315623044967650812e-01 2.000000000000000000e+00
1.045842170715332031e+01 8.520565986633300781e+00 -2.354678660631180087e-01 2.000000000000000000e+00
3.633610916137695312e+01 2.960334014892578125e+01 1.255841732025145951e+01 1.400000000000000000e+01
1.740825653076172097e+00 1.414226174354553001e+00 -6.009778380393981934e-01 1.900000000000000000e+01
1.994076132774353027e+00 1.618808746337891069e+00 -5.929709672927856445e-01 1.200000000000000000e+01
2.298856258392333984e+00 1.865566492080688032e+00 -5.754799246788024902e-01 1.300000000000000000e+01
2.757115125656127930e+00 2.235856533050537109e+00 -5.622254610061645508e-01 1.000000000000000000e+01
3.400706052780150923e+00 2.755803585052489790e+00 -5.374438166618347168e-01 1.000000000000000000e+01
4.433926105499267578e+00 3.591804027557373047e+00 -4.992280900478363037e-01 1.100000000000000000e+01
6.415991306304931641e+00 5.193713665008544922e+00 -4.326090216636658270e-01 2.000000000000000000e+00
3.678288650512695312e+01 2.976494026184082031e+01 1.092407321929931996e+01 1.300000000000000000e+01
1.042280197143555043e+01 8.431186676025390625e+00 -2.340018600225448886e-01 2.000000000000000000e+00
1.745997309684752974e+00 1.407836198806762917e+00 -6.009778380393981934e-01 2.000000000000000000e+01
1.999995946884155051e+00 1.611489295959473100e+00 -5.929709672927856445e-01 1.100000000000000000e+01
2.310265541076660156e+00 1.860822796821594016e+00 -5.766248106956481934e-01 1.400000000000000000e+01
2.751441955566405806e+00 2.214589118957519975e+00 -5.594096183776855469e-01 9.000000000000000000e+00
3.416970968246459961e+00 2.748297214508057085e+00 -5.384187698364257812e-01 1.000000000000000000e+01
4.451719284057617188e+00 3.579273939132689986e+00 -4.997510313987731934e-01 9.000000000000000000e+00
6.410072326660156250e+00 5.150147914886474609e+00 -4.309342503547667902e-01 2.000000000000000000e+00
3.689173507690429688e+01 2.962992477416991832e+01 1.092407321929931996e+01 1.300000000000000000e+01
1.049417591094971058e+01 8.425478935241699219e+00 -2.349093854427337924e-01 2.000000000000000000e+00
1.753917217254638894e+00 1.404147744178771973e+00 -6.020131111145019531e-01 1.900000000000000000e+01
1.999522089958190918e+00 1.599628686904907005e+00 -5.911713838577270508e-01 1.100000000000000000e+01
2.324413061141968218e+00 1.858878016471863015e+00 -5.785328745841979980e-01 1.300000000000000000e+01
2.762241840362548828e+00 2.207437515258789062e+00 -5.600354075431823730e-01 9.000000000000000000e+00
3.423441171646118164e+00 2.733875751495360884e+00 -5.379312634468078613e-01 1.000000000000000000e+01
4.459514617919921875e+00 3.559983730316162109e+00 -4.992280900478363037e-01 9.000000000000000000e+00
6.421765327453613281e+00 5.122758865356445312e+00 -4.305155873298645020e-01 2.000000000000000000e+00
1.053915882110596058e+01 8.401260375976562500e+00 -2.352584451436995905e-01 2.000000000000000000e+00
1.766369342803955078e+00 1.404027223587035911e+00 -6.046012639999389648e-01 1.900000000000000000e+01
2.002041816711425781e+00 1.590215206146240012e+00 -5.902715921401977539e-01 1.200000000000000000e+01
2.333962678909302202e+00 1.853194594383239968e+00 -5.792961120605468750e-01 1.400000000000000000e+01
2.777667522430419922e+00 2.203921079635620117e+00 -5.615997314453125000e-01 1.000000000000000000e+01
3.423630475997924805e+00 2.714509010314940962e+00 -5.364688634872436523e-01 1.000000000000000000e+01
4.465668678283691406e+00 3.539445161819458008e+00 -4.985308349132537842e-01 1.100000000000000000e+01
6.461527824401854581e+00 5.117672443389892578e+00 -4.319809973239899237e-01 2.000000000000000000e+00
1.057782936096191051e+01 8.371867179870605469e+00 -2.354678660631180087e-01 2.000000000000000000e+00
3.764168548583983664e+01 2.979166793823241832e+01 1.286278915405273082e+01 1.400000000000000000e+01
1.765193581581115945e+00 1.393065690994262917e+00 -6.025307178497314453e-01 1.900000000000000000e+01
2.016761541366577148e+00 1.590457320213318093e+00 -5.929709672927856445e-01 1.100000000000000000e+01
2.329624891281127930e+00 1.836528182029723899e+00 -5.766248106956481934e-01 1.400000000000000000e+01
2.789999008178710938e+00 2.197879076004027876e+00 -5.625383257865905762e-01 1.000000000000000000e+01
3.440883874893188032e+00 2.708681106567382812e+00 -5.376875400543212891e-01 1.000000000000000000e+01
4.467036247253417969e+00 3.515210866928101030e+00 -4.973106682300568182e-01 1.300000000000000000e+01
6.466792106628417969e+00 5.085209369659423828e+00 -4.311436116695404053e-01 2.000000000000000000e+00
1.059126472473145064e+01 8.322537422180175781e+00 -2.351188212633132935e-01 2.000000000000000000e+00
1.763962984085083008e+00 1.382129549980164018e+00 -6.004601716995239258e-01 1.900000000000000000e+01
2.022300958633422852e+00 1.583407878875731978e+00 -5.929709672927856445e-01 1.200000000000000000e+01
2.343751430511475053e+00 1.834435343742371050e+00 -5.785328745841979980e-01 1.400000000000000000e+01
2.791429996490478960e+00 2.183258771896361861e+00 -5.612868666648864746e-01 1.000000000000000000e+01
3.456574201583861861e+00 2.701543569564818892e+00 -5.386624932289123535e-01 1.000000000000000000e+01
4.471429347991943359e+00 3.493463277816772017e+00 -4.964390993118286133e-01 1.300000000000000000e+01
6.519137859344482422e+00 5.089645385742188388e+00 -4.334463775157927912e-01 2.000000000000000000e+00
1.064232349395751953e+01 8.302736282348632812e+00 -2.356074899435043057e-01 2.000000000000000000e+00
3.854940032958983664e+01 3.007477569580078125e+01 1.310090255737305043e+01 1.500000000000000000e+01
1.770301580429076926e+00 1.377149939537047896e+00 -6.009778380393981934e-01 1.700000000000000000e+01
2.027815818786621094e+00 1.576339125633239968e+00 -5.929709672927856445e-01 1.100000000000000000e+01
2.348590373992919922e+00 1.825038313865662065e+00 -5.781512856483459473e-01 1.300000000000000000e+01
2.799034118652344194e+00 2.173501729965209961e+00 -5.612868666648864746e-01 9.000000000000000000e+00
3.464415073394774947e+00 2.688244342803955078e+00 -5.384187698364257812e-01 1.000000000000000000e+01
4.480447769165039062e+00 3.475391626358031782e+00 -4.960905015468596857e-01 1.100000000000000000e+01
6.524235725402832031e+00 5.057069301605224609e+00 -4.326090216636658270e-01 2.000000000000000000e+00
1.068704986572265980e+01 8.277782440185546875e+00 -2.359565347433089932e-01 2.000000000000000000e+00
3.713492965698242188e+01 2.875293540954589844e+01 1.258430004119873047e+01 1.400000000000000000e+01
1.780733346939086914e+00 1.376307129859924094e+00 -6.030483841896057129e-01 1.900000000000000000e+01
2.023504018783568892e+00 1.562813758850098100e+00 -5.902715921401977539e-01 1.100000000000000000e+01
2.362082242965697798e+00 1.823649883270263894e+00 -5.800593495368957520e-01 1.300000000000000000e+01
2.802720546722412109e+00 2.162284374237060991e+00 -5.606611371040344238e-01 9.000000000000000000e+00
3.475987672805786133e+00 2.679771423339844194e+00 -5.389062166213989258e-01 9.000000000000000000e+00
4.496078491210938388e+00 3.464947223663330078e+00 -4.966134130954741877e-01 9.000000000000000000e+00
6.549585342407226562e+00 5.043859958648681641e+00 -4.332370460033416748e-01 1.000000000000000000e+00
1.068130779266357067e+01 8.219776153564453125e+00 -2.352584451436995905e-01 2.000000000000000000e+00
1.783994078636168990e+00 1.368906855583190918e+00 -6.025307178497314453e-01 1.900000000000000000e+01
2.035132884979248047e+00 1.560483932495116965e+00 -5.920711755752563477e-01 1.100000000000000000e+01
2.365317106246947798e+00 1.813004851341248003e+00 -5.792961120605468750e-01 1.300000000000000000e+01
2.822796821594237837e+00 2.162097215652465820e+00 -5.631640553474426270e-01 1.000000000000000000e+01
3.580211639404296875e+01 2.741241073608398082e+01 5.536524295806884766e+00 3.800000000000000000e+01
3.479015111923218218e+00 2.662795543670653853e+00 -5.379312634468078613e-01 9.000000000000000000e+00
4.554034233093261719e+00 3.484341621398925781e+00 -5.016684532165527344e-01 9.000000000000000000e+00
6.579844951629638672e+00 5.030671596527099609e+00 -4.340744316577910822e-01 2.000000000000000000e+00
1.072582530975341975e+01 8.194581031799316406e+00 -2.356074899435043057e-01 2.000000000000000000e+00
3.593824386596679688e+01 2.745698738098144887e+01 1.211842536926270064e+01 1.200000000000000000e+01
1.793610215187072976e+00 1.365870237350464089e+00 -6.040836572647094727e-01 1.900000000000000000e+01
2.040838479995727983e+00 1.553014397621155007e+00 -5.920711755752563477e-01 1.100000000000000000e+01
2.367258787155150923e+00 1.800757527351378950e+00 -5.781512856483459473e-01 1.200000000000000000e+01
2.830702304840087891e+00 2.151736497879027876e+00 -5.631640553474426270e-01 9.000000000000000000e+00
3.488751411437987837e+00 2.650026321411132812e+00 -5.379312634468078613e-01 9.000000000000000000e+00
4.535038471221923828e+00 3.443529367446898970e+00 -4.981822371482849121e-01 9.000000000000000000e+00
6.591874599456787109e+00 5.001692295074462891e+00 -4.336557388305664062e-01 2.000000000000000000e+00
1.074941349029541016e+01 8.150382041931152344e+00 -2.354678660631180087e-01 2.000000000000000000e+00
3.788282394409179688e+01 2.872337722778319957e+01 1.273855590820313033e+01 1.400000000000000000e+01
1.782956838607788086e+00 1.347950577735901101e+00 -5.989072918891906738e-01 1.800000000000000000e+01
2.052466869354248047e+00 1.550579786300658958e+00 -5.938707590103149414e-01 1.200000000000000000e+01
2.367263317108153853e+00 1.787750601768494096e+00 -5.766248106956481934e-01 1.100000000000000000e+01
2.838196039199829102e+00 2.141842365264893022e+00 -5.631640553474426270e-01 9.000000000000000000e+00
3.502735376358031782e+00 2.641417741775513139e+00 -5.386624932289123535e-01 7.000000000000000000e+00
4.569304943084716797e+00 3.444468736648560014e+00 -5.006225705146789551e-01 9.000000000000000000e+00
6.622056007385253906e+00 4.988265514373779297e+00 -4.344930946826934814e-01 2.000000000000000000e+00
1.079697036743164062e+01 8.127241134643554688e+00 -2.358867228031157892e-01 2.000000000000000000e+00
1.793831586837768999e+00 1.346357345581054910e+00 -6.009778380393981934e-01 1.800000000000000000e+01
2.048512935638428178e+00 1.536390423774719016e+00 -5.911713838577270508e-01 1.100000000000000000e+01
2.381343364715576172e+00 1.785364866256714089e+00 -5.785328745841979980e-01 1.000000000000000000e+01
2.839331626892089844e+00 2.127184629440308061e+00 -5.619125962257385254e-01 9.000000000000000000e+00
3.519879817962646040e+00 2.635123252868651900e+00 -5.398811697959899902e-01 9.000000000000000000e+00
4.600442409515380859e+00 3.442823171615601030e+00 -5.027143359184265137e-01 9.000000000000000000e+00
6.639428138732910156e+00 4.965119838714599609e+00 -4.344930946826934814e-01 2.000000000000000000e+00
1.081886672973632990e+01 8.084714889526367188e+00 -2.357470989227294922e-01 2.000000000000000000e+00
1.803167581558227983e+00 1.343550205230712891e+00 -6.025307178497314453e-01 1.900000000000000000e+01
2.053863286972045898e+00 1.529230356216431108e+00 -5.911713838577270508e-01 1.100000000000000000e+01
2.392285585403441939e+00 1.780558109283447044e+00 -5.796777009963989258e-01 1.000000000000000000e+01
2.843569517135620117e+00 2.114902734756470171e+00 -5.612868666648864746e-01 9.000000000000000000e+00
3.525870084762572798e+00 2.620452404022216797e+00 -5.393937230110168457e-01 9.000000000000000000e+00
4.591640949249267578e+00 3.411297082901000977e+00 -5.004482865333557129e-01 8.000000000000000000e+00
6.643889904022216797e+00 4.932389259338378906e+00 -4.336557388305664062e-01 1.000000000000000000e+00
3.148711395263671875e+01 2.336734580993651988e+01 9.052480697631835938e+00 1.200000000000000000e+01
1.084702205657958984e+01 8.046900749206542969e+00 -2.357470989227294922e-01 2.000000000000000000e+00
3.220194625854492188e+01 2.388912582397460938e+01 1.074357891082764027e+01 9.000000000000000000e+00
1.813824772834778054e+00 1.342159748077393022e+00 -6.046012639999389648e-01 1.900000000000000000e+01
2.062057018280028853e+00 1.524728298187256081e+00 -5.920711755752563477e-01 1.100000000000000000e+01
2.401334524154663086e+00 1.774949073791503906e+00 -5.804409384727478027e-01 1.200000000000000000e+01
2.861689805984497070e+00 2.113676786422729048e+00 -5.634769201278686523e-01 1.000000000000000000e+01
3.520165920257567915e+00 2.598136186599731001e+00 -5.372000932693481445e-01 9.000000000000000000e+00
4.646215915679931641e+00 3.427989721298218218e+00 -5.051546692848205566e-01 9.000000000000000000e+00
6.663424968719482422e+00 4.912700653076171875e+00 -4.338650703430175781e-01 1.000000000000000000e+00
3.149854278564453125e+01 2.321424484252930043e+01 9.033584594726562500e+00 1.200000000000000000e+01
1.087364673614501953e+01 8.010886192321777344e+00 -2.357470989227294922e-01 2.000000000000000000e+00
3.227943420410156250e+01 2.378106307983398082e+01 1.074306106567382990e+01 1.900000000000000000e+01
1.816941857337952104e+00 1.334676504135132058e+00 -6.040836572647094727e-01 1.800000000000000000e+01
2.070508718490601030e+00 1.519827365875243919e+00 -5.929709672927856445e-01 1.100000000000000000e+01
2.398018598556518999e+00 1.759587407112122026e+00 -5.781512856483459473e-01 1.200000000000000000e+01
2.870643377304077148e+00 2.104842901229857954e+00 -5.637897849082946777e-01 1.100000000000000000e+01
3.530814886093140093e+00 2.587006092071533203e+00 -5.374438166618347168e-01 9.000000000000000000e+00
4.613147258758544922e+00 3.378786802291870117e+00 -5.002739429473876953e-01 9.000000000000000000e+00
6.664415836334229404e+00 4.877614974975585938e+00 -4.328183531761168878e-01 2.000000000000000000e+00
3.151961898803710938e+01 2.306042671203612926e+01 9.016488075256347656e+00 1.200000000000000000e+01
1.090799999237061080e+01 7.977603435516357422e+00 -2.358867228031157892e-01 2.000000000000000000e+00
3.237105560302733664e+01 2.366601371765137074e+01 1.074461364746093928e+01 9.000000000000000000e+00
1.813785076141356978e+00 1.322634816169738992e+00 -6.014954447746276855e-01 1.900000000000000000e+01
2.075801134109497070e+00 1.512590646743773970e+00 -5.929709672927856445e-01 1.100000000000000000e+01
2.405733108520507812e+00 1.752362012863158958e+00 -5.785328745841979980e-01 1.100000000000000000e+01
2.873181819915771040e+00 2.091322183609008789e+00 -5.628511905670166016e-01 1.400000000000000000e+01
3.541429042816162109e+00 2.575833082199097124e+00 -5.376875400543212891e-01 1.000000000000000000e+01
4.602352619171142578e+00 3.346260070800780806e+00 -4.978336095809937079e-01 9.000000000000000000e+00
6.691096305847167969e+00 4.861365795135498047e+00 -4.334463775157927912e-01 2.000000000000000000e+00
3.170083618164062855e+01 2.302355384826660156e+01 9.045282363891601562e+00 1.200000000000000000e+01
1.093578052520751953e+01 7.939478874206542969e+00 -2.358867228031157892e-01 2.000000000000000000e+00
3.217421722412108664e+01 2.335878181457519887e+01 1.065350914001465021e+01 9.000000000000000000e+00
1.823085546493530051e+00 1.319693803787231001e+00 -6.030483841896057129e-01 1.900000000000000000e+01
2.090542316436768022e+00 1.512188434600830078e+00 -5.956704020500183105e-01 1.200000000000000000e+01
2.418198823928833008e+00 1.748555183410644975e+00 -5.800593495368957520e-01 1.100000000000000000e+01
2.870857477188109907e+00 2.074338674545288086e+00 -5.609740018844604492e-01 1.300000000000000000e+01
3.566493272781372070e+00 2.575075864791870117e+00 -5.401249527931213379e-01 1.000000000000000000e+01
4.680242538452148438e+00 3.377981662750244141e+00 -5.049803853034973145e-01 9.000000000000000000e+00
6.724224090576171875e+00 4.849663257598876953e+00 -4.344930946826934814e-01 1.000000000000000000e+00
3.194857025146484020e+01 2.303355979919433949e+01 9.092971801757812500e+00 1.200000000000000000e+01
1.099911785125732067e+01 7.926979064941406250e+00 -2.366546243429183960e-01 2.000000000000000000e+00
3.190135955810546875e+01 2.299106216430664062e+01 1.053652286529541016e+01 9.000000000000000000e+00
1.830818653106689009e+00 1.315576672554015891e+00 -6.040836572647094727e-01 1.800000000000000000e+01
2.076812744140625000e+00 1.491242408752440962e+00 -5.902715921401977539e-01 1.100000000000000000e+01
2.424287796020507812e+00 1.740103483200073020e+00 -5.800593495368957520e-01 1.100000000000000000e+01
2.879686117172241211e+00 2.065456151962279829e+00 -5.612868666648864746e-01 1.200000000000000000e+01
3.729080200195313211e+01 2.673698997497558949e+01 5.634019851684570312e+00 4.000000000000000000e+01
3.567392826080321822e+00 2.556828737258911133e+00 -5.389062166213989258e-01 9.000000000000000000e+00
3.163309669494628906e+01 2.267213439941405895e+01 6.164143562316895419e+00 1.400000000000000000e+01
4.706582069396972656e+00 3.372067451477050781e+00 -5.065491795539855957e-01 6.000000000000000000e+00
6.718375682830811435e+00 4.809884548187255859e+00 -4.330277144908905029e-01 2.000000000000000000e+00
1.101045799255370916e+01 7.876901626586914062e+00 -2.363055795431137085e-01 2.000000000000000000e+00
1.836972475051880105e+00 1.310299754142761008e+00 -6.046012639999389648e-01 1.900000000000000000e+01
2.088353157043457031e+00 1.488508224487304910e+00 -5.920711755752563477e-01 1.300000000000000000e+01
2.420753717422484907e+00 1.724795103073119895e+00 -5.777696371078491211e-01 1.200000000000000000e+01
2.898142576217650923e+00 2.063411474227904829e+00 -5.634769201278686523e-01 1.300000000000000000e+01
3.573060989379882812e+00 2.542058944702147993e+00 -5.384187698364257812e-01 9.000000000000000000e+00
3.155178451538085938e+01 2.243926620483398082e+01 6.132231235504150391e+00 1.400000000000000000e+01
4.744302272796630859e+00 3.374093294143677202e+00 -5.093381404876708984e-01 6.000000000000000000e+00
3.158606719970703125e+01 2.245534706115723012e+01 7.533139228820800781e+00 6.300000000000000000e+01
6.761172771453857422e+00 4.804915428161621094e+00 -4.347024559974669855e-01 2.000000000000000000e+00
3.232147598266602273e+01 2.296118736267089844e+01 9.153258323669433594e+00 1.200000000000000000e+01
1.105745124816895064e+01 7.852313995361328125e+00 -2.367244362831116000e-01 2.000000000000000000e+00
1.839958429336548074e+00 1.302763223648071067e+00 -6.040836572647094727e-01 1.900000000000000000e+01
2.095127105712891069e+00 1.482334971427917036e+00 -5.925210714340209961e-01 1.200000000000000000e+01
2.423553705215454102e+00 1.714067339897155984e+00 -5.770063996315002441e-01 1.100000000000000000e+01
2.913393497467041016e+00 2.058982849121094194e+00 -5.650413036346435547e-01 1.200000000000000000e+01
3.249913406372070312e+01 2.295961380004883168e+01 4.885742187500000000e+00 2.100000000000000000e+01
3.575426578521728960e+00 2.524990797042847124e+00 -5.374438166618347168e-01 9.000000000000000000e+00
4.756051063537597656e+00 3.357511997222899947e+00 -5.093381404876708984e-01 6.000000000000000000e+00
6.768111705780029297e+00 4.774377346038818359e+00 -4.340744316577910822e-01 1.000000000000000000e+00
3.135031318664551137e+01 2.210701942443848012e+01 8.856323242187500000e+00 1.200000000000000000e+01
1.106517982482909979e+01 7.799842834472656250e+00 -2.363055795431137085e-01 2.000000000000000000e+00
3.207799530029296875e+01 2.260339355468750000e+01 1.051478290557860973e+01 9.000000000000000000e+00
1.835011482238769975e+00 1.289667606353759988e+00 -6.009778380393981934e-01 1.900000000000000000e+01
2.100288629531859907e+00 1.475012660026550071e+00 -5.925210714340209961e-01 1.200000000000000000e+01
2.439163208007812944e+00 1.712365269660949929e+00 -5.792961120605468750e-01 1.200000000000000000e+01
2.914094448089600053e+00 2.044262886047362837e+00 -5.637897849082946777e-01 1.200000000000000000e+01
3.261808776855468750e+01 2.287338447570801137e+01 4.891591548919677734e+00 2.100000000000000000e+01
3.600473642349243164e+00 2.523889303207397017e+00 -5.398811697959899902e-01 9.000000000000000000e+00
3.180731391906737926e+01 2.229654884338378906e+01 6.152254581451416016e+00 1.400000000000000000e+01
4.753057003021240234e+00 3.330599546432495117e+00 -5.077693462371826172e-01 6.000000000000000000e+00
3.125966072082519887e+01 2.189638137817383168e+01 7.418653964996337891e+00 6.200000000000000000e+01
6.794552326202392578e+00 4.757596969604492188e+00 -4.347024559974669855e-01 2.000000000000000000e+00
1.109233951568604049e+01 7.761170864105224609e+00 -2.363055795431137085e-01 2.000000000000000000e+00
3.244798660278320312e+01 2.269501304626464844e+01 1.061002826690674006e+01 9.000000000000000000e+00
1.844030737876892090e+00 1.286892175674438032e+00 -6.025307178497314453e-01 1.900000000000000000e+01
2.109963893890380859e+00 1.471383690834044966e+00 -5.938707590103149414e-01 1.400000000000000000e+01
2.449659824371337891e+00 1.707635521888732910e+00 -5.804409384727478027e-01 1.200000000000000000e+01
2.911131858825684038e+00 2.027813911437987837e+00 -5.619125962257385254e-01 1.200000000000000000e+01
3.610452651977539062e+00 2.513069868087768999e+00 -5.401249527931213379e-01 1.000000000000000000e+01
4.790243148803710938e+00 3.333026647567749023e+00 -5.105583667755126953e-01 9.000000000000000000e+00
6.810291767120361328e+00 4.735039234161376953e+00 -4.347024559974669855e-01 2.000000000000000000e+00
3.029990768432616832e+01 2.105898475646973012e+01 8.518896102905273438e+00 1.100000000000000000e+01
1.113443756103515980e+01 7.735754013061523438e+00 -2.366546243429183960e-01 2.000000000000000000e+00
3.251912307739257812e+01 2.259296226501464844e+01 1.061002826690674006e+01 9.000000000000000000e+00
1.850099682807921919e+00 1.281547546386718972e+00 -6.030483841896057129e-01 1.900000000000000000e+01
2.110280036926269975e+00 1.460682392120361106e+00 -5.925210714340209961e-01 1.200000000000000000e+01
2.453991174697875977e+00 1.697957038879394975e+00 -5.800593495368957520e-01 1.100000000000000000e+01
2.924691915512084961e+00 2.022133350372314009e+00 -5.631640553474426270e-01 1.100000000000000000e+01
3.187486648559569957e+01 2.203007507324219105e+01 4.757535457611083984e+00 2.000000000000000000e+01
3.625735759735106978e+00 2.504965305328369141e+00 -5.410999059677124023e-01 1.000000000000000000e+01
4.806766510009765625e+00 3.319681882858275923e+00 -5.110812783241271973e-01 9.000000000000000000e+00
3.033519744873046875e+01 2.094248199462890980e+01 7.165259361267089844e+00 6.100000000000000000e+01
6.816915988922119141e+00 4.704431533813476562e+00 -4.340744316577910822e-01 2.000000000000000000e+00
3.037323379516601918e+01 2.095309066772460938e+01 8.518896102905273438e+00 1.100000000000000000e+01
1.116795730590819957e+01 7.701381206512451172e+00 -2.367942482233046930e-01 2.000000000000000000e+00
1.861152648925781028e+00 1.279134750366210938e+00 -6.051189303398132324e-01 1.800000000000000000e+01
2.112406730651855025e+00 1.450731515884398970e+00 -5.916212797164916992e-01 1.300000000000000000e+01
2.458579540252685991e+00 1.687840223312377930e+00 -5.796777009963989258e-01 1.200000000000000000e+01
2.930454730987548828e+00 2.010282754898070845e+00 -5.628511905670166016e-01 1.100000000000000000e+01
3.261025238037108664e+01 2.236216163635253906e+01 4.855031013488770419e+00 2.000000000000000000e+01
3.626705884933472124e+00 2.486047506332397017e+00 -5.398811697959899902e-01 9.000000000000000000e+00
3.277225112915039062e+01 2.246484184265137074e+01 6.293045520782470703e+00 1.400000000000000000e+01
4.838624000549316406e+00 3.315556526184082031e+00 -5.131729841232299805e-01 8.000000000000000000e+00
6.847296237945556641e+00 4.688441753387451172e+00 -4.349117875099182129e-01 2.000000000000000000e+00
3.053023338317871094e+01 2.089665985107421875e+01 8.541391372680664062e+00 1.100000000000000000e+01
1.120601177215575994e+01 7.667172431945800781e+00 -2.370036840438843051e-01 2.000000000000000000e+00
3.246631622314453125e+01 2.221350669860839844e+01 1.054066467285156072e+01 9.000000000000000000e+00
1.865606307983397993e+00 1.272630333900452104e+00 -6.051189303398132324e-01 1.700000000000000000e+01
2.119068145751953125e+00 1.444446563720702903e+00 -5.920711755752563477e-01 1.400000000000000000e+01
2.453099250793457031e+00 1.671509385108947976e+00 -5.770063996315002441e-01 1.100000000000000000e+01
2.943985462188721147e+00 2.004488468170166016e+00 -5.641027092933654785e-01 1.100000000000000000e+01
3.298350143432617188e+01 2.244924354553223012e+01 4.898903846740722656e+00 2.100000000000000000e+01
3.635361671447753906e+00 2.473372936248778853e+00 -5.398811697959899902e-01 1.000000000000000000e+01
3.179265403747558949e+01 2.162249183654785156e+01 6.089680671691895419e+00 1.400000000000000000e+01
4.840283393859863281e+00 3.291923522949219194e+00 -5.121271610260009766e-01 9.000000000000000000e+00
6.847101211547851562e+00 4.653285503387451172e+00 -4.338650703430175781e-01 2.000000000000000000e+00
3.060298919677734020e+01 2.078996276855469105e+01 8.541391372680664062e+00 1.100000000000000000e+01
1.122278118133544922e+01 7.621268749237061435e+00 -2.367942482233046930e-01 2.000000000000000000e+00
1.858399987220763938e+00 1.259177684783935991e+00 -6.014954447746276855e-01 1.900000000000000000e+01
2.133277654647827148e+00 1.444337487220763938e+00 -5.947706103324890137e-01 1.300000000000000000e+01
2.471345424652100053e+00 1.672597646713257058e+00 -5.800593495368957520e-01 1.100000000000000000e+01
2.950268268585205078e+00 1.995229721069335938e+00 -5.641027092933654785e-01 1.100000000000000000e+01
3.644758939743041992e+00 2.463051319122314009e+00 -5.401249527931213379e-01 1.000000000000000000e+01
3.175846672058105113e+01 2.146170425415039062e+01 6.070908546447753906e+00 1.400000000000000000e+01
4.835742473602294922e+00 3.266663551330565962e+00 -5.105583667755126953e-01 8.000000000000000000e+00
6.888173103332520419e+00 4.649630546569824219e+00 -4.355398416519165039e-01 2.000000000000000000e+00
1.125661563873291016e+01 7.592682838439941406e+00 -2.370036840438843051e-01 2.000000000000000000e+00
1.870799541473388894e+00 1.258073210716248003e+00 -6.040836572647094727e-01 1.900000000000000000e+01
2.138306140899658203e+00 1.436882138252258079e+00 -5.947706103324890137e-01 1.100000000000000000e+01
2.480428218841553178e+00 1.666150331497191939e+00 -5.808225870132446289e-01 1.100000000000000000e+01
2.955574750900268999e+00 1.983818292617798074e+00 -5.637897849082946777e-01 1.000000000000000000e+01
3.663225889205933061e+00 2.456948280334473100e+00 -5.415873527526855469e-01 1.000000000000000000e+01
4.855390071868895596e+00 3.255311250686645952e+00 -5.114299058914184570e-01 9.000000000000000000e+00
6.891086578369140625e+00 4.616664886474609375e+00 -4.347024559974669855e-01 1.000000000000000000e+00
1.129302024841308949e+01 7.560018539428710938e+00 -2.372131049633026123e-01 2.000000000000000000e+00
1.881606936454772949e+00 1.255825042724608931e+00 -6.061542034149169922e-01 1.800000000000000000e+01
2.130338668823242188e+00 1.420759320259094016e+00 -5.911713838577270508e-01 1.200000000000000000e+01
2.482962131500244141e+00 1.655303835868835005e+00 -5.800593495368957520e-01 1.200000000000000000e+01
2.955905675888061968e+00 1.969108700752258079e+00 -5.625383257865905762e-01 9.000000000000000000e+00
3.680042266845703125e+00 2.449645996093750000e+00 -5.428060293197631836e-01 1.000000000000000000e+01
3.194698715209960938e+01 2.126573753356933949e+01 6.078417778015136719e+00 1.400000000000000000e+01
4.860088348388671875e+00 3.233928203582764116e+00 -5.107326507568359375e-01 9.000000000000000000e+00
6.897181034088134766e+00 4.585947036743164062e+00 -4.340744316577910822e-01 2.000000000000000000e+00
1.134599113464354936e+01 7.538258075714111328e+00 -2.377715855836868009e-01 2.000000000000000000e+00
3.272708511352539062e+01 2.174382209777832031e+01 1.052824115753174006e+01 9.000000000000000000e+00
1.889200210571289062e+00 1.251382946968079057e+00 -6.071894764900207520e-01 1.600000000000000000e+01
2.141785383224486861e+00 1.417616724967956987e+00 -5.929709672927856445e-01 1.100000000000000000e+01
2.488724946975708008e+00 1.646626591682434082e+00 -5.800593495368957520e-01 1.200000000000000000e+01
2.969352245330810991e+00 1.963136315345763938e+00 -5.637897849082946777e-01 9.000000000000000000e+00
3.670351505279541016e+00 2.424749135971068892e+00 -5.401249527931213379e-01 1.000000000000000000e+01
4.902936458587645596e+00 3.237804174423218218e+00 -5.140445828437805176e-01 8.000000000000000000e+00
3.160575103759765980e+01 2.086390495300292969e+01 7.361411094665527344e+00 6.200000000000000000e+01
6.926483154296875000e+00 4.570643901824951172e+00 -4.349117875099182129e-01 2.000000000000000000e+00
1.137223529815674006e+01 7.498607158660888672e+00 -2.377715855836868009e-01 2.000000000000000000e+00
3.301624679565429688e+01 2.176193809509276988e+01 1.059553432464599965e+01 9.000000000000000000e+00
1.890328288078308105e+00 1.242658376693726030e+00 -6.061542034149169922e-01 1.900000000000000000e+01
2.149978160858153853e+00 1.412271738052367942e+00 -5.938707590103149414e-01 1.100000000000000000e+01
2.496098756790161133e+00 1.639006853103637917e+00 -5.804409384727478027e-01 1.300000000000000000e+01
2.982793331146239790e+00 1.957093954086303933e+00 -5.650413036346435547e-01 1.100000000000000000e+01
3.677133083343505859e+00 2.410834074020386186e+00 -5.398811697959899902e-01 9.000000000000000000e+00
4.882546901702880859e+00 3.199919700622559038e+00 -5.107326507568359375e-01 8.000000000000000000e+00
6.935711860656738281e+00 4.542061328887938565e+00 -4.344930946826934814e-01 2.000000000000000000e+00
3.244758605957031250e+01 2.124119377136230113e+01 8.953501701354980469e+00 1.200000000000000000e+01
1.138495445251465021e+01 7.450105667114257812e+00 -2.374923527240752896e-01 2.000000000000000000e+00
3.320462036132813211e+01 2.172849464416503906e+01 1.063280391693115057e+01 9.000000000000000000e+00
1.889800548553467019e+00 1.232885718345642090e+00 -6.046012639999389648e-01 1.900000000000000000e+01
2.158159732818603960e+00 1.406886696815490945e+00 -5.947706103324890137e-01 1.100000000000000000e+01
2.503449678421020952e+00 1.631355643272399902e+00 -5.808225870132446289e-01 1.400000000000000000e+01
2.987951278686522993e+00 1.945592284202575906e+00 -5.647284388542175293e-01 1.000000000000000000e+01
3.692181587219237837e+00 2.402314186096190962e+00 -5.408561229705810547e-01 1.000000000000000000e+01
4.907048702239990234e+00 3.191547393798828125e+00 -5.121271610260009766e-01 8.000000000000000000e+00
6.954873561859130859e+00 4.519999980926513672e+00 -4.347024559974669855e-01 1.000000000000000000e+00
1.143772411346436080e+01 7.427744865417479581e+00 -2.380508184432983121e-01 2.000000000000000000e+00
3.256135177612304688e+01 2.113750839233398082e+01 1.040193748474120916e+01 8.000000000000000000e+00
1.898743033409119096e+00 1.229762673377990945e+00 -6.061542034149169922e-01 2.000000000000000000e+01
2.172629356384276900e+00 1.406075000762939009e+00 -5.974699854850769043e-01 1.100000000000000000e+01
2.510493993759154829e+00 1.624111413955688032e+00 -5.812041759490966797e-01 1.500000000000000000e+01
2.979456186294556108e+00 1.926021695137023926e+00 -5.619125962257385254e-01 9.000000000000000000e+00
3.708465099334716797e+00 2.395442724227904829e+00 -5.420748591423034668e-01 1.000000000000000000e+01
3.306681442260742188e+01 2.135914802551269887e+01 6.234851837158203125e+00 1.400000000000000000e+01
4.914257526397705078e+00 3.173095941543579102e+00 -5.117785334587097168e-01 9.000000000000000000e+00
3.093808174133301137e+01 1.996881675720214844e+01 7.157627105712890625e+00 6.100000000000000000e+01
6.979893684387207031e+00 4.503408908843994141e+00 -4.353304803371428888e-01 2.000000000000000000e+00
3.092753601074219105e+01 1.994672012329101918e+01 8.496401786804199219e+00 1.100000000000000000e+01
1.144884681701659979e+01 7.381106853485107422e+00 -2.377715855836868009e-01 2.000000000000000000e+00
3.257888412475585938e+01 2.100370597839355113e+01 1.038640785217284979e+01 8.000000000000000000e+00
1.903024077415466087e+00 1.223127365112304910e+00 -6.061542034149169922e-01 1.800000000000000000e+01
3.227661514282227273e+01 2.073713111877441051e+01 6.696488261222839355e-01 3.200000000000000000e+01
2.157847881317139116e+00 1.385845661163330078e+00 -5.920711755752563477e-01 1.100000000000000000e+01
2.529364585876464844e+00 1.623823285102844016e+00 -5.842571258544921875e-01 1.500000000000000000e+01
2.996137142181396040e+00 1.922009229660033958e+00 -5.637897849082946777e-01 7.000000000000000000e+00
3.718475341796875000e+00 2.383554458618164062e+00 -5.423185825347900391e-01 9.000000000000000000e+00
4.948789596557617188e+00 3.170971393585205078e+00 -5.142188668251037598e-01 9.000000000000000000e+00
6.975386619567871094e+00 4.466094017028808594e+00 -4.340744316577910822e-01 2.000000000000000000e+00
3.102323532104491832e+01 1.985544776916503906e+01 8.503600120544433594e+00 1.100000000000000000e+01
1.148801803588867010e+01 7.349719524383544922e+00 -2.380508184432983121e-01 2.000000000000000000e+00
3.383668518066406250e+01 2.164778518676758168e+01 1.076324844360351918e+01 9.000000000000000000e+00
1.910539507865905984e+00 1.218554735183716042e+00 -6.071894764900207520e-01 1.800000000000000000e+01
2.165959119796752930e+00 1.380399584770203081e+00 -5.929709672927856445e-01 1.000000000000000000e+01
2.523427009582519975e+00 1.607600212097167969e+00 -5.815858244895935059e-01 1.400000000000000000e+01
3.002827882766724077e+00 1.911539077758789062e+00 -5.637897849082946777e-01 7.000000000000000000e+00
3.600918960571289062e+01 2.291388511657714844e+01 5.240625381469726562e+00 3.000000000000000000e+01
3.716723203659058061e+00 2.364167451858520952e+00 -5.408561229705810547e-01 9.000000000000000000e+00
4.949740409851074219e+00 3.147263288497924805e+00 -5.131729841232299805e-01 9.000000000000000000e+00
7.011163234710693359e+00 4.454570770263671875e+00 -4.353304803371428888e-01 2.000000000000000000e+00
3.100352478027344105e+01 1.969061851501464844e+01 8.479305267333984375e+00 1.100000000000000000e+01
1.152710914611816051e+01 7.318148136138916016e+00 -2.383300662040709894e-01 2.000000000000000000e+00
3.273450851440429688e+01 2.078196525573730113e+01 1.038951396942139027e+01 8.000000000000000000e+00
1.911516666412353960e+00 1.209812045097351074e+00 -6.061542034149169922e-01 1.800000000000000000e+01
2.174058437347412109e+00 1.374913811683655007e+00 -5.938707590103149414e-01 1.100000000000000000e+01
2.522385358810424805e+00 1.594585776329040971e+00 -5.800593495368957520e-01 1.400000000000000000e+01
3.012822389602661133e+00 1.903155565261841042e+00 -5.644155740737915039e-01 8.000000000000000000e+00
3.598153305053710938e+01 2.272021865844726918e+01 5.225026130676270419e+00 3.000000000000000000e+01
3.724952936172484907e+00 2.351179361343383789e+00 -5.408561229705810547e-01 9.000000000000000000e+00
4.955641269683837891e+00 3.126776695251464844e+00 -5.126500725746154785e-01 9.000000000000000000e+00
7.026669979095458984e+00 4.430069923400878906e+00 -4.353304803371428888e-01 2.000000000000000000e+00
3.102260971069335938e+01 1.955110549926758168e+01 8.465807914733886719e+00 1.100000000000000000e+01
1.156273555755615057e+01 7.284261703491210938e+00 -2.385394871234894076e-01 2.000000000000000000e+00
3.232004165649414062e+01 2.035301780700683949e+01 1.023422241210938033e+01 8.000000000000000000e+00
1.909393429756164995e+00 1.198689222335814986e+00 -6.040836572647094727e-01 1.900000000000000000e+01
2.188987970352172852e+00 1.373149514198303001e+00 -5.965701937675476074e-01 1.100000000000000000e+01
2.531539440155028853e+00 1.587416052818297896e+00 -5.808225870132446289e-01 1.400000000000000000e+01
3.021451473236083984e+00 1.893149018287658913e+00 -5.647284388542175293e-01 1.000000000000000000e+01
3.145828628540039062e+01 1.970315551757812855e+01 4.557669639587402344e+00 1.900000000000000000e+01
3.741958141326903853e+00 2.342777967453002930e+00 -5.420748591423034668e-01 1.000000000000000000e+01
3.125255584716796875e+01 1.955911445617676137e+01 5.839385509490966797e+00 1.300000000000000000e+01
4.975512981414794922e+00 3.113877296447753906e+00 -5.135216116905212402e-01 4.000000000000000000e+00
7.056406974792479581e+00 4.412758350372313565e+00 -4.361678659915924072e-01 1.000000000000000000e+00
3.128904724121094105e+01 1.955916023254394887e+01 8.518896102905273438e+00 1.100000000000000000e+01
1.162327289581299006e+01 7.263026714324951172e+00 -2.392375916242598932e-01 2.000000000000000000e+00
3.268578720092772727e+01 2.042434501647948863e+01 1.032739734649658025e+01 8.000000000000000000e+00
1.915205717086791992e+00 1.193038344383239968e+00 -6.046012639999389648e-01 1.900000000000000000e+01
2.190459012985229048e+00 1.363440632820128950e+00 -5.956704020500183105e-01 1.100000000000000000e+01
2.543732881546020952e+00 1.582718253135680930e+00 -5.823490619659423828e-01 1.400000000000000000e+01
3.024686098098754883e+00 1.880504727363585982e+00 -5.641027092933654785e-01 1.300000000000000000e+01
3.163140487670898082e+01 1.965818977355957031e+01 4.572781562805175781e+00 1.900000000000000000e+01
3.755171775817871094e+00 2.332844257354735884e+00 -5.428060293197631836e-01 9.000000000000000000e+00
4.972811222076416016e+00 3.088082075119018999e+00 -5.121271610260009766e-01 9.000000000000000000e+00
7.048007965087890625e+00 4.373356819152832031e+00 -4.347024559974669855e-01 1.000000000000000000e+00
1.167574691772460938e+01 7.239269733428955078e+00 -2.397960573434829989e-01 2.000000000000000000e+00
3.263209915161132812e+01 2.023275756835937855e+01 1.028805732727050959e+01 8.000000000000000000e+00
1.924080729484558105e+00 1.189728736877440962e+00 -6.061542034149169922e-01 1.900000000000000000e+01
2.181705713272095171e+00 1.347974896430969016e+00 -5.920711755752563477e-01 1.100000000000000000e+01
