1.167009258270264027e+01 7.210410118103027344e+00 -2.394470125436783114e-01 2.000000000000000000e+00
3.275283050537108664e+01 2.022856140136719105e+01 1.031497383117675959e+01 8.000000000000000000e+00
1.934378743171691895e+00 1.191434383392333984e+00 -6.087424159049987793e-01 2.100000000000000000e+01
2.187374114990233931e+00 1.346207857131958008e+00 -5.929709672927856445e-01 1.100000000000000000e+01
2.561743974685668945e+00 1.575995445251465066e+00 -5.846387743949890137e-01 1.400000000000000000e+01
3.034165382385253906e+00 1.865171313285828081e+00 -5.641027092933654785e-01 1.300000000000000000e+01
3.187764167785644887e+01 1.958825492858887074e+01 4.593986988067626953e+00 1.900000000000000000e+01
3.766931056976317915e+00 2.313807964324951172e+00 -5.428060293197631836e-01 1.000000000000000000e+01
3.141868209838866832e+01 1.929112815856933949e+01 5.839385509490966797e+00 1.300000000000000000e+01
4.991773605346679688e+00 3.064957857131958008e+00 -5.124757885932922363e-01 6.000000000000000000e+00
3.269497299194335938e+01 2.006691551208496094e+01 7.456815719604492188e+00 6.200000000000000000e+01
7.073458194732666016e+00 4.339716911315917969e+00 -4.349117875099182129e-01 2.000000000000000000e+00
3.162129592895508168e+01 1.939274024963378906e+01 8.563886642456054688e+00 1.100000000000000000e+01
1.171223831176757990e+01 7.180081367492675781e+00 -2.397960573434829989e-01 2.000000000000000000e+00
3.247404098510742188e+01 1.990011787414551137e+01 1.020523452758789062e+01 8.000000000000000000e+00
1.940174221992492898e+00 1.185682177543639915e+00 -6.092600226402282715e-01 1.900000000000000000e+01
2.185407400131226030e+00 1.334501862525939941e+00 -5.911713838577270508e-01 1.200000000000000000e+01
2.562202453613280806e+00 1.563974976539612038e+00 -5.834938883781433105e-01 1.500000000000000000e+01
3.050776243209838867e+00 1.860740423202515093e+00 -5.659798979759216309e-01 1.200000000000000000e+01
3.771594762802124023e+00 2.298578739166260210e+00 -5.423185825347900391e-01 9.000000000000000000e+00
5.012650966644287109e+00 3.053734064102172852e+00 -5.135216116905212402e-01 9.000000000000000000e+00
7.112447738647460938e+00 4.329538345336914062e+00 -4.363771975040435791e-01 2.000000000000000000e+00
3.175871658325194957e+01 1.932478904724121094e+01 8.582782745361328125e+00 1.100000000000000000e+01
1.173723030090332031e+01 7.139153957366943359e+00 -2.397960573434829989e-01 2.000000000000000000e+00
3.344788360595703125e+01 2.033663368225098012e+01 1.048890018463134943e+01 9.000000000000000000e+00
1.944301128387450950e+00 1.178902506828308105e+00 -6.092600226402282715e-01 2.300000000000000000e+01
2.205052614212036133e+00 1.335953354835510032e+00 -5.952205061912536621e-01 1.200000000000000000e+01
2.559249639511107954e+00 1.549936652183532937e+00 -5.815858244895935059e-01 1.400000000000000000e+01
3.069082975387572798e+00 1.857238888740539995e+00 -5.681699514389038086e-01 1.200000000000000000e+01
3.408919906616210938e+01 2.062076568603515980e+01 4.891835212707520419e+00 2.100000000000000000e+01
3.777896642684936968e+00 2.284372091293334961e+00 -5.420748591423034668e-01 1.000000000000000000e+01
5.021574497222900391e+00 3.035187482833861861e+00 -5.133473277091979980e-01 9.000000000000000000e+00
7.117259502410888672e+00 4.298489570617675781e+00 -4.357491731643676758e-01 2.000000000000000000e+00
3.185934448242187855e+01 1.923395729064941051e+01 8.591780662536621094e+00 1.100000000000000000e+01
1.180316925048827947e+01 7.122937202453613281e+00 -2.406337857246398926e-01 2.000000000000000000e+00
3.360137939453125000e+01 2.026964759826660156e+01 1.051478290557860973e+01 9.000000000000000000e+00
1.941782832145690918e+00 1.168125033378601074e+00 -6.071894764900207520e-01 2.000000000000000000e+01
2.214713096618651900e+00 1.331260085105895996e+00 -5.965701937675476074e-01 1.200000000000000000e+01
2.562961339950561968e+00 1.539982557296752930e+00 -5.812041759490966797e-01 1.300000000000000000e+01
3.067079305648804155e+00 1.841430425643920898e+00 -5.666056275367736816e-01 1.200000000000000000e+01
3.407586669921875000e+01 2.045057106018066051e+01 4.879648685455322266e+00 2.100000000000000000e+01
3.799465656280518022e+00 2.279340744018555132e+00 -5.440247654914855957e-01 1.000000000000000000e+01
3.161566162109375000e+01 1.896657752990723012e+01 5.839385509490966797e+00 1.300000000000000000e+01
5.023595333099365234e+00 3.012516975402832031e+00 -5.124757885932922363e-01 9.000000000000000000e+00
7.156206130981445312e+00 4.287991523742675781e+00 -4.372145831584929865e-01 2.000000000000000000e+00
3.207340621948242188e+01 1.921074676513671875e+01 8.631371498107910156e+00 1.100000000000000000e+01
1.181423568725585938e+01 7.073474884033203125e+00 -2.403545379638671875e-01 2.000000000000000000e+00
3.254463958740233664e+01 1.948527908325194957e+01 1.016382408142090021e+01 8.000000000000000000e+00
1.947507381439208984e+00 1.162329912185668945e+00 -6.077071428298950195e-01 2.100000000000000000e+01
2.215999126434326172e+00 1.321524977684020996e+00 -5.956704020500183105e-01 1.300000000000000000e+01
2.575066804885863814e+00 1.535047888755797896e+00 -5.827306509017944336e-01 1.300000000000000000e+01
3.063305854797362837e+00 1.824647784233093040e+00 -5.647284388542175293e-01 1.200000000000000000e+01
3.391507720947266336e+01 2.019338417053223012e+01 4.846499919891357422e+00 2.000000000000000000e+01
3.800575494766234907e+00 2.262003183364868164e+00 -5.430498123168945312e-01 1.000000000000000000e+01
3.179031372070312855e+01 1.892076301574707031e+01 5.859409332275390625e+00 1.300000000000000000e+01
5.034080505371093750e+00 2.994963169097899947e+00 -5.124757885932922363e-01 9.000000000000000000e+00
7.164263248443604404e+00 4.258903503417968750e+00 -4.367958903312683105e-01 2.000000000000000000e+00
3.229104614257813211e+01 1.918826866149901988e+01 8.671863555908203125e+00 1.100000000000000000e+01
1.186292457580566051e+01 7.046489715576171875e+00 -2.408432066440581998e-01 2.000000000000000000e+00
3.376532363891602273e+01 2.004838180541991832e+01 1.052202987670898082e+01 9.000000000000000000e+00
1.953215122222899947e+00 1.156509041786194070e+00 -6.082247495651245117e-01 2.000000000000000000e+01
2.220598697662353960e+00 1.313781619071960005e+00 -5.956704020500183105e-01 1.400000000000000000e+01
2.588858604431151900e+00 1.531046748161315918e+00 -5.846387743949890137e-01 1.400000000000000000e+01
3.079860210418701172e+00 1.819973468780518022e+00 -5.666056275367736816e-01 1.300000000000000000e+01
3.193434143066405895e+01 1.886335563659667969e+01 4.554013729095458984e+00 1.900000000000000000e+01
3.808448314666748047e+00 2.248722791671752930e+00 -5.430498123168945312e-01 1.000000000000000000e+01
3.185616493225098012e+01 1.880967712402344105e+01 5.859409332275390625e+00 1.300000000000000000e+01
5.044504165649414062e+00 2.977372646331787109e+00 -5.124757885932922363e-01 9.000000000000000000e+00
3.324311828613281250e+01 1.961296653747558949e+01 7.502609729766845703e+00 6.300000000000000000e+01
7.185967445373535156e+00 4.237927913665770596e+00 -4.372145831584929865e-01 2.000000000000000000e+00
1.192190551757813033e+01 7.025341987609863281e+00 -2.415413111448287964e-01 2.000000000000000000e+00
3.730016326904296875e+01 2.198024559020996094e+01 1.160078716278075994e+01 1.100000000000000000e+01
1.957240223884582964e+00 1.149683952331542969e+00 -6.082247495651245117e-01 2.000000000000000000e+01
2.216768026351929155e+00 1.301090121269226074e+00 -5.934208631515502930e-01 1.300000000000000000e+01
2.585720539093018022e+00 1.517033219337462935e+00 -5.827306509017944336e-01 1.300000000000000000e+01
3.081081867218018022e+00 1.806214570999145952e+00 -5.656670331954956055e-01 1.100000000000000000e+01
3.189038085937500000e+01 1.868753623962401988e+01 4.538414478302001953e+00 1.900000000000000000e+01
3.817987442016602007e+00 2.236418485641479048e+00 -5.432935357093811035e-01 9.000000000000000000e+00
3.181579399108887074e+01 1.862891387939453125e+01 5.839385509490966797e+00 1.300000000000000000e+01
5.066901683807373047e+00 2.966792821884154829e+00 -5.136959552764892578e-01 9.000000000000000000e+00
3.336220932006835938e+01 1.952655792236328125e+01 7.514058113098145419e+00 6.300000000000000000e+01
7.193820953369140625e+00 4.208784103393554688e+00 -4.367958903312683105e-01 2.000000000000000000e+00
3.370268249511718750e+01 1.971004104614258168e+01 9.013789176940917969e+00 1.200000000000000000e+01
1.194635581970215021e+01 6.983684062957763672e+00 -2.415413111448287964e-01 2.000000000000000000e+00
3.538226699829102273e+01 2.067572784423828125e+01 1.098065662384033025e+01 1.000000000000000000e+01
1.964379906654357910e+00 1.145133137702941895e+00 -6.092600226402282715e-01 1.900000000000000000e+01
2.219386339187622070e+00 1.292751073837280051e+00 -5.929709672927856445e-01 1.300000000000000000e+01
2.583950519561768022e+00 1.504498958587646040e+00 -5.812041759490966797e-01 1.200000000000000000e+01
3.090469360351562944e+00 1.797974109649657981e+00 -5.662927627563476562e-01 1.200000000000000000e+01
3.246697998046875000e+01 1.888106346130371094e+01 4.611536026000976562e+00 1.900000000000000000e+01
3.821950435638428178e+00 2.221750020980834961e+00 -5.428060293197631836e-01 9.000000000000000000e+00
3.213032913208007812e+01 1.867778396606444957e+01 5.886315822601318359e+00 1.300000000000000000e+01
5.059485435485839844e+00 2.939964056015015093e+00 -5.119528174400329590e-01 1.100000000000000000e+01
7.225010871887207031e+00 4.194933891296386719e+00 -4.378426074981688898e-01 2.000000000000000000e+00
3.284086227416992188e+01 1.906016349792480113e+01 8.766342163085937500e+00 1.100000000000000000e+01
1.194869232177734020e+01 6.931988239288330078e+00 -2.411224544048309049e-01 2.000000000000000000e+00
3.728181457519531250e+01 2.162890052795410156e+01 1.154902362823485973e+01 1.100000000000000000e+01
1.963348150253295898e+00 1.135367870330810991e+00 -6.077071428298950195e-01 2.200000000000000000e+01
2.244133234024047852e+00 1.296695590019226074e+00 -5.983697772026062012e-01 1.400000000000000000e+01
2.590886592864989790e+00 1.496452093124390093e+00 -5.815858244895935059e-01 1.100000000000000000e+01
3.100148439407349077e+00 1.789150238037108931e+00 -5.669184923171997070e-01 1.100000000000000000e+01
3.225413131713867188e+01 1.860692214965819957e+01 4.572050094604492188e+00 1.900000000000000000e+01
3.845159292221068892e+00 2.217320203781127930e+00 -5.449997186660766602e-01 1.000000000000000000e+01
5.078347682952880859e+00 2.927260160446166992e+00 -5.128244161605834961e-01 9.000000000000000000e+00
7.222302436828613281e+00 4.159719944000244141e+00 -4.367958903312683105e-01 2.000000000000000000e+00
3.285315322875977273e+01 1.891429710388183949e+01 8.751945495605468750e+00 1.100000000000000000e+01
1.195548534393311080e+01 6.880263328552246094e+00 -2.407733947038651068e-01 2.000000000000000000e+00
3.372706604003906250e+01 1.940175819396973012e+01 1.042574882507324041e+01 1.700000000000000000e+01
1.963751196861267090e+00 1.126927852630615012e+00 -6.066718697547912598e-01 2.100000000000000000e+01
2.246730327606201172e+00 1.288277268409729004e+00 -5.979198813438415527e-01 1.300000000000000000e+01
2.597537994384766069e+00 1.488828420639038086e+00 -5.819674134254455566e-01 1.000000000000000000e+01
3.092351198196411133e+00 1.771006226539612038e+00 -5.644155740737915039e-01 9.000000000000000000e+00
3.230532073974608664e+01 1.849394416809082031e+01 4.570587635040283203e+00 1.900000000000000000e+01
3.855937004089355025e+00 2.206528902053833008e+00 -5.454871654510498047e-01 1.000000000000000000e+01
5.096673965454101562e+00 2.915349960327147993e+00 -5.136959552764892578e-01 8.000000000000000000e+00
7.242992877960205078e+00 4.139711380004882812e+00 -4.372145831584929865e-01 1.000000000000000000e+00
3.356206130981445312e+01 1.917452812194823863e+01 8.923808097839355469e+00 1.200000000000000000e+01
1.198865413665770951e+01 6.846529483795166016e+00 -2.409828305244446078e-01 5.000000000000000000e+00
3.702891159057617188e+01 2.114662170410155895e+01 1.142582511901854936e+01 1.100000000000000000e+01
1.974388599395751953e+00 1.123888969421386941e+00 -6.087424159049987793e-01 2.200000000000000000e+01
2.235968351364136186e+00 1.271755814552306907e+00 -5.938707590103149414e-01 1.100000000000000000e+01
2.604425907135010210e+00 1.480722546577454057e+00 -5.823490619659423828e-01 1.100000000000000000e+01
3.105384588241577148e+00 1.764104008674622026e+00 -5.656670331954956055e-01 9.000000000000000000e+00
3.873973846435546875e+00 2.198935270309447798e+00 -5.469496250152587891e-01 1.000000000000000000e+01
5.113750934600830078e+00 2.901474237442017046e+00 -5.143932104110717773e-01 9.000000000000000000e+00
7.274773597717285156e+00 4.124253749847412109e+00 -4.382613003253936768e-01 2.000000000000000000e+00
3.373729705810546875e+01 1.911874771118164062e+01 8.952602386474609375e+00 1.200000000000000000e+01
1.204031848907471058e+01 6.820409297943115234e+00 -2.415413111448287964e-01 5.000000000000000000e+00
3.729780960083007812e+01 2.111927604675292969e+01 1.148483657836914062e+01 1.100000000000000000e+01
1.981664061546325906e+00 1.118889808654784934e+00 -6.097776889801025391e-01 2.100000000000000000e+01
2.247183084487915039e+00 1.267773270606995073e+00 -5.956704020500183105e-01 1.100000000000000000e+01
2.609578609466553178e+00 1.471622347831726074e+00 -5.823490619659423828e-01 1.200000000000000000e+01
3.121849536895751953e+00 1.759071707725524902e+00 -5.675442218780517578e-01 9.000000000000000000e+00
3.864328384399414062e+00 2.175660133361815962e+00 -5.445122122764587402e-01 1.000000000000000000e+01
5.115166664123535156e+00 2.878720521926879883e+00 -5.135216116905212402e-01 9.000000000000000000e+00
7.271717071533203125e+00 4.089045524597167969e+00 -4.372145831584929865e-01 1.000000000000000000e+00
1.203615951538085938e+01 6.762666702270507812e+00 -2.409828305244446078e-01 2.000000000000000000e+00
3.260805130004882812e+01 1.832124137878417969e+01 1.002199077606200994e+01 8.000000000000000000e+00
1.988928794860840066e+00 1.113853573799133079e+00 -6.108129620552062988e-01 2.200000000000000000e+01
2.251594781875609907e+00 1.259921431541443093e+00 -5.956704020500183105e-01 1.200000000000000000e+01
2.612986326217650923e+00 1.461545944213866965e+00 -5.819674134254455566e-01 1.200000000000000000e+01
3.141765594482421875e+00 1.755873441696166992e+00 -5.700471997261047363e-01 9.000000000000000000e+00
3.870166063308715820e+00 2.161190032958983931e+00 -5.442684888839721680e-01 1.000000000000000000e+01
3.236516571044921875e+01 1.806604576110839844e+01 5.870672702789306641e+00 1.300000000000000000e+01
5.128663063049316406e+00 2.862789869308472124e+00 -5.138702392578125000e-01 9.000000000000000000e+00
7.296411991119384766e+00 4.069474697113037109e+00 -4.378426074981688898e-01 1.000000000000000000e+00
3.367590713500977273e+01 1.877457618713378906e+01 8.901312828063964844e+00 1.200000000000000000e+01
1.207715988159180043e+01 6.730345726013183594e+00 -2.413318753242492953e-01 2.000000000000000000e+00
3.262435531616210938e+01 1.817340087890625000e+01 1.000646209716797053e+01 8.000000000000000000e+00
1.984360694885253906e+00 1.102213859558105025e+00 -6.082247495651245117e-01 2.000000000000000000e+01
2.267906427383422852e+00 1.258673787117003950e+00 -5.988197326660156250e-01 1.300000000000000000e+01
2.624939203262329102e+00 1.456225633621216042e+00 -5.834938883781433105e-01 1.300000000000000000e+01
3.147875547409058061e+00 1.744895935058593972e+00 -5.700471997261047363e-01 1.000000000000000000e+01
3.276354217529296875e+01 1.815365409851073863e+01 4.599105358123779297e+00 1.900000000000000000e+01
3.881159543991088867e+00 2.149591207504272017e+00 -5.447559356689453125e-01 9.000000000000000000e+00
5.126423358917236328e+00 2.838114976882935014e+00 -5.126500725746154785e-01 8.000000000000000000e+00
7.300086498260498047e+00 4.038179874420166016e+00 -4.372145831584929865e-01 2.000000000000000000e+00
3.357069778442382812e+01 1.856261253356933949e+01 8.856323242187500000e+00 1.200000000000000000e+01
1.212508201599120916e+01 6.701690196990966797e+00 -2.418205440044403076e-01 2.000000000000000000e+00
3.282646560668945312e+01 1.814361381530762074e+01 1.004994392395020064e+01 8.000000000000000000e+00
1.983119726181030051e+00 1.092483997344970925e+00 -6.066718697547912598e-01 1.900000000000000000e+01
2.267164468765258789e+00 1.247930526733397993e+00 -5.974699854850769043e-01 1.100000000000000000e+01
2.631726503372191939e+00 1.448000431060791016e+00 -5.838755369186401367e-01 1.400000000000000000e+01
3.141829967498778853e+00 1.727235674858093040e+00 -5.678570866584777832e-01 1.000000000000000000e+01
3.282670974731445312e+01 1.803917694091796875e+01 4.599105358123779297e+00 1.900000000000000000e+01
3.900818586349486861e+00 2.142720222473144975e+00 -5.464621186256408691e-01 1.000000000000000000e+01
5.169481754302979404e+00 2.838422775268555132e+00 -5.159620046615600586e-01 9.000000000000000000e+00
3.276922607421875000e+01 1.798525428771973012e+01 7.266006469726563388e+00 6.200000000000000000e+01
7.324644088745117188e+00 4.018437385559082031e+00 -4.378426074981688898e-01 2.000000000000000000e+00
3.349859619140625000e+01 1.837035369873046875e+01 8.820330619812011719e+00 1.200000000000000000e+01
1.217295074462890980e+01 6.672782421112061435e+00 -2.423092126846312921e-01 2.000000000000000000e+00
3.292347717285156250e+01 1.804749107360839844e+01 1.006029605865479049e+01 8.000000000000000000e+00
2.001988172531127930e+00 1.094240546226501021e+00 -6.113305687904357910e-01 2.000000000000000000e+01
2.262738704681396040e+00 1.235735297203063965e+00 -5.952205061912536621e-01 1.300000000000000000e+01
2.639960289001464844e+00 1.441146731376647949e+00 -5.846387743949890137e-01 1.300000000000000000e+01
3.151008844375609907e+00 1.718699216842650923e+00 -5.684828162193298340e-01 1.000000000000000000e+01
3.902673482894897017e+00 2.126923084259033203e+00 -5.457309484481811523e-01 9.000000000000000000e+00
5.185863971710205078e+00 2.825077056884766069e+00 -5.166592597961425781e-01 1.100000000000000000e+01
3.265626907348632812e+01 1.778260040283203125e+01 7.227844715118408203e+00 6.100000000000000000e+01
7.320387363433837891e+00 3.984577417373656782e+00 -4.367958903312683105e-01 1.000000000000000000e+00
3.459666442871093750e+01 1.882356643676758168e+01 9.092971801757812500e+00 1.200000000000000000e+01
1.219852447509765980e+01 6.634289264678955078e+00 -2.423790246248244962e-01 2.000000000000000000e+00
3.286604690551757812e+01 1.787452697753905895e+01 1.002457904815674006e+01 1.600000000000000000e+01
2.000700473785399947e+00 1.084483861923217995e+00 -6.097776889801025391e-01 1.900000000000000000e+01
2.272179126739501953e+00 1.230613470077515093e+00 -5.965701937675476074e-01 1.100000000000000000e+01
2.636342287063599077e+00 1.427249312400818093e+00 -5.827306509017944336e-01 1.300000000000000000e+01
3.167413711547852007e+00 1.713328719139098899e+00 -5.703600645065307617e-01 1.100000000000000000e+01
3.594868087768554688e+01 1.943737983703612926e+01 5.017848491668701172e+00 2.400000000000000000e+01
3.906581401824951172e+00 2.111399650573730025e+00 -5.452434420585632324e-01 1.000000000000000000e+01
5.206211566925048828e+00 2.812639951705933061e+00 -5.177050828933715820e-01 1.100000000000000000e+01
7.372917652130126953e+00 3.979871988296508789e+00 -4.390986859798430841e-01 1.000000000000000000e+00
3.478564071655272727e+01 1.876931381225585938e+01 9.125364303588867188e+00 1.200000000000000000e+01
1.221808815002441051e+01 6.589769840240479404e+00 -2.423092126846312921e-01 2.000000000000000000e+00
3.279019927978516336e+01 1.767785644531250000e+01 9.981615066528320312e+00 8.000000000000000000e+00
2.002772092819213867e+00 1.076578855514525923e+00 -6.092600226402282715e-01 1.800000000000000000e+01
2.290195226669311968e+00 1.230051279067992942e+00 -6.001694202423095703e-01 1.400000000000000000e+01
2.639578342437744141e+00 1.417109489440917969e+00 -5.823490619659423828e-01 1.300000000000000000e+01
3.173375129699707031e+00 1.702261924743651900e+00 -5.703600645065307617e-01 1.000000000000000000e+01
3.915677309036254883e+00 2.098687887191772017e+00 -5.454871654510498047e-01 1.000000000000000000e+01
3.476195526123046875e+01 1.862357711791991832e+01 6.246115207672119141e+00 1.400000000000000000e+01
5.200191497802734375e+00 2.785981655120850053e+00 -5.161362886428833008e-01 1.300000000000000000e+01
7.376199722290039062e+00 3.948456048965454102e+00 -4.384706318378447931e-01 1.000000000000000000e+00
1.226922988891601918e+01 6.562170028686523438e+00 -2.428676933050155917e-01 2.000000000000000000e+00
3.361862182617188211e+01 1.798084640502930043e+01 1.021558761596680043e+01 8.000000000000000000e+00
2.006517887115478960e+00 1.069581270217895952e+00 -6.092600226402282715e-01 1.900000000000000000e+01
2.294475078582764116e+00 1.222049474716186968e+00 -6.001694202423095703e-01 1.100000000000000000e+01
2.658372640609741211e+00 1.415267825126647949e+00 -5.854020118713378906e-01 1.300000000000000000e+01
3.179297685623168945e+00 1.691174507141113059e+00 -5.703600645065307617e-01 1.000000000000000000e+01
3.933496713638306108e+00 2.090596675872803178e+00 -5.469496250152587891e-01 1.000000000000000000e+01
3.500120162963867188e+01 1.859479904174805043e+01 6.277402400970458984e+00 1.400000000000000000e+01
5.192289829254150391e+00 2.758465051651000977e+00 -5.143932104110717773e-01 1.300000000000000000e+01
3.284069061279296875e+01 1.743965530395508168e+01 7.227844715118408203e+00 6.100000000000000000e+01
7.404050350189208984e+00 3.930175542831420898e+00 -4.393080174922943115e-01 2.000000000000000000e+00
1.226026248931884943e+01 6.502437591552734375e+00 -2.422394007444381991e-01 2.000000000000000000e+00
3.347638320922852273e+01 1.775476646423339844e+01 1.015347099304199041e+01 8.000000000000000000e+00
2.010053634643555132e+00 1.062921524047852007e+00 -6.092600226402282715e-01 1.900000000000000000e+01
2.296791791915893999e+00 1.213523626327515093e+00 -5.997195243835449219e-01 1.300000000000000000e+01
2.659579277038574219e+00 1.404610872268676980e+00 -5.846387743949890137e-01 1.200000000000000000e+01
3.177900314331055132e+00 1.676934599876404031e+00 -5.691086053848266602e-01 1.000000000000000000e+01
3.940407752990723100e+00 2.077541351318358931e+00 -5.469496250152587891e-01 1.000000000000000000e+01
5.204934120178222656e+00 2.743089437484741211e+00 -5.147418379783630371e-01 1.400000000000000000e+01
7.402904987335205078e+00 3.898156642913817915e+00 -4.384706318378447931e-01 2.000000000000000000e+00
3.514951705932617188e+01 1.850088882446289062e+01 9.170354843139648438e+00 1.200000000000000000e+01
1.229945468902588068e+01 6.471055984497070312e+00 -2.425884455442428866e-01 2.000000000000000000e+00
3.351797866821289062e+01 1.763466262817383168e+01 1.014829444885254084e+01 8.000000000000000000e+00
2.017173528671265093e+00 1.057692885398864968e+00 -6.102952957153320312e-01 1.800000000000000000e+01
2.290656805038452148e+00 1.200072884559630904e+00 -5.970200896263122559e-01 1.200000000000000000e+01
2.667944431304932085e+00 1.397140145301819070e+00 -5.854020118713378906e-01 1.300000000000000000e+01
3.183734416961669922e+00 1.665831446647644043e+00 -5.691086053848266602e-01 1.000000000000000000e+01
3.855277633666992188e+01 2.016347312927246094e+01 5.342020988464354581e+00 3.300000000000000000e+01
3.951153993606566939e+00 2.065613508224486861e+00 -5.474370718002319336e-01 1.000000000000000000e+01
3.359680938720703125e+01 1.755652046203612926e+01 6.003954887390136719e+00 1.300000000000000000e+01
5.218008995056152344e+00 2.726749658584595171e+00 -5.150904655456542969e-01 1.700000000000000000e+01
7.416467189788818359e+00 3.872292041778564009e+00 -4.384706318378447931e-01 2.000000000000000000e+00
3.590492630004882812e+01 1.873873710632323863e+01 9.350315093994140625e+00 1.200000000000000000e+01
1.237515640258789062e+01 6.455830574035645419e+00 -2.436355948448180875e-01 2.000000000000000000e+00
3.351387023925781250e+01 1.747596549987792969e+01 1.012758922576903942e+01 8.000000000000000000e+00
2.024465084075928178e+00 1.052074074745178001e+00 -6.113305687904357910e-01 1.800000000000000000e+01
2.303687334060668945e+00 1.196159243583678977e+00 -5.992696285247802734e-01 1.200000000000000000e+01
2.676532506942749023e+00 1.389161109924315962e+00 -5.861652493476867676e-01 1.300000000000000000e+01
3.198586702346802202e+00 1.658698201179503950e+00 -5.706729292869567871e-01 1.100000000000000000e+01
3.944597959518433061e+00 2.043812036514281782e+00 -5.454871654510498047e-01 1.000000000000000000e+01
3.365742111206054688e+01 1.743144798278808949e+01 6.003328800201416016e+00 1.300000000000000000e+01
5.229737281799316406e+00 2.708522796630858931e+00 -5.152647495269775391e-01 1.100000000000000000e+01
7.448348045349121094e+00 3.854262351989746094e+00 -4.395173490047454834e-01 1.000000000000000000e+00
3.407283401489257812e+01 1.762397384643555043e+01 8.856323242187500000e+00 1.200000000000000000e+01
1.238097190856933949e+01 6.401246070861816406e+00 -2.432865500450134000e-01 2.000000000000000000e+00
2.024690628051757812e+00 1.043231368064879927e+00 -6.102952957153320312e-01 1.700000000000000000e+01
2.313046455383300781e+00 1.190786480903625044e+00 -6.006193161010742188e-01 1.200000000000000000e+01
2.669145345687866211e+00 1.373521566390990989e+00 -5.834938883781433105e-01 1.200000000000000000e+01
3.206113815307617188e+00 1.648426175117492898e+00 -5.709857940673828125e-01 1.000000000000000000e+01
3.971131086349486861e+00 2.040008068084716797e+00 -5.481683015823364258e-01 1.000000000000000000e+01
5.223208427429199219e+00 2.682060003280640093e+00 -5.136959552764892578e-01 1.400000000000000000e+01
3.238233947753906250e+01 1.662083435058594105e+01 7.075197696685791016e+00 6.100000000000000000e+01
7.472418785095214844e+00 3.833709478378295898e+00 -4.401454031467437744e-01 1.000000000000000000e+00
3.403704071044921875e+01 1.745513153076171875e+01 8.831128120422363281e+00 1.200000000000000000e+01
1.236765003204346058e+01 6.339745521545410156e+00 -2.425884455442428866e-01 2.000000000000000000e+00
3.389292907714843750e+01 1.737375640869140980e+01 1.020523452758789062e+01 8.000000000000000000e+00
2.023158788681029829e+00 1.033520936965941939e+00 -6.087424159049987793e-01 1.600000000000000000e+01
2.322396278381348100e+00 1.185362935066222922e+00 -6.019690036773681641e-01 1.400000000000000000e+01
2.680918931961060014e+00 1.367765069007873979e+00 -5.850203633308410645e-01 1.200000000000000000e+01
3.204808712005614790e+00 1.633636236190795898e+00 -5.697343349456787109e-01 1.000000000000000000e+01
3.558508300781250000e+01 1.813150596618651988e+01 4.903778553009033203e+00 2.100000000000000000e+01
3.976459026336669922e+00 2.025233030319213867e+00 -5.479245781898498535e-01 1.000000000000000000e+01
5.225436687469482422e+00 2.660195827484130859e+00 -5.129987001419067383e-01 1.900000000000000000e+01
7.475074291229248047e+00 3.802169561386107954e+00 -4.395173490047454834e-01 2.000000000000000000e+00
3.419504165649414062e+01 1.738567161560058949e+01 8.856323242187500000e+00 1.200000000000000000e+01
1.241466236114501953e+01 6.309219360351563388e+00 -2.430771142244338989e-01 2.000000000000000000e+00
3.869976806640625000e+01 1.965899658203125000e+01 1.163080978393555043e+01 1.100000000000000000e+01
2.026754140853881836e+00 1.026452541351317915e+00 -6.087424159049987793e-01 1.600000000000000000e+01
2.321303367614746094e+00 1.174609422683716042e+00 -6.006193161010742188e-01 1.500000000000000000e+01
2.690932750701903853e+00 1.361056804656981978e+00 -5.861652493476867676e-01 1.300000000000000000e+01
3.217543840408325195e+00 1.626003265380858931e+00 -5.709857940673828125e-01 1.000000000000000000e+01
3.987048149108887163e+00 2.013129711151123047e+00 -5.484120249748229980e-01 1.000000000000000000e+01
3.397214126586914062e+01 1.714568138122558949e+01 6.027107238769531250e+00 1.300000000000000000e+01
5.231132984161376953e+00 2.640143871307373047e+00 -5.126500725746154785e-01 1.600000000000000000e+01
7.481167316436767578e+00 3.772456407546997070e+00 -4.390986859798430841e-01 1.000000000000000000e+00
3.425551986694335938e+01 1.726620292663573863e+01 8.856323242187500000e+00 1.200000000000000000e+01
1.245804023742675959e+01 6.276642799377441406e+00 -2.434959709644317905e-01 2.000000000000000000e+00
3.853694915771483664e+01 1.940735435485839844e+01 1.156144714355468928e+01 1.100000000000000000e+01
2.033777713775635210e+00 1.021105170249938965e+00 -6.097776889801025391e-01 1.600000000000000000e+01
2.316679954528809038e+00 1.162130594253540039e+00 -5.983697772026062012e-01 1.400000000000000000e+01
2.693912267684936968e+00 1.350775480270385964e+00 -5.857836008071899414e-01 1.200000000000000000e+01
3.224966287612915039e+00 1.615646839141845925e+00 -5.712986588478088379e-01 1.200000000000000000e+01
3.801471710205078125e+01 1.903635215759276988e+01 5.220151424407958984e+00 3.000000000000000000e+01
4.001151561737061435e+00 2.002753973007202148e+00 -5.493869781494140625e-01 1.700000000000000000e+01
5.251008033752441406e+00 2.627216815948485884e+00 -5.136959552764892578e-01 1.400000000000000000e+01
7.512155055999755859e+00 3.755249738693236861e+00 -4.401454031467437744e-01 1.000000000000000000e+00
3.386233901977539062e+01 1.692005157470703125e+01 8.739348411560058594e+00 1.100000000000000000e+01
1.245840644836425959e+01 6.222395896911621094e+00 -2.430771142244338989e-01 2.000000000000000000e+00
3.545526123046875000e+01 1.770052719116210938e+01 1.061830997467041016e+01 9.000000000000000000e+00
2.045976877212523970e+00 1.018303632736206055e+00 -6.123658418655395508e-01 1.600000000000000000e+01
2.320722579956055132e+00 1.154036760330199973e+00 -5.983697772026062012e-01 1.400000000000000000e+01
2.682788372039794922e+00 1.333499073982238992e+00 -5.823490619659423828e-01 1.200000000000000000e+01
3.228816986083983931e+00 1.603501200675963911e+00 -5.709857940673828125e-01 1.000000000000000000e+01
3.993892431259154829e+00 1.981716632843018022e+00 -5.474370718002319336e-01 1.000000000000000000e+01
3.408805847167968750e+01 1.691404533386230113e+01 6.027107238769531250e+00 1.300000000000000000e+01
5.256577014923095703e+00 2.607100725173950195e+00 -5.133473277091979980e-01 9.000000000000000000e+00
7.543113231658936435e+00 3.737872600555419922e+00 -4.411921203136444092e-01 1.000000000000000000e+00
3.238448333740233664e+01 1.604058837890625000e+01 8.343434333801269531e+00 1.000000000000000000e+01
1.247288227081299006e+01 6.175320625305175781e+00 -2.429374903440474909e-01 2.000000000000000000e+00
3.728981781005858664e+01 1.845407485961914062e+01 1.114837169647216975e+01 1.000000000000000000e+01
2.049519062042235884e+00 1.011155724525452104e+00 -6.123658418655395508e-01 1.800000000000000000e+01
3.817047119140625000e+01 1.882359313964844105e+01 7.428791522979736328e-01 4.200000000000000000e+01
2.329980373382567915e+00 1.148513674736022949e+00 -5.997195243835449219e-01 1.500000000000000000e+01
3.799467849731445312e+01 1.872865867614746094e+01 2.219986677169799805e+00 2.800000000000000000e+01
2.697993516921997070e+00 1.329332470893860085e+00 -5.846387743949890137e-01 1.200000000000000000e+01
3.232622385025023970e+00 1.591348290443419966e+00 -5.706729292869567871e-01 1.100000000000000000e+01
3.991878986358643022e+00 1.963382601737976074e+00 -5.462183952331542969e-01 9.000000000000000000e+00
3.421779632568358664e+01 1.682982635498046875e+01 6.039621829986572266e+00 1.300000000000000000e+01
5.260281085968017578e+00 2.586098909378052202e+00 -5.128244161605834961e-01 9.000000000000000000e+00
7.563285827636718750e+00 3.715041637420653853e+00 -4.416108131408690851e-01 2.000000000000000000e+00
3.233532333374022727e+01 1.587591552734375000e+01 8.316440582275390625e+00 1.000000000000000000e+01
1.245127868652343928e+01 6.110600948333740234e+00 -2.420997768640517911e-01 2.000000000000000000e+00
3.762135314941406250e+01 1.846308898925780895e+01 1.122912311553955078e+01 1.000000000000000000e+01
2.039152622222899947e+00 9.972058534622192383e-01 -6.082247495651245117e-01 1.700000000000000000e+01
3.823594284057617188e+01 1.869023895263671875e+01 7.428791522979736328e-01 4.200000000000000000e+01
2.344480752944945845e+00 1.145506501197814941e+00 -6.024188995361328125e-01 1.600000000000000000e+01
2.693796634674071822e+00 1.315598845481873003e+00 -5.827306509017944336e-01 1.200000000000000000e+01
3.245258808135985884e+00 1.583519577980041948e+00 -5.719243884086608887e-01 1.000000000000000000e+01
4.011198520660400391e+00 1.955525755882262962e+00 -5.479245781898498535e-01 1.000000000000000000e+01
5.263903141021729404e+00 2.565103054046630859e+00 -5.123014450073242188e-01 9.000000000000000000e+00
7.590573310852050781e+00 3.695612430572510210e+00 -4.424481689929962158e-01 2.000000000000000000e+00
3.227839660644531250e+01 1.570837211608887074e+01 8.287646293640136719e+00 1.000000000000000000e+01
1.249770736694335938e+01 6.079346656799316406e+00 -2.425884455442428866e-01 2.000000000000000000e+00
3.581240844726563211e+01 1.741275024414062855e+01 1.067007350921631037e+01 9.000000000000000000e+00
2.051139354705810991e+00 9.946529269218444824e-01 -6.108129620552062988e-01 1.600000000000000000e+01
2.350020408630371094e+00 1.138575315475464089e+00 -6.028688549995422363e-01 1.600000000000000000e+01
2.714047193527222124e+00 1.314360022544861062e+00 -5.861652493476867676e-01 1.200000000000000000e+01
3.245157480239868164e+00 1.570168137550354004e+00 -5.709857940673828125e-01 1.100000000000000000e+01
3.860953903198242188e+01 1.867289543151855113e+01 5.265974521636962891e+00 3.100000000000000000e+01
4.042682170867919922e+00 1.954308986663817915e+00 -5.513368844985961914e-01 1.100000000000000000e+01
3.426042175292968750e+01 1.656213378906250000e+01 6.027107238769531250e+00 1.300000000000000000e+01
5.279556274414063388e+00 2.551100492477416992e+00 -5.129987001419067383e-01 9.000000000000000000e+00
7.584800720214843750e+00 3.661737680435181108e+00 -4.414014518260955811e-01 2.000000000000000000e+00
1.255382156372069957e+01 6.055244445800781250e+00 -2.432865500450134000e-01 2.000000000000000000e+00
3.504565048217772727e+01 1.690401458740234020e+01 1.042574882507324041e+01 8.000000000000000000e+00
2.052857875823975053e+00 9.866502285003662109e-01 -6.102952957153320312e-01 1.600000000000000000e+01
2.338170051574707031e+00 1.122773289680480957e+00 -5.988197326660156250e-01 1.500000000000000000e+01
2.716848611831665039e+00 1.304028630256653054e+00 -5.857836008071899414e-01 1.200000000000000000e+01
3.252399682998656782e+00 1.559684991836548074e+00 -5.712986588478088379e-01 1.000000000000000000e+01
3.864942550659179688e+01 1.852599716186523082e+01 5.262561798095703125e+00 3.100000000000000000e+01
4.047689437866210938e+00 1.939327716827393022e+00 -5.510931611061096191e-01 7.000000000000000000e+00
5.297413825988770419e+00 2.536958694458007812e+00 -5.138702392578125000e-01 9.000000000000000000e+00
7.586726188659667969e+00 3.630067110061645952e+00 -4.407734274864196777e-01 2.000000000000000000e+00
3.203296661376953125e+01 1.532013893127441051e+01 8.197666168212890625e+00 1.000000000000000000e+01
1.257488155364990057e+01 6.011386394500732422e+00 -2.432865500450134000e-01 2.000000000000000000e+00
3.506204986572266336e+01 1.675379753112792969e+01 1.041229057312012074e+01 8.000000000000000000e+00
2.068669795989989790e+00 9.849327802658081055e-01 -6.139187812805175781e-01 1.600000000000000000e+01
2.345788955688477007e+00 1.115870118141174094e+00 -5.997195243835449219e-01 1.800000000000000000e+01
2.719836950302124023e+00 1.293219089508057085e+00 -5.854020118713378906e-01 1.200000000000000000e+01
3.268800258636475053e+00 1.552839636802672896e+00 -5.731759071350097656e-01 1.000000000000000000e+01
4.036836624145507812e+00 1.915967583656311035e+00 -5.486558079719543457e-01 7.000000000000000000e+00
3.452082443237304688e+01 1.638430976867676137e+01 6.052136421203613281e+00 1.400000000000000000e+01
5.303076744079589844e+00 2.515817642211914062e+00 -5.135216116905212402e-01 9.000000000000000000e+00
7.614418506622313565e+00 3.609079360961914062e+00 -4.416108131408690851e-01 2.000000000000000000e+00
3.220161437988281250e+01 1.525602722167968928e+01 8.226460456848144531e+00 1.000000000000000000e+01
1.256791305541992010e+01 5.951563358306884766e+00 -2.427280694246292114e-01 2.000000000000000000e+00
3.491080093383789062e+01 1.653208923339844105e+01 1.035017395019531072e+01 8.000000000000000000e+00
2.061612606048583984e+00 9.727594852447509766e-01 -6.108129620552062988e-01 1.600000000000000000e+01
2.363771438598632812e+00 1.114322662353516069e+00 -6.033187508583068848e-01 1.500000000000000000e+01
2.724334478378295898e+00 1.283717274665832964e+00 -5.854020118713378906e-01 1.200000000000000000e+01
3.279562234878540039e+00 1.543944120407104048e+00 -5.741145014762878418e-01 1.100000000000000000e+01
4.048888683319091797e+00 1.904399394989013894e+00 -5.493869781494140625e-01 8.000000000000000000e+00
5.319038391113281250e+00 2.500681877136230025e+00 -5.142188668251037598e-01 9.000000000000000000e+00
7.634201049804688388e+00 3.585874795913695845e+00 -4.420294761657714844e-01 2.000000000000000000e+00
3.210296630859375000e+01 1.507230472564697088e+01 8.187768936157226562e+00 1.000000000000000000e+01
1.258137035369873047e+01 5.904258728027343750e+00 -2.425884455442428866e-01 2.000000000000000000e+00
3.489770126342772727e+01 1.636956596374512074e+01 1.032843303680419922e+01 8.000000000000000000e+00
2.061158895492554155e+00 9.646402001380920410e-01 -6.097776889801025391e-01 1.500000000000000000e+01
2.369025707244873047e+00 1.107716679573059082e+00 -6.037686467170715332e-01 1.400000000000000000e+01
2.731911182403564009e+00 1.276814699172974077e+00 -5.861652493476867676e-01 1.200000000000000000e+01
3.275447368621826172e+00 1.529454588890075906e+00 -5.725501179695129395e-01 1.100000000000000000e+01
4.065645217895507812e+00 1.896705508232116921e+00 -5.508494377136230469e-01 1.100000000000000000e+01
3.491157531738281250e+01 1.628695297241210938e+01 6.101569652557373047e+00 1.400000000000000000e+01
5.310616493225097656e+00 2.476381301879882812e+00 -5.126500725746154785e-01 9.000000000000000000e+00
3.352497863769531250e+01 1.562583160400390980e+01 7.189682960510253906e+00 6.100000000000000000e+01
7.630945682525634766e+00 3.555125951766968218e+00 -4.411921203136444092e-01 1.000000000000000000e+00
3.212542724609375000e+01 1.495985889434813920e+01 8.181469917297363281e+00 1.000000000000000000e+01
1.260348320007324041e+01 5.866391658782958984e+00 -2.426582574844360074e-01 5.000000000000000000e+00
3.496713638305664062e+01 1.627573204040526988e+01 1.033464431762694957e+01 8.000000000000000000e+00
2.073276519775391069e+00 9.615033864974975586e-01 -6.123658418655395508e-01 1.700000000000000000e+01
2.367573499679564986e+00 1.096982717514038086e+00 -6.024188995361328125e-01 1.200000000000000000e+01
2.739914417266846147e+00 1.268920898437500000e+00 -5.869284868240356445e-01 1.200000000000000000e+01
3.271802186965941939e+00 1.513864278793334961e+00 -5.709857940673828125e-01 1.100000000000000000e+01
4.083052635192871094e+00 1.887500047683716042e+00 -5.523118376731872559e-01 1.100000000000000000e+01
5.324654579162597656e+00 2.460335731506348100e+00 -5.131729841232299805e-01 9.000000000000000000e+00
3.346524810791016336e+01 1.545602893829346058e+01 7.165259361267089844e+00 6.100000000000000000e+01
7.665069103240966797e+00 3.538512706756591797e+00 -4.424481689929962158e-01 2.000000000000000000e+00
3.225176620483397727e+01 1.488192176818848012e+01 8.200366020202636719e+00 1.000000000000000000e+01
1.265838527679443004e+01 5.838274478912354404e+00 -2.433214485645293912e-01 7.000000000000000000e+00
3.496339416503906250e+01 1.611834526062012074e+01 1.031600952148438033e+01 8.000000000000000000e+00
2.065922021865845171e+00 9.497811794281005859e-01 -6.092600226402282715e-01 1.600000000000000000e+01
2.362343788146973100e+00 1.085058569908142090e+00 -6.001694202423095703e-01 1.200000000000000000e+01
2.751244068145751953e+00 1.263104557991028054e+00 -5.884549617767333984e-01 1.200000000000000000e+01
3.278599977493286133e+00 1.503829836845397949e+00 -5.712986588478088379e-01 1.100000000000000000e+01
4.092898845672607422e+00 1.875603795051574929e+00 -5.527993440628051758e-01 1.200000000000000000e+01
5.365389347076416016e+00 2.457599878311156782e+00 -5.163106322288513184e-01 9.000000000000000000e+00
7.684025287628173828e+00 3.516399383544921875e+00 -4.428668618202208918e-01 2.000000000000000000e+00
3.240372467041016336e+01 1.482190418243408025e+01 8.226460456848144531e+00 1.000000000000000000e+01
1.272314167022705078e+01 5.817052841186523438e+00 -2.441940754652023038e-01 5.000000000000000000e+00
2.076256990432738814e+00 9.457672238349914551e-01 -6.113305687904357910e-01 1.600000000000000000e+01
3.836968231201171875e+01 1.746990013122558949e+01 7.358981966972351074e-01 4.000000000000000000e+01
2.373211860656737837e+00 1.080034613609313965e+00 -6.019690036773681641e-01 1.300000000000000000e+01
2.744914054870605025e+00 1.248615860939026101e+00 -5.861652493476867676e-01 1.200000000000000000e+01
3.292821168899536133e+00 1.496462702751159890e+00 -5.728629827499389648e-01 1.100000000000000000e+01
4.090383052825927734e+00 1.857202053070067915e+00 -5.515806674957275391e-01 1.500000000000000000e+01
5.379378318786621094e+00 2.441326379776000977e+00 -5.168335437774658203e-01 9.000000000000000000e+00
3.368410491943358664e+01 1.527978801727294922e+01 7.189682960510253906e+00 6.100000000000000000e+01
7.699891090393066406e+00 3.491205215454102007e+00 -4.430761933326721191e-01 2.000000000000000000e+00
1.276522731781006037e+01 5.782506942749023438e+00 -2.446129322052001953e-01 2.000000000000000000e+00
3.507229995727539062e+01 1.587998676300049006e+01 1.031600952148438033e+01 8.000000000000000000e+00
2.079545736312866211e+00 9.385139942169189453e-01 -6.113305687904357910e-01 1.800000000000000000e+01
3.843043136596679688e+01 1.733585739135741832e+01 7.358981966972351074e-01 4.000000000000000000e+01
2.378743886947631836e+00 1.072545051574707031e+00 -6.024188995361328125e-01 1.200000000000000000e+01
3.846248626708983664e+01 1.733416175842285156e+01 2.210984706878662109e+00 2.800000000000000000e+01
2.754625320434569868e+00 1.241446614265441895e+00 -5.873100757598876953e-01 1.300000000000000000e+01
3.301627159118651900e+00 1.486581444740294966e+00 -5.734887719154357910e-01 1.100000000000000000e+01
4.104082584381104404e+00 1.846170067787169966e+00 -5.525556206703186035e-01 1.100000000000000000e+01
5.371512889862061435e+00 2.415180444717406782e+00 -5.152647495269775391e-01 9.000000000000000000e+00
7.744824886322020596e+00 3.479037761688231978e+00 -4.449602961540222168e-01 1.000000000000000000e+00
1.279263210296631037e+01 5.741187572479248047e+00 -2.447525411844254095e-01 2.000000000000000000e+00
3.453609085083007812e+01 1.549940490722656072e+01 1.014311790466308949e+01 8.000000000000000000e+00
2.086336374282836914e+00 9.328263401985168457e-01 -6.123658418655395508e-01 1.900000000000000000e+01
2.387811183929442915e+00 1.066619515419005904e+00 -6.037686467170715332e-01 1.100000000000000000e+01
3.712942504882813211e+01 1.657769584655762074e+01 2.131015539169311968e+00 2.400000000000000000e+01
2.757149457931518999e+00 1.231023192405700906e+00 -5.869284868240356445e-01 1.200000000000000000e+01
3.306796312332152876e+00 1.475047588348388894e+00 -5.734887719154357910e-01 1.100000000000000000e+01
3.460929489135742188e+01 1.543076896667479936e+01 4.652727603912354404e+00 1.900000000000000000e+01
4.119567871093750000e+00 1.835873126983643022e+00 -5.537742972373962402e-01 1.200000000000000000e+01
5.372630596160888672e+00 2.393172979354857954e+00 -5.145674943923950195e-01 9.000000000000000000e+00
7.731375694274902344e+00 3.440613508224486861e+00 -4.434948861598969061e-01 2.000000000000000000e+00
1.284183025360107067e+01 5.709496498107910156e+00 -2.453110218048095981e-01 2.000000000000000000e+00
3.480181503295897727e+01 1.547293663024901988e+01 1.020523452758789062e+01 8.000000000000000000e+00
2.091346025466918945e+00 9.263203740119934082e-01 -6.128835082054138184e-01 1.900000000000000000e+01
2.395083904266356978e+00 1.059855103492737038e+00 -6.046684384346008301e-01 1.400000000000000000e+01
2.773998022079468218e+00 1.226950526237488015e+00 -5.895997881889343262e-01 1.300000000000000000e+01
3.304697513580321822e+00 1.460302114486693892e+00 -5.722372531890869141e-01 1.000000000000000000e+01
3.464841842651367188e+01 1.530344963073729936e+01 4.650777816772460938e+00 1.900000000000000000e+01
4.138663291931152344e+00 1.827093958854675071e+00 -5.554804801940917969e-01 1.300000000000000000e+01
3.860649108886718750e+01 1.703554153442383168e+01 6.683506011962890625e+00 1.400000000000000000e+01
5.399179935455322266e+00 2.382447719573975053e+00 -5.163106322288513184e-01 9.000000000000000000e+00
7.743338584899902344e+00 3.413604974746704102e+00 -4.434948861598969061e-01 1.000000000000000000e+00
3.652719116210938211e+01 1.609518241882323863e+01 9.215344429016113281e+00 1.200000000000000000e+01
1.298612594604492010e+01 5.719443798065186435e+00 -2.476845532655715942e-01 2.000000000000000000e+00
3.524810409545897727e+01 1.552422523498534979e+01 1.032015037536620916e+01 8.000000000000000000e+00
2.092797756195067915e+00 9.182383418083190918e-01 -6.123658418655395508e-01 1.700000000000000000e+01
2.389844894409180132e+00 1.047576546669005904e+00 -6.024188995361328125e-01 1.500000000000000000e+01
2.778263807296752930e+00 1.217260003089905007e+00 -5.895997881889343262e-01 1.300000000000000000e+01
3.306155681610106978e+00 1.447173476219177024e+00 -5.716115236282348633e-01 1.000000000000000000e+01
4.141378402709960938e+00 1.811045408248900923e+00 -5.549929738044738770e-01 1.300000000000000000e+01
3.631631088256835938e+01 1.587375545501708984e+01 6.277402400970458984e+00 1.400000000000000000e+01
5.396509647369384766e+00 2.358798742294311968e+00 -5.152647495269775391e-01 9.000000000000000000e+00
7.755207061767578125e+00 3.386554718017578125e+00 -4.434948861598969061e-01 1.000000000000000000e+00
3.408628845214843750e+01 1.487776565551757990e+01 8.586381912231445312e+00 1.100000000000000000e+01
1.299501419067382990e+01 5.669281482696533203e+00 -2.474751174449920932e-01 2.000000000000000000e+00
2.099533796310424805e+00 9.124675989151000977e-01 -6.134011149406433105e-01 1.700000000000000000e+01
2.388124465942382812e+00 1.036899685859679954e+00 -6.010692119598388672e-01 1.400000000000000000e+01
2.784296989440917969e+00 1.208336114883423074e+00 -5.899814367294311523e-01 1.400000000000000000e+01
3.320248842239379883e+00 1.439552903175354004e+00 -5.731759071350097656e-01 9.000000000000000000e+00
4.147674560546875000e+00 1.796578288078308105e+00 -5.549929738044738770e-01 1.300000000000000000e+01
3.637150192260742188e+01 1.574689102172851918e+01 6.277402400970458984e+00 1.400000000000000000e+01
5.430307865142822266e+00 2.351029396057128906e+00 -5.177050828933715820e-01 9.000000000000000000e+00
7.785312175750732422e+00 3.367392301559447798e+00 -4.445416033267974854e-01 2.000000000000000000e+00
3.395914077758789062e+01 1.468136024475098012e+01 8.541391372680664062e+00 1.100000000000000000e+01
1.303308105468750000e+01 5.631817817687988281e+00 -2.478241771459578913e-01 2.000000000000000000e+00
3.696583938598632812e+01 1.597357273101806996e+01 1.079016590118408025e+01 9.000000000000000000e+00
2.100931644439696822e+00 9.043694734573364258e-01 -6.128835082054138184e-01 1.900000000000000000e+01
2.407841444015502930e+00 1.035486102104187012e+00 -6.051183342933654785e-01 1.500000000000000000e+01
2.781283140182495117e+00 1.195508599281311035e+00 -5.884549617767333984e-01 1.300000000000000000e+01
3.337959289550780806e+00 1.433410406112670898e+00 -5.753659605979919434e-01 1.000000000000000000e+01
3.640473556518554688e+01 1.562565803527832031e+01 4.864293098449707031e+00 2.100000000000000000e+01
4.161217689514160156e+00 1.785219907760619895e+00 -5.559679269790649414e-01 1.300000000000000000e+01
5.438481330871582031e+00 2.332059621810913086e+00 -5.177050828933715820e-01 9.000000000000000000e+00
7.804362773895263672e+00 3.343342065811156782e+00 -4.449602961540222168e-01 1.000000000000000000e+00
1.306001472473145064e+01 5.589436531066895419e+00 -2.479637861251831055e-01 2.000000000000000000e+00
