4.694984436035156250e+00 8.092769384384155273e-01 -5.849728584289550781e-01 9.000000000000000000e+00
6.020071029663085938e+00 1.036600947380065918e+00 -5.344390273094177246e-01 9.000000000000000000e+00
8.851943016052246094e+00 1.521041989326477051e+00 -4.707095921039580744e-01 3.000000000000000000e+00
3.395133209228516336e+01 5.827805519104003906e+00 7.952919483184813565e+00 9.000000000000000000e+00
1.577138137817382990e+01 2.704351663589477983e+00 -2.793083190917968750e-01 2.000000000000000000e+00
3.449692535400391336e+01 5.909061908721923828e+00 9.378048896789550781e+00 7.000000000000000000e+00
2.293037414550780806e+00 3.898968696594237726e-01 -6.232362389564514160e-01 1.500000000000000000e+01
2.611018896102904829e+00 4.430271685123444159e-01 -6.114169359207153320e-01 7.000000000000000000e+00
3.802360916137695312e+01 6.451692581176757812e+00 2.021214723587036133e+00 2.200000000000000000e+01
3.077678203582764116e+00 5.216553807258605957e-01 -6.067726016044616699e-01 1.100000000000000000e+01
3.679230928421020952e+00 6.222953200340270996e-01 -5.910094380378723145e-01 1.000000000000000000e+01
3.703112030029296875e+01 6.256697654724121094e+00 4.611292362213134766e+00 1.900000000000000000e+01
4.689950942993164062e+00 7.915620207786560059e-01 -5.839979052543640137e-01 9.000000000000000000e+00
6.059016704559326172e+00 1.021543025970458984e+00 -5.375766158103942871e-01 9.000000000000000000e+00
3.454191970825195312e+01 5.817526340484619141e+00 6.808828353881835938e+00 5.900000000000000000e+01
8.857198715209960938e+00 1.490133762359618919e+00 -4.707095921039580744e-01 3.000000000000000000e+00
3.399068832397460938e+01 5.712487697601318359e+00 7.957418441772460938e+00 9.000000000000000000e+00
1.581227970123291016e+01 2.654579877853393999e+00 -2.798667848110198975e-01 2.000000000000000000e+00
3.374000167846679688e+01 5.658247947692871094e+00 9.166852951049804688e+00 6.000000000000000000e+00
2.305818319320679155e+00 3.837934136390686035e-01 -6.263421177864074707e-01 1.500000000000000000e+01
2.608704805374145952e+00 4.332717359066010077e-01 -6.105171442031860352e-01 7.000000000000000000e+00
3.814440917968750000e+01 6.335287570953369141e+00 2.026448249816894975e+00 2.200000000000000000e+01
3.071733236312866211e+00 5.096238255500793457e-01 -6.052461266517639160e-01 1.100000000000000000e+01
3.689176082611083984e+00 6.107391715049743652e-01 -5.922608971595764160e-01 1.100000000000000000e+01
3.685688781738281250e+01 6.095009326934813565e+00 4.586918354034423828e+00 1.900000000000000000e+01
4.690726757049561435e+00 7.748626470565795898e-01 -5.837541818618774414e-01 1.100000000000000000e+01
6.076306343078613281e+00 1.002657532691956010e+00 -5.387967824935913086e-01 8.000000000000000000e+00
3.456201553344727273e+01 5.696917057037354404e+00 6.808828353881835938e+00 5.900000000000000000e+01
8.858405113220214844e+00 1.458558320999145952e+00 -4.705002605915070135e-01 3.000000000000000000e+00
3.362583923339843750e+01 5.530550003051757812e+00 7.867438316345214844e+00 9.000000000000000000e+00
1.595168304443359020e+01 2.620765209197998047e+00 -2.821705043315886896e-01 2.000000000000000000e+00
3.384627151489257812e+01 5.560738086700438565e+00 9.190664291381835938e+00 6.000000000000000000e+00
2.297610282897949219e+00 3.741896152496337891e-01 -6.237539052963256836e-01 1.400000000000000000e+01
2.606354236602783203e+00 4.235378801822661798e-01 -6.096173524856567383e-01 7.000000000000000000e+00
3.796915054321289062e+01 6.170064449310302734e+00 2.015980958938599077e+00 2.200000000000000000e+01
3.059928178787231001e+00 4.966964125633239746e-01 -6.025748252868652344e-01 1.100000000000000000e+01
3.731231307983397727e+01 6.049959182739257812e+00 3.307037591934204102e+00 4.800000000000000000e+01
3.706885337829589844e+00 6.003844141960144043e-01 -5.947638154029846191e-01 1.000000000000000000e+01
3.668197631835938211e+01 5.934613704681395596e+00 4.562544345855712891e+00 1.900000000000000000e+01
4.703201293945313388e+00 7.600677013397216797e-01 -5.849728584289550781e-01 9.000000000000000000e+00
3.834629440307617188e+01 6.197009086608886719e+00 6.152254581451416016e+00 1.400000000000000000e+01
6.075835704803466797e+00 9.808061122894287109e-01 -5.384481549263000488e-01 9.000000000000000000e+00
8.875273704528808594e+00 1.429533362388611062e+00 -4.711282849311829168e-01 1.000000000000000000e+00
3.326013946533203125e+01 5.351229667663574219e+00 7.777457714080811435e+00 9.000000000000000000e+00
1.594493961334229049e+01 2.562529087066649947e+00 -2.818912565708159845e-01 2.000000000000000000e+00
3.722349929809570312e+01 5.975566387176513672e+00 1.010170745849609020e+01 8.000000000000000000e+00
2.298838615417480025e+00 3.665683865547180176e-01 -6.237539052963256836e-01 1.500000000000000000e+01
5.939217376708983664e+01 9.459933280944824219e+00 1.049762248992919922e+00 6.300000000000000000e+01
2.598121643066405806e+00 4.133615791797637939e-01 -6.073678731918334961e-01 8.000000000000000000e+00
3.799045944213867188e+01 6.037489891052246094e+00 2.015980958938599077e+00 2.200000000000000000e+01
3.079008817672729048e+00 4.893198311328887939e-01 -6.060093641281127930e-01 1.100000000000000000e+01
3.720623397827147727e+01 5.906202316284179688e+00 3.295881509780883789e+00 4.800000000000000000e+01
3.710806846618651900e+00 5.883979797363281250e-01 -5.950766801834106445e-01 1.100000000000000000e+01
3.944636917114257812e+01 6.247691154479979581e+00 4.903778553009033203e+00 2.100000000000000000e+01
4.717460155487061435e+00 7.463283538818359375e-01 -5.864352583885192871e-01 9.000000000000000000e+00
3.817152404785156250e+01 6.038946151733398438e+00 6.120967864990234375e+00 1.400000000000000000e+01
6.069214820861816406e+00 9.590975642204284668e-01 -5.375766158103942871e-01 9.000000000000000000e+00
3.459999084472656250e+01 5.461530685424804688e+00 6.808828353881835938e+00 5.900000000000000000e+01
8.919423103332519531e+00 1.406315326690674050e+00 -4.732217192649840753e-01 1.000000000000000000e+00
3.343170547485352273e+01 5.265159606933593750e+00 7.813449859619140625e+00 9.000000000000000000e+00
1.599285697937012074e+01 2.515854835510253906e+00 -2.825893759727478027e-01 2.000000000000000000e+00
3.487951278686522727e+01 5.486936092376708984e+00 9.460871696472167969e+00 7.000000000000000000e+00
2.303921699523925781e+00 3.591368198394774836e-01 -6.247891783714294434e-01 1.600000000000000000e+01
2.491715669631958008e+00 3.875193893909453791e-01 -5.821733474731445312e-01 7.000000000000000000e+00
3.088458061218262163e+00 4.797745645046234131e-01 -6.075358390808105469e-01 1.100000000000000000e+01
3.697221517562866211e+00 5.730209350585937500e-01 -5.925737619400024414e-01 1.200000000000000000e+01
3.868324661254882812e+01 5.988482952117919922e+00 4.806282997131347656e+00 2.000000000000000000e+01
4.723960399627686435e+00 7.304634451866149902e-01 -5.869227647781372070e-01 1.100000000000000000e+01
6.088277816772460938e+00 9.403392076492309570e-01 -5.389711260795593262e-01 9.000000000000000000e+00
8.975600242614746094e+00 1.383080720901489036e+00 -4.759431779384613037e-01 1.000000000000000000e+00
3.355773925781250000e+01 5.165030002593994141e+00 7.838644504547119141e+00 9.000000000000000000e+00
1.601340103149414062e+01 2.461837053298950195e+00 -2.827987968921660822e-01 2.000000000000000000e+00
3.471607971191406250e+01 5.330911159515380859e+00 9.411178588867187500e+00 7.000000000000000000e+00
2.305099964141846147e+00 3.514947593212128241e-01 -6.247891783714294434e-01 1.600000000000000000e+01
4.009740829467772727e+01 6.107120037078857422e+00 7.079743146896362305e-01 3.600000000000000000e+01
2.429409980773925781e+00 3.695825636386870783e-01 -5.673265457153320312e-01 1.000000000000000000e+01
3.803067398071289062e+01 5.778759002685546875e+00 2.015980958938599077e+00 2.200000000000000000e+01
3.103618860244750977e+00 4.715947508811951239e-01 -6.102071404457092285e-01 1.100000000000000000e+01
3.714725971221923828e+00 5.631259083747863770e-01 -5.950766801834106445e-01 1.100000000000000000e+01
4.722431182861328125e+00 7.142005562782287598e-01 -5.864352583885192871e-01 9.000000000000000000e+00
6.095303058624267578e+00 9.207397699356079102e-01 -5.393197536468505859e-01 9.000000000000000000e+00
8.932738304138183594e+00 1.346165895462035911e+00 -4.734310507774353027e-01 1.000000000000000000e+00
3.338197708129882812e+01 5.024713993072509766e+00 7.793654441833496094e+00 9.000000000000000000e+00
1.604125022888183949e+01 2.411694288253784180e+00 -2.831478416919708252e-01 2.000000000000000000e+00
2.312045335769652876e+00 3.442999422550200861e-01 -6.263421177864074707e-01 1.700000000000000000e+01
2.438395738601685014e+00 3.622455298900604248e-01 -5.691261887550354004e-01 9.000000000000000000e+00
3.839437484741210938e+01 5.696979522705078125e+00 2.034193992614746094e+00 2.200000000000000000e+01
3.095535993576049805e+00 4.593174457550048828e-01 -6.082990765571594238e-01 1.100000000000000000e+01
3.716669082641602007e+00 5.501556396484375000e-01 -5.950766801834106445e-01 1.100000000000000000e+01
3.656299209594727273e+01 5.405673503875732422e+00 4.538170814514160156e+00 1.900000000000000000e+01
4.736678123474121094e+00 6.994517445564270020e-01 -5.878977179527282715e-01 9.000000000000000000e+00
6.110306262969970703e+00 9.012018442153930664e-01 -5.403655767440795898e-01 9.000000000000000000e+00
8.961094856262207031e+00 1.318465352058411089e+00 -4.746871292591094971e-01 1.000000000000000000e+00
1.610892677307128906e+01 2.364397048950194868e+00 -2.841949760913848877e-01 2.000000000000000000e+00
3.487771606445313211e+01 5.112978458404541016e+00 9.445342063903808594e+00 7.000000000000000000e+00
2.309468030929564986e+00 3.352684974670410156e-01 -6.253067851066589355e-01 1.800000000000000000e+01
5.951846313476563211e+01 8.629766464233398438e+00 1.049762248992919922e+00 6.300000000000000000e+01
2.439707040786743164e+00 3.533059358596801758e-01 -5.691261887550354004e-01 9.000000000000000000e+00
3.083597421646118164e+00 4.460014104843140204e-01 -6.056277751922607422e-01 1.000000000000000000e+01
3.726480960845946822e+00 5.376580357551574707e-01 -5.963281989097595215e-01 1.100000000000000000e+01
3.719164657592772727e+01 5.359397888183593750e+00 4.613729476928710938e+00 1.900000000000000000e+01
4.735280036926270419e+00 6.815207004547119141e-01 -5.874102115631103516e-01 9.000000000000000000e+00
6.137233734130859375e+00 8.822022080421447754e-01 -5.424573421478271484e-01 9.000000000000000000e+00
8.965867042541503906e+00 1.285612463951111062e+00 -4.746871292591094971e-01 1.000000000000000000e+00
3.399579620361328125e+01 4.868589878082275391e+00 7.928624629974365234e+00 9.000000000000000000e+00
1.610956573486328125e+01 2.304206371307373047e+00 -2.840553820133209229e-01 2.000000000000000000e+00
2.301060438156127930e+00 3.258505761623383123e-01 -6.227186322212219238e-01 1.600000000000000000e+01
2.448643684387207031e+00 3.458778560161591131e-01 -5.709257721900939941e-01 1.000000000000000000e+01
3.085135698318481001e+00 4.352349340915679932e-01 -6.056277751922607422e-01 1.100000000000000000e+01
3.722466707229613814e+00 5.238211154937744141e-01 -5.953895449638366699e-01 1.100000000000000000e+01
3.692312240600585938e+01 5.189206600189208984e+00 4.578143596649169922e+00 1.900000000000000000e+01
4.737630367279052734e+00 6.649873256683349609e-01 -5.874102115631103516e-01 9.000000000000000000e+00
3.631579208374022727e+01 5.090925693511962891e+00 5.808098793029785156e+00 1.300000000000000000e+01
6.110679149627686435e+00 8.566249012947082520e-01 -5.398426651954650879e-01 8.000000000000000000e+00
9.013816833496093750e+00 1.260392785072327104e+00 -4.769898951053618830e-01 1.000000000000000000e+00
3.380414199829102273e+01 4.720783710479736328e+00 7.880035400390625000e+00 9.000000000000000000e+00
1.620861625671387074e+01 2.260665893554687944e+00 -2.856609821319580078e-01 2.000000000000000000e+00
3.533052444458007812e+01 4.921371936798095703e+00 9.558187484741210938e+00 7.000000000000000000e+00
2.304097414016724077e+00 3.180805742740631104e-01 -6.232362389564514160e-01 1.800000000000000000e+01
2.442114114761352983e+00 3.362650871276854914e-01 -5.691261887550354004e-01 9.000000000000000000e+00
3.104140520095825195e+00 4.268703162670134943e-01 -6.090623140335083008e-01 1.100000000000000000e+01
3.728186607360839844e+00 5.113609433174133301e-01 -5.960153341293334961e-01 1.000000000000000000e+01
3.701181411743164062e+01 5.069987773895263672e+00 4.586918354034423828e+00 1.900000000000000000e+01
4.741889476776123047e+00 6.487149596214294434e-01 -5.876539945602416992e-01 9.000000000000000000e+00
6.123502254486083984e+00 8.366379737854003906e-01 -5.407142043113708496e-01 9.000000000000000000e+00
3.548098373413085938e+01 4.841364860534667969e+00 6.960711956024169922e+00 6.000000000000000000e+01
9.018160820007324219e+00 1.228921055793761985e+00 -4.769898951053618830e-01 1.000000000000000000e+00
1.622433280944823863e+01 2.205150842666625977e+00 -2.858006060123444159e-01 2.000000000000000000e+00
3.545959091186522727e+01 4.819535255432128906e+00 9.588727951049804688e+00 1.400000000000000000e+01
2.316681385040283203e+00 3.115808665752410889e-01 -6.263421177864074707e-01 1.700000000000000000e+01
5.940737915039063211e+01 7.979408740997313565e+00 1.046271800994873047e+00 6.300000000000000000e+01
2.449067354202270952e+00 3.285157084465026855e-01 -5.704758763313293457e-01 1.100000000000000000e+01
3.901743698120117188e+01 5.226831912994384766e+00 2.063083410263061968e+00 2.200000000000000000e+01
3.109503507614136186e+00 4.165535867214202881e-01 -6.098255515098571777e-01 1.100000000000000000e+01
3.722116947174071822e+00 4.972976446151732843e-01 -5.947638154029846191e-01 1.000000000000000000e+01
4.750028133392333984e+00 6.329452991485595703e-01 -5.883851647377014160e-01 9.000000000000000000e+00
3.698879623413085938e+01 4.922218322753906250e+00 5.910094261169433594e+00 1.300000000000000000e+01
6.134285449981688565e+00 8.163091540336608887e-01 -5.414114594459533691e-01 9.000000000000000000e+00
9.026355743408203125e+00 1.197959780693053977e+00 -4.771992564201354980e-01 3.000000000000000000e+00
3.542039108276367188e+01 4.694632530212402344e+00 8.248954772949218750e+00 1.000000000000000000e+01
1.631519317626953125e+01 2.159524679183959961e+00 -2.872666120529174805e-01 2.000000000000000000e+00
3.565130233764647727e+01 4.712574481964111328e+00 9.635832786560058594e+00 7.000000000000000000e+00
2.315839529037476030e+00 3.032414019107819159e-01 -6.258244514465332031e-01 1.900000000000000000e+01
5.943487167358397727e+01 7.771989822387695312e+00 1.046271800994873047e+00 6.300000000000000000e+01
2.434740543365478960e+00 3.179461658000946045e-01 -5.668766498565673828e-01 1.100000000000000000e+01
3.105098247528076172e+00 4.049352109432219904e-01 -6.086806654930114746e-01 1.000000000000000000e+01
3.727747917175292969e+00 4.848115444183350164e-01 -5.953895449638366699e-01 1.100000000000000000e+01
3.707780456542968750e+01 4.815566062927246094e+00 4.590817928314208984e+00 1.900000000000000000e+01
4.752208709716796875e+00 6.163607239723205566e-01 -5.883851647377014160e-01 9.000000000000000000e+00
6.145000934600830078e+00 7.959151864051818848e-01 -5.421087145805358887e-01 8.000000000000000000e+00
9.022559165954589844e+00 1.165421247482300027e+00 -4.767805635929108221e-01 3.000000000000000000e+00
1.625123214721680043e+01 2.093363761901855025e+00 -2.860100269317626953e-01 2.000000000000000000e+00
3.566673278808593750e+01 4.594324588775634766e+00 9.635832786560058594e+00 7.000000000000000000e+00
2.318800210952758789e+00 2.953999042510985773e-01 -6.263421177864074707e-01 1.500000000000000000e+01
5.946163940429688211e+01 7.564476013183593750e+00 1.046271800994873047e+00 6.300000000000000000e+01
2.149721384048461914e+00 2.730978429317473810e-01 -5.002911686897277832e-01 1.300000000000000000e+01
3.106492757797241211e+00 3.940939307212830145e-01 -6.086806654930114746e-01 1.000000000000000000e+01
3.741176128387451172e+00 4.732838571071624756e-01 -5.972667932510375977e-01 1.000000000000000000e+01
3.709438705444335938e+01 4.686110973358154297e+00 4.590817928314208984e+00 1.900000000000000000e+01
4.758270263671875000e+00 6.002656221389770508e-01 -5.888726711273193359e-01 9.000000000000000000e+00
3.697048568725585938e+01 4.663903236389160156e+00 5.901959419250488281e+00 1.300000000000000000e+01
6.151695251464843750e+00 7.749583125114440918e-01 -5.424573421478271484e-01 9.000000000000000000e+00
9.034499168395996094e+00 1.134915232658386008e+00 -4.771992564201354980e-01 3.000000000000000000e+00
3.535562133789063211e+01 4.435111045837402344e+00 8.226460456848144531e+00 1.000000000000000000e+01
1.627034568786621094e+01 2.038114786148070845e+00 -2.862194776535034180e-01 2.000000000000000000e+00
3.669082641601563211e+01 4.596098899841308594e+00 9.908110618591308594e+00 7.000000000000000000e+00
2.308314085006713867e+00 2.858793437480927069e-01 -6.232362389564514160e-01 1.500000000000000000e+01
5.948768234252929688e+01 7.356870174407958984e+00 1.046271800994873047e+00 6.300000000000000000e+01
2.096508264541625977e+00 2.589046955108643133e-01 -4.876938760280609131e-01 5.400000000000000000e+01
3.916914367675781250e+01 4.830185413360595703e+00 2.068316936492919922e+00 2.200000000000000000e+01
3.100055694580078125e+00 3.822867274284362793e-01 -6.071542501449584961e-01 1.100000000000000000e+01
3.731041669845581055e+00 4.587753415107727051e-01 -5.953895449638366699e-01 1.000000000000000000e+01
3.720509338378906250e+01 4.568211078643798828e+00 4.602517604827880859e+00 1.900000000000000000e+01
4.766247272491455078e+00 5.843772292137145996e-01 -5.896039009094238281e-01 8.000000000000000000e+00
6.154363155364990234e+00 7.534801959991455078e-01 -5.424573421478271484e-01 9.000000000000000000e+00
9.054265975952148438e+00 1.105308294296265093e+00 -4.780366122722625732e-01 1.000000000000000000e+00
3.607501602172852273e+01 4.397502422332763672e+00 8.390224456787109375e+00 1.100000000000000000e+01
1.637264442443848012e+01 1.992906212806702104e+00 -2.878949046134948730e-01 5.000000000000000000e+00
3.574396133422852273e+01 4.350816249847412109e+00 9.648256301879882812e+00 7.000000000000000000e+00
2.127085924148560014e+00 2.558990716934204102e-01 -5.740606188774108887e-01 2.100000000000000000e+01
2.105138778686522993e+00 2.525132894515991211e-01 -4.894934892654418945e-01 3.000000000000000000e+01
3.938407516479492188e+01 4.717182636260986328e+00 2.078784227371215820e+00 2.200000000000000000e+01
3.105269670486450195e+00 3.719301521778107245e-01 -6.079174876213073730e-01 1.000000000000000000e+01
3.734581947326660156e+00 4.459830224514008123e-01 -5.957024693489074707e-01 9.000000000000000000e+00
3.748888778686522727e+01 4.470279216766357422e+00 4.635665893554688388e+00 1.900000000000000000e+01
4.797825813293457031e+00 5.712568163871765137e-01 -5.932599902153015137e-01 9.000000000000000000e+00
6.164869308471679688e+00 7.329337000846862793e-01 -5.431545972824096680e-01 9.000000000000000000e+00
9.129470825195312500e+00 1.082159757614135964e+00 -4.818048179149628241e-01 1.000000000000000000e+00
3.596629333496093750e+01 4.256891250610351562e+00 8.361431121826171875e+00 1.000000000000000000e+01
1.647084999084473012e+01 1.946538686752318892e+00 -2.895005047321320135e-01 2.000000000000000000e+00
3.683788681030272727e+01 4.347012996673583984e+00 9.939168930053710938e+00 8.000000000000000000e+00
2.053132295608520952e+00 2.397345900535582941e-01 -5.538727641105651855e-01 5.400000000000000000e+01
5.953759384155272727e+01 6.941391468048095703e+00 1.046271800994873047e+00 6.300000000000000000e+01
2.102136135101317915e+00 2.447127699851990024e-01 -4.885936975479125977e-01 7.900000000000000000e+01
3.940228271484375000e+01 4.579908370971679688e+00 2.078888893127440962e+00 2.200000000000000000e+01
3.126050472259521040e+00 3.633551895618439276e-01 -6.117336153984069824e-01 1.300000000000000000e+01
3.749851703643798828e+00 4.345358908176422119e-01 -5.978925228118896484e-01 1.000000000000000000e+01
4.795846462249755859e+00 5.540501475334167480e-01 -5.927724838256835938e-01 9.000000000000000000e+00
6.165410995483398438e+00 7.111815214157104492e-01 -5.429802536964416504e-01 9.000000000000000000e+00
9.101445198059082031e+00 1.046634554862976074e+00 -4.801300764083861750e-01 1.200000000000000000e+01
1.650535774230957031e+01 1.892221450805664062e+00 -2.899891734123229980e-01 2.000000000000000000e+00
3.611125946044921875e+01 4.139897823333740234e+00 9.739360809326171875e+00 7.000000000000000000e+00
2.057795763015747070e+00 2.330010682344436923e-01 -5.549080371856689453e-01 2.700000000000000000e+01
5.956145858764647727e+01 6.733524322509765625e+00 1.046271800994873047e+00 6.300000000000000000e+01
2.108786821365356001e+00 2.380291819572449008e-01 -4.899433851242064875e-01 1.000000000000000000e+02
3.941802978515625000e+01 4.442340850830078125e+00 2.078888893127440962e+00 2.200000000000000000e+01
3.119496107101439986e+00 3.515615463256835938e-01 -6.102071404457092285e-01 1.200000000000000000e+01
3.743493556976317915e+00 4.205616712570189875e-01 -5.966410636901855469e-01 1.000000000000000000e+01
4.781969547271729404e+00 5.355387330055236816e-01 -5.908225774765014648e-01 9.000000000000000000e+00
3.703272247314453125e+01 4.140796661376953125e+00 5.901959419250488281e+00 1.300000000000000000e+01
6.179736137390136719e+00 6.909843087196350098e-01 -5.440261363983154297e-01 8.000000000000000000e+00
9.152682304382324219e+00 1.020168185234070046e+00 -4.826421737670897882e-01 3.000000000000000000e+00
3.580145645141602273e+01 3.984144210815430132e+00 8.316440582275390625e+00 1.000000000000000000e+01
1.653173828125000000e+01 1.836803793907165971e+00 -2.903382480144500732e-01 2.000000000000000000e+00
3.622149276733397727e+01 4.024487495422363281e+00 9.765242576599121094e+00 7.000000000000000000e+00
2.103712797164916992e+00 2.307655960321426114e-01 -4.885936975479125977e-01 1.000000000000000000e+02
3.923250198364257812e+01 4.303587436676025391e+00 2.068421602249145952e+00 2.200000000000000000e+01
3.103020906448363814e+00 3.398360610008239746e-01 -6.067726016044616699e-01 1.200000000000000000e+01
3.752650976181029829e+00 4.096565544605255127e-01 -5.978925228118896484e-01 1.000000000000000000e+01
3.881493377685546875e+01 4.230360507965087891e+00 4.794095993041992188e+00 2.000000000000000000e+01
4.797442436218261719e+00 5.220162272453308105e-01 -5.925287604331970215e-01 1.100000000000000000e+01
6.181876659393311435e+00 6.715667247772216797e-01 -5.440261363983154297e-01 9.000000000000000000e+00
9.167756080627441406e+00 9.926992654800415039e-01 -4.832702279090880793e-01 1.000000000000000000e+00
3.586804580688477273e+01 3.877515554428101030e+00 8.329037666320800781e+00 1.000000000000000000e+01
1.657719039916991832e+01 1.789150357246398926e+00 -2.910363376140593927e-01 2.000000000000000000e+00
3.600347137451171875e+01 3.885798931121826172e+00 9.703125953674316406e+00 7.000000000000000000e+00
2.168792009353638139e+00 2.310113310813904086e-01 -5.844134092330932617e-01 9.000000000000000000e+00
5.940596008300781250e+01 6.317207336425781250e+00 1.042781233787537065e+00 6.300000000000000000e+01
2.110319137573242188e+00 2.240380495786666870e-01 -4.899433851242064875e-01 1.000000000000000000e+02
3.119806766510010210e+00 3.306577801704406738e-01 -6.098255515098571777e-01 1.300000000000000000e+01
3.759951591491699219e+00 3.971773982048035223e-01 -5.988311171531677246e-01 1.100000000000000000e+01
3.892816925048828125e+01 4.105254650115966797e+00 4.806282997131347656e+00 2.000000000000000000e+01
4.813054561614990234e+00 5.067217350006103516e-01 -5.942349433898925781e-01 9.000000000000000000e+00
3.627355194091796875e+01 3.812503814697266069e+00 5.776812076568604404e+00 1.300000000000000000e+01
6.198053359985351562e+00 6.514416933059692383e-01 -5.452463030815124512e-01 9.000000000000000000e+00
9.193016052246093750e+00 9.629806280136108398e-01 -4.844216108322144110e-01 5.000000000000000000e+00
3.582709121704102273e+01 3.746613979339600053e+00 8.316440582275390625e+00 1.000000000000000000e+01
1.664299964904785156e+01 1.737503290176392046e+00 -2.920834720134735107e-01 2.000000000000000000e+00
3.612699508666992188e+01 3.765228033065795898e+00 9.732631683349609375e+00 1.500000000000000000e+01
2.160054206848144975e+00 2.216958999633789062e-01 -5.818251967430114746e-01 9.000000000000000000e+00
2.109225034713745117e+00 2.157350927591324130e-01 -4.894934892654418945e-01 1.000000000000000000e+02
3.128865718841553178e+00 3.194738626480103094e-01 -6.113520264625549316e-01 1.200000000000000000e+01
3.745727062225341797e+00 3.811375796794890802e-01 -5.963281989097595215e-01 1.100000000000000000e+01
4.844589233398438388e+00 4.912411868572235107e-01 -5.978909730911254883e-01 1.100000000000000000e+01
6.182668685913085938e+00 6.258322596549987793e-01 -5.436775088310241699e-01 8.000000000000000000e+00
9.242350578308105469e+00 9.322852492332458496e-01 -4.868290722370148260e-01 1.000000000000000000e+00
3.580243682861328125e+01 3.605115652084351030e+00 8.307442665100097656e+00 1.000000000000000000e+01
1.671321868896484020e+01 1.679986119270324929e+00 -2.932004332542418878e-01 2.000000000000000000e+00
3.653844070434570312e+01 3.672785758972167969e+00 9.839782714843750000e+00 7.000000000000000000e+00
2.126211166381835938e+00 2.107250243425368985e-01 -5.725077390670776367e-01 5.000000000000000000e+00
5.945067214965820312e+01 5.881573200225830078e+00 1.042781233787537065e+00 6.300000000000000000e+01
2.088632822036743164e+00 2.062645107507705966e-01 -4.845445752143859863e-01 1.000000000000000000e+02
3.952721023559570312e+01 3.903539180755614790e+00 2.081610441207886186e+00 2.300000000000000000e+01
3.135823249816894975e+00 3.091279566287993830e-01 -6.124968528747558594e-01 1.300000000000000000e+01
3.758830070495605025e+00 3.692188858985900879e-01 -5.982053875923156738e-01 1.100000000000000000e+01
4.448104476928710938e+01 4.361404418945313388e+00 5.487776756286621094e+00 3.700000000000000000e+01
4.836396217346191406e+00 4.733605682849884033e-01 -5.966722965240478516e-01 9.000000000000000000e+00
6.202661991119384766e+00 6.059904694557189941e-01 -5.452463030815124512e-01 9.000000000000000000e+00
9.245548248291015625e+00 9.000177383422851562e-01 -4.868290722370148260e-01 1.000000000000000000e+00
4.244437026977539062e+01 4.124314308166503906e+00 9.845208168029785156e+00 1.300000000000000000e+01
1.671898078918457031e+01 1.621635794639586958e+00 -2.932004332542418878e-01 2.000000000000000000e+00
3.648566055297852273e+01 3.538879394531250000e+00 9.822182655334472656e+00 7.000000000000000000e+00
2.142246961593627930e+00 2.055202126502991000e-01 -5.766488313674926758e-01 3.000000000000000000e+00
2.098970174789429155e+00 2.006289958953856867e-01 -4.867940843105316162e-01 9.300000000000000000e+01
3.955981826782227273e+01 3.774337768554687944e+00 2.082657098770142046e+00 2.300000000000000000e+01
3.130915880203247070e+00 2.987155616283416748e-01 -6.113520264625549316e-01 1.300000000000000000e+01
3.767837524414062944e+00 3.581560850143433172e-01 -5.994568467140197754e-01 1.200000000000000000e+01
4.831930637359619141e+00 4.576027989387512207e-01 -5.959410667419433594e-01 1.100000000000000000e+01
6.210485935211181641e+00 5.870637893676757812e-01 -5.457692742347717285e-01 9.000000000000000000e+00
9.272192001342773438e+00 8.732147812843322754e-01 -4.880851209163665771e-01 1.000000000000000000e+00
1.679965019226073863e+01 1.576202034950255904e+00 -2.945268154144287109e-01 2.000000000000000000e+00
3.718578720092772727e+01 3.482353925704956055e+00 1.000749683380126953e+01 8.000000000000000000e+00
2.148722171783446822e+00 1.985744535923003873e-01 -5.782017707824707031e-01 5.000000000000000000e+00
5.948836898803710938e+01 5.487154960632324219e+00 1.042781233787537065e+00 6.300000000000000000e+01
2.121003627777100053e+00 1.952661573886871060e-01 -4.917429983615875244e-01 2.300000000000000000e+01
3.124119281768798828e+00 2.870662510395050049e-01 -6.098255515098571777e-01 1.300000000000000000e+01
3.769064664840697798e+00 3.450016975402832031e-01 -5.994568467140197754e-01 1.100000000000000000e+01
4.829544544219970703e+00 4.403729140758513849e-01 -5.954536199569702148e-01 1.100000000000000000e+01
6.214481353759765625e+00 5.655621290206909180e-01 -5.459435582160949707e-01 8.000000000000000000e+00
9.287117958068847656e+00 8.419253826141357422e-01 -4.887131452560424805e-01 1.000000000000000000e+00
1.674530029296875000e+01 1.512155294418334961e+00 -2.934796810150145929e-01 2.000000000000000000e+00
3.723234939575195312e+01 3.355651378631591797e+00 1.001681423187256037e+01 8.000000000000000000e+00
2.109025478363037109e+00 1.871124804019927979e-01 -5.673313736915588379e-01 7.000000000000000000e+00
5.950808334350585938e+01 5.269082069396972656e+00 1.042781233787537065e+00 6.300000000000000000e+01
3.136884450912476030e+00 2.766487002372742254e-01 -6.121152639389038086e-01 1.200000000000000000e+01
3.774239540100098100e+00 3.315307497978209894e-01 -6.000826358795166016e-01 1.100000000000000000e+01
4.864744663238525391e+00 4.256100058555603027e-01 -5.995971560478210449e-01 9.000000000000000000e+00
6.226437091827392578e+00 5.436476469039916992e-01 -5.468151569366455078e-01 8.000000000000000000e+00
9.337895393371582031e+00 8.120334744453430176e-01 -4.912252724170684814e-01 1.000000000000000000e+00
1.681846618652344105e+01 1.456637144088744895e+00 -2.946664392948151190e-01 2.000000000000000000e+00
3.955015945434570312e+01 3.418460607528686968e+00 1.063694477081299006e+01 9.000000000000000000e+00
2.094266653060913086e+00 1.784374266862868985e-01 -5.631902217864990234e-01 1.000000000000000000e+01
5.952611160278320312e+01 5.061327934265136719e+00 1.042781233787537065e+00 6.300000000000000000e+01
2.118463039398192915e+00 1.797541826963424960e-01 -4.908432066440582275e-01 1.000000000000000000e+00
3.912751007080078125e+01 3.320017337799071822e+00 2.057954549789429155e+00 2.200000000000000000e+01
3.141743659973144975e+00 2.660285234451293945e-01 -6.128785014152526855e-01 1.200000000000000000e+01
3.775373935699462891e+00 3.183541893959044855e-01 -6.000826358795166016e-01 1.100000000000000000e+01
4.880047321319580078e+00 4.097890257835388184e-01 -6.013033390045166016e-01 1.100000000000000000e+01
3.870757675170897727e+01 3.250365972518920898e+00 6.152254581451416016e+00 1.400000000000000000e+01
6.218369483947753906e+00 5.210781097412109375e-01 -5.459435582160949707e-01 6.000000000000000000e+00
9.308827400207519531e+00 7.767758965492248535e-01 -4.895505309104918878e-01 1.000000000000000000e+00
3.881124877929688211e+01 3.231786966323852983e+00 8.991293907165527344e+00 1.200000000000000000e+01
1.690714836120605113e+01 1.404875636100769043e+00 -2.961324453353881836e-01 2.000000000000000000e+00
3.853377151489257812e+01 3.195137739181518999e+00 1.036052608489990057e+01 8.000000000000000000e+00
2.100623130798339844e+00 1.719644665718078891e-01 -5.647431612014770508e-01 1.900000000000000000e+01
5.954256820678710938e+01 4.863904476165770596e+00 1.042781233787537065e+00 6.300000000000000000e+01
2.126816511154174805e+00 1.733614057302474976e-01 -4.926428198814392090e-01 1.000000000000000000e+00
3.146522045135498047e+00 2.559269964694976807e-01 -6.136417388916015625e-01 1.300000000000000000e+01
3.768532991409302202e+00 3.051950335502625067e-01 -5.988311171531677246e-01 1.100000000000000000e+01
4.889294147491455078e+00 3.942421376705170233e-01 -6.022782921791076660e-01 1.100000000000000000e+01
3.871814346313477273e+01 3.121989250183105025e+00 6.152254581451416016e+00 1.400000000000000000e+01
6.220063209533691406e+00 5.004544258117675781e-01 -5.459435582160949707e-01 8.000000000000000000e+00
9.295425415039062500e+00 7.446265220642089844e-01 -4.887131452560424805e-01 1.000000000000000000e+00
3.923745727539063211e+01 3.136294126510620117e+00 9.087573051452636719e+00 1.200000000000000000e+01
1.697948837280273082e+01 1.354207158088684082e+00 -2.973192036151885986e-01 2.000000000000000000e+00
3.863990402221679688e+01 3.081744194030762163e+00 1.038640785217284979e+01 8.000000000000000000e+00
2.081951141357421875e+00 1.631218791007995883e-01 -5.595667958259582520e-01 1.400000000000000000e+01
5.955918502807617188e+01 4.656032562255859375e+00 1.042781233787537065e+00 6.300000000000000000e+01
2.111865997314453125e+00 1.647240519523620883e-01 -4.890435934066771906e-01 1.000000000000000000e+00
4.053906631469727273e+01 3.162018299102783203e+00 2.131015539169311968e+00 2.400000000000000000e+01
3.139566898345946822e+00 2.443327009677886963e-01 -6.121152639389038086e-01 1.700000000000000000e+01
3.777453422546387163e+00 2.926488518714904785e-01 -6.000826358795166016e-01 1.100000000000000000e+01
3.955804061889647727e+01 3.057715654373168945e+00 4.871604919433593750e+00 2.100000000000000000e+01
4.876786231994628906e+00 3.761044442653656006e-01 -6.005721092224121094e-01 9.000000000000000000e+00
3.872880554199218750e+01 2.986818552017211914e+00 6.152254581451416016e+00 1.400000000000000000e+01
6.245610713958740234e+00 4.805735349655150812e-01 -5.480353236198425293e-01 7.000000000000000000e+00
9.301950454711914062e+00 7.124800086021423340e-01 -4.889225065708159845e-01 1.000000000000000000e+00
3.888286972045897727e+01 2.971395015716553178e+00 9.002990722656250000e+00 1.200000000000000000e+01
1.700405120849609020e+01 1.296449661254883035e+00 -2.976682484149932861e-01 2.000000000000000000e+00
3.881660079956054688e+01 2.952702522277832031e+00 1.043092536926270064e+01 8.000000000000000000e+00
2.047831535339355025e+00 1.532583683729172030e-01 -5.502492785453796387e-01 2.400000000000000000e+01
5.957507324218750000e+01 4.448103904724121094e+00 1.042781233787537065e+00 6.300000000000000000e+01
2.120201587677001953e+00 1.579302847385405939e-01 -4.908432066440582275e-01 1.000000000000000000e+00
3.140400648117064986e+00 2.333720773458481113e-01 -6.121152639389038086e-01 1.700000000000000000e+01
3.790271759033203125e+00 2.803355157375336248e-01 -6.019598245620727539e-01 1.100000000000000000e+01
4.885988235473632812e+00 3.596619069576262873e-01 -6.015470623970031738e-01 9.000000000000000000e+00
6.223405361175537109e+00 4.570183455944060724e-01 -5.459435582160949707e-01 8.000000000000000000e+00
9.328284263610839844e+00 6.817527413368225098e-01 -4.901785552501677912e-01 1.000000000000000000e+00
1.708824920654296875e+01 1.242889046669005904e+00 -2.990644276142119806e-01 2.000000000000000000e+00
3.885315322875977273e+01 2.825927734375000000e+00 1.043817234039306996e+01 8.000000000000000000e+00
2.052207946777344194e+00 1.463840752840042114e-01 -5.512845516204833984e-01 9.000000000000000000e+00
5.949050521850585938e+01 4.233024597167968750e+00 1.041036009788512962e+00 6.300000000000000000e+01
2.140178442001343218e+00 1.519081741571426114e-01 -4.953422248363494873e-01 1.000000000000000000e+00
3.133362770080565962e+00 2.218539863824844083e-01 -6.105887889862060547e-01 1.900000000000000000e+01
3.789256811141968218e+00 2.669644653797150213e-01 -6.016469597816467285e-01 1.100000000000000000e+01
4.899095058441162109e+00 3.434373438358306885e-01 -6.030095219612121582e-01 9.000000000000000000e+00
6.246825695037841797e+00 4.368205964565277100e-01 -5.478609800338745117e-01 7.000000000000000000e+00
9.358501434326171875e+00 6.511275768280029297e-01 -4.916439652442932129e-01 1.000000000000000000e+00
3.904652404785156250e+01 2.709855079650878906e+00 9.036283493041992188e+00 1.200000000000000000e+01
1.709248352050780895e+01 1.183232307434082031e+00 -2.990644276142119806e-01 2.000000000000000000e+00
2.104721784591674805e+00 1.431164890527724942e-01 -5.652607679367065430e-01 5.000000000000000000e+01
2.121227502822875977e+00 1.434949934482573908e-01 -4.908432066440582275e-01 1.000000000000000000e+00
3.149751663208007812e+00 2.125194668769835871e-01 -6.136417388916015625e-01 2.000000000000000000e+01
3.786179304122924805e+00 2.541327774524689276e-01 -6.010212302207946777e-01 1.600000000000000000e+01
4.904168605804443359e+00 3.274540007114409845e-01 -6.034969687461853027e-01 9.000000000000000000e+00
6.254203796386718750e+00 4.165001511573792059e-01 -5.483839511871337891e-01 6.000000000000000000e+00
9.364595413208007812e+00 6.203541159629821777e-01 -4.918533265590667725e-01 1.000000000000000000e+00
3.886084747314453125e+01 2.567510128021239790e+00 8.991293907165527344e+00 1.200000000000000000e+01
1.716814804077148082e+01 1.131278514862060991e+00 -3.003210127353668213e-01 2.000000000000000000e+00
3.892932128906250000e+01 2.565210103988647017e+00 1.045370101928710938e+01 8.000000000000000000e+00
2.107136487960814986e+00 1.358931064605712891e-01 -5.657784342765808105e-01 6.500000000000000000e+01
2.135328769683837891e+00 1.369628161191940030e-01 -4.939925074577332098e-01 1.000000000000000000e+00
3.156352043151855025e+00 2.018994688987731934e-01 -6.147865653038024902e-01 1.800000000000000000e+01
3.785072088241577148e+00 2.407895922660827914e-01 -6.007083654403686523e-01 2.000000000000000000e+01
4.905281543731688565e+00 3.103332519531250000e-01 -6.034969687461853027e-01 9.000000000000000000e+00
3.916102218627929688e+01 2.470664739608765093e+00 6.214828491210938388e+00 1.400000000000000000e+01
6.279480934143066406e+00 3.961717784404755194e-01 -5.504756569862365723e-01 7.000000000000000000e+00
9.382650375366210938e+00 5.886622667312622070e-01 -4.926906824111937921e-01 1.000000000000000000e+00
3.906406784057617188e+01 2.444013118743896040e+00 9.036283493041992188e+00 1.200000000000000000e+01
1.719993209838866832e+01 1.073086857795715110e+00 -3.008096814155579168e-01 2.000000000000000000e+00
3.897702407836914062e+01 2.424908876419066939e+00 1.046405410766601918e+01 9.000000000000000000e+00
2.111454486846923828e+00 1.287721991539000910e-01 -5.668137073516845703e-01 6.100000000000000000e+01
5.953094100952147727e+01 3.620210647583007812e+00 1.041036009788512962e+00 6.300000000000000000e+01
2.131903409957886186e+00 1.292724013328551969e-01 -4.930927157402039129e-01 1.000000000000000000e+00
5.951150512695313211e+01 3.598178863525391069e+00 3.124561309814453125e+00 6.300000000000000000e+01
3.151158571243286133e+00 1.905250549316405972e-01 -6.136417388916015625e-01 2.000000000000000000e+01
3.791804790496826172e+00 2.279313504695892056e-01 -6.016469597816467285e-01 1.800000000000000000e+01
4.898408889770507812e+00 2.927350401878356934e-01 -6.025220155715942383e-01 9.000000000000000000e+00
3.916899871826171875e+01 2.340788602828979048e+00 6.214828491210938388e+00 1.400000000000000000e+01
6.300714015960693359e+00 3.754349648952484131e-01 -5.522187948226928711e-01 7.000000000000000000e+00
9.424523353576660156e+00 5.582692027091979980e-01 -4.947841167449951172e-01 2.000000000000000000e+00
3.936027145385742188e+01 2.324643373489379883e+00 9.102869033813476562e+00 1.200000000000000000e+01
1.726346015930176137e+01 1.016567826271056907e+00 -3.018568158149719238e-01 2.000000000000000000e+00
4.161919403076171875e+01 2.450767755508422852e+00 1.117114734649658025e+01 1.000000000000000000e+01
2.111891031265258789e+00 1.214010566473007063e-01 -5.668137073516845703e-01 5.400000000000000000e+01
5.954321289062500000e+01 3.412386894226074219e+00 1.041036009788512962e+00 6.300000000000000000e+01
2.124559402465819868e+00 1.213852465152740062e-01 -4.912931025028228760e-01 1.000000000000000000e+00
5.952370071411132812e+01 3.390423059463500977e+00 3.124561309814453125e+00 6.300000000000000000e+01
3.157684564590454102e+00 1.798592358827590942e-01 -6.147865653038024902e-01 2.000000000000000000e+01
3.800466299057006836e+00 2.151406705379486084e-01 -6.028984189033508301e-01 1.700000000000000000e+01
4.897418975830078125e+00 2.755231261253356934e-01 -6.022782921791076660e-01 1.200000000000000000e+01
6.266179561614990234e+00 3.514309227466583252e-01 -5.490812063217163086e-01 7.000000000000000000e+00
1.730683708190917969e+01 9.585125446319580078e-01 -3.025549054145812988e-01 2.000000000000000000e+00
2.098798751831055132e+00 1.132994964718818942e-01 -5.631902217864990234e-01 4.200000000000000000e+01
5.955476379394531250e+01 3.204521656036376953e+00 1.041036009788512962e+00 6.300000000000000000e+01
2.086051225662231001e+00 1.118810772895812988e-01 -4.822950661182404120e-01 1.000000000000000000e+00
3.160253763198852983e+00 1.689405590295791904e-01 -6.151682138442993164e-01 2.200000000000000000e+01
3.797248840332030806e+00 2.016637474298476895e-01 -6.022726893424987793e-01 1.700000000000000000e+01
4.906280040740966797e+00 2.588445842266082764e-01 -6.032532453536987305e-01 1.100000000000000000e+01
3.918438720703125000e+01 2.067282438278197798e+00 6.214828491210938388e+00 1.400000000000000000e+01
6.299202442169188565e+00 3.312296569347382147e-01 -5.518701672554016113e-01 9.000000000000000000e+00
9.452125549316406250e+00 4.937106966972351074e-01 -4.960401952266693115e-01 2.000000000000000000e+00
1.738995742797851918e+01 9.022389650344848633e-01 -3.039511144161223810e-01 2.000000000000000000e+00
2.103040218353271040e+00 1.061674281954765042e-01 -5.642254948616027832e-01 3.300000000000000000e+01
5.956558609008789062e+01 2.996617078781127930e+00 1.041036009788512962e+00 6.300000000000000000e+01
2.020255088806151900e+00 1.012812182307242931e-01 -4.669983983039855957e-01 1.000000000000000000e+00
5.954592132568358664e+01 2.974790096282958984e+00 3.124561309814453125e+00 6.300000000000000000e+01
3.164745807647705078e+00 1.581041067838669101e-01 -6.159314513206481934e-01 1.900000000000000000e+01
3.801875591278076172e+00 1.886033862829208096e-01 -6.028984189033508301e-01 1.700000000000000000e+01
4.909136295318604404e+00 2.418145686388016025e-01 -6.034969687461853027e-01 9.000000000000000000e+00
6.286390304565429688e+00 3.085556030273438055e-01 -5.506500005722045898e-01 7.000000000000000000e+00
9.469750404357910156e+00 4.614913463592528742e-01 -4.968775808811187744e-01 2.000000000000000000e+00
1.743694305419921875e+01 8.436572551727294922e-01 -3.047190308570861816e-01 2.000000000000000000e+00
2.099538564682006836e+00 9.864447265863418579e-02 -5.631902217864990234e-01 1.900000000000000000e+01
5.947580718994141336e+01 2.784001111984252930e+00 1.039290785789489968e+00 6.300000000000000000e+01
1.981663823127747026e+00 9.241301566362380981e-02 -4.580003321170806885e-01 2.000000000000000000e+00
5.955594253540039062e+01 2.766917943954468218e+00 3.124561309814453125e+00 6.300000000000000000e+01
3.171161651611328125e+00 1.473294496536254883e-01 -6.170762777328491211e-01 1.700000000000000000e+01
3.802510738372803178e+00 1.753312200307846069e-01 -6.028984189033508301e-01 1.800000000000000000e+01
4.909950733184813565e+00 2.246770113706589023e-01 -6.034969687461853027e-01 1.200000000000000000e+01
4.227228546142578125e+01 1.934359669685363992e+00 6.702278137207031250e+00 1.400000000000000000e+01
6.291409492492675781e+00 2.867915630340576172e-01 -5.509986281394958496e-01 7.000000000000000000e+00
9.431399345397949219e+00 4.266278743743895929e-01 -4.947841167449951172e-01 2.000000000000000000e+00
1.743578720092773082e+01 7.826064825057983398e-01 -3.046492040157318115e-01 2.000000000000000000e+00
2.121100425720214844e+00 9.223833680152893066e-02 -5.688842535018920898e-01 1.000000000000000000e+00
5.948516464233397727e+01 2.576374769210814986e+00 1.039290785789489968e+00 6.300000000000000000e+01
2.017019033432006836e+00 8.700685948133468628e-02 -4.660985767841339111e-01 1.000000000000000000e+00
3.161849498748778853e+00 1.358378082513808927e-01 -6.151682138442993164e-01 1.300000000000000000e+01
3.809020519256591797e+00 1.623091995716094971e-01 -6.038370132446289062e-01 1.600000000000000000e+01
4.894838333129882812e+00 2.068661600351333896e-01 -6.015470623970031738e-01 1.100000000000000000e+01
4.216036224365233664e+01 1.781785488128662109e+00 6.683506011962890625e+00 1.400000000000000000e+01
6.322231769561767578e+00 2.660854160785675049e-01 -5.536133050918579102e-01 9.000000000000000000e+00
9.432830810546875000e+00 3.937035501003264826e-01 -4.947841167449951172e-01 2.000000000000000000e+00
1.748636436462401988e+01 7.237240672111511230e-01 -3.054869174957274836e-01 2.000000000000000000e+00
2.160000562667847124e+00 8.675458282232284546e-02 -5.792370438575744629e-01 1.000000000000000000e+00
5.959328460693358664e+01 2.383095979690552202e+00 1.041036009788512962e+00 6.300000000000000000e+01
2.145811557769774947e+00 8.543446660041809082e-02 -4.957921206951140802e-01 1.000000000000000000e+00
5.957339477539063211e+01 2.361472368240356001e+00 3.124561309814453125e+00 6.300000000000000000e+01
3.154435634613037109e+00 1.250409334897994995e-01 -6.136417388916015625e-01 1.300000000000000000e+01
3.813485383987427202e+00 1.498322486877441129e-01 -6.044628024101257324e-01 1.500000000000000000e+01
4.909382820129395419e+00 1.911738514900208075e-01 -6.032532453536987305e-01 1.100000000000000000e+01
6.331042766571044922e+00 2.454273849725722989e-01 -5.543105006217956543e-01 9.000000000000000000e+00
1.752063941955566051e+01 6.669502854347229004e-01 -3.060454130172728937e-01 2.000000000000000000e+00
2.133262395858765093e+00 7.822318375110626221e-02 -5.719900727272033691e-01 1.000000000000000000e+00
2.198678016662598100e+00 7.985335588455200195e-02 -5.079394578933715820e-01 2.000000000000000000e+01
3.160738945007324219e+00 1.142418831586838046e-01 -6.147865653038024902e-01 1.300000000000000000e+01
3.810036897659302202e+00 1.363784670829772949e-01 -6.038370132446289062e-01 1.100000000000000000e+01
4.925890922546386719e+00 1.745982766151427945e-01 -6.052031517028808594e-01 1.100000000000000000e+01
6.305975914001464844e+00 2.224134504795073908e-01 -5.520444512367248535e-01 9.000000000000000000e+00
9.435292243957519531e+00 3.294876813888549805e-01 -4.947841167449951172e-01 4.000000000000000000e+00
1.757082557678223012e+01 6.074459552764892578e-01 -3.068831264972686768e-01 2.000000000000000000e+00
2.056302785873413086e+00 6.785530596971511841e-02 -5.512845516204833984e-01 6.000000000000000000e+00
2.212589740753173828e+00 7.223939895629882812e-02 -5.110887885093688965e-01 5.100000000000000000e+01
5.958876800537108664e+01 1.935117363929748979e+00 3.124561309814453125e+00 6.300000000000000000e+01
3.176834106445312944e+00 1.031662002205848971e-01 -6.178395152091979980e-01 1.300000000000000000e+01
3.812485694885253906e+00 1.224764883518218994e-01 -6.041498780250549316e-01 1.000000000000000000e+01
4.934433937072753906e+00 1.567949950695038119e-01 -6.061781048774719238e-01 1.100000000000000000e+01
6.336619853973388672e+00 2.002433538436889926e-01 -5.546591281890869141e-01 9.000000000000000000e+00
9.436436653137207031e+00 2.949033677577971857e-01 -4.947841167449951172e-01 4.000000000000000000e+00
1.758492660522460938e+01 5.434121489524841309e-01 -3.070925474166870117e-01 3.000000000000000000e+00
2.071975231170653853e+00 6.113284453749656677e-02 -5.554256439208984375e-01 3.900000000000000000e+01
2.392036437988280806e+00 6.974042952060699463e-02 -5.524798035621643066e-01 9.000000000000000000e+00
3.183062076568603960e+00 9.224697202444076538e-02 -6.189844012260437012e-01 1.300000000000000000e+01
3.804991722106934038e+00 1.089415475726128041e-01 -6.028984189033508301e-01 1.100000000000000000e+01
4.927013874053955078e+00 1.393451839685440063e-01 -6.052031517028808594e-01 1.100000000000000000e+01
6.353213310241699219e+00 1.785710304975509921e-01 -5.560536384582519531e-01 9.000000000000000000e+00
9.465359687805175781e+00 2.627381384372711182e-01 -4.962495267391204834e-01 2.000000000000000000e+00
1.762669372558594105e+01 4.831217825412750244e-01 -3.077906370162963867e-01 3.000000000000000000e+00
2.147482872009276900e+00 5.623381957411766052e-02 -5.756135582923889160e-01 7.300000000000000000e+01
2.454593420028686968e+00 6.341839581727981567e-02 -5.668766498565673828e-01 2.000000000000000000e+00
3.175500154495238814e+00 8.148959279060363770e-02 -6.174579262733459473e-01 1.300000000000000000e+01
3.821129798889160156e+00 9.672303497791290283e-02 -6.054013967514038086e-01 1.000000000000000000e+01
4.917526721954345703e+00 1.227581501007079939e-01 -6.039844751358032227e-01 1.100000000000000000e+01
6.363729000091552734e+00 1.577488929033278864e-01 -5.569251775741577148e-01 7.000000000000000000e+00
9.466178894042968750e+00 2.313484251499176025e-01 -4.962495267391204834e-01 2.000000000000000000e+00
1.769616889953612926e+01 4.263043105602263849e-01 -3.089773952960968018e-01 3.000000000000000000e+00
