-1.470268249511718972e+00 2.711281776428223100e+00 -5.995218753814697266e-01 1.100000000000000000e+01
-1.761651158332824929e+00 3.251320838928223100e+00 -5.856906175613403320e-01 9.000000000000000000e+00
-2.209578514099121094e+00 4.081420898437500000e+00 -5.698610544204711914e-01 1.000000000000000000e+01
-2.901615381240845171e+00 5.361950874328613281e+00 -5.333931446075439453e-01 9.000000000000000000e+00
-4.281401157379150391e+00 7.918285369873046875e+00 -4.717563092708588202e-01 1.000000000000000000e+00
-8.299674034118652344e+00 1.536274147033691051e+01 -3.047888278961182196e-01 2.000000000000000000e+00
-1.093546509742737038e+00 2.030936241149901900e+00 -6.180598735809326172e-01 1.700000000000000000e+01
-1.249191999435425027e+00 2.321942806243896040e+00 -6.087175607681274414e-01 1.200000000000000000e+01
-1.449636936187743919e+00 2.695648431777954102e+00 -5.949424505233764648e-01 1.200000000000000000e+01
-1.755901098251342995e+00 3.267890930175780806e+00 -5.875678658485412598e-01 9.000000000000000000e+00
-2.191562414169311968e+00 4.082112789154052734e+00 -5.688861012458801270e-01 1.000000000000000000e+01
-2.870633602142333984e+00 5.349224567413330078e+00 -5.311270952224731445e-01 9.000000000000000000e+00
-4.272611141204833984e+00 7.968386173248291016e+00 -4.738497436046599787e-01 1.000000000000000000e+00
-8.185559272766113281e+00 1.527880764007568004e+01 -3.025549054145812988e-01 2.000000000000000000e+00
-1.082810878753662109e+00 2.027924537658690962e+00 -6.159893274307250977e-01 1.800000000000000000e+01
-1.241996645927428977e+00 2.328008413314818892e+00 -6.091674566268920898e-01 1.200000000000000000e+01
-1.439294815063477007e+00 2.698959827423096147e+00 -5.945608019828796387e-01 1.100000000000000000e+01
-1.738909959793091042e+00 3.263540267944335938e+00 -5.856906175613403320e-01 9.000000000000000000e+00
-2.183830022811890093e+00 4.102004051208496094e+00 -5.705922842025756836e-01 1.000000000000000000e+01
-2.845391988754272017e+00 5.346900463104248047e+00 -5.299069285392761230e-01 1.100000000000000000e+01
-4.239144325256347656e+00 7.972671031951904297e+00 -4.732217192649840753e-01 1.000000000000000000e+00
-8.132176399230957031e+00 1.530728816986083984e+01 -3.025549054145812988e-01 2.000000000000000000e+00
-1.081149339675903098e+00 2.041935682296752930e+00 -6.190951466560363770e-01 1.800000000000000000e+01
-1.231128931045532005e+00 2.327162027359008789e+00 -6.078177690505981445e-01 1.200000000000000000e+01
-1.435371398925781028e+00 2.714380741119385210e+00 -5.968505144119262695e-01 1.100000000000000000e+01
-1.724739074707031028e+00 3.264350414276123047e+00 -5.847520232200622559e-01 1.000000000000000000e+01
-2.168571233749390093e+00 4.107846260070800781e+00 -5.703485012054443359e-01 1.000000000000000000e+01
-2.829499959945679155e+00 5.362086296081542969e+00 -5.304298400878906250e-01 9.000000000000000000e+00
-4.190795898437500000e+00 7.948551654815673828e+00 -4.709189236164093018e-01 1.000000000000000000e+00
-8.063782691955566406e+00 1.530727386474609020e+01 -3.019964396953582764e-01 2.000000000000000000e+00
-1.074015021324157937e+00 2.045697212219237837e+00 -6.190951466560363770e-01 1.800000000000000000e+01
-1.216661453247070090e+00 2.319365262985229048e+00 -6.046684384346008301e-01 1.100000000000000000e+01
-1.429534435272217019e+00 2.726329326629639116e+00 -5.983769893646240234e-01 1.200000000000000000e+01
-1.712417125701904075e+00 3.268601417541503906e+00 -5.844391584396362305e-01 1.000000000000000000e+01
-2.147774696350098100e+00 4.103080272674561435e+00 -5.686423778533935547e-01 1.000000000000000000e+01
-2.809841871261597124e+00 5.370165348052979404e+00 -5.302555561065673828e-01 1.100000000000000000e+01
-4.157472610473632812e+00 7.952511787414550781e+00 -4.702908992767333984e-01 1.000000000000000000e+00
-7.991784572601318359e+00 1.529987907409667969e+01 -3.012983500957489014e-01 2.000000000000000000e+00
-1.063299536705017090e+00 2.042579412460327148e+00 -6.170246005058288574e-01 1.900000000000000000e+01
-1.213953256607056108e+00 2.333971261978148970e+00 -6.073678731918334961e-01 1.200000000000000000e+01
-1.412764191627501997e+00 2.717367649078369141e+00 -5.953240394592285156e-01 1.100000000000000000e+01
-1.702818274497986062e+00 3.278064727783203125e+00 -5.850648880004882812e-01 1.000000000000000000e+01
-2.128866910934447798e+00 4.101742744445800781e+00 -5.674236416816711426e-01 8.000000000000000000e+00
-2.790161848068236861e+00 5.378171920776367188e+00 -5.300812125205993652e-01 9.000000000000000000e+00
-4.138879299163818359e+00 7.984707355499267578e+00 -4.713376164436339777e-01 1.000000000000000000e+00
-7.916257858276367188e+00 1.528506565093993963e+01 -3.004606366157531738e-01 2.000000000000000000e+00
-1.056163191795348899e+00 2.046278476715087891e+00 -6.170246005058288574e-01 2.000000000000000000e+01
-1.204012393951416016e+00 2.334730625152587891e+00 -6.064680218696594238e-01 1.100000000000000000e+01
-1.403270125389098899e+00 2.722282409667969194e+00 -5.953240394592285156e-01 1.100000000000000000e+01
-1.691365361213684082e+00 3.283988714218140093e+00 -5.850648880004882812e-01 1.000000000000000000e+01
-2.114536046981811968e+00 4.109148502349854404e+00 -5.674236416816711426e-01 8.000000000000000000e+00
-2.765903472900391069e+00 5.377248287200927734e+00 -5.290353298187255859e-01 9.000000000000000000e+00
-4.107330322265625000e+00 7.992000579833984375e+00 -4.709189236164093018e-01 1.000000000000000000e+00
-7.826317310333251953e+00 1.524145030975341975e+01 -2.990644276142119806e-01 2.000000000000000000e+00
-1.045493721961975098e+00 2.043073892593383789e+00 -6.149540543556213379e-01 2.000000000000000000e+01
-1.197629570960998979e+00 2.342389345169066939e+00 -6.073678731918334961e-01 1.200000000000000000e+01
-1.391972184181212935e+00 2.723667860031127930e+00 -5.945608019828796387e-01 1.100000000000000000e+01
-1.681688427925110085e+00 3.293391227722167969e+00 -5.856906175613403320e-01 9.000000000000000000e+00
-2.101984024047852007e+00 4.120041370391845703e+00 -5.679111480712890625e-01 1.000000000000000000e+01
-2.740780591964722124e+00 5.374445915222167969e+00 -5.278151631355285645e-01 9.000000000000000000e+00
-4.059460163116455078e+00 7.967138767242431641e+00 -4.686161577701569159e-01 1.000000000000000000e+00
-7.773066997528076172e+00 1.526867675781250000e+01 -2.990644276142119806e-01 2.000000000000000000e+00
-1.040461540222167969e+00 2.049974918365478960e+00 -6.159893274307250977e-01 1.900000000000000000e+01
-1.188974022865294966e+00 2.344609975814818892e+00 -6.069179177284240723e-01 1.300000000000000000e+01
-1.383820176124572976e+00 2.730020046234130859e+00 -5.949424505233764648e-01 1.200000000000000000e+01
-1.664510488510132058e+00 3.286614179611206055e+00 -5.835005640983581543e-01 1.000000000000000000e+01
-2.090998649597167969e+00 4.132302761077880859e+00 -5.686423778533935547e-01 1.000000000000000000e+01
-2.724741697311400923e+00 5.387061119079589844e+00 -5.281637907028198242e-01 1.100000000000000000e+01
-4.027612686157226562e+00 7.969861030578613281e+00 -4.679881334304810125e-01 1.000000000000000000e+00
-7.722391605377197266e+00 1.529436874389648082e+01 -2.990644276142119806e-01 2.000000000000000000e+00
-1.035036087036133035e+00 2.057045698165893999e+00 -6.170246005058288574e-01 2.000000000000000000e+01
-1.174655437469481978e+00 2.336558103561400923e+00 -6.037686467170715332e-01 1.300000000000000000e+01
-1.375163674354553001e+00 2.736588001251221147e+00 -5.953240394592285156e-01 1.200000000000000000e+01
-1.651255249977112038e+00 3.288873434066772017e+00 -5.828748345375061035e-01 1.000000000000000000e+01
-2.069440841674805132e+00 4.125381946563720703e+00 -5.666924715042114258e-01 1.000000000000000000e+01
-2.705027580261230025e+00 5.394758224487304688e+00 -5.279895067214965820e-01 9.000000000000000000e+00
-3.997978925704956055e+00 7.980300426483154297e+00 -4.677787721157073975e-01 1.000000000000000000e+00
-7.624203681945800781e+00 1.523182201385498047e+01 -2.973192036151885986e-01 2.000000000000000000e+00
-1.029934167861938032e+00 2.063923835754394975e+00 -6.180598735809326172e-01 2.000000000000000000e+01
-1.173856854438781960e+00 2.354392528533935991e+00 -6.073678731918334961e-01 1.300000000000000000e+01
-1.369584083557128906e+00 2.748161792755126953e+00 -5.968505144119262695e-01 1.100000000000000000e+01
-1.642981290817260964e+00 3.299636125564575195e+00 -5.838134288787841797e-01 9.000000000000000000e+00
-2.050444126129149947e+00 4.121557712554931641e+00 -5.652300119400024414e-01 1.000000000000000000e+01
-2.687123060226439986e+00 5.403698921203613281e+00 -5.279895067214965820e-01 1.100000000000000000e+01
-3.975048065185546875e+00 8.000668525695800781e+00 -4.681974649429320734e-01 1.000000000000000000e+00
-7.584321022033691406e+00 1.527851486206055043e+01 -2.977380454540253241e-01 2.000000000000000000e+00
-1.021010398864746094e+00 2.064043283462523970e+00 -6.170246005058288574e-01 1.800000000000000000e+01
-1.162177562713623047e+00 2.351487636566162109e+00 -6.055682301521301270e-01 1.400000000000000000e+01
-1.354765534400939941e+00 2.742364645004272017e+00 -5.945608019828796387e-01 1.100000000000000000e+01
-1.633201956748961958e+00 3.308893680572510210e+00 -5.844391584396362305e-01 9.000000000000000000e+00
-2.039556503295897993e+00 4.135811328887938565e+00 -5.662049651145935059e-01 1.000000000000000000e+01
-2.668244361877440962e+00 5.413045883178710938e+00 -5.279895067214965820e-01 1.100000000000000000e+01
-3.936507225036621094e+00 7.992994308471679688e+00 -4.669414162635803223e-01 1.000000000000000000e+00
-7.513285160064697266e+00 1.526901149749756037e+01 -2.970399558544158936e-01 2.000000000000000000e+00
-1.010037541389465110e+00 2.060832738876343218e+00 -6.149540543556213379e-01 1.900000000000000000e+01
-1.156979203224181907e+00 2.362732172012329102e+00 -6.073678731918334961e-01 1.100000000000000000e+01
-1.347294449806212935e+00 2.752601861953734907e+00 -5.957056879997253418e-01 1.200000000000000000e+01
-1.620195508003235085e+00 3.313082933425902876e+00 -5.841262936592102051e-01 1.000000000000000000e+01
-2.024384260177611861e+00 4.143259048461914062e+00 -5.662049651145935059e-01 1.000000000000000000e+01
-2.638768911361693892e+00 5.403095722198486328e+00 -5.260720849037170410e-01 1.100000000000000000e+01
-3.900177955627440962e+00 7.993009090423583984e+00 -4.661040306091309149e-01 3.000000000000000000e+00
-7.448507785797119141e+00 1.527847194671631037e+01 -2.966909110546112061e-01 2.000000000000000000e+00
-1.002837777137755904e+00 2.064345836639403853e+00 -6.149540543556213379e-01 1.800000000000000000e+01
-1.147022962570189986e+00 2.363250017166138139e+00 -6.064680218696594238e-01 1.100000000000000000e+01
-1.336820960044861062e+00 2.755521535873413086e+00 -5.953240394592285156e-01 1.100000000000000000e+01
-1.601727962493896040e+00 3.304497718811035156e+00 -5.816233158111572266e-01 1.000000000000000000e+01
-2.010774612426757812e+00 4.152086734771729404e+00 -5.664486885070800781e-01 1.000000000000000000e+01
-2.619892358779906782e+00 5.412273883819580078e+00 -5.260720849037170410e-01 1.100000000000000000e+01
-3.867036104202270952e+00 7.995786666870117188e+00 -4.654760062694550116e-01 1.000000000000000000e+00
-7.367290496826171875e+00 1.524676227569580078e+01 -2.955739498138427734e-01 2.000000000000000000e+00
-9.988635182380676270e-01 2.072707176208496094e+00 -6.165069937705993652e-01 1.900000000000000000e+01
-1.137056708335876021e+00 2.361574411392211914e+00 -6.051183342933654785e-01 1.200000000000000000e+01
-1.331563115119934082e+00 2.766783952713013139e+00 -5.968505144119262695e-01 1.100000000000000000e+01
-1.592194676399230957e+00 3.311293840408325195e+00 -5.819361805915832520e-01 9.000000000000000000e+00
-1.992562890052794966e+00 4.147647380828857422e+00 -5.649862885475158691e-01 8.000000000000000000e+00
-2.598564147949219194e+00 5.411497592926025391e+00 -5.252004861831665039e-01 1.100000000000000000e+01
-3.836713790893555132e+00 7.997091293334960938e+00 -4.648479521274567206e-01 1.000000000000000000e+00
-7.319355010986328125e+00 1.526983261108398082e+01 -2.955739498138427734e-01 2.000000000000000000e+00
-9.941201210021972656e-01 2.081410884857178178e+00 -6.180598735809326172e-01 1.900000000000000000e+01
-1.128806352615356001e+00 2.365529060363769975e+00 -6.051183342933654785e-01 1.200000000000000000e+01
-1.320206761360168013e+00 2.767871141433715820e+00 -5.960872769355773926e-01 1.100000000000000000e+01
-1.586575031280518022e+00 3.329313993453979048e+00 -5.841262936592102051e-01 1.000000000000000000e+01
-1.976366043090820090e+00 4.150992870330811435e+00 -5.644987821578979492e-01 8.000000000000000000e+00
-2.589932680130004883e+00 5.442123889923095703e+00 -5.272922515869140625e-01 1.100000000000000000e+01
-3.813921213150023970e+00 8.021257400512695312e+00 -4.654760062694550116e-01 3.000000000000000000e+00
-7.248847484588623047e+00 1.525916385650634943e+01 -2.948758602142333984e-01 2.000000000000000000e+00
-9.835425615310668945e-01 2.077883720397949219e+00 -6.159893274307250977e-01 2.000000000000000000e+01
-1.118875980377197044e+00 2.365931510925292969e+00 -6.042185425758361816e-01 1.200000000000000000e+01
-1.302985906600951926e+00 2.756488084793090820e+00 -5.926527380943298340e-01 1.200000000000000000e+01
-1.573256731033324973e+00 3.331259489059447798e+00 -5.835005640983581543e-01 1.000000000000000000e+01
-1.963558435440063032e+00 4.161457061767578125e+00 -5.649862885475158691e-01 8.000000000000000000e+00
-2.567520856857299805e+00 5.443922996520996094e+00 -5.265949964523315430e-01 1.100000000000000000e+01
-3.780790567398070845e+00 8.023681640625000000e+00 -4.648479521274567206e-01 1.000000000000000000e+00
-7.195538997650145596e+00 1.528437423706055043e+01 -2.948758602142333984e-01 2.000000000000000000e+00
-9.713609814643859863e-01 2.070810317993164062e+00 -6.128835082054138184e-01 1.900000000000000000e+01
-1.118880152702331987e+00 2.387468576431273970e+00 -6.087175607681274414e-01 1.300000000000000000e+01
-1.297520160675049050e+00 2.769908905029296875e+00 -5.945608019828796387e-01 1.100000000000000000e+01
-1.561618924140929954e+00 3.336730957031250000e+00 -5.835005640983581543e-01 1.000000000000000000e+01
-1.947338700294495073e+00 4.164689540863037109e+00 -5.644987821578979492e-01 8.000000000000000000e+00
-2.541753530502318892e+00 5.438412189483642578e+00 -5.252004861831665039e-01 1.100000000000000000e+01
-3.757829904556273970e+00 8.047688484191894531e+00 -4.654760062694550116e-01 1.000000000000000000e+00
-7.126924991607666016e+00 1.527677822113036932e+01 -2.942475676536560059e-01 2.000000000000000000e+00
-9.629505872726440430e-01 2.072604656219481978e+00 -6.123658418655395508e-01 1.900000000000000000e+01
-1.106019735336303933e+00 2.382715463638306108e+00 -6.064680218696594238e-01 1.300000000000000000e+01
-1.289011716842650923e+00 2.778207778930664062e+00 -5.953240394592285156e-01 1.100000000000000000e+01
-1.541071057319640891e+00 3.324510335922241211e+00 -5.803718566894531250e-01 1.100000000000000000e+01
-1.933729767799376997e+00 4.175401210784912109e+00 -5.649862885475158691e-01 1.000000000000000000e+01
-2.523477554321289062e+00 5.451307773590087891e+00 -5.255491137504577637e-01 9.000000000000000000e+00
-3.728308439254761186e+00 8.061407089233398438e+00 -4.654760062694550116e-01 1.000000000000000000e+00
-7.070885181427001953e+00 1.530279731750487926e+01 -2.942475676536560059e-01 2.000000000000000000e+00
-9.581335783004760742e-01 2.081217765808105025e+00 -6.139187812805175781e-01 2.000000000000000000e+01
-1.092809796333312988e+00 2.375938892364501953e+00 -6.037686467170715332e-01 1.100000000000000000e+01
-1.280126214027405007e+00 2.784474134445189986e+00 -5.957056879997253418e-01 1.200000000000000000e+01
-1.531105995178223100e+00 3.333459615707397017e+00 -5.809975862503051758e-01 1.000000000000000000e+01
-1.915831327438354048e+00 4.174909114837645596e+00 -5.640113353729248047e-01 8.000000000000000000e+00
-2.507756233215332031e+00 5.467327117919921875e+00 -5.262463688850402832e-01 1.100000000000000000e+01
-3.683505058288574219e+00 8.038058280944824219e+00 -4.633825421333312988e-01 1.000000000000000000e+00
-6.989122390747070312e+00 1.526556777954101918e+01 -2.930608093738555908e-01 2.000000000000000000e+00
-9.537048339843750000e-01 2.091746807098389116e+00 -6.159893274307250977e-01 1.900000000000000000e+01
-1.087325572967529075e+00 2.387022018432617188e+00 -6.055682301521301270e-01 1.300000000000000000e+01
-1.269912004470824973e+00 2.789147138595581055e+00 -5.957056879997253418e-01 1.100000000000000000e+01
-1.520513772964477983e+00 3.342645168304442915e+00 -5.816233158111572266e-01 1.000000000000000000e+01
-1.897231459617614968e+00 4.174674034118652344e+00 -5.630363821983337402e-01 8.000000000000000000e+00
-2.484404563903809038e+00 5.469225883483886719e+00 -5.255491137504577637e-01 9.000000000000000000e+00
-3.660622358322143999e+00 8.066055297851562500e+00 -4.642199277877808172e-01 1.000000000000000000e+00
-6.943033695220947266e+00 1.531293582916259943e+01 -2.934796810150145929e-01 2.000000000000000000e+00
-9.432162642478942871e-01 2.088020801544189009e+00 -6.139187812805175781e-01 2.000000000000000000e+01
-1.077383399009705034e+00 2.387250423431396040e+00 -6.046684384346008301e-01 1.100000000000000000e+01
-1.253710031509398970e+00 2.779246330261230025e+00 -5.926527380943298340e-01 1.200000000000000000e+01
-1.513706326484679954e+00 3.358737945556641069e+00 -5.835005640983581543e-01 1.000000000000000000e+01
-1.881832480430603027e+00 4.179461002349854404e+00 -5.627925992012023926e-01 1.000000000000000000e+01
-2.464480638504027876e+00 5.476047992706298828e+00 -5.253748297691345215e-01 9.000000000000000000e+00
-3.625891923904418945e+00 8.064210891723632812e+00 -4.633825421333312988e-01 1.000000000000000000e+00
-6.873151302337645596e+00 1.530059623718262074e+01 -2.927815616130828857e-01 2.000000000000000000e+00
-9.342826604843139648e-01 2.085684537887572798e+00 -6.123658418655395508e-01 2.100000000000000000e+01
-1.074654579162598100e+00 2.401295900344849077e+00 -6.073678731918334961e-01 1.300000000000000000e+01
-1.248179316520690918e+00 2.790339708328247070e+00 -5.941792130470275879e-01 1.200000000000000000e+01
-1.498311161994934082e+00 3.352655887603760210e+00 -5.816233158111572266e-01 1.000000000000000000e+01
-1.873548984527587891e+00 4.196228027343750000e+00 -5.642550587654113770e-01 1.000000000000000000e+01
-2.441581249237060991e+00 5.471027374267578125e+00 -5.241546630859375000e-01 9.000000000000000000e+00
-3.610299348831177202e+00 8.097452163696289062e+00 -4.646386206150054932e-01 1.000000000000000000e+00
-6.808775424957275391e+00 1.528557968139648082e+01 -2.920834720134735107e-01 2.000000000000000000e+00
-9.262129664421081543e-01 2.087167263031005859e+00 -6.118482351303100586e-01 1.900000000000000000e+01
-1.064686298370361106e+00 2.401469469070435014e+00 -6.064680218696594238e-01 1.300000000000000000e+01
-1.236045360565185991e+00 2.789294958114624023e+00 -5.930343866348266602e-01 1.100000000000000000e+01
-1.485799431800842063e+00 3.356059312820435014e+00 -5.813104510307312012e-01 9.000000000000000000e+00
-1.852466106414794922e+00 4.188219070434570312e+00 -5.623051524162292480e-01 1.000000000000000000e+01
-2.423274517059326172e+00 5.481338977813720703e+00 -5.243289470672607422e-01 9.000000000000000000e+00
-3.572328805923461914e+00 8.088081359863281250e+00 -4.633825421333312988e-01 1.000000000000000000e+00
-6.755377292633056641e+00 1.530925369262694957e+01 -2.920834720134735107e-01 2.000000000000000000e+00
-9.216653704643249512e-01 2.097622632980347124e+00 -6.139187812805175781e-01 2.000000000000000000e+01
-1.050394296646117942e+00 2.392864942550659180e+00 -6.033187508583068848e-01 1.300000000000000000e+01
-1.232124328613281028e+00 2.808189153671265093e+00 -5.960872769355773926e-01 1.100000000000000000e+01
-1.472695827484131081e+00 3.359673261642456055e+00 -5.809975862503051758e-01 1.000000000000000000e+01
-1.840288400650023970e+00 4.202253818511962891e+00 -5.632801055908203125e-01 1.000000000000000000e+01
-2.410358428955078125e+00 5.506610393524169922e+00 -5.258977413177490234e-01 9.000000000000000000e+00
-3.537858963012694868e+00 8.090140342712402344e+00 -4.627545177936553955e-01 1.000000000000000000e+00
-6.699221134185791016e+00 1.533391094207764027e+01 -2.920834720134735107e-01 2.000000000000000000e+00
-9.151086211204528809e-01 2.102598428726195845e+00 -6.144363880157470703e-01 2.100000000000000000e+01
-1.040481090545654075e+00 2.392942667007445845e+00 -6.024188995361328125e-01 1.300000000000000000e+01
-1.221531867980957031e+00 2.810672283172606978e+00 -5.957056879997253418e-01 1.200000000000000000e+01
-1.460959434509276900e+00 3.364793539047241211e+00 -5.809975862503051758e-01 1.000000000000000000e+01
-1.820868730545043945e+00 4.197725296020507812e+00 -5.618176460266113281e-01 1.000000000000000000e+01
-2.389537096023560014e+00 5.511334896087645596e+00 -5.255491137504577637e-01 9.000000000000000000e+00
-3.503246784210205078e+00 8.087779045104980469e+00 -4.619171619415283203e-01 1.000000000000000000e+00
-6.645654678344726562e+00 1.535720252990723012e+01 -2.920834720134735107e-01 2.000000000000000000e+00
-9.069678783416748047e-01 2.101915359497069868e+00 -6.134011149406433105e-01 2.200000000000000000e+01
-1.034501194953918013e+00 2.399778604507445845e+00 -6.033187508583068848e-01 1.200000000000000000e+01
-1.207257747650146040e+00 2.801874876022338867e+00 -5.930343866348266602e-01 1.200000000000000000e+01
-1.451943516731261985e+00 3.372995376586914062e+00 -5.816233158111572266e-01 1.000000000000000000e+01
-1.810024976730346902e+00 4.208895683288574219e+00 -5.625488758087158203e-01 8.000000000000000000e+00
-2.371424198150635210e+00 5.516983985900878906e+00 -5.253748297691345215e-01 8.000000000000000000e+00
-3.488854408264160156e+00 8.124437332153320312e+00 -4.633825421333312988e-01 1.000000000000000000e+00
-6.597375869750976562e+00 1.537800407409667969e+01 -2.920834720134735107e-01 2.000000000000000000e+00
-8.973477482795715332e-01 2.099739313125609907e+00 -6.118482351303100586e-01 2.100000000000000000e+01
-1.029178857803344949e+00 2.410544157028197798e+00 -6.051183342933654785e-01 1.300000000000000000e+01
-1.195928812026977983e+00 2.802460432052611861e+00 -5.922711491584777832e-01 1.200000000000000000e+01
-1.437061905860901101e+00 3.370774507522583008e+00 -5.803718566894531250e-01 1.000000000000000000e+01
-1.792210698127747026e+00 4.207882881164550781e+00 -5.615739226341247559e-01 8.000000000000000000e+00
-2.349810600280762163e+00 5.519728660583496094e+00 -5.248518586158752441e-01 8.000000000000000000e+00
-3.447966575622559038e+00 8.107159614562988281e+00 -4.617078006267548163e-01 1.000000000000000000e+00
-6.543656349182128906e+00 1.540093994140625000e+01 -2.920834720134735107e-01 2.000000000000000000e+00
-8.900128602981567383e-01 2.102858781814575195e+00 -6.118482351303100586e-01 2.100000000000000000e+01
-1.019999265670775923e+00 2.412327051162720171e+00 -6.046684384346008301e-01 1.100000000000000000e+01
-1.189196228981018066e+00 2.813851594924927202e+00 -5.937975645065307617e-01 1.000000000000000000e+01
-1.422213554382323997e+00 3.368491172790526900e+00 -5.791203975677490234e-01 1.000000000000000000e+01
-1.783683419227600098e+00 4.228745937347412109e+00 -5.635238289833068848e-01 8.000000000000000000e+00
-2.328980922698975053e+00 5.524225711822509766e+00 -5.245032310485839844e-01 8.000000000000000000e+00
-3.428949356079102007e+00 8.141233444213867188e+00 -4.629638791084290106e-01 1.000000000000000000e+00
-6.474346160888671875e+00 1.538682365417479936e+01 -2.913853824138640802e-01 2.000000000000000000e+00
-8.819203376770019531e-01 2.104171037673950195e+00 -6.113305687904357910e-01 2.000000000000000000e+01
-1.007056474685668945e+00 2.405087709426879883e+00 -6.019690036773681641e-01 1.200000000000000000e+01
-1.181640625000000000e+00 2.823418617248535156e+00 -5.949424505233764648e-01 1.200000000000000000e+01
-1.411208629608154075e+00 3.375257492065430132e+00 -5.794332623481750488e-01 1.100000000000000000e+01
-1.765851140022278054e+00 4.227619171142578125e+00 -5.625488758087158203e-01 8.000000000000000000e+00
-2.303542852401732954e+00 5.517612934112548828e+00 -5.231087803840637207e-01 9.000000000000000000e+00
-3.383596181869506836e+00 8.112599372863769531e+00 -4.606610834598541260e-01 1.000000000000000000e+00
-6.406752586364746094e+00 1.537610435485840021e+01 -2.907570898532866877e-01 2.000000000000000000e+00
-8.804942965507507324e-01 2.121510982513428178e+00 -6.154716610908508301e-01 2.000000000000000000e+01
-9.956695437431335449e-01 2.401387691497803178e+00 -6.001694202423095703e-01 1.000000000000000000e+01
-1.165013313293457031e+00 2.811203002929687944e+00 -5.915079116821289062e-01 1.100000000000000000e+01
-1.403952002525330034e+00 3.391113758087158203e+00 -5.813104510307312012e-01 1.100000000000000000e+01
-1.749565839767456055e+00 4.230088710784912109e+00 -5.620614290237426758e-01 1.000000000000000000e+01
-2.294924974441527876e+00 5.551397800445556641e+00 -5.255491137504577637e-01 9.000000000000000000e+00
-3.350682973861693892e+00 8.113285064697265625e+00 -4.600330591201782227e-01 1.000000000000000000e+00
-6.343888759613037109e+00 1.537619209289550959e+01 -2.903382480144500732e-01 2.000000000000000000e+00
-8.694119453430175781e-01 2.115637063980102983e+00 -6.128835082054138184e-01 2.100000000000000000e+01
-9.932017922401428223e-01 2.419270515441894975e+00 -6.037686467170715332e-01 1.200000000000000000e+01
-1.155193209648132102e+00 2.815252542495727983e+00 -5.915079116821289062e-01 1.200000000000000000e+01
-1.393604755401611106e+00 3.399649381637572798e+00 -5.819361805915832520e-01 1.100000000000000000e+01
-1.735541701316833052e+00 4.238007068634033203e+00 -5.623051524162292480e-01 1.000000000000000000e+01
-2.268740415573120117e+00 5.542779445648193359e+00 -5.239803194999694824e-01 6.000000000000000000e+00
-3.331413269042969194e+00 8.147115707397460938e+00 -4.612891077995299738e-01 1.000000000000000000e+00
-6.299252033233642578e+00 1.542045688629150035e+01 -2.907570898532866877e-01 2.000000000000000000e+00
-8.580132126808166504e-01 2.109861850738524947e+00 -6.102952957153320312e-01 2.000000000000000000e+01
-9.872619509696960449e-01 2.430116176605225053e+00 -6.055682301521301270e-01 1.200000000000000000e+01
-1.146344304084778054e+00 2.823105573654174805e+00 -5.922711491584777832e-01 1.200000000000000000e+01
-1.375937223434448020e+00 3.391920804977416992e+00 -5.797461271286010742e-01 1.000000000000000000e+01
-1.719251394271851030e+00 4.242499828338623047e+00 -5.620614290237426758e-01 8.000000000000000000e+00
-2.243921995162963867e+00 5.539977550506591797e+00 -5.229344367980957031e-01 8.000000000000000000e+00
-3.301530122756958008e+00 8.159271240234375000e+00 -4.612891077995299738e-01 1.000000000000000000e+00
-6.244189739227294922e+00 1.544714927673340021e+01 -2.908268868923187256e-01 2.000000000000000000e+00
-8.506431579589843750e-01 2.112843990325928178e+00 -6.102952957153320312e-01 2.000000000000000000e+01
-9.780461192131042480e-01 2.431739568710327148e+00 -6.051183342933654785e-01 1.200000000000000000e+01
-1.139411926269531028e+00 2.834376335144042969e+00 -5.937975645065307617e-01 1.100000000000000000e+01
-1.361880302429198997e+00 3.391203880310059038e+00 -5.788075327873229980e-01 1.100000000000000000e+01
-1.702953577041625977e+00 4.244790554046630859e+00 -5.615739226341247559e-01 8.000000000000000000e+00
-2.220121145248413086e+00 5.536681175231933594e+00 -5.218886137008666992e-01 6.000000000000000000e+00
-3.259660482406616211e+00 8.137372970581054688e+00 -4.594050347805023193e-01 1.000000000000000000e+00
-6.190230846405029297e+00 1.546885108947754084e+01 -2.908268868923187256e-01 2.000000000000000000e+00
-8.457787036895751953e-01 2.121036529541016069e+00 -6.118482351303100586e-01 2.100000000000000000e+01
-9.634862542152404785e-01 2.418676137924193892e+00 -6.010692119598388672e-01 1.400000000000000000e+01
-1.133637666702270952e+00 2.847259044647216797e+00 -5.957056879997253418e-01 1.100000000000000000e+01
-1.351357340812683105e+00 3.397536993026732954e+00 -5.791203975677490234e-01 1.000000000000000000e+01
-1.688867926597594993e+00 4.250414371490479404e+00 -5.615739226341247559e-01 8.000000000000000000e+00
-2.200277805328369141e+00 5.540309429168701172e+00 -5.215399861335754395e-01 9.000000000000000000e+00
-3.232658147811890093e+00 8.148138046264648438e+00 -4.594050347805023193e-01 3.000000000000000000e+00
-6.091746330261229581e+00 1.537031650543213068e+01 -2.885929942131041925e-01 2.000000000000000000e+00
-8.383697271347045898e-01 2.123975992202758789e+00 -6.118482351303100586e-01 1.900000000000000000e+01
-9.550375938415527344e-01 2.422024488449097124e+00 -6.010692119598388672e-01 1.100000000000000000e+01
-1.121532440185547097e+00 2.845719337463378906e+00 -5.945608019828796387e-01 1.100000000000000000e+01
-1.338765740394592063e+00 3.400395154953002930e+00 -5.788075327873229980e-01 9.000000000000000000e+00
-1.668208360671997070e+00 4.241505146026611328e+00 -5.596240162849426270e-01 1.000000000000000000e+01
-2.185298681259154829e+00 5.559081554412841797e+00 -5.225858092308044434e-01 1.100000000000000000e+01
-3.204195976257324219e+00 8.159372329711914062e+00 -4.594050347805023193e-01 1.000000000000000000e+00
-6.038056373596191406e+00 1.539148712158202947e+01 -2.885929942131041925e-01 2.000000000000000000e+00
-8.302475810050964355e-01 2.125090122222899947e+00 -6.113305687904357910e-01 2.000000000000000000e+01
-9.494113922119140625e-01 2.432605028152465820e+00 -6.028688549995422363e-01 1.100000000000000000e+01
-1.104457497596740945e+00 2.831326723098754883e+00 -5.907446742057800293e-01 9.000000000000000000e+00
-1.328322529792786089e+00 3.408728837966918945e+00 -5.794332623481750488e-01 9.000000000000000000e+00
-1.656993150711060014e+00 4.256551742553710938e+00 -5.608426928520202637e-01 1.000000000000000000e+01
-2.157933712005614790e+00 5.546251296997070312e+00 -5.206683874130249023e-01 1.100000000000000000e+01
-3.171353578567504883e+00 8.159337997436523438e+00 -4.587769806385039728e-01 1.000000000000000000e+00
-5.965475082397460938e+00 1.536400318145751953e+01 -2.876854538917542059e-01 2.000000000000000000e+00
-8.186442852020263672e-01 2.117164134979248047e+00 -6.082247495651245117e-01 2.000000000000000000e+01
-9.409142732620239258e-01 2.435904264450072798e+00 -6.028688549995422363e-01 1.100000000000000000e+01
-1.093860507011414018e+00 2.833333253860474077e+00 -5.903630256652832031e-01 1.000000000000000000e+01
-1.314994096755981001e+00 3.409658670425415039e+00 -5.788075327873229980e-01 9.000000000000000000e+00
-1.640697598457335982e+00 4.258605003356933594e+00 -5.603552460670471191e-01 1.000000000000000000e+01
-2.132832765579224077e+00 5.538875579833984375e+00 -5.192739367485046387e-01 1.100000000000000000e+01
-3.147155284881591797e+00 8.181543350219726562e+00 -4.594050347805023193e-01 1.000000000000000000e+00
-5.930457592010498047e+00 1.543326568603515980e+01 -2.885929942131041925e-01 2.000000000000000000e+00
-8.140106797218322754e-01 2.127225875854492188e+00 -6.102952957153320312e-01 1.900000000000000000e+01
-9.310140013694763184e-01 2.435533285140991211e+00 -6.019690036773681641e-01 1.200000000000000000e+01
-1.086065649986267090e+00 2.842636108398437944e+00 -5.915079116821289062e-01 1.200000000000000000e+01
-1.301675438880919966e+00 3.410537004470825195e+00 -5.781818032264709473e-01 1.000000000000000000e+01
-1.628651142120361106e+00 4.271725654602050781e+00 -5.613301992416381836e-01 1.000000000000000000e+01
-2.119161128997803178e+00 5.561181068420410156e+00 -5.206683874130249023e-01 1.100000000000000000e+01
-3.105787515640258789e+00 8.158880233764648438e+00 -4.575209319591522217e-01 1.000000000000000000e+00
-5.831060409545898438e+00 1.533424949645995916e+01 -2.863590717315673828e-01 2.000000000000000000e+00
-8.072644472122192383e-01 2.131860971450806108e+00 -6.108129620552062988e-01 2.100000000000000000e+01
-9.183698892593383789e-01 2.427832126617432085e+00 -5.992696285247802734e-01 1.100000000000000000e+01
-1.083079218864440918e+00 2.864773750305175781e+00 -5.953240394592285156e-01 1.100000000000000000e+01
-1.289762496948241965e+00 3.415060043334960938e+00 -5.781818032264709473e-01 9.000000000000000000e+00
-1.608124375343322976e+00 4.262526035308837891e+00 -5.593802928924560547e-01 1.000000000000000000e+01
-2.103250980377196822e+00 5.577866077423095703e+00 -5.215399861335754395e-01 1.100000000000000000e+01
-3.077288627624512163e+00 8.169672012329101562e+00 -4.575209319591522217e-01 1.000000000000000000e+00
-5.797216892242431641e+00 1.540691471099854049e+01 -2.873364090919495184e-01 2.000000000000000000e+00
-8.035811185836791992e-01 2.143570899963378906e+00 -6.134011149406433105e-01 1.900000000000000000e+01
-9.123641252517700195e-01 2.436339139938354048e+00 -6.006193161010742188e-01 1.300000000000000000e+01
-1.069444179534912109e+00 2.857317447662353960e+00 -5.930343866348266602e-01 1.100000000000000000e+01
-1.281889677047729048e+00 3.428569555282593218e+00 -5.797461271286010742e-01 1.000000000000000000e+01
-1.592591404914855957e+00 4.264116287231445312e+00 -5.588927865028381348e-01 1.000000000000000000e+01
-2.082652091979980025e+00 5.579210281372070312e+00 -5.210170149803161621e-01 1.100000000000000000e+01
-3.054367065429687944e+00 8.191060066223144531e+00 -4.581489562988281250e-01 1.000000000000000000e+00
-5.720965385437011719e+00 1.535859298706055043e+01 -2.860798537731171209e-01 2.000000000000000000e+00
-7.927347421646118164e-01 2.137306451797484907e+00 -6.108129620552062988e-01 2.100000000000000000e+01
-9.072393774986267090e-01 2.448645830154418945e+00 -6.028688549995422363e-01 1.300000000000000000e+01
-1.056736707687377930e+00 2.853668928146361861e+00 -5.915079116821289062e-01 1.100000000000000000e+01
-1.269228577613831010e+00 3.431170701980590820e+00 -5.794332623481750488e-01 9.000000000000000000e+00
-1.576321125030518022e+00 4.265925407409667969e+00 -5.584053397178649902e-01 1.000000000000000000e+01
-2.063854694366455078e+00 5.588315010070800781e+00 -5.211913585662841797e-01 9.000000000000000000e+00
-3.040964603424071822e+00 8.242895126342773438e+00 -4.604517519474030096e-01 1.000000000000000000e+00
-5.647957801818847656e+00 1.532593154907226918e+01 -2.851025164127349854e-01 2.000000000000000000e+00
-7.846038341522216797e-01 2.138247013092041016e+00 -6.102952957153320312e-01 1.900000000000000000e+01
-8.993571400642395020e-01 2.453627347946166992e+00 -6.033187508583068848e-01 1.200000000000000000e+01
-1.044067740440369096e+00 2.849966287612915039e+00 -5.899814367294311523e-01 1.100000000000000000e+01
-1.255207180976867898e+00 3.430015087127685991e+00 -5.784946680068969727e-01 1.000000000000000000e+01
-1.564146757125854048e+00 4.278859615325927734e+00 -5.593802928924560547e-01 1.000000000000000000e+01
-2.036130666732788086e+00 5.573028087615966797e+00 -5.190995931625366211e-01 9.000000000000000000e+00
-3.005325555801392046e+00 8.234698295593261719e+00 -4.594050347805023193e-01 1.000000000000000000e+00
-5.594425678253173828e+00 1.534555339813232067e+01 -2.851025164127349854e-01 2.000000000000000000e+00
-7.771351933479309082e-01 2.140972852706909180e+00 -6.102952957153320312e-01 2.000000000000000000e+01
-8.887941241264343262e-01 2.451255559921265093e+00 -6.019690036773681641e-01 1.200000000000000000e+01
-1.037457704544066939e+00 2.862822532653809038e+00 -5.918895006179809570e-01 1.100000000000000000e+01
-1.239192366600037065e+00 3.423231124877930132e+00 -5.766174197196960449e-01 1.100000000000000000e+01
-1.548526287078856978e+00 4.282426357269287109e+00 -5.591365694999694824e-01 1.000000000000000000e+01
-2.011247158050537109e+00 5.565111637115479404e+00 -5.177050828933715820e-01 9.000000000000000000e+00
-2.962999105453491211e+00 8.207566261291503906e+00 -4.573116004467009943e-01 1.000000000000000000e+00
-5.540825843811035156e+00 1.536498832702637074e+01 -2.851025164127349854e-01 2.000000000000000000e+00
-7.676986455917358398e-01 2.138217926025391069e+00 -6.087424159049987793e-01 2.200000000000000000e+01
-8.769428730010986328e-01 2.445171594619750977e+00 -5.997195243835449219e-01 1.300000000000000000e+01
-1.030770421028136985e+00 2.875667095184326172e+00 -5.937975645065307617e-01 1.100000000000000000e+01
-1.227235436439513938e+00 3.427535772323607954e+00 -5.766174197196960449e-01 1.000000000000000000e+01
-1.534905314445496050e+00 4.291543960571289062e+00 -5.596240162849426270e-01 8.000000000000000000e+00
-2.003880500793457031e+00 5.605868339538574219e+00 -5.208427309989929199e-01 9.000000000000000000e+00
-2.927614927291870117e+00 8.199049949645996094e+00 -4.562648534774780273e-01 1.000000000000000000e+00
-5.487158298492431641e+00 1.538423538208007990e+01 -2.851025164127349854e-01 2.000000000000000000e+00
-7.647553682327270508e-01 2.153627872467041016e+00 -6.123658418655395508e-01 2.000000000000000000e+01
-8.684022426605224609e-01 2.448217630386352983e+00 -5.997195243835449219e-01 1.200000000000000000e+01
-1.018102288246155007e+00 2.871845960617064986e+00 -5.922711491584777832e-01 1.100000000000000000e+01
-1.215923070907592995e+00 3.433660745620727983e+00 -5.769302845001220703e-01 1.000000000000000000e+01
-1.519253730773926003e+00 4.295004367828369141e+00 -5.593802928924560547e-01 1.000000000000000000e+01
-1.976331233978271040e+00 5.590287685394287109e+00 -5.187509655952453613e-01 9.000000000000000000e+00
-2.906957864761352983e+00 8.231818199157714844e+00 -4.575209319591522217e-01 1.000000000000000000e+00
-5.416128158569335938e+00 1.535426425933838068e+01 -2.841949760913848877e-01 2.000000000000000000e+00
-7.546727657318115234e-01 2.148993492126464844e+00 -6.102952957153320312e-01 2.000000000000000000e+01
-8.624312877655029297e-01 2.458589553833007812e+00 -6.015191078186035156e-01 1.200000000000000000e+01
-1.000926613807678001e+00 2.855002641677856001e+00 -5.880733132362365723e-01 1.000000000000000000e+01
-1.206541538238524947e+00 3.445341587066649947e+00 -5.781818032264709473e-01 9.000000000000000000e+00
-1.503596663475037065e+00 4.298407554626464844e+00 -5.591365694999694824e-01 1.000000000000000000e+01
-1.960750579833983931e+00 5.608437061309813565e+00 -5.197968482971191406e-01 9.000000000000000000e+00
-2.871620893478393999e+00 8.223059654235839844e+00 -4.564742147922515869e-01 1.000000000000000000e+00
-5.340105533599854404e+00 1.530888080596924006e+01 -2.830082178115844727e-01 2.000000000000000000e+00
-7.433643937110900879e-01 2.140664815902709961e+00 -6.071894764900207520e-01 2.000000000000000000e+01
-8.538439869880676270e-01 2.461585044860839844e+00 -6.015191078186035156e-01 1.300000000000000000e+01
-9.967422485351562500e-01 2.875173568725585938e+00 -5.915079116821289062e-01 1.100000000000000000e+01
-1.194507718086242898e+00 3.449532270431518999e+00 -5.781818032264709473e-01 9.000000000000000000e+00
-1.489881038665771040e+00 4.307382106781005859e+00 -5.596240162849426270e-01 8.000000000000000000e+00
-1.934000968933105025e+00 5.594533443450927734e+00 -5.178794264793395996e-01 8.000000000000000000e+00
-2.838988304138184038e+00 8.221706390380859375e+00 -4.558461904525756836e-01 1.000000000000000000e+00
-5.281419277191162109e+00 1.531230449676514027e+01 -2.827289700508118231e-01 2.000000000000000000e+00
-7.383970022201538086e-01 2.150555372238159180e+00 -6.092600226402282715e-01 2.000000000000000000e+01
-8.439818620681762695e-01 2.460863828659058061e+00 -6.006193161010742188e-01 1.500000000000000000e+01
-9.866999387741088867e-01 2.878635406494141069e+00 -5.915079116821289062e-01 1.100000000000000000e+01
-1.179899811744689941e+00 3.446205377578734907e+00 -5.769302845001220703e-01 1.000000000000000000e+01
-1.478048205375670943e+00 4.321948051452636719e+00 -5.608426928520202637e-01 1.000000000000000000e+01
-1.916393756866455078e+00 5.606906414031982422e+00 -5.184023380279541016e-01 6.000000000000000000e+00
-2.819306135177611861e+00 8.258028030395507812e+00 -4.573116004467009943e-01 1.000000000000000000e+00
-5.227936744689941406e+00 1.533064746856688920e+01 -2.827289700508118231e-01 2.000000000000000000e+00
-7.315066456794738770e-01 2.154948949813843218e+00 -6.097776889801025391e-01 1.900000000000000000e+01
-8.316321372985839844e-01 2.452721595764160156e+00 -5.979198813438415527e-01 1.600000000000000000e+01
-9.766455888748168945e-01 2.882061958312987837e+00 -5.915079116821289062e-01 1.100000000000000000e+01
-1.169129848480225053e+00 3.454045295715332031e+00 -5.775560736656188965e-01 9.000000000000000000e+00
-1.456594824790955034e+00 4.308275699615479404e+00 -5.584053397178649902e-01 1.000000000000000000e+01
-1.901274919509887917e+00 5.626774311065673828e+00 -5.196225643157958984e-01 8.000000000000000000e+00
-2.780243873596190962e+00 8.237540245056152344e+00 -4.556368291378021240e-01 1.000000000000000000e+00
-5.153949260711669922e+00 1.528816509246825994e+01 -2.816120386123657227e-01 2.000000000000000000e+00
-7.274310588836669922e-01 2.166519880294799805e+00 -6.123658418655395508e-01 1.900000000000000000e+01
-8.247333168983459473e-01 2.459161281585692915e+00 -5.988197326660156250e-01 1.500000000000000000e+01
-9.677069187164306641e-01 2.887146472930908203e+00 -5.918895006179809570e-01 1.100000000000000000e+01
-1.157669305801392046e+00 3.457903146743773970e+00 -5.775560736656188965e-01 9.000000000000000000e+00
-1.439152359962462935e+00 4.303668975830078125e+00 -5.571866631507873535e-01 8.000000000000000000e+00
-1.883868455886841042e+00 5.636827468872070312e+00 -5.199711322784423828e-01 8.000000000000000000e+00
-2.747852563858031782e+00 8.231558799743652344e+00 -4.547994732856749933e-01 1.000000000000000000e+00
-5.113343715667724609e+00 1.533552455902099965e+01 -2.821705043315886896e-01 2.000000000000000000e+00
-7.162129878997802734e-01 2.158044815063477007e+00 -6.092600226402282715e-01 1.700000000000000000e+01
-8.167573809623718262e-01 2.463874816894530806e+00 -5.992696285247802734e-01 1.400000000000000000e+01
-9.539184570312500000e-01 2.879324913024901900e+00 -5.895997881889343262e-01 1.000000000000000000e+01
-1.146833181381226030e+00 3.465673923492432085e+00 -5.781818032264709473e-01 9.000000000000000000e+00
-1.425366878509521040e+00 4.312436103820800781e+00 -5.576741099357604980e-01 8.000000000000000000e+00
-1.859181284904479980e+00 5.628234386444091797e+00 -5.185766816139221191e-01 8.000000000000000000e+00
-2.720353841781616211e+00 8.244894027709960938e+00 -4.550088047981262207e-01 1.000000000000000000e+00
-5.041004657745361328e+00 1.529630374908447088e+01 -2.811233699321746826e-01 2.000000000000000000e+00
-7.054381966590881348e-01 2.149394750595093218e+00 -6.061542034149169922e-01 1.900000000000000000e+01
-8.122246265411376953e-01 2.477680444717406782e+00 -6.019690036773681641e-01 1.300000000000000000e+01
-9.455875158309936523e-01 2.886203765869141069e+00 -5.903630256652832031e-01 1.200000000000000000e+01
-1.136562943458556907e+00 3.473212718963623047e+00 -5.788075327873229980e-01 1.000000000000000000e+01
-1.413525462150573953e+00 4.324686527252197266e+00 -5.586490631103515625e-01 1.000000000000000000e+01
-1.839888572692871094e+00 5.632474899291992188e+00 -5.184023380279541016e-01 9.000000000000000000e+00
-2.701670885086060014e+00 8.280451774597167969e+00 -4.564742147922515869e-01 1.000000000000000000e+00
-5.011319160461425781e+00 1.537757968902588068e+01 -2.823101282119750977e-01 2.000000000000000000e+00
-7.009111642837524414e-01 2.161032199859619141e+00 -6.087424159049987793e-01 1.600000000000000000e+01
-8.023698329925537109e-01 2.476792812347412109e+00 -6.010692119598388672e-01 1.100000000000000000e+01
-9.367164373397827148e-01 2.893222332000731978e+00 -5.911262631416320801e-01 1.200000000000000000e+01
-1.118354201316833052e+00 3.458363533020019975e+00 -5.756788253784179688e-01 9.000000000000000000e+00
-1.397200584411621094e+00 4.325816154479979581e+00 -5.581616163253784180e-01 1.000000000000000000e+01
-1.815320014953613059e+00 5.623694419860839844e+00 -5.170078873634338379e-01 9.000000000000000000e+00
-2.666621685028076172e+00 8.270823478698730469e+00 -4.554274976253510077e-01 1.000000000000000000e+00
-4.945351600646972656e+00 1.535690975189208984e+01 -2.816120386123657227e-01 2.000000000000000000e+00
-6.933634877204895020e-01 2.163465738296508789e+00 -6.087424159049987793e-01 1.600000000000000000e+01
-7.889665365219116211e-01 2.464730739593505859e+00 -5.974699854850769043e-01 1.100000000000000000e+01
-9.278079271316528320e-01 2.900214433670043945e+00 -5.918895006179809570e-01 1.200000000000000000e+01
-1.105072975158690962e+00 3.458482742309569868e+00 -5.750530958175659180e-01 9.000000000000000000e+00
-1.382695674896240012e+00 4.332558155059813565e+00 -5.584053397178649902e-01 1.000000000000000000e+01
-1.800521969795227051e+00 5.645182132720947266e+00 -5.184023380279541016e-01 9.000000000000000000e+00
-2.623185157775878906e+00 8.234408378601074219e+00 -4.529153704643250067e-01 1.000000000000000000e+00
-4.868675708770751953e+00 1.530166816711425959e+01 -2.802856564521790106e-01 2.000000000000000000e+00
-6.887232065200805664e-01 2.175081491470336914e+00 -6.113305687904357910e-01 1.600000000000000000e+01
-7.815334200859069824e-01 2.471185684204102007e+00 -5.983697772026062012e-01 1.200000000000000000e+01
-9.159036278724670410e-01 2.897819519042969194e+00 -5.907446742057800293e-01 1.100000000000000000e+01
-1.096561908721924050e+00 3.473621606826781782e+00 -5.769302845001220703e-01 9.000000000000000000e+00
-1.365176081657409890e+00 4.329785346984863281e+00 -5.574303865432739258e-01 1.000000000000000000e+01
-1.783200740814208984e+00 5.659034252166748047e+00 -5.190995931625366211e-01 9.000000000000000000e+00
-2.599222421646118164e+00 8.258755683898925781e+00 -4.537527263164520264e-01 1.000000000000000000e+00
-4.826027393341063565e+00 1.535290718078612926e+01 -2.809139192104340155e-01 2.000000000000000000e+00
-6.776661276817321777e-01 2.166409730911254883e+00 -6.082247495651245117e-01 1.800000000000000000e+01
-7.729026079177856445e-01 2.473898649215697798e+00 -5.983697772026062012e-01 1.100000000000000000e+01
-9.034422636032104492e-01 2.893502712249755859e+00 -5.892181992530822754e-01 1.100000000000000000e+01
-1.085606217384337935e+00 3.481199741363524947e+00 -5.775560736656188965e-01 9.000000000000000000e+00
-1.353595852851867898e+00 4.345896244049072266e+00 -5.588927865028381348e-01 1.000000000000000000e+01
-1.761067628860474077e+00 5.657614707946777344e+00 -5.184023380279541016e-01 6.000000000000000000e+00
-2.570378065109252930e+00 8.267778396606445312e+00 -4.537527263164520264e-01 1.000000000000000000e+00
-4.762918472290039062e+00 1.533910369873047053e+01 -2.803554534912108820e-01 2.000000000000000000e+00
-6.689592599868774414e-01 2.165070533752440962e+00 -6.071894764900207520e-01 1.700000000000000000e+01
-7.688594460487365723e-01 2.491478443145751953e+00 -6.019690036773681641e-01 1.200000000000000000e+01
-8.910222053527832031e-01 2.889134407043457031e+00 -5.876917243003845215e-01 1.200000000000000000e+01
-1.071703433990478960e+00 3.479304552078247070e+00 -5.766174197196960449e-01 1.000000000000000000e+01
-1.336082816123961958e+00 4.343005180358886719e+00 -5.579178333282470703e-01 1.000000000000000000e+01
-1.737794995307921919e+00 5.652300834655761719e+00 -5.173565149307250977e-01 9.000000000000000000e+00
-2.547365188598632812e+00 8.295793533325195312e+00 -4.547994732856749933e-01 1.000000000000000000e+00
-4.715209007263183594e+00 1.537475395202637074e+01 -2.807044982910156250e-01 2.000000000000000000e+00
-6.612117290496826172e-01 2.165429353713988814e+00 -6.066718697547912598e-01 1.600000000000000000e+01
-7.571824789047241211e-01 2.482830286026000977e+00 -5.992696285247802734e-01 1.200000000000000000e+01
-8.848707079887390137e-01 2.903341054916381836e+00 -5.899814367294311523e-01 1.100000000000000000e+01
-1.057283520698546919e+00 3.473390579223632812e+00 -5.750530958175659180e-01 9.000000000000000000e+00
-1.320518732070923074e+00 4.343613624572753906e+00 -5.574303865432739258e-01 1.000000000000000000e+01
-1.724254488945007102e+00 5.675189971923828125e+00 -5.189253091812133789e-01 8.000000000000000000e+00
-2.504762887954711914e+00 8.254504203796386719e+00 -4.520779848098754883e-01 1.000000000000000000e+00
-4.644479274749755859e+00 1.532523822784424006e+01 -2.795177400112152100e-01 2.000000000000000000e+00
