1.490512013435363992e+00 2.519314527511597124e+00 -5.689924359321594238e-01 1.100000000000000000e+01
1.786428689956665039e+00 3.017079353332519975e+00 -5.553423762321472168e-01 8.000000000000000000e+00
2.201067209243773970e+00 3.714399576187133789e+00 -5.301316380500793457e-01 9.000000000000000000e+00
2.849891424179077148e+00 4.807405948638916016e+00 -4.889437258243560791e-01 9.000000000000000000e+00
4.059023380279541016e+00 6.841613292694091797e+00 -4.169082343578339178e-01 2.000000000000000000e+00
7.034209728240966797e+00 1.184696006774901988e+01 -2.404941618442535123e-01 2.000000000000000000e+00
1.142835021018981934e+00 1.918645858764647993e+00 -5.983896255493164062e-01 1.200000000000000000e+01
1.307168364524841087e+00 2.192795515060424805e+00 -5.893717408180236816e-01 1.100000000000000000e+01
1.504324793815613015e+00 2.522527217864989790e+00 -5.709004998207092285e-01 1.100000000000000000e+01
1.790875196456908958e+00 3.000647783279418945e+00 -5.534651279449462891e-01 9.000000000000000000e+00
2.216055393218994141e+00 3.710102081298828125e+00 -5.306191444396972656e-01 9.000000000000000000e+00
2.873808860778809038e+00 4.809401035308837891e+00 -4.901638925075531006e-01 9.000000000000000000e+00
4.107481956481933594e+00 6.868542194366455078e+00 -4.194203615188599188e-01 2.000000000000000000e+00
7.075520515441895419e+00 1.182233333587645951e+01 -2.404941618442535123e-01 2.000000000000000000e+00
1.145547747611999956e+00 1.908019900321960005e+00 -5.963190793991088867e-01 1.100000000000000000e+01
1.310800075531006081e+00 2.181537628173828125e+00 -5.875721573829650879e-01 1.100000000000000000e+01
1.509075164794922097e+00 2.510530233383179155e+00 -5.693740248680114746e-01 1.100000000000000000e+01
1.801338434219359907e+00 2.994378089904785156e+00 -5.534651279449462891e-01 8.000000000000000000e+00
2.224896907806396040e+00 3.695541381835937944e+00 -5.296441912651062012e-01 9.000000000000000000e+00
2.888523340225220171e+00 4.795926570892333984e+00 -4.898152649402617853e-01 9.000000000000000000e+00
4.116998195648193359e+00 6.830214977264404297e+00 -4.179549515247344971e-01 2.000000000000000000e+00
7.127074241638183594e+00 1.181468582153319957e+01 -2.408432066440581998e-01 2.000000000000000000e+00
1.155201554298401101e+00 1.908967971801758035e+00 -5.978720188140869141e-01 9.000000000000000000e+00
1.312350034713744895e+00 2.166947364807128906e+00 -5.848727226257324219e-01 1.100000000000000000e+01
1.528002381324768066e+00 2.522038459777832031e+00 -5.731902122497558594e-01 1.100000000000000000e+01
1.807683110237122026e+00 2.981315374374390093e+00 -5.522136688232421875e-01 1.000000000000000000e+01
2.233664035797119141e+00 3.680964231491088867e+00 -5.286692380905151367e-01 1.000000000000000000e+01
2.907314538955688032e+00 4.789220809936523438e+00 -4.901638925075531006e-01 9.000000000000000000e+00
4.124222755432128906e+00 6.788491249084472656e+00 -4.162802100181580145e-01 2.000000000000000000e+00
7.137105464935302734e+00 1.173847579956055043e+01 -2.397960573434829989e-01 2.000000000000000000e+00
1.167225122451782005e+00 1.915227174758910911e+00 -6.009778380393981934e-01 9.000000000000000000e+00
1.323210120201111062e+00 2.169468641281127930e+00 -5.866723656654357910e-01 1.200000000000000000e+01
1.526714801788330078e+00 2.502142429351807085e+00 -5.697556734085083008e-01 1.100000000000000000e+01
1.820128679275512917e+00 2.980679512023925781e+00 -5.531522631645202637e-01 9.000000000000000000e+00
2.243146657943726030e+00 3.670541286468505859e+00 -5.281817317008972168e-01 9.000000000000000000e+00
2.921306610107421875e+00 4.778363704681395596e+00 -4.899895787239075262e-01 9.000000000000000000e+00
4.151782989501953125e+00 6.785723209381104404e+00 -4.169082343578339178e-01 2.000000000000000000e+00
7.190655708312988281e+00 1.174328231811523082e+01 -2.403545379638671875e-01 2.000000000000000000e+00
1.168847918510437012e+00 1.902910590171813965e+00 -5.983896255493164062e-01 8.000000000000000000e+00
1.334857106208801047e+00 2.171477317810059038e+00 -5.884719491004943848e-01 1.100000000000000000e+01
1.534411191940308061e+00 2.495125532150268999e+00 -5.693740248680114746e-01 1.100000000000000000e+01
1.838804960250854048e+00 2.987766265869141069e+00 -5.556552410125732422e-01 9.000000000000000000e+00
2.265315055847167969e+00 3.677900791168212891e+00 -5.303753614425659180e-01 1.000000000000000000e+01
2.939013481140137163e+00 4.769833564758300781e+00 -4.901638925075531006e-01 9.000000000000000000e+00
4.194314002990722656e+00 6.801789760589599609e+00 -4.187923073768615723e-01 2.000000000000000000e+00
7.214800357818604404e+00 1.169088363647460938e+01 -2.397960573434829989e-01 2.000000000000000000e+00
1.165314555168152078e+00 1.882393121719359907e+00 -5.932132601737976074e-01 8.000000000000000000e+00
1.344481468200684038e+00 2.170117616653441939e+00 -5.893717408180236816e-01 1.100000000000000000e+01
1.545179963111876997e+00 2.493091583251953125e+00 -5.701372623443603516e-01 1.200000000000000000e+01
1.840893268585205078e+00 2.967900037765502930e+00 -5.531522631645202637e-01 9.000000000000000000e+00
2.276045560836791992e+00 3.666597843170166016e+00 -5.298879146575927734e-01 1.000000000000000000e+01
2.954594373703002930e+00 4.757853031158447266e+00 -4.899895787239075262e-01 8.000000000000000000e+00
4.211705684661865234e+00 6.776929378509520596e+00 -4.181642830371857245e-01 2.000000000000000000e+00
7.255565166473388672e+00 1.166562747955322088e+01 -2.397960573434829989e-01 2.000000000000000000e+00
1.172900915145874023e+00 1.879953026771544966e+00 -5.937308669090270996e-01 9.000000000000000000e+00
1.347919940948486106e+00 2.158799409866333008e+00 -5.875721573829650879e-01 1.100000000000000000e+01
1.556993365287780984e+00 2.492678165435791016e+00 -5.712821483612060547e-01 1.000000000000000000e+01
1.847053527832031028e+00 2.954756021499633789e+00 -5.519008040428161621e-01 9.000000000000000000e+00
2.298305988311768022e+00 3.673776626586914062e+00 -5.320815443992614746e-01 1.000000000000000000e+01
2.966956615447998047e+00 4.740755081176757812e+00 -4.892923533916472834e-01 8.000000000000000000e+00
4.239576816558837891e+00 6.768957138061523438e+00 -4.185829758644104004e-01 2.000000000000000000e+00
7.296241760253906250e+00 1.164023017883300959e+01 -2.397960573434829989e-01 2.000000000000000000e+00
1.188012003898621050e+00 1.888723492622375044e+00 -5.978720188140869141e-01 1.100000000000000000e+01
1.357899665832519975e+00 2.157142877578734907e+00 -5.884719491004943848e-01 1.000000000000000000e+01
1.562980532646178977e+00 2.481970787048339844e+00 -5.701372623443603516e-01 1.100000000000000000e+01
1.857870936393738015e+00 2.947966337203979048e+00 -5.519008040428161621e-01 9.000000000000000000e+00
2.305401802062987837e+00 3.655254125595093218e+00 -5.306191444396972656e-01 9.000000000000000000e+00
2.980059623718262163e+00 4.723108768463134766e+00 -4.885950982570648193e-01 8.000000000000000000e+00
4.255826950073242188e+00 6.739862918853759766e+00 -4.177455902099608820e-01 2.000000000000000000e+00
7.351675033569335938e+00 1.163369560241699041e+01 -2.402149289846420011e-01 2.000000000000000000e+00
1.194597601890563965e+00 1.884565114974976030e+00 -5.978720188140869141e-01 1.600000000000000000e+01
1.363333344459533913e+00 2.149098634719849077e+00 -5.875721573829650879e-01 1.100000000000000000e+01
1.575842499732970969e+00 2.483130455017089844e+00 -5.716637372970581055e-01 1.100000000000000000e+01
1.874504089355468972e+00 2.951468229293822798e+00 -5.537779927253723145e-01 9.000000000000000000e+00
2.309628248214722124e+00 3.633781909942626953e+00 -5.286692380905151367e-01 9.000000000000000000e+00
3.014701843261719194e+00 4.741259574890136719e+00 -4.915584027767180841e-01 9.000000000000000000e+00
4.279327392578125000e+00 6.724966049194335938e+00 -4.177455902099608820e-01 2.000000000000000000e+00
7.379349708557128906e+00 1.158772182464599965e+01 -2.397960573434829989e-01 2.000000000000000000e+00
1.202919960021973100e+00 1.883849740028380904e+00 -5.989072918891906738e-01 1.900000000000000000e+01
1.368353843688965066e+00 2.141281604766846147e+00 -5.866723656654357910e-01 1.100000000000000000e+01
1.580895781517029031e+00 2.472928762435913086e+00 -5.705189108848571777e-01 1.100000000000000000e+01
1.888539552688599077e+00 2.951891660690308061e+00 -5.550295114517211914e-01 9.000000000000000000e+00
2.328087806701660156e+00 3.636133670806885210e+00 -5.301316380500793457e-01 1.000000000000000000e+01
3.018587112426757812e+00 4.712781429290770596e+00 -4.896409511566162109e-01 9.000000000000000000e+00
4.305915832519531250e+00 6.717464447021484375e+00 -4.181642830371857245e-01 2.000000000000000000e+00
7.404778957366943359e+00 1.154298973083495916e+01 -2.393772006034851074e-01 2.000000000000000000e+00
1.199034810066222922e+00 1.863393425941467063e+00 -5.937308669090270996e-01 1.800000000000000000e+01
1.386370778083801047e+00 2.152876377105712891e+00 -5.911713838577270508e-01 1.100000000000000000e+01
1.586328625679015891e+00 2.462444067001343218e+00 -5.693740248680114746e-01 1.100000000000000000e+01
1.892409801483154075e+00 2.935319900512694868e+00 -5.531522631645202637e-01 9.000000000000000000e+00
2.345071077346802202e+00 3.634656906127930132e+00 -5.311065912246704102e-01 9.000000000000000000e+00
3.043663263320922852e+00 4.715607643127441406e+00 -4.910354614257813055e-01 9.000000000000000000e+00
4.328254222869873047e+00 6.700715065002441406e+00 -4.180596172809600830e-01 3.000000000000000000e+00
7.425485610961914062e+00 1.148684310913085938e+01 -2.387489229440689087e-01 2.000000000000000000e+00
1.214664101600646973e+00 1.873996973037719949e+00 -5.983896255493164062e-01 2.200000000000000000e+01
1.389260292053223100e+00 2.141727447509766069e+00 -5.893717408180236816e-01 1.200000000000000000e+01
1.597691774368285911e+00 2.462110757827758789e+00 -5.705189108848571777e-01 1.000000000000000000e+01
1.902133345603943093e+00 2.929028511047362837e+00 -5.531522631645202637e-01 9.000000000000000000e+00
2.363601446151732954e+00 3.636847257614136186e+00 -5.325690507888793945e-01 1.000000000000000000e+01
3.056025981903076172e+00 4.700477123260498047e+00 -4.905125200748444159e-01 9.000000000000000000e+00
4.352629184722900391e+00 6.689673423767089844e+00 -4.182689487934113104e-01 4.000000000000000000e+00
7.456989288330078125e+00 1.145210170745849965e+01 -2.385394871234894076e-01 2.000000000000000000e+00
1.223311066627501997e+00 1.872980475425719993e+00 -5.994248986244201660e-01 2.200000000000000000e+01
1.388198256492614968e+00 2.123815536499022993e+00 -5.857725739479064941e-01 1.100000000000000000e+01
1.612722992897033913e+00 2.466377735137939009e+00 -5.728086233139038086e-01 1.000000000000000000e+01
1.912345886230468972e+00 2.922370910644530806e+00 -5.531522631645202637e-01 9.000000000000000000e+00
2.367581844329833984e+00 3.615289211273192915e+00 -5.306191444396972656e-01 9.000000000000000000e+00
3.070231437683105025e+00 4.686448097229003906e+00 -4.901638925075531006e-01 9.000000000000000000e+00
4.366098403930664062e+00 6.659406661987304688e+00 -4.173269271850585938e-01 4.000000000000000000e+00
7.553963661193847656e+00 1.151294231414794922e+01 -2.403545379638671875e-01 2.000000000000000000e+00
1.232292294502258079e+00 1.871711373329163042e+00 -6.004601716995239258e-01 2.200000000000000000e+01
1.395973086357116921e+00 2.118713140487670898e+00 -5.857725739479064941e-01 1.100000000000000000e+01
1.620671510696410911e+00 2.458811044692993164e+00 -5.724269747734069824e-01 1.100000000000000000e+01
1.923044085502624956e+00 2.915342092514038086e+00 -5.531522631645202637e-01 9.000000000000000000e+00
2.374254703521728960e+00 3.596647262573242188e+00 -5.291566848754882812e-01 9.000000000000000000e+00
3.091779232025146040e+00 4.681813716888427734e+00 -4.908611476421356201e-01 9.000000000000000000e+00
4.394881725311279297e+00 6.650024414062500000e+00 -4.177455902099608820e-01 5.000000000000000000e+00
7.556397438049316406e+00 1.142513370513916016e+01 -2.390979677438735962e-01 2.000000000000000000e+00
1.236682415008544922e+00 1.864178776741028054e+00 -5.994248986244201660e-01 2.100000000000000000e+01
1.409827351570128950e+00 2.123568534851074219e+00 -5.884719491004943848e-01 1.100000000000000000e+01
1.621641278266906960e+00 2.441690921783446822e+00 -5.697556734085083008e-01 1.100000000000000000e+01
1.937582612037658913e+00 2.915192365646361861e+00 -5.544037222862243652e-01 9.000000000000000000e+00
2.375801086425780806e+00 3.571809053421020952e+00 -5.267193317413330078e-01 9.000000000000000000e+00
3.108103036880493164e+00 4.670992851257324219e+00 -4.908611476421356201e-01 9.000000000000000000e+00
4.412532806396484375e+00 6.626330852508544922e+00 -4.172222316265106201e-01 6.000000000000000000e+00
7.587360858917236328e+00 1.138537502288818004e+01 -2.388187348842621127e-01 2.000000000000000000e+00
1.236417770385741965e+00 1.850429892539978027e+00 -5.963190793991088867e-01 2.100000000000000000e+01
1.422277808189392090e+00 2.126981496810913086e+00 -5.907214879989624023e-01 1.200000000000000000e+01
1.628637790679932085e+00 2.434668064117432085e+00 -5.693740248680114746e-01 1.100000000000000000e+01
1.947239041328429954e+00 2.908751010894774947e+00 -5.544037222862243652e-01 9.000000000000000000e+00
2.403100728988647017e+00 3.586999893188477007e+00 -5.301316380500793457e-01 9.000000000000000000e+00
3.128012418746947798e+00 4.667280673980712891e+00 -4.915584027767180841e-01 9.000000000000000000e+00
4.434482574462890625e+00 6.611661911010742188e+00 -4.172222316265106201e-01 6.000000000000000000e+00
7.600556373596191406e+00 1.132362461090088068e+01 -2.380508184432983121e-01 2.000000000000000000e+00
1.245027184486388938e+00 1.849307775497436968e+00 -5.973543524742126465e-01 2.200000000000000000e+01
1.425338149070739968e+00 2.115539312362670898e+00 -5.889218449592590332e-01 1.200000000000000000e+01
1.638223648071289062e+00 2.430596113204956055e+00 -5.697556734085083008e-01 1.200000000000000000e+01
1.950752973556518999e+00 2.892110109329224077e+00 -5.525265336036682129e-01 9.000000000000000000e+00
2.424492120742797852e+00 3.591752052307128906e+00 -5.320815443992614746e-01 9.000000000000000000e+00
3.145400047302246094e+00 4.657984733581542969e+00 -4.917326867580413818e-01 8.000000000000000000e+00
4.458652496337890625e+00 6.597797393798828125e+00 -4.173269271850585938e-01 6.000000000000000000e+00
7.648999214172363281e+00 1.131027603149414062e+01 -2.383300662040709894e-01 2.000000000000000000e+00
1.260150551795959029e+00 1.857740521430969016e+00 -6.014954447746276855e-01 2.400000000000000000e+01
1.425052523612976074e+00 2.099264621734619141e+00 -5.857725739479064941e-01 1.400000000000000000e+01
1.658830404281615989e+00 2.442728519439696822e+00 -5.739534497261047363e-01 1.200000000000000000e+01
1.963057041168212891e+00 2.888550758361815962e+00 -5.531522631645202637e-01 9.000000000000000000e+00
2.434782028198242188e+00 3.579984426498413086e+00 -5.315940976142883301e-01 9.000000000000000000e+00
3.165002584457397017e+00 4.651918411254882812e+00 -4.922556281089783270e-01 9.000000000000000000e+00
4.498517036437988281e+00 6.606957435607910156e+00 -4.188970029354094904e-01 6.000000000000000000e+00
7.695188999176025391e+00 1.129342269897460938e+01 -2.385394871234894076e-01 2.000000000000000000e+00
1.266627669334412065e+00 1.853330373764038086e+00 -6.014954447746276855e-01 2.100000000000000000e+01
1.434571862220763938e+00 2.097494363784790039e+00 -5.866723656654357910e-01 1.300000000000000000e+01
1.661803960800170898e+00 2.428821802139281782e+00 -5.720453858375549316e-01 1.000000000000000000e+01
1.978708148002624956e+00 2.889830350875854048e+00 -5.547165870666503906e-01 8.000000000000000000e+00
2.440531253814696822e+00 3.561638355255126953e+00 -5.301316380500793457e-01 9.000000000000000000e+00
3.185727596282958984e+00 4.647415637969970703e+00 -4.929528832435607910e-01 8.000000000000000000e+00
4.524941921234130859e+00 6.596155166625976562e+00 -4.192110002040863037e-01 5.000000000000000000e+00
7.736826896667479581e+00 1.126978969573974965e+01 -2.386092990636826117e-01 2.000000000000000000e+00
1.270898103713989036e+00 1.845715522766113059e+00 -6.004601716995239258e-01 2.200000000000000000e+01
1.451836466789246050e+00 2.106915950775146040e+00 -5.907214879989624023e-01 1.500000000000000000e+01
1.661357998847960982e+00 2.410074949264525923e+00 -5.689924359321594238e-01 1.000000000000000000e+01
1.984296679496764915e+00 2.876401662826538086e+00 -5.534651279449462891e-01 8.000000000000000000e+00
2.452948808670043945e+00 3.553097724914550781e+00 -5.301316380500793457e-01 9.000000000000000000e+00
3.197401762008666992e+00 4.629709720611572266e+00 -4.922556281089783270e-01 6.000000000000000000e+00
4.551345825195313388e+00 6.585248947143554688e+00 -4.195250272750853937e-01 3.000000000000000000e+00
7.767018318176270419e+00 1.122955703735351918e+01 -2.383300662040709894e-01 2.000000000000000000e+00
1.270726203918457031e+00 1.831744194030761941e+00 -5.973543524742126465e-01 2.200000000000000000e+01
1.459182143211364968e+00 2.101835250854492188e+00 -5.907214879989624023e-01 1.500000000000000000e+01
1.673120260238647017e+00 2.409098625183105025e+00 -5.701372623443603516e-01 1.100000000000000000e+01
1.995452523231505904e+00 2.871079921722412109e+00 -5.537779927253723145e-01 9.000000000000000000e+00
2.469870328903197798e+00 3.551032304763793945e+00 -5.311065912246704102e-01 9.000000000000000000e+00
3.208991289138793945e+00 4.611978530883789062e+00 -4.915584027767180841e-01 6.000000000000000000e+00
4.591424465179443359e+00 6.593907833099365234e+00 -4.210951030254364014e-01 2.000000000000000000e+00
7.774158477783203125e+00 1.115643882751465021e+01 -2.373527288436889926e-01 2.000000000000000000e+00
1.277112364768981934e+00 1.827297329902648926e+00 -5.973543524742126465e-01 2.200000000000000000e+01
1.466509938240051047e+00 2.096729040145874023e+00 -5.907214879989624023e-01 1.200000000000000000e+01
1.686021447181702104e+00 2.409677982330321822e+00 -5.716637372970581055e-01 1.100000000000000000e+01
1.998664021492003950e+00 2.854387998580933061e+00 -5.519008040428161621e-01 9.000000000000000000e+00
2.493642568588256836e+00 3.558645963668822798e+00 -5.335440039634704590e-01 9.000000000000000000e+00
3.221639633178710938e+00 4.595854759216308594e+00 -4.910354614257813055e-01 9.000000000000000000e+00
4.619001388549804688e+00 6.584380626678466797e+00 -4.215137958526610773e-01 1.000000000000000000e+00
7.829139709472656250e+00 1.115214729309082031e+01 -2.378413975238800049e-01 2.000000000000000000e+00
1.291268467903136985e+00 1.833885312080383079e+00 -6.009778380393981934e-01 2.300000000000000000e+01
1.465962648391724077e+00 2.080446243286132812e+00 -5.875721573829650879e-01 1.300000000000000000e+01
1.696684837341309038e+00 2.406987428665161133e+00 -5.724269747734069824e-01 1.100000000000000000e+01
2.010892868041992188e+00 2.850622415542602983e+00 -5.525265336036682129e-01 9.000000000000000000e+00
2.499180316925048828e+00 3.540189743041992188e+00 -5.320815443992614746e-01 9.000000000000000000e+00
3.235363721847534180e+00 4.581326007843017578e+00 -4.906868338584899902e-01 9.000000000000000000e+00
4.648873329162597656e+00 6.578003406524658203e+00 -4.221418201923369806e-01 2.000000000000000000e+00
7.874948501586914062e+00 1.113454627990723012e+01 -2.380508184432983121e-01 2.000000000000000000e+00
1.297342777252197044e+00 1.829593181610106978e+00 -6.009778380393981934e-01 2.000000000000000000e+01
1.475109100341797097e+00 2.078752040863037109e+00 -5.884719491004943848e-01 1.400000000000000000e+01
1.697838664054871050e+00 2.391742229461669922e+00 -5.701372623443603516e-01 1.100000000000000000e+01
2.032918930053710938e+00 2.861652612686156782e+00 -5.559681057929992676e-01 8.000000000000000000e+00
2.504004955291748047e+00 3.522175312042235884e+00 -5.306191444396972656e-01 9.000000000000000000e+00
3.263240098953247070e+00 4.588432312011718750e+00 -4.926042556762694757e-01 8.000000000000000000e+00
4.682242393493652344e+00 6.578823089599609375e+00 -4.231885373592377264e-01 2.000000000000000000e+00
7.877026081085205078e+00 1.105950641632080078e+01 -2.370036840438843051e-01 2.000000000000000000e+00
1.302598476409912109e+00 1.823481559753417969e+00 -6.004601716995239258e-01 2.100000000000000000e+01
1.484622836112976074e+00 2.076761007308959961e+00 -5.893717408180236816e-01 1.400000000000000000e+01
1.708461165428162065e+00 2.388994932174683061e+00 -5.709004998207092285e-01 1.100000000000000000e+01
2.034848213195800781e+00 2.843294382095336914e+00 -5.537779927253723145e-01 9.000000000000000000e+00
2.523219585418701172e+00 3.523096561431885210e+00 -5.320815443992614746e-01 9.000000000000000000e+00
3.262991428375244141e+00 4.554338932037354404e+00 -4.901638925075531006e-01 8.000000000000000000e+00
4.714488506317138672e+00 6.575424194335938388e+00 -4.240259230136870783e-01 2.000000000000000000e+00
7.910919666290283203e+00 1.102544498443604049e+01 -2.368640601634978970e-01 2.000000000000000000e+00
1.304442048072814941e+00 1.812651395797729048e+00 -5.983896255493164062e-01 2.100000000000000000e+01
1.502112507820128950e+00 2.085798025131226030e+00 -5.934208631515502930e-01 1.500000000000000000e+01
1.715642333030700906e+00 2.381423950195312944e+00 -5.705189108848571777e-01 1.100000000000000000e+01
2.042450428009033203e+00 2.832969188690185991e+00 -5.531522631645202637e-01 9.000000000000000000e+00
2.538986444473267046e+00 3.519096851348876953e+00 -5.328127741813659668e-01 7.000000000000000000e+00
3.283533334732056108e+00 4.549383163452148438e+00 -4.908611476421356201e-01 9.000000000000000000e+00
4.744428634643554688e+00 6.568642139434813565e+00 -4.246539473533629816e-01 1.000000000000000000e+00
7.965757846832275391e+00 1.102045249938965021e+01 -2.373527288436889926e-01 2.000000000000000000e+00
1.313029170036315918e+00 1.811215162277221902e+00 -5.994248986244201660e-01 2.100000000000000000e+01
1.502518177032470925e+00 2.071077823638916016e+00 -5.907214879989624023e-01 1.500000000000000000e+01
1.727403998374938965e+00 2.380187511444091797e+00 -5.716637372970581055e-01 1.100000000000000000e+01
2.054648399353026900e+00 2.829019308090209961e+00 -5.537779927253723145e-01 9.000000000000000000e+00
2.548920869827270952e+00 3.507001161575316939e+00 -5.323252677917480469e-01 7.000000000000000000e+00
3.292363643646239790e+00 4.528224945068359375e+00 -4.898152649402617853e-01 8.000000000000000000e+00
4.776729583740234375e+00 6.564960956573486328e+00 -4.254913330078125000e-01 2.000000000000000000e+00
8.001823425292968750e+00 1.098934650421142933e+01 -2.372829169034957886e-01 2.000000000000000000e+00
1.319028139114380105e+00 1.806851029396056907e+00 -5.994248986244201660e-01 2.100000000000000000e+01
1.502480387687683105e+00 2.056642532348632812e+00 -5.880220532417297363e-01 1.500000000000000000e+01
1.738762617111206055e+00 2.379201173782349077e+00 -5.728086233139038086e-01 1.200000000000000000e+01
2.061686277389525923e+00 2.819001197814940962e+00 -5.531522631645202637e-01 9.000000000000000000e+00
2.567570924758911133e+00 3.508140563964844194e+00 -5.337877273559570312e-01 7.000000000000000000e+00
3.317954778671265093e+00 4.531750679016113281e+00 -4.913840889930725098e-01 8.000000000000000000e+00
4.796112537384033203e+00 6.545862674713134766e+00 -4.252819716930388849e-01 2.000000000000000000e+00
8.033492088317871094e+00 1.095630073547362926e+01 -2.371432930231094083e-01 2.000000000000000000e+00
1.329905152320862038e+00 1.808461070060729980e+00 -6.014954447746276855e-01 2.200000000000000000e+01
1.510805368423461914e+00 2.052954912185668945e+00 -5.884719491004943848e-01 1.400000000000000000e+01
1.745893120765686035e+00 2.371536254882812944e+00 -5.724269747734069824e-01 1.100000000000000000e+01
2.077372312545775923e+00 2.819739341735839844e+00 -5.547165870666503906e-01 9.000000000000000000e+00
2.568021059036254883e+00 3.483178853988647017e+00 -5.313503146171569824e-01 7.000000000000000000e+00
3.344396591186522993e+00 4.534572124481201172e+00 -4.929528832435607910e-01 8.000000000000000000e+00
4.823676586151123047e+00 6.535509109497070312e+00 -4.257006645202637274e-01 2.000000000000000000e+00
8.074063301086425781e+00 1.093140888214110973e+01 -2.372131049633026123e-01 2.000000000000000000e+00
1.330773591995239036e+00 1.795813918113708052e+00 -5.989072918891906738e-01 2.000000000000000000e+01
1.520641207695007102e+00 2.050534248352050781e+00 -5.893717408180236816e-01 1.400000000000000000e+01
1.749894618988037109e+00 2.358814477920531782e+00 -5.709004998207092285e-01 1.100000000000000000e+01
2.086515665054320845e+00 2.810520410537720171e+00 -5.544037222862243652e-01 9.000000000000000000e+00
2.583137989044189009e+00 3.476930141448975053e+00 -5.318378210067749023e-01 7.000000000000000000e+00
3.360994338989257812e+00 4.522284030914306641e+00 -4.929528832435607910e-01 8.000000000000000000e+00
4.876204490661621094e+00 6.556247711181640625e+00 -4.282127916812896729e-01 1.000000000000000000e+00
8.097359657287597656e+00 1.087928390502930043e+01 -2.367244362831116000e-01 2.000000000000000000e+00
1.332411646842956987e+00 1.784965276718140093e+00 -5.968367457389831543e-01 2.000000000000000000e+01
1.532454729080199973e+00 2.051458835601807085e+00 -5.911713838577270508e-01 1.300000000000000000e+01
1.760468244552612083e+00 2.355837106704711914e+00 -5.716637372970581055e-01 1.100000000000000000e+01
2.093947410583496094e+00 2.800055980682373047e+00 -5.537779927253723145e-01 9.000000000000000000e+00
2.600016355514525923e+00 3.474249362945557085e+00 -5.328127741813659668e-01 7.000000000000000000e+00
3.367207050323485884e+00 4.497764587402343750e+00 -4.915584027767180841e-01 6.000000000000000000e+00
4.889480590820313388e+00 6.526399135589599609e+00 -4.273754060268402100e-01 2.000000000000000000e+00
8.128088951110839844e+00 1.084135341644286932e+01 -2.365150153636932095e-01 2.000000000000000000e+00
1.342654585838318093e+00 1.786948442459106001e+00 -5.989072918891906738e-01 2.300000000000000000e+01
1.541234254837035911e+00 2.049749374389647993e+00 -5.920711755752563477e-01 1.400000000000000000e+01
1.767860531806946023e+00 2.350294828414916992e+00 -5.716637372970581055e-01 1.100000000000000000e+01
2.102733850479125977e+00 2.793463945388793945e+00 -5.537779927253723145e-01 9.000000000000000000e+00
2.610918283462523970e+00 3.466063976287841797e+00 -5.328127741813659668e-01 7.000000000000000000e+00
3.384917736053466797e+00 4.491937637329101562e+00 -4.920813143253325861e-01 9.000000000000000000e+00
4.909959316253662109e+00 6.511006355285645419e+00 -4.273754060268402100e-01 2.000000000000000000e+00
8.174153327941894531e+00 1.083172607421875000e+01 -2.368640601634978970e-01 2.000000000000000000e+00
1.352381467819214089e+00 1.786872029304503950e+00 -6.004601716995239258e-01 2.200000000000000000e+01
1.538967132568358931e+00 2.031929254531859907e+00 -5.884719491004943848e-01 1.400000000000000000e+01
1.777239441871643066e+00 2.345674276351929155e+00 -5.720453858375549316e-01 1.100000000000000000e+01
2.111278533935546875e+00 2.784533023834228960e+00 -5.534651279449462891e-01 1.000000000000000000e+01
2.615801811218262163e+00 3.447440862655640093e+00 -5.313503146171569824e-01 7.000000000000000000e+00
3.407804489135742188e+00 4.489616870880126953e+00 -4.931271970272064209e-01 9.000000000000000000e+00
4.920576095581054688e+00 6.477923393249511719e+00 -4.263286888599395752e-01 1.000000000000000000e+00
8.204652786254882812e+00 1.079357528686523082e+01 -2.366546243429183960e-01 2.000000000000000000e+00
1.356889128684998003e+00 1.778594255447387917e+00 -5.994248986244201660e-01 2.100000000000000000e+01
1.546757817268372026e+00 2.026005029678345171e+00 -5.884719491004943848e-01 1.400000000000000000e+01
1.782658219337462935e+00 2.334152221679687944e+00 -5.709004998207092285e-01 1.100000000000000000e+01
2.130351305007935014e+00 2.787392139434814009e+00 -5.556552410125732422e-01 9.000000000000000000e+00
2.630225658416748047e+00 3.438948154449462891e+00 -5.315940976142883301e-01 9.000000000000000000e+00
3.432282447814940962e+00 4.485992908477783203e+00 -4.941730499267578125e-01 9.000000000000000000e+00
4.935699939727783203e+00 6.446295261383056641e+00 -4.254913330078125000e-01 2.000000000000000000e+00
8.233874320983886719e+00 1.074611949920653942e+01 -2.363055795431137085e-01 2.000000000000000000e+00
1.363089323043823020e+00 1.773847103118896040e+00 -5.994248986244201660e-01 2.100000000000000000e+01
1.558572292327881081e+00 2.026772737503052202e+00 -5.902715921401977539e-01 1.300000000000000000e+01
1.794386267662047896e+00 2.332583427429199219e+00 -5.720453858375549316e-01 1.100000000000000000e+01
2.137658119201660156e+00 2.776808261871337891e+00 -5.550295114517211914e-01 1.000000000000000000e+01
2.648271083831787109e+00 3.437608957290648970e+00 -5.328127741813659668e-01 9.000000000000000000e+00
3.439407110214232954e+00 4.462937831878662109e+00 -4.929528832435607910e-01 9.000000000000000000e+00
4.972808361053466797e+00 6.448006153106688565e+00 -4.267473816871643066e-01 2.000000000000000000e+00
8.305543899536132812e+00 1.076163768768311080e+01 -2.372829169034957886e-01 2.000000000000000000e+00
1.370146274566649947e+00 1.770845055580138938e+00 -5.999425649642944336e-01 2.000000000000000000e+01
1.565284729003906028e+00 2.021593332290648970e+00 -5.902715921401977539e-01 1.200000000000000000e+01
1.800909280776977983e+00 2.325068235397338867e+00 -5.716637372970581055e-01 1.100000000000000000e+01
2.150485277175902876e+00 2.774388074874877930e+00 -5.559681057929992676e-01 1.000000000000000000e+01
2.656006097793579102e+00 3.424102306365966797e+00 -5.320815443992614746e-01 9.000000000000000000e+00
3.446859359741210938e+00 4.442063331604003906e+00 -4.919070005416870117e-01 9.000000000000000000e+00
4.994163036346436435e+00 6.431479930877686435e+00 -4.267473816871643066e-01 2.000000000000000000e+00
8.306829452514648438e+00 1.068982410430908025e+01 -2.363055795431137085e-01 2.000000000000000000e+00
1.366819262504578081e+00 1.753861427307128906e+00 -5.958014130592346191e-01 2.000000000000000000e+01
1.569934964179992898e+00 2.013043642044066939e+00 -5.893717408180236816e-01 1.400000000000000000e+01
1.813844799995421919e+00 2.324959278106689009e+00 -5.731902122497558594e-01 1.100000000000000000e+01
2.152862787246704102e+00 2.757522344589232954e+00 -5.540908575057983398e-01 1.000000000000000000e+01
2.678941488265991211e+00 3.428888797760010210e+00 -5.342751741409301758e-01 7.000000000000000000e+00
3.474613189697266069e+00 4.445702552795410156e+00 -4.936501383781433105e-01 9.000000000000000000e+00
5.023965835571289062e+00 6.423447132110595703e+00 -4.273754060268402100e-01 2.000000000000000000e+00
8.353953361511230469e+00 1.067336082458495916e+01 -2.365848273038864136e-01 2.000000000000000000e+00
1.378897190093993919e+00 1.756677627563477007e+00 -5.983896255493164062e-01 2.100000000000000000e+01
1.575748562812804954e+00 2.006018877029418945e+00 -5.889218449592590332e-01 1.300000000000000000e+01
1.823162436485290971e+00 2.320157289505004883e+00 -5.735718607902526855e-01 1.200000000000000000e+01
2.167359352111815962e+00 2.756201744079589844e+00 -5.553423762321472168e-01 1.000000000000000000e+01
2.676163196563721147e+00 3.400796651840209961e+00 -5.313503146171569824e-01 9.000000000000000000e+00
3.479018926620482954e+00 4.419456958770751953e+00 -4.920813143253325861e-01 9.000000000000000000e+00
5.029053688049316406e+00 6.383906364440917969e+00 -4.259100258350371759e-01 2.000000000000000000e+00
8.398587226867675781e+00 1.065355682373047053e+01 -2.367942482233046930e-01 2.000000000000000000e+00
1.392209410667418990e+00 1.760946393013000044e+00 -6.014954447746276855e-01 2.100000000000000000e+01
1.582741260528564009e+00 2.000506162643433061e+00 -5.889218449592590332e-01 1.200000000000000000e+01
1.831250190734863059e+00 2.313779115676879883e+00 -5.735718607902526855e-01 1.200000000000000000e+01
2.170834779739379883e+00 2.740876913070679155e+00 -5.537779927253723145e-01 1.000000000000000000e+01
2.686784744262694868e+00 3.389878749847412109e+00 -5.311065912246704102e-01 9.000000000000000000e+00
3.508040666580200195e+00 4.424459457397460938e+00 -4.939987361431121826e-01 8.000000000000000000e+00
5.056272983551025391e+00 6.372571468353270596e+00 -4.263286888599395752e-01 2.000000000000000000e+00
8.418315887451171875e+00 1.060225105285645064e+01 -2.363055795431137085e-01 2.000000000000000000e+00
1.392330765724181907e+00 1.748519659042357954e+00 -5.989072918891906738e-01 2.000000000000000000e+01
1.595786929130553977e+00 2.002589464187622070e+00 -5.911713838577270508e-01 1.400000000000000000e+01
1.829525470733643022e+00 2.295091390609741211e+00 -5.705189108848571777e-01 1.200000000000000000e+01
2.190243959426879883e+00 2.745636224746704102e+00 -5.562809705734252930e-01 9.000000000000000000e+00
2.699839830398560014e+00 3.382030725479125977e+00 -5.313503146171569824e-01 7.000000000000000000e+00
3.517247200012207031e+00 4.404402732849121094e+00 -4.931271970272064209e-01 8.000000000000000000e+00
5.083473682403563565e+00 6.361123561859130859e+00 -4.267473816871643066e-01 2.000000000000000000e+00
8.435290336608886719e+00 1.054781341552734020e+01 -2.357470989227294922e-01 2.000000000000000000e+00
1.398425817489624023e+00 1.743648886680603027e+00 -5.989072918891906738e-01 2.000000000000000000e+01
1.605207085609436035e+00 2.000046491622924805e+00 -5.920711755752563477e-01 1.300000000000000000e+01
1.836296558380126953e+00 2.287160396575928178e+00 -5.701372623443603516e-01 1.200000000000000000e+01
2.194865703582764116e+00 2.731814622879027876e+00 -5.550295114517211914e-01 9.000000000000000000e+00
2.719091892242432085e+00 3.381868362426757812e+00 -5.328127741813659668e-01 7.000000000000000000e+00
3.530102491378784180e+00 4.388993263244628906e+00 -4.927785694599152166e-01 8.000000000000000000e+00
5.105647563934326172e+00 6.343340396881104404e+00 -4.267473816871643066e-01 2.000000000000000000e+00
8.457004547119140625e+00 1.049961662292479936e+01 -2.353282421827316007e-01 2.000000000000000000e+00
4.460096359252929688e+01 5.535361099243164062e+01 1.904752922058105113e+01 4.200000000000000000e+01
1.399648070335387962e+00 1.732745647430419922e+00 -5.968367457389831543e-01 2.000000000000000000e+01
1.609728574752808061e+00 1.991400122642517090e+00 -5.911713838577270508e-01 1.400000000000000000e+01
1.855379104614258035e+00 2.294475793838500977e+00 -5.735718607902526855e-01 1.200000000000000000e+01
2.201902866363524947e+00 2.721065282821654829e+00 -5.544037222862243652e-01 9.000000000000000000e+00
2.738375902175902876e+00 3.381612539291381836e+00 -5.342751741409301758e-01 7.000000000000000000e+00
3.539130926132202148e+00 4.368903160095214844e+00 -4.919070005416870117e-01 9.000000000000000000e+00
5.145366668701171875e+00 6.347200870513916016e+00 -4.282127916812896729e-01 2.000000000000000000e+00
8.493603706359863281e+00 1.047003173828125000e+01 -2.353282421827316007e-01 2.000000000000000000e+00
1.410564541816710982e+00 1.733843684196471946e+00 -5.989072918891906738e-01 1.800000000000000000e+01
1.612979054450988992e+00 1.981235265731811968e+00 -5.898216366767883301e-01 1.500000000000000000e+01
1.857178211212157981e+00 2.280374050140380859e+00 -5.716637372970581055e-01 1.200000000000000000e+01
2.206395864486693892e+00 2.707237482070922852e+00 -5.531522631645202637e-01 1.000000000000000000e+01
2.746399402618408203e+00 3.367418289184569868e+00 -5.335440039634704590e-01 9.000000000000000000e+00
3.558138132095336914e+00 4.361154079437255859e+00 -4.924299418926239014e-01 9.000000000000000000e+00
5.151070594787597656e+00 6.309089183807373047e+00 -4.268520474433898926e-01 3.000000000000000000e+00
8.535160064697265625e+00 1.044651412963867010e+01 -2.354678660631180087e-01 2.000000000000000000e+00
1.422427058219909890e+00 1.736629128456115945e+00 -6.014954447746276855e-01 1.600000000000000000e+01
1.615834116935729980e+00 1.971354007720947044e+00 -5.884719491004943848e-01 1.400000000000000000e+01
1.870954036712646040e+00 2.281793594360352007e+00 -5.735718607902526855e-01 1.200000000000000000e+01
2.220373392105102983e+00 2.706014394760131836e+00 -5.544037222862243652e-01 1.100000000000000000e+01
2.744953632354735884e+00 3.342950582504272017e+00 -5.311065912246704102e-01 9.000000000000000000e+00
3.578903913497924805e+00 4.357028961181640625e+00 -4.933015108108521063e-01 8.000000000000000000e+00
5.180841922760009766e+00 6.302772998809813565e+00 -4.275847673416138250e-01 3.000000000000000000e+00
8.557051658630371094e+00 1.040270996093750000e+01 -2.351188212633132935e-01 2.000000000000000000e+00
1.422333717346190962e+00 1.724202156066894975e+00 -5.989072918891906738e-01 1.700000000000000000e+01
1.628908634185791016e+00 1.973215818405150923e+00 -5.907214879989624023e-01 1.500000000000000000e+01
1.876407384872436968e+00 2.272221326828002930e+00 -5.728086233139038086e-01 1.200000000000000000e+01
2.233580827713013139e+00 2.702815532684326172e+00 -5.553423762321472168e-01 1.000000000000000000e+01
2.769256830215454102e+00 3.348646163940430132e+00 -5.335440039634704590e-01 9.000000000000000000e+00
3.594090938568114790e+00 4.344509601593017578e+00 -4.933015108108521063e-01 9.000000000000000000e+00
5.205358505249023438e+00 6.287727355957031250e+00 -4.277940988540648859e-01 2.000000000000000000e+00
8.572899818420410156e+00 1.034813785552979049e+01 -2.345603406429291049e-01 2.000000000000000000e+00
1.422170996665955034e+00 1.711797118186950906e+00 -5.963190793991088867e-01 1.600000000000000000e+01
1.634540677070617898e+00 1.966019392013550027e+00 -5.902715921401977539e-01 1.400000000000000000e+01
1.879305958747863992e+00 2.259619712829589844e+00 -5.712821483612060547e-01 1.200000000000000000e+01
2.245529174804687944e+00 2.698039054870605025e+00 -5.559681057929992676e-01 1.000000000000000000e+01
2.778388023376464844e+00 3.335908651351929155e+00 -5.330564975738525391e-01 9.000000000000000000e+00
3.599031448364257812e+00 4.319691658020020419e+00 -4.919070005416870117e-01 9.000000000000000000e+00
5.219600677490234375e+00 6.260314464569091797e+00 -4.271660745143889826e-01 2.000000000000000000e+00
8.598720550537109375e+00 1.030586624145507990e+01 -2.342811077833175937e-01 2.000000000000000000e+00
1.430616974830626997e+00 1.709785580635071023e+00 -5.973543524742126465e-01 1.600000000000000000e+01
1.641393423080443892e+00 1.960301756858825906e+00 -5.902715921401977539e-01 1.400000000000000000e+01
1.894745945930480957e+00 2.262076377868651900e+00 -5.735718607902526855e-01 1.200000000000000000e+01
2.246050596237183061e+00 2.679586887359619141e+00 -5.537779927253723145e-01 9.000000000000000000e+00
2.795118570327758789e+00 3.332273483276367188e+00 -5.340314507484436035e-01 1.000000000000000000e+01
3.624333620071411133e+00 4.319312572479248047e+00 -4.933015108108521063e-01 9.000000000000000000e+00
5.220871925354003906e+00 6.217584133148193359e+00 -4.254913330078125000e-01 2.000000000000000000e+00
8.662944793701171875e+00 1.030947017669677912e+01 -2.350490093231200894e-01 2.000000000000000000e+00
1.441257476806641069e+00 1.710942029953002930e+00 -5.994248986244201660e-01 1.600000000000000000e+01
1.645372986793518066e+00 1.951868057250977007e+00 -5.893717408180236816e-01 1.300000000000000000e+01
1.904768109321594016e+00 2.258782386779785156e+00 -5.743350982666015625e-01 1.200000000000000000e+01
2.252376079559326172e+00 2.669104814529418945e+00 -5.531522631645202637e-01 9.000000000000000000e+00
2.808714866638184038e+00 3.326019525527954102e+00 -5.345189571380615234e-01 1.000000000000000000e+01
3.636065483093262163e+00 4.304225921630859375e+00 -4.929528832435607910e-01 9.000000000000000000e+00
5.232435703277587891e+00 6.189559936523438388e+00 -4.247586131095886230e-01 3.000000000000000000e+00
8.689334869384765625e+00 1.027152538299561080e+01 -2.348395884037018100e-01 2.000000000000000000e+00
1.449720501899719016e+00 1.708847045898437944e+00 -6.004601716995239258e-01 1.600000000000000000e+01
1.652176260948180930e+00 1.946112751960753950e+00 -5.893717408180236816e-01 1.200000000000000000e+01
1.910099387168884055e+00 2.249126911163330078e+00 -5.735718607902526855e-01 1.200000000000000000e+01
2.266796350479125977e+00 2.667247056961060014e+00 -5.544037222862243652e-01 9.000000000000000000e+00
2.807447195053101030e+00 3.301073312759398970e+00 -5.320815443992614746e-01 9.000000000000000000e+00
3.653650045394897017e+00 4.294542312622070312e+00 -4.933015108108521063e-01 9.000000000000000000e+00
5.260483264923095703e+00 6.178861618041992188e+00 -4.252819716930388849e-01 3.000000000000000000e+00
8.748479843139648438e+00 1.026853084564208984e+01 -2.354678660631180087e-01 2.000000000000000000e+00
1.449402213096619096e+00 1.696432232856750044e+00 -5.978720188140869141e-01 1.800000000000000000e+01
1.661492109298706055e+00 1.943296074867248979e+00 -5.902715921401977539e-01 1.300000000000000000e+01
1.914110422134398970e+00 2.237969636917113814e+00 -5.724269747734069824e-01 1.100000000000000000e+01
2.286368608474731001e+00 2.671324253082274947e+00 -5.569067001342773438e-01 9.000000000000000000e+00
2.817661762237548828e+00 3.289745807647705078e+00 -5.318378210067749023e-01 1.000000000000000000e+01
3.672507524490356001e+00 4.286301612854003906e+00 -4.938244521617888849e-01 9.000000000000000000e+00
5.271618843078613281e+00 6.148331642150878906e+00 -4.244446158409119207e-01 2.000000000000000000e+00
8.729579925537109375e+00 1.017418956756591975e+01 -2.340018600225448886e-01 2.000000000000000000e+00
1.457835078239440918e+00 1.694291353225708008e+00 -5.989072918891906738e-01 1.700000000000000000e+01
1.670808434486388938e+00 1.940438032150268999e+00 -5.911713838577270508e-01 1.100000000000000000e+01
1.925754547119141069e+00 2.235737085342406782e+00 -5.735718607902526855e-01 1.200000000000000000e+01
2.293100118637084961e+00 2.660334587097167969e+00 -5.562809705734252930e-01 9.000000000000000000e+00
2.830424547195435014e+00 3.281393289566040039e+00 -5.320815443992614746e-01 9.000000000000000000e+00
3.682240724563599077e+00 4.267422199249267578e+00 -4.931271970272064209e-01 8.000000000000000000e+00
5.298269748687744141e+00 6.135939121246337891e+00 -4.248632788658142090e-01 2.000000000000000000e+00
8.767656326293945312e+00 1.014668178558349965e+01 -2.340716719627380094e-01 2.000000000000000000e+00
1.466270565986633079e+00 1.692112207412719949e+00 -5.999425649642944336e-01 1.800000000000000000e+01
1.675018310546875000e+00 1.931649327278136985e+00 -5.902715921401977539e-01 1.200000000000000000e+01
1.933547019958496094e+00 2.229001522064208984e+00 -5.735718607902526855e-01 1.200000000000000000e+01
2.294602870941162109e+00 2.643363475799560991e+00 -5.544037222862243652e-01 9.000000000000000000e+00
2.854879617691040039e+00 3.286479473114014116e+00 -5.345189571380615234e-01 9.000000000000000000e+00
3.691886901855469194e+00 4.248527526855468750e+00 -4.924299418926239014e-01 9.000000000000000000e+00
5.306550025939941406e+00 6.102336406707763672e+00 -4.238165616989135742e-01 2.000000000000000000e+00
8.800395965576171875e+00 1.011299800872802912e+01 -2.340018600225448886e-01 2.000000000000000000e+00
3.640287399291992188e+01 4.183246231079102273e+01 1.485880184173583984e+01 1.900000000000000000e+01
1.474708557128906028e+00 1.689894676208496094e+00 -6.009778380393981934e-01 1.700000000000000000e+01
1.676623463630676047e+00 1.919919371604918990e+00 -5.884719491004943848e-01 1.100000000000000000e+01
1.949065685272217019e+00 2.231109619140625000e+00 -5.758615732192993164e-01 1.300000000000000000e+01
2.309016466140747070e+00 2.641286611557006836e+00 -5.556552410125732422e-01 9.000000000000000000e+00
2.858491897583007812e+00 3.267529726028441939e+00 -5.330564975738525391e-01 9.000000000000000000e+00
3.718503475189208984e+00 4.249108314514160156e+00 -4.939987361431121826e-01 8.000000000000000000e+00
5.330450534820556641e+00 6.086781024932861328e+00 -4.240259230136870783e-01 2.000000000000000000e+00
8.846187591552734375e+00 1.009424877166748047e+01 -2.342811077833175937e-01 2.000000000000000000e+00
3.655595397949218750e+01 4.169875717163085938e+01 1.485880184173583984e+01 1.900000000000000000e+01
1.485699534416198953e+00 1.690541148185729980e+00 -6.030483841896057129e-01 1.800000000000000000e+01
1.685888886451720969e+00 1.916981816291809082e+00 -5.893717408180236816e-01 8.000000000000000000e+00
1.946467518806457964e+00 2.212500572204589844e+00 -5.728086233139038086e-01 1.200000000000000000e+01
2.314306259155272993e+00 2.628762483596802202e+00 -5.547165870666503906e-01 9.000000000000000000e+00
2.867255926132202148e+00 3.254552841186522993e+00 -5.325690507888793945e-01 1.000000000000000000e+01
3.725409030914307085e+00 4.227134227752686435e+00 -4.929528832435607910e-01 8.000000000000000000e+00
5.372802257537841797e+00 6.092103958129882812e+00 -4.257006645202637274e-01 2.000000000000000000e+00
8.852257728576660156e+00 1.003032398223876953e+01 -2.335131913423537930e-01 2.000000000000000000e+00
1.486470222473144975e+00 1.679558277130126953e+00 -6.009778380393981934e-01 1.700000000000000000e+01
1.699030399322509988e+00 1.918379545211791992e+00 -5.916212797164916992e-01 8.000000000000000000e+00
1.952876925468445046e+00 2.204223155975341797e+00 -5.724269747734069824e-01 1.100000000000000000e+01
2.332641601562500000e+00 2.631014823913574219e+00 -5.569067001342773438e-01 9.000000000000000000e+00
2.886503458023070845e+00 3.253433942794799805e+00 -5.340314507484436035e-01 9.000000000000000000e+00
3.753367185592650923e+00 4.229005336761474609e+00 -4.946959912776947021e-01 6.000000000000000000e+00
5.391382217407226562e+00 6.070325851440429688e+00 -4.254913330078125000e-01 2.000000000000000000e+00
8.908471107482910156e+00 1.002327728271484020e+01 -2.340716719627380094e-01 2.000000000000000000e+00
1.477895259857177956e+00 1.658753395080565962e+00 -5.952838063240051270e-01 1.500000000000000000e+01
1.705382585525512917e+00 1.912734866142272949e+00 -5.916212797164916992e-01 6.000000000000000000e+00
1.965402722358704057e+00 2.203595638275146040e+00 -5.739534497261047363e-01 1.300000000000000000e+01
2.341353416442871094e+00 2.623265027999877930e+00 -5.569067001342773438e-01 9.000000000000000000e+00
2.894631624221802202e+00 3.240882873535155806e+00 -5.335440039634704590e-01 9.000000000000000000e+00
3.750113248825072798e+00 4.197220802307128906e+00 -4.924299418926239014e-01 6.000000000000000000e+00
5.416807651519775391e+00 6.058369636535645419e+00 -4.259100258350371759e-01 2.000000000000000000e+00
8.960328102111816406e+00 1.001454448699950994e+01 -2.345603406429291049e-01 2.000000000000000000e+00
3.698339843750000000e+01 4.132011795043945312e+01 1.485880184173583984e+01 1.900000000000000000e+01
1.490127205848694070e+00 1.660773873329163042e+00 -5.978720188140869141e-01 1.700000000000000000e+01
1.712048888206481934e+00 1.906770229339600053e+00 -5.916212797164916992e-01 7.000000000000000000e+00
1.973082780838012917e+00 2.196721553802489790e+00 -5.739534497261047363e-01 1.300000000000000000e+01
2.350496053695679155e+00 2.615076065063477007e+00 -5.569067001342773438e-01 9.000000000000000000e+00
2.911237001419066939e+00 3.236662626266479048e+00 -5.345189571380615234e-01 9.000000000000000000e+00
3.784731149673461914e+00 4.206321716308593750e+00 -4.950446188449860174e-01 6.000000000000000000e+00
5.427230834960938388e+00 6.027550220489501953e+00 -4.250726401805878241e-01 2.000000000000000000e+00
8.981844902038574219e+00 9.968350410461425781e+00 -2.342112958431243896e-01 2.000000000000000000e+00
1.501096010208130105e+00 1.661295771598815918e+00 -5.999425649642944336e-01 1.800000000000000000e+01
1.706931471824645996e+00 1.887773275375365989e+00 -5.875721573829650879e-01 9.000000000000000000e+00
1.983372688293457031e+00 2.192732810974121094e+00 -5.747166872024536133e-01 1.200000000000000000e+01
2.354307651519774947e+00 2.600997209548950195e+00 -5.556552410125732422e-01 9.000000000000000000e+00
2.922517299652100053e+00 3.226480722427368164e+00 -5.345189571380615234e-01 9.000000000000000000e+00
3.787350654602050781e+00 4.179796695709229404e+00 -4.934758245944976807e-01 8.000000000000000000e+00
5.448237895965576172e+00 6.008569240570068359e+00 -4.250726401805878241e-01 2.000000000000000000e+00
9.019273757934570312e+00 9.939898490905761719e+00 -2.342811077833175937e-01 2.000000000000000000e+00
1.508185982704163042e+00 1.657474756240844949e+00 -6.004601716995239258e-01 1.600000000000000000e+01
