-5.227127671241760254e-02 -1.710852742195128950e+00 -8.970382809638977051e-02 6.600000000000000000e+01
-4.967681691050528786e-02 -1.616691231727600098e+00 3.734187483787537176e-01 9.200000000000000000e+01
-5.213001370429992676e-02 -1.686937689781188965e+00 -2.945966273546218872e-02 8.000000000000000000e+01
-4.940667748451232910e-02 -1.598809957504272017e+00 4.286043345928192139e-01 9.700000000000000000e+01
-2.301302738487720143e-02 -7.124816775321960449e-01 -1.910084486007689875e-01 7.000000000000000000e+00
-5.432545021176338196e-02 -1.672863125801085982e+00 2.921532839536666870e-02 7.800000000000000000e+01
-5.869451165199279785e-02 -1.797729253768920898e+00 -4.152596592903137207e-01 4.800000000000000000e+01
-5.477696657180786133e-02 -1.668809771537780984e+00 8.750572055578231812e-02 7.700000000000000000e+01
-5.835284665226936340e-02 -1.777750968933105025e+00 -3.457458913326262873e-01 6.800000000000000000e+01
-5.453969538211823204e-02 -1.652783632278441939e+00 1.446785330772399902e-01 8.400000000000000000e+01
-5.828962847590445778e-02 -1.757118701934814009e+00 -2.784533500671387274e-01 8.100000000000000000e+01
-5.603951960802078247e-02 -1.680438995361327903e+00 2.064466625452041904e-01 8.500000000000000000e+01
-5.846108868718147278e-02 -1.743916511535644975e+00 -2.142463028430938998e-01 4.200000000000000000e+01
-5.408701300621032715e-02 -1.605070233345031960e+00 2.543624341487885077e-01 6.000000000000000000e+01
-5.737106129527091980e-02 -1.702526569366455078e+00 -1.490363180637359897e-01 8.600000000000000000e+01
-5.416643992066382668e-02 -1.599135160446166992e+00 3.110186755657196045e-01 9.600000000000000000e+01
-5.763129517436028221e-02 -1.692694902420043945e+00 -8.876178413629531860e-02 6.900000000000000000e+01
-5.545312166213989258e-02 -1.620403170585632102e+00 3.743185400962830145e-01 9.400000000000000000e+01
-5.822443589568138123e-02 -1.692740917205810991e+00 -2.956437692046165119e-02 8.200000000000000000e+01
-5.553326755762100220e-02 -1.606340885162353960e+00 4.306748807430266779e-01 9.700000000000000000e+01
-2.549991384148598064e-02 -7.123970389366149902e-01 -1.910084486007689875e-01 7.000000000000000000e+00
-6.045202538371086121e-02 -1.680656909942626953e+00 2.935494855046271931e-02 7.500000000000000000e+01
-6.468784064054489136e-02 -1.789723515510559082e+00 -4.134600460529326837e-01 1.900000000000000000e+01
-6.023941189050673745e-02 -1.658628702163696067e+00 8.698236197233200073e-02 7.300000000000000000e+01
-6.491427868604660034e-02 -1.787346363067626953e+00 -3.476539850234984796e-01 6.400000000000000000e+01
-6.059930101037024758e-02 -1.660547375679015891e+00 1.453757733106612882e-01 8.000000000000000000e+01
-6.442276388406753540e-02 -1.756904482841491921e+00 -2.784533500671387274e-01 7.500000000000000000e+01
-6.161265820264816284e-02 -1.672298192977905051e+00 2.054717093706130981e-01 8.200000000000000000e+01
-6.660427898168563843e-02 -1.799246311187743919e+00 -2.210709899663924893e-01 3.700000000000000000e+01
-5.999391525983809731e-02 -1.620674252510071023e+00 2.568653821945189875e-01 5.900000000000000000e+01
-6.353579461574554443e-02 -1.708289027214050071e+00 -1.495592594146729071e-01 7.900000000000000000e+01
-5.945489183068274758e-02 -1.591088891029357910e+00 3.094922006130219061e-01 8.600000000000000000e+01
-6.316491216421127319e-02 -1.682504177093506081e+00 -8.823842555284500122e-02 7.500000000000000000e+01
-6.066835299134253762e-02 -1.608515620231627974e+00 3.716191351413726807e-01 9.400000000000000000e+01
-6.443572044372558594e-02 -1.700520396232604980e+00 -2.970399521291255951e-02 8.200000000000000000e+01
-6.100607663393021324e-02 -1.610008835792541948e+00 4.317101538181304932e-01 9.700000000000000000e+01
-2.859324030578136097e-02 -7.277465462684631348e-01 -1.951495558023453036e-01 7.000000000000000000e+00
-6.647595763206481934e-02 -1.684432029724121094e+00 2.942475676536560059e-02 7.700000000000000000e+01
-3.643221035599709251e-02 -9.190835356712341309e-01 -2.123537957668303888e-01 3.000000000000000000e+00
-6.586983054876327515e-02 -1.654417037963866965e+00 8.677301555871963501e-02 7.300000000000000000e+01
-7.107478380203247070e-02 -1.785147070884705034e+00 -3.472723662853240967e-01 5.200000000000000000e+01
-6.663415580987930298e-02 -1.666298151016234907e+00 1.458987146615982056e-01 7.600000000000000000e+01
-7.071366161108016968e-02 -1.760616540908813032e+00 -2.790790796279907227e-01 6.400000000000000000e+01
-6.728966534137725830e-02 -1.668105959892272949e+00 2.049842327833175937e-01 8.500000000000000000e+01
-7.304512709379196167e-02 -1.802969813346863015e+00 -2.215584665536879938e-01 1.200000000000000000e+01
-6.581068783998489380e-02 -1.624402403831481934e+00 2.574911415576934814e-01 5.900000000000000000e+01
-7.006544619798660278e-02 -1.721992015838623047e+00 -1.507794409990310947e-01 5.600000000000000000e+01
-6.589020788669586182e-02 -1.612449407577515093e+00 3.136899769306182861e-01 8.600000000000000000e+01
-6.928324699401855469e-02 -1.688260197639465110e+00 -8.855243772268295288e-02 7.200000000000000000e+01
-6.612226366996765137e-02 -1.604399919509887917e+00 3.707193434238433838e-01 9.200000000000000000e+01
-6.995778530836105347e-02 -1.690295219421386941e+00 -2.952947095036507000e-02 8.000000000000000000e+01
-6.678545475006103516e-02 -1.613646507263184038e+00 4.327454566955565851e-01 1.000000000000000000e+02
-3.096821159124374043e-02 -7.237821817398071289e-01 -1.941142827272414884e-01 7.000000000000000000e+00
-7.269863784313201904e-02 -1.692181110382080078e+00 2.956437692046165119e-02 7.500000000000000000e+01
-3.703670203685759804e-02 -8.585959672927856445e-01 -1.984068304300307950e-01 1.000000000000000000e+01
-7.199010998010635376e-02 -1.662158489227294922e+00 8.719170093536376953e-02 7.100000000000000000e+01
-7.688092440366744995e-02 -1.775081038475037065e+00 -3.453642725944519043e-01 2.400000000000000000e+01
-7.270989567041397095e-02 -1.672026872634887917e+00 1.464216411113739014e-01 7.300000000000000000e+01
-7.772057503461837769e-02 -1.780093908309936968e+00 -2.822077870368958075e-01 3.900000000000000000e+01
-7.363364100456237793e-02 -1.679760098457335982e+00 2.064466625452041904e-01 7.900000000000000000e+01
-3.120287656784058172e-01 -7.089841842651367188e+00 -8.713657855987548828e-01 1.000000000000000000e+00
-7.176397740840911865e-02 -1.624150276184082031e+00 2.574911415576934814e-01 6.100000000000000000e+01
-7.686743885278701782e-02 -1.739650964736938032e+00 -1.523482352495192926e-01 1.400000000000000000e+01
-7.204033434391021729e-02 -1.623977541923522949e+00 3.159796893596649170e-01 8.600000000000000000e+01
-7.597569376230239868e-02 -1.705965518951416016e+00 -8.949448168277740479e-02 6.000000000000000000e+01
-7.198338210582733154e-02 -1.609999656677246094e+00 3.720690310001372736e-01 8.700000000000000000e+01
-7.567825913429260254e-02 -1.686045408248900923e+00 -2.945966273546218872e-02 8.000000000000000000e+01
-7.241772860288619995e-02 -1.613403558731079102e+00 4.327454566955565851e-01 1.000000000000000000e+02
-3.331585600972176292e-02 -7.198100686073303223e-01 -1.930790096521378119e-01 7.000000000000000000e+00
-7.823379337787628174e-02 -1.683926820755005105e+00 2.942475676536560059e-02 7.500000000000000000e+01
-4.057820886373519897e-02 -8.701412081718444824e-01 -2.011062353849411011e-01 2.900000000000000000e+01
-7.835201174020767212e-02 -1.673867583274841087e+00 8.781973272562026978e-02 6.800000000000000000e+01
-1.809326708316802979e-01 -3.865342140197753906e+00 -7.521690726280212402e-01 9.000000000000000000e+00
-7.798486948013305664e-02 -1.659821748733520952e+00 1.453757733106612882e-01 7.200000000000000000e+01
-8.356157690286636353e-02 -1.771919012069701926e+00 -2.809562981128693182e-01 7.000000000000000000e+00
-8.024750649929046631e-02 -1.695355772972106934e+00 2.083965837955475131e-01 7.200000000000000000e+01
-3.375286459922791082e-01 -7.104572296142578125e+00 -8.733156919479370117e-01 1.000000000000000000e+00
-7.780922949314117432e-02 -1.631782412528991921e+00 2.587426006793975830e-01 6.100000000000000000e+01
-7.780248671770095825e-02 -1.625677227973937988e+00 3.163613080978394110e-01 8.800000000000000000e+01
-8.557150512933731079e-02 -1.781498432159424050e+00 -9.347201883792877197e-02 3.700000000000000000e+01
-7.741522043943405151e-02 -1.605845689773560014e+00 3.711692392826079767e-01 8.500000000000000000e+01
-8.146655559539794922e-02 -1.683773517608643022e+00 -2.942475676536560059e-02 7.100000000000000000e+01
-7.795587182044982910e-02 -1.605409026145935059e+00 4.306748807430266779e-01 8.800000000000000000e+01
-3.544404357671737671e-02 -7.119715809822082520e-01 -1.910084486007689875e-01 7.000000000000000000e+00
-8.411131799221038818e-02 -1.683643460273742898e+00 2.942475676536560059e-02 7.500000000000000000e+01
-1.636306345462799072e-01 -3.263938188552856001e+00 -7.544858455657958984e-01 2.000000000000000000e+00
-8.509758114814758301e-02 -1.691536545753479004e+00 8.876178413629531860e-02 6.600000000000000000e+01
-1.942268460988998136e-01 -3.860765457153319868e+00 -7.514058351516723633e-01 1.000000000000000000e+01
-8.448143303394317627e-02 -1.673468351364135964e+00 1.465959548950195035e-01 6.900000000000000000e+01
-2.495504617691040039e-01 -4.926198959350585938e+00 -7.812337279319763184e-01 9.000000000000000000e+00
-8.566102385520935059e-02 -1.685152649879456010e+00 2.071778774261474887e-01 6.700000000000000000e+01
-3.627306818962097168e-01 -7.111280918121337891e+00 -8.742906451225280762e-01 1.000000000000000000e+00
-8.390863239765167236e-02 -1.639392137527466042e+00 2.599940896034240723e-01 5.900000000000000000e+01
-8.267112076282501221e-02 -1.609710335731505904e+00 3.133083581924437921e-01 8.500000000000000000e+01
-9.353696554899215698e-02 -1.815097212791443093e+00 -9.525144100189208984e-02 4.200000000000000000e+01
-8.442902565002441406e-02 -1.632811665534972922e+00 3.774678707122802734e-01 8.100000000000000000e+01
-8.900129050016403198e-02 -1.715431094169616921e+00 -2.998323366045951843e-02 5.000000000000000000e+01
-8.307898044586181641e-02 -1.601283192634582964e+00 4.296396076679229736e-01 7.800000000000000000e+01
-3.792907297611237266e-02 -7.118434906005859375e-01 -1.910084486007689875e-01 7.000000000000000000e+00
-9.020131826400756836e-02 -1.687333345413208008e+00 2.949456684291363109e-02 6.300000000000000000e+01
-1.719962805509566983e-01 -3.206914663314818892e+00 -7.414386868476867676e-01 7.000000000000000000e+00
-9.046506136655807495e-02 -1.681257247924804910e+00 8.823842555284500122e-02 6.300000000000000000e+01
-2.087571024894714078e-01 -3.879667997360229048e+00 -7.552220225334167480e-01 9.000000000000000000e+00
-9.042981266975402832e-02 -1.675152778625488059e+00 1.467702686786651889e-01 6.100000000000000000e+01
-2.675991952419281006e-01 -4.941077709197998047e+00 -7.837366461753845215e-01 9.000000000000000000e+00
-9.089659899473190308e-02 -1.672950387001038042e+00 2.057154476642608920e-01 6.300000000000000000e+01
-3.871192932128906250e-01 -7.102043151855468750e+00 -8.733156919479370117e-01 1.000000000000000000e+00
-9.081710875034332275e-02 -1.660785913467407005e+00 2.634356319904326837e-01 5.200000000000000000e+01
-8.828955888748168945e-02 -1.609411954879760964e+00 3.133083581924437921e-01 7.700000000000000000e+01
-8.991324156522750854e-02 -1.628615379333496094e+00 3.765680789947509766e-01 8.300000000000000000e+01
-9.852730482816696167e-02 -1.779002308845520020e+00 -3.110018745064735066e-02 4.100000000000000000e+01
-8.952262997627258301e-02 -1.616414546966552956e+00 4.337807297706604004e-01 8.000000000000000000e+01
-4.150885716080666282e-02 -7.309942245483398438e-01 -1.961848288774490079e-01 7.000000000000000000e+00
-9.734154492616653442e-02 -1.708969235420227051e+00 2.987851947546004902e-02 4.200000000000000000e+01
-1.839675605297088901e-01 -3.219913721084595171e+00 -7.445880174636840820e-01 9.000000000000000000e+00
-9.581196308135986328e-02 -1.676959991455077903e+00 8.802907913923263550e-02 5.200000000000000000e+01
-2.217367589473724088e-01 -3.869115591049193892e+00 -7.533138990402221680e-01 8.000000000000000000e+00
-9.776309132575988770e-02 -1.700685262680053933e+00 1.490363180637359897e-01 5.600000000000000000e+01
-2.846177220344542902e-01 -4.936169147491455078e+00 -7.831109166145324707e-01 9.000000000000000000e+00
-9.753803908824920654e-02 -1.686495304107666016e+00 2.074216157197951993e-01 5.900000000000000000e+01
-4.125974774360656738e-01 -7.112538814544677734e+00 -8.747781515121459961e-01 1.000000000000000000e+00
-9.643837809562683105e-02 -1.662447690963744895e+00 2.637484967708588202e-01 4.800000000000000000e+01
-9.470757842063903809e-02 -1.622813344001770020e+00 3.159796893596649170e-01 7.000000000000000000e+01
-1.468565464019774947e+00 -2.508856582641601918e+01 -1.317086696624756081e+00 1.100000000000000000e+01
-9.559761732816696167e-02 -1.628291606903075950e+00 3.765680789947509766e-01 8.000000000000000000e+01
-1.057945266366004944e-01 -1.796613693237304910e+00 -3.141433000564575195e-02 4.800000000000000000e+01
-9.584578871726989746e-02 -1.627663254737854004e+00 4.368865489959716797e-01 8.200000000000000000e+01
-4.220018908381462097e-02 -6.999912261962890625e-01 -1.879026293754577914e-01 7.000000000000000000e+00
-1.055993810296058932e-01 -1.746544003486633079e+00 3.054171055555343975e-02 3.500000000000000000e+01
-1.953239887952805121e-01 -3.221197128295897993e+00 -7.450379133224487305e-01 1.000000000000000000e+01
-1.030487865209579051e-01 -1.694539785385132058e+00 8.897112309932708740e-02 4.300000000000000000e+01
-2.361945062875747958e-01 -3.883995056152344194e+00 -7.563668489456176758e-01 8.000000000000000000e+00
-1.038202792406082015e-01 -1.702322363853455034e+00 1.492106318473815918e-01 5.300000000000000000e+01
-3.030523657798767090e-01 -4.954862594604492188e+00 -7.862396240234375000e-01 9.000000000000000000e+00
-1.048828065395354947e-01 -1.709921002388000044e+00 2.103464901447295865e-01 5.600000000000000000e+01
-4.374223351478577215e-01 -7.111055374145507812e+00 -8.747781515121459961e-01 1.000000000000000000e+00
-1.030174121260643005e-01 -1.669969558715820090e+00 2.649999856948853094e-01 4.900000000000000000e+01
-1.008565649390221058e-01 -1.630310893058777078e+00 3.175061643123627264e-01 5.700000000000000000e+01
-1.564788818359375000e+00 -2.522282791137694957e+01 -1.324413657188415971e+00 1.100000000000000000e+01
-1.017648577690125067e-01 -1.635727882385253906e+00 3.783676624298096258e-01 7.800000000000000000e+01
-1.125632971525191983e-01 -1.804216742515563965e+00 -3.155395016074181297e-02 4.200000000000000000e+01
-1.018108353018760959e-01 -1.627301096916198953e+00 4.368865489959716797e-01 8.000000000000000000e+01
-4.661110788583754799e-02 -7.306866049766540527e-01 -1.961848288774490079e-01 7.000000000000000000e+00
-1.136100888252258023e-01 -1.776098966598510964e+00 3.106528334319591869e-02 4.800000000000000000e+01
-2.074400484561919888e-01 -3.234108924865723100e+00 -7.481871843338012695e-01 9.000000000000000000e+00
-1.105851754546165050e-01 -1.724086165428162065e+00 9.054120630025863647e-02 3.200000000000000000e+01
-2.494987100362777988e-01 -3.879228591918944868e+00 -7.556036114692687988e-01 6.000000000000000000e+00
-1.089925020933150968e-01 -1.690020084381103960e+00 1.481647640466690063e-01 4.800000000000000000e+01
-3.193264305591583252e-01 -4.938004493713378906e+00 -7.837366461753845215e-01 9.000000000000000000e+00
-1.117500439286231995e-01 -1.723411083221435991e+00 2.120526582002640048e-01 4.900000000000000000e+01
-4.606963694095612127e-01 -7.085714340209960938e+00 -8.718532919883728027e-01 1.000000000000000000e+00
-1.098741218447684964e-01 -1.685369372367859109e+00 2.675029337406157892e-01 4.300000000000000000e+01
-1.071871072053909024e-01 -1.639744281768799050e+00 3.194142580032349188e-01 5.100000000000000000e+01
-1.653345823287964089e+00 -2.522518348693848012e+01 -1.324832439422606978e+00 1.100000000000000000e+01
-1.079851612448692044e-01 -1.643140912055969016e+00 3.801672756671906073e-01 7.200000000000000000e+01
-1.065714880824089050e-01 -1.617316126823425071e+00 4.342983663082122803e-01 7.300000000000000000e+01
-4.786426201462745667e-02 -7.112445235252380371e-01 -1.910084486007689875e-01 7.000000000000000000e+00
-1.188668236136436046e-01 -1.761725544929503950e+00 3.082094900310039867e-02 3.700000000000000000e+01
-2.180702984333038053e-01 -3.223643541336060014e+00 -7.459377050399780273e-01 8.000000000000000000e+00
-1.194335073232651034e-01 -1.765536427497863992e+00 9.273931384086608887e-02 4.000000000000000000e+01
-2.630382180213928223e-01 -3.878334045410155806e+00 -7.556036114692687988e-01 5.000000000000000000e+00
-1.166482642292975963e-01 -1.715470671653748003e+00 1.504308134317398071e-01 3.800000000000000000e+01
-3.362926244735717773e-01 -4.932918071746826172e+00 -7.831109166145324707e-01 9.000000000000000000e+00
-1.179005578160285950e-01 -1.724990963935852051e+00 2.122963964939116877e-01 4.000000000000000000e+01
-4.875986576080322266e-01 -7.115750312805175781e+00 -8.757531046867370605e-01 1.000000000000000000e+00
-1.167042031884193004e-01 -1.698770642280579057e+00 2.696930170059204102e-01 3.900000000000000000e+01
-1.142592132091521939e-01 -1.658946275711060014e+00 3.232304453849791925e-01 3.200000000000000000e+01
-1.741938471794127974e+00 -2.522722816467285156e+01 -1.325251102447509988e+00 1.100000000000000000e+01
-1.138547137379646024e-01 -1.644698023796081987e+00 3.806171715259552002e-01 6.500000000000000000e+01
-1.128850728273392001e-01 -1.626570343971251997e+00 4.368865489959716797e-01 6.900000000000000000e+01
-5.009846389293670654e-02 -7.110906243324279785e-01 -1.910084486007689875e-01 7.000000000000000000e+00
-2.273707687854767123e-01 -3.211279392242432085e+00 -7.432382702827453613e-01 7.000000000000000000e+00
-1.250047683715820035e-01 -1.761146187782288042e+00 9.252996742725372314e-02 2.800000000000000000e+01
-2.757770717144011896e-01 -3.885321855545043945e+00 -7.571300864219665527e-01 6.000000000000000000e+00
-1.241581439971923967e-01 -1.744906306266784890e+00 1.530454903841018954e-01 2.000000000000000000e+01
-3.503826856613159180e-01 -4.912133693695068359e+00 -7.799822688102722168e-01 9.000000000000000000e+00
-1.244518533349037032e-01 -1.740452289581299050e+00 2.142463028430938998e-01 3.400000000000000000e+01
-5.082478523254394531e-01 -7.090423107147216797e+00 -8.728282451629638672e-01 1.000000000000000000e+00
-1.232976168394089023e-01 -1.720090508460998979e+00 2.731345891952515204e-01 3.300000000000000000e+01
-1.229966580867767056e-01 -1.707533717155456987e+00 3.327708840370178223e-01 2.500000000000000000e+01
-1.820320367813109907e+00 -2.520967864990234020e+01 -1.324623107910156028e+00 1.100000000000000000e+01
-1.188804283738136014e-01 -1.642388582229614036e+00 3.801672756671906073e-01 6.100000000000000000e+01
-1.189790591597557068e-01 -1.635820865631103960e+00 4.394747316837310791e-01 7.300000000000000000e+01
-2.391565144062041959e-01 -3.218239784240723100e+00 -7.450379133224487305e-01 3.000000000000000000e+00
-2.883168458938599188e-01 -3.870630502700806108e+00 -7.544587850570678711e-01 7.000000000000000000e+00
-1.332151740789412897e-01 -1.784199357032776101e+00 1.565317213535309115e-01 1.000000000000000000e+00
-3.690013289451599121e-01 -4.930579185485839844e+00 -7.831109166145324707e-01 9.000000000000000000e+00
-1.320113390684128085e-01 -1.759802579879760964e+00 2.166836857795715054e-01 7.000000000000000000e+00
-5.335903167724609375e-01 -7.096523761749267578e+00 -8.738031983375549316e-01 1.000000000000000000e+00
-1.312342435121535977e-01 -1.741294741630553977e+00 2.765761315822600763e-01 2.800000000000000000e+01
-1.311745941638947088e-01 -1.736459136009216087e+00 3.384951651096343994e-01 7.000000000000000000e+00
-1.909513831138611062e+00 -2.521910285949707031e+01 -1.325460433959960938e+00 1.100000000000000000e+01
-1.244652420282364030e-01 -1.640020489692687988e+00 3.797173798084259033e-01 6.500000000000000000e+01
-3.178495168685913086e+00 -4.178490066528320312e+01 -7.314652800559997559e-01 1.000000000000000000e+01
-1.254227310419082919e-01 -1.645026922225951926e+00 4.420629143714904785e-01 7.000000000000000000e+01
-2.525750398635864258e-01 -3.230897426605225053e+00 -7.481871843338012695e-01 1.000000000000000000e+00
-3.024100661277770996e-01 -3.859708786010742188e+00 -7.525506615638732910e-01 8.000000000000000000e+00
-3.880856037139893133e-01 -4.931095123291015625e+00 -7.834237813949584961e-01 7.000000000000000000e+00
-5.614607334136962891e-01 -7.102338314056395596e+00 -8.747781515121459961e-01 1.000000000000000000e+00
-1.387052386999129971e-01 -1.754586577415466087e+00 2.787662148475646973e-01 1.100000000000000000e+01
-2.000630140304564986e+00 -2.513991165161133168e+01 -1.321692228317260964e+00 1.100000000000000000e+01
-1.309164613485336026e-01 -1.641473054885864036e+00 3.801672756671906073e-01 6.100000000000000000e+01
-1.315839886665343961e-01 -1.642607450485229048e+00 4.415452778339385986e-01 7.300000000000000000e+01
-2.635340988636016846e-01 -3.226111412048339844e+00 -7.472873926162719727e-01 3.000000000000000000e+00
-3.162014782428740900e-01 -3.862543106079102007e+00 -7.533138990402221680e-01 8.000000000000000000e+00
-4.056197106838225763e-01 -4.933648109436035156e+00 -7.840495109558105469e-01 7.000000000000000000e+00
-5.875558853149414062e-01 -7.116161823272705078e+00 -8.767280578613281250e-01 1.000000000000000000e+00
-1.433661282062531073e-01 -1.736373662948607954e+00 2.759504020214080811e-01 1.000000000000000000e+00
-2.077456712722777876e+00 -2.500140762329101918e+01 -1.314783930778502974e+00 1.100000000000000000e+01
-1.376157402992249090e-01 -1.652658104896544966e+00 3.828666806221007746e-01 5.900000000000000000e+01
-1.373169571161269864e-01 -1.642138123512268066e+00 4.415452778339385986e-01 7.200000000000000000e+01
-2.734702229499816895e-01 -3.209638357162476030e+00 -7.436881661415100098e-01 6.000000000000000000e+00
-3.298493623733521063e-01 -3.863371849060059038e+00 -7.536955475807189941e-01 9.000000000000000000e+00
-4.214890301227570135e-01 -4.916456699371337891e+00 -7.815465927124023438e-01 9.000000000000000000e+00
-6.117113232612609863e-01 -7.106156826019287109e+00 -8.757531046867370605e-01 1.000000000000000000e+00
-2.167128086090087891e+00 -2.502186203002930043e+01 -1.316249251365662065e+00 1.100000000000000000e+01
-1.460795700550079068e-01 -1.683230757713318093e+00 3.900651335716248114e-01 5.800000000000000000e+01
-1.437659114599227905e-01 -1.653221368789673074e+00 4.446511268615723211e-01 7.300000000000000000e+01
-2.850167155265808105e-01 -3.212546348571776900e+00 -7.445880174636840820e-01 8.000000000000000000e+00
-3.442022502422332764e-01 -3.871974706649779829e+00 -7.556036114692687988e-01 9.000000000000000000e+00
-4.386481046676635742e-01 -4.914955615997313565e+00 -7.815465927124023438e-01 7.000000000000000000e+00
-6.372213363647460938e-01 -7.111886501312255859e+00 -8.767280578613281250e-01 1.000000000000000000e+00
-2.255533218383789062e+00 -2.502607917785644887e+01 -1.316877365112304910e+00 1.100000000000000000e+01
-1.533563733100891113e-01 -1.698237419128417969e+00 3.936643302440642755e-01 8.300000000000000000e+01
-1.503475606441498080e-01 -1.658455133438109907e+00 4.462040364742279053e-01 8.500000000000000000e+01
-2.960498631000518799e-01 -3.209591388702393022e+00 -7.441380620002746582e-01 8.000000000000000000e+00
-3.568125367164611816e-01 -3.860975027084351030e+00 -7.536955475807189941e-01 9.000000000000000000e+00
-4.563492238521575928e-01 -4.919295310974121094e+00 -7.824851870536804199e-01 9.000000000000000000e+00
-6.609382629394531250e-01 -7.097759723663330078e+00 -8.752655982971191406e-01 1.000000000000000000e+00
-2.349953174591064009e+00 -2.509361839294433949e+01 -1.320854902267456055e+00 1.100000000000000000e+01
-1.580091267824172974e-01 -1.684110164642333984e+00 3.905150294303894043e-01 8.900000000000000000e+01
-4.078275680541992188e+00 -4.338610458374022727e+01 -7.606456875801086426e-01 1.100000000000000000e+01
-1.578351259231567105e-01 -1.679104566574096902e+00 4.518980383872985840e-01 8.400000000000000000e+01
-3.079946935176848810e-01 -3.216297864913939986e+00 -7.459377050399780273e-01 8.000000000000000000e+00
-3.691627383232117254e-01 -3.847980260848999023e+00 -7.514058351516723633e-01 9.000000000000000000e+00
-4.740859866142272949e-01 -4.923571109771729404e+00 -7.834237813949584961e-01 9.000000000000000000e+00
-6.860919594764709473e-01 -7.099361419677734375e+00 -8.757531046867370605e-01 1.000000000000000000e+00
-2.435214042663574219e+00 -2.506140899658203125e+01 -1.319598793983459029e+00 1.100000000000000000e+01
-1.636979877948760986e-01 -1.681608796119689941e+00 3.900651335716248114e-01 8.500000000000000000e+01
-1.636126041412354071e-01 -1.674669384956360085e+00 4.508627653121948242e-01 8.200000000000000000e+01
-8.920072019100189209e-02 -9.016367793083190918e-01 -2.427722662687301913e-01 2.000000000000000000e+00
-3.184496462345122736e-01 -3.207446336746215820e+00 -7.441380620002746582e-01 8.000000000000000000e+00
-3.829810619354248047e-01 -3.850575447082519975e+00 -7.521690726280212402e-01 9.000000000000000000e+00
-4.908771812915802002e-01 -4.917954921722412109e+00 -7.827980518341064453e-01 7.000000000000000000e+00
-7.116605639457702637e-01 -7.104824066162109375e+00 -8.767280578613281250e-01 1.000000000000000000e+00
-2.525080919265747070e+00 -2.507660102844237926e+01 -1.320854902267456055e+00 1.100000000000000000e+01
-1.705448031425476074e-01 -1.690721631050110085e+00 3.923146426677703857e-01 8.900000000000000000e+01
-1.685824543237685880e-01 -1.668351411819458008e+00 4.493098556995391846e-01 7.300000000000000000e+01
-7.974568754434585571e-02 -7.783253192901611328e-01 -2.096434235572814941e-01 5.000000000000000000e+00
-3.310388922691345215e-01 -3.219884872436522993e+00 -7.472873926162719727e-01 9.000000000000000000e+00
-3.978276550769805908e-01 -3.862885713577270952e+00 -7.548403739929199219e-01 8.000000000000000000e+00
-5.076349377632141113e-01 -4.912281990051270419e+00 -7.821723222732543945e-01 9.000000000000000000e+00
-7.348187565803527832e-01 -7.086500644683837891e+00 -8.747781515121459961e-01 1.000000000000000000e+00
-2.609286785125731978e+00 -2.503585052490234020e+01 -1.319180130958556907e+00 1.100000000000000000e+01
-1.768501698970794955e-01 -1.693992495536803977e+00 3.932144343852996826e-01 6.800000000000000000e+01
-1.763062328100203913e-01 -1.683093070983886941e+00 4.534509778022766113e-01 5.900000000000000000e+01
-3.395096957683563232e-01 -3.203325986862183061e+00 -7.436881661415100098e-01 9.000000000000000000e+00
-4.112048447132111151e-01 -3.873330354690552202e+00 -7.571300864219665527e-01 8.000000000000000000e+00
-5.234832763671875000e-01 -4.914591312408447266e+00 -7.827980518341064453e-01 9.000000000000000000e+00
-7.600312232971191406e-01 -7.111791133880615234e+00 -8.781905174255371094e-01 1.000000000000000000e+00
-4.547104358673095703e+00 -4.254832839965820312e+01 6.777366638183593750e+00 1.500000000000000000e+01
-2.693044900894165039e+00 -2.507518959045410156e+01 -1.321692228317260964e+00 1.100000000000000000e+01
-1.825879961252213080e-01 -1.697303652763366921e+00 3.941142559051514227e-01 4.000000000000000000e+01
-1.819201707839966098e-01 -1.688324809074402078e+00 4.550038874149323065e-01 5.500000000000000000e+01
-3.511136174201964777e-01 -3.205995559692382812e+00 -7.445880174636840820e-01 9.000000000000000000e+00
-4.238664805889130194e-01 -3.864065170288085938e+00 -7.556036114692687988e-01 8.000000000000000000e+00
-5.399869680404663086e-01 -4.906843662261962891e+00 -7.818594574928283691e-01 9.000000000000000000e+00
-7.822373509407043457e-01 -7.085417270660400391e+00 -8.752655982971191406e-01 1.000000000000000000e+00
-2.781437873840332031e+00 -2.507357788085937855e+01 -1.322110891342163086e+00 1.100000000000000000e+01
-1.893723607063292902e-01 -1.704403162002563032e+00 3.959138691425322931e-01 2.600000000000000000e+01
-1.889629811048507968e-01 -1.695326447486876997e+00 4.570744335651398260e-01 5.800000000000000000e+01
-3.631781637668610174e-01 -3.212496042251586914e+00 -7.463876008987426758e-01 9.000000000000000000e+00
-4.375728964805603027e-01 -3.864512920379639116e+00 -7.559852600097656250e-01 9.000000000000000000e+00
-5.577805638313293457e-01 -4.910817146301270419e+00 -7.827980518341064453e-01 7.000000000000000000e+00
-8.083136081695556641e-01 -7.094477653503417969e+00 -8.767280578613281250e-01 1.000000000000000000e+00
-4.799310684204101562e+00 -4.212300872802733664e+01 6.714793205261229581e+00 1.400000000000000000e+01
-2.872578382492064986e+00 -2.509546470642089844e+01 -1.323785662651062012e+00 1.100000000000000000e+01
-1.953206807374953946e-01 -1.703731775283813032e+00 3.959138691425322931e-01 2.100000000000000000e+01
-1.952449381351470947e-01 -1.700448274612426980e+00 4.586273431777954102e-01 5.700000000000000000e+01
-3.739382922649384100e-01 -3.207337617874145952e+00 -7.454878091812133789e-01 9.000000000000000000e+00
-4.501491189002990723e-01 -3.855161905288695845e+00 -7.544587850570678711e-01 9.000000000000000000e+00
-5.749191045761108398e-01 -4.908840179443359375e+00 -7.827980518341064453e-01 9.000000000000000000e+00
-8.344626426696777344e-01 -7.103442192077636719e+00 -8.781905174255371094e-01 1.000000000000000000e+00
-2.962969064712523970e+00 -2.510908699035644887e+01 -1.325041770935059038e+00 1.100000000000000000e+01
-2.049260288476943970e-01 -1.734004020690917969e+00 4.031122922897338867e-01 9.000000000000000000e+00
-2.012486904859543124e-01 -1.697802782058716042e+00 4.581097066402434748e-01 5.500000000000000000e+01
-3.871832191944121759e-01 -3.213617086410522017e+00 -7.472873926162719727e-01 9.000000000000000000e+00
-4.658892452716826837e-01 -3.861201524734497070e+00 -7.559852600097656250e-01 9.000000000000000000e+00
-5.937634110450744629e-01 -4.906596183776854581e+00 -7.827980518341064453e-01 9.000000000000000000e+00
-8.602966666221618652e-01 -7.088361740112304688e+00 -8.767280578613281250e-01 1.000000000000000000e+00
-3.059358835220336914e+00 -2.509752464294433949e+01 -1.325041770935059038e+00 1.100000000000000000e+01
-2.165415585041045865e-01 -1.773826360702515093e+00 4.125602245330811102e-01 1.000000000000000000e+00
-2.079389542341232022e-01 -1.700888991355895996e+00 4.591449797153472900e-01 6.200000000000000000e+01
-3.959999382495880127e-01 -3.192906856536864790e+00 -7.427883744239807129e-01 9.000000000000000000e+00
-4.791225194931030273e-01 -3.857603549957274947e+00 -7.556036114692687988e-01 9.000000000000000000e+00
-6.094220280647277832e-01 -4.892732620239257812e+00 -7.809208631515502930e-01 7.000000000000000000e+00
-8.850344419479370117e-01 -7.085315704345703125e+00 -8.767280578613281250e-01 1.000000000000000000e+00
-3.147444248199462891e+00 -2.509065628051758168e+01 -1.325251102447509988e+00 1.100000000000000000e+01
-2.148393839597702026e-01 -1.707819700241089089e+00 4.612155258655548096e-01 5.600000000000000000e+01
-5.529959201812744141e+00 -4.340851211547852273e+01 7.638220191001892090e-01 4.500000000000000000e+01
-4.076360464096068781e-01 -3.195371150970458984e+00 -7.436881661415100098e-01 9.000000000000000000e+00
-4.915900230407714844e-01 -3.848117828369141069e+00 -7.540771365165710449e-01 8.000000000000000000e+00
-6.249911785125732422e-01 -4.878819465637207031e+00 -7.790436148643493652e-01 7.000000000000000000e+00
-9.067263603210449219e-01 -7.058556079864501953e+00 -8.738031983375549316e-01 1.000000000000000000e+00
-3.239606857299805132e+00 -2.511517143249512074e+01 -1.327135205268860085e+00 2.300000000000000000e+01
-5.627908706665039062e+00 -4.351085662841796875e+01 -7.658116221427917480e-01 1.100000000000000000e+01
-2.232775837182998935e-01 -1.726218342781066895e+00 4.663919210433959961e-01 6.400000000000000000e+01
-4.203076064586638849e-01 -3.205522060394287109e+00 -7.463876008987426758e-01 9.000000000000000000e+00
-5.060417652130126953e-01 -3.854164600372314009e+00 -7.556036114692687988e-01 8.000000000000000000e+00
-6.448538303375244141e-01 -4.898150920867919922e+00 -7.824851870536804199e-01 9.000000000000000000e+00
-9.370752573013305664e-01 -7.098644733428955078e+00 -8.791654706001281738e-01 1.000000000000000000e+00
-3.330404520034790039e+00 -2.512747001647948863e+01 -1.328391194343566895e+00 1.100000000000000000e+01
-5.774487018585205078e+00 -4.345130157470703125e+01 -7.651134729385375977e-01 1.100000000000000000e+01
-2.296029925346375067e-01 -1.725388407707213911e+00 4.663919210433959961e-01 6.100000000000000000e+01
-4.325347542762755793e-01 -3.211760520935059038e+00 -7.481871843338012695e-01 9.000000000000000000e+00
-5.179180502891540527e-01 -3.840700864791870117e+00 -7.533138990402221680e-01 8.000000000000000000e+00
-6.600949168205261230e-01 -4.882167339324951172e+00 -7.802951335906982422e-01 7.000000000000000000e+00
-9.591817855834960938e-01 -7.075659275054931641e+00 -8.767280578613281250e-01 1.000000000000000000e+00
-3.414324760437012163e+00 -2.508798408508301137e+01 -1.326925873756408913e+00 1.100000000000000000e+01
-2.355844974517821988e-01 -1.726531624794005904e+00 4.669095575809478760e-01 4.400000000000000000e+01
-4.432095885276793878e-01 -3.206370353698730025e+00 -7.472873926162719727e-01 9.000000000000000000e+00
-5.329363942146301270e-01 -3.850537776947021040e+00 -7.556036114692687988e-01 8.000000000000000000e+00
-6.782188415527343750e-01 -4.887660026550292969e+00 -7.815465927124023438e-01 7.000000000000000000e+00
-9.866098761558532715e-01 -7.091929435729979581e+00 -8.791654706001281738e-01 1.000000000000000000e+00
-3.505744695663452148e+00 -2.510360717773437855e+01 -1.328391194343566895e+00 1.100000000000000000e+01
-2.461634129285812100e-01 -1.758223056793212891e+00 4.757094085216522217e-01 3.300000000000000000e+01
-4.502786397933959961e-01 -3.183737277984619141e+00 -7.423384785652160645e-01 9.000000000000000000e+00
-5.461316108703613281e-01 -3.856620073318481001e+00 -7.571300864219665527e-01 9.000000000000000000e+00
-6.935705542564392090e-01 -4.885505199432373047e+00 -7.815465927124023438e-01 7.000000000000000000e+00
-1.004969120025634988e+00 -7.061281204223632812e+00 -8.757531046867370605e-01 1.000000000000000000e+00
-3.584592580795288086e+00 -2.509246826171875000e+01 -1.328391194343566895e+00 1.100000000000000000e+01
-2.574370503425598145e-01 -1.797600150108336958e+00 4.865798056125640869e-01 2.700000000000000000e+01
-4.633466303348541260e-01 -3.195646047592163086e+00 -7.454878091812133789e-01 9.000000000000000000e+00
-5.595903992652893066e-01 -3.854690313339232954e+00 -7.571300864219665527e-01 8.000000000000000000e+00
-7.106199264526367188e-01 -4.883054256439208984e+00 -7.815465927124023438e-01 7.000000000000000000e+00
-1.030184626579284890e+00 -7.061658382415770596e+00 -8.762405514717102051e-01 1.000000000000000000e+00
-3.675631999969481978e+00 -2.510351753234862926e+01 -1.329647302627563032e+00 1.100000000000000000e+01
-2.687987685203552246e-01 -1.829136967658997026e+00 4.953796565532683771e-01 4.200000000000000000e+01
-4.750561416149138849e-01 -3.193926334381103960e+00 -7.454878091812133789e-01 9.000000000000000000e+00
-5.708230733871459961e-01 -3.833194971084595171e+00 -7.533138990402221680e-01 8.000000000000000000e+00
-7.273458838462829590e-01 -4.872601985931395596e+00 -7.802951335906982422e-01 7.000000000000000000e+00
-1.058410048484802024e+00 -7.073541164398193359e+00 -8.781905174255371094e-01 1.000000000000000000e+00
-3.765243768692017046e+00 -2.507407569885253906e+01 -1.328809976577759011e+00 1.100000000000000000e+01
-2.774823904037476141e-01 -1.843470215797424094e+00 4.995207488536835272e-01 3.800000000000000000e+01
-4.862021207809448242e-01 -3.192248582839965820e+00 -7.454878091812133789e-01 9.000000000000000000e+00
-5.847918391227722168e-01 -3.835060596466064009e+00 -7.540771365165710449e-01 8.000000000000000000e+00
-7.470360994338989258e-01 -4.887608051300048828e+00 -7.831109166145324707e-01 9.000000000000000000e+00
-1.078886270523071067e+00 -7.042332649230957031e+00 -8.747781515121459961e-01 1.000000000000000000e+00
-3.866098880767821822e+00 -2.514764022827148082e+01 -1.333415508270263894e+00 2.300000000000000000e+01
-2.847982347011566162e-01 -1.848218321800231934e+00 5.010736584663391113e-01 6.000000000000000000e+00
-4.973849654197692871e-01 -3.194469928741455078e+00 -7.463876008987426758e-01 9.000000000000000000e+00
-5.981109142303466797e-01 -3.836979866027832031e+00 -7.548403739929199219e-01 8.000000000000000000e+00
-7.623251080513000488e-01 -4.879248619079589844e+00 -7.821723222732543945e-01 7.000000000000000000e+00
-1.107761621475219949e+00 -7.074018001556395596e+00 -8.791654706001281738e-01 1.000000000000000000e+00
-3.945129871368408203e+00 -2.510705757141112926e+01 -1.331950068473815918e+00 1.100000000000000000e+01
-5.079196691513061523e-01 -3.188865184783935991e+00 -7.454878091812133789e-01 9.000000000000000000e+00
-6.136649250984191895e-01 -3.848440170288085938e+00 -7.575117349624633789e-01 9.000000000000000000e+00
-7.774817347526550293e-01 -4.864854335784912109e+00 -7.802951335906982422e-01 7.000000000000000000e+00
-1.129936099052428977e+00 -7.054427146911621094e+00 -8.772155046463012695e-01 1.000000000000000000e+00
-4.022604465484619141e+00 -2.503003120422362926e+01 -1.328600525856018066e+00 1.100000000000000000e+01
-5.184212923049926758e-01 -3.183226108551024947e+00 -7.445880174636840820e-01 9.000000000000000000e+00
-6.242514848709106445e-01 -3.828835487365723100e+00 -7.540771365165710449e-01 8.000000000000000000e+00
-7.938214540481567383e-01 -4.858211517333984375e+00 -7.796693444252014160e-01 7.000000000000000000e+00
-1.153912186622620073e+00 -7.046521663665770596e+00 -8.767280578613281250e-01 1.000000000000000000e+00
-4.115131855010986328e+00 -2.504737091064453125e+01 -1.330275297164916992e+00 1.100000000000000000e+01
-5.314493775367736816e-01 -3.192930698394774947e+00 -7.472873926162719727e-01 9.000000000000000000e+00
-6.382581591606140137e-01 -3.830506324768065962e+00 -7.548403739929199219e-01 8.000000000000000000e+00
-8.114256262779235840e-01 -4.859307765960693359e+00 -7.802951335906982422e-01 7.000000000000000000e+00
-1.173915266990662065e+00 -7.015040874481201172e+00 -8.733156919479370117e-01 1.000000000000000000e+00
-4.209151744842529297e+00 -2.507224845886230113e+01 -1.332368731498718040e+00 1.100000000000000000e+01
-5.425915718078613281e-01 -3.191056251525878906e+00 -7.472873926162719727e-01 9.000000000000000000e+00
-6.512957811355590820e-01 -3.826319694519042969e+00 -7.544587850570678711e-01 9.000000000000000000e+00
-8.290471434593200684e-01 -4.860340118408203125e+00 -7.809208631515502930e-01 6.000000000000000000e+00
-1.203746676445007102e+00 -7.042207717895507812e+00 -8.772155046463012695e-01 3.000000000000000000e+00
-4.295969486236572266e+00 -2.505346488952637074e+01 -1.332159399986267090e+00 1.100000000000000000e+01
-5.530604124069213867e-01 -3.185302734375000000e+00 -7.463876008987426758e-01 9.000000000000000000e+00
-6.673377156257629395e-01 -3.839496850967406782e+00 -7.575117349624633789e-01 9.000000000000000000e+00
-8.510920405387878418e-01 -4.886608123779296875e+00 -7.856138944625854492e-01 1.000000000000000000e+00
-1.230368971824645996e+00 -7.049696445465087891e+00 -8.786779642105102539e-01 1.000000000000000000e+00
-4.388906955718994141e+00 -2.506979370117187855e+01 -1.333834171295166016e+00 1.100000000000000000e+01
-5.628155469894409180e-01 -3.175677537918090820e+00 -7.445880174636840820e-01 9.000000000000000000e+00
-6.803930401802062988e-01 -3.835211038589477983e+00 -7.571300864219665527e-01 8.000000000000000000e+00
-8.736760616302490234e-01 -4.914725303649902344e+00 -7.906197905540466309e-01 1.000000000000000000e+00
-1.250095844268799050e+00 -7.017997741699218750e+00 -8.752655982971191406e-01 1.000000000000000000e+00
-4.470067024230957031e+00 -2.501893043518066051e+01 -1.331950068473815918e+00 1.100000000000000000e+01
-5.738973021507263184e-01 -3.173693418502808061e+00 -7.445880174636840820e-01 9.000000000000000000e+00
-6.906291246414184570e-01 -3.815425872802733931e+00 -7.536955475807189941e-01 6.000000000000000000e+00
-8.844808936119079590e-01 -4.876659870147705078e+00 -7.849881649017333984e-01 3.000000000000000000e+00
-1.278844833374022993e+00 -7.037028789520263672e+00 -8.781905174255371094e-01 1.000000000000000000e+00
-1.883486032485961914e+00 -1.035388183593750000e+01 -9.207132458686828613e-01 2.000000000000000000e+00
-4.568832874298095703e+00 -2.506605148315430043e+01 -1.335299611091613992e+00 1.100000000000000000e+01
-5.856789350509643555e-01 -3.175503730773925781e+00 -7.454878091812133789e-01 9.000000000000000000e+00
-9.011389613151550293e-01 -4.871600151062011719e+00 -7.846753001213073730e-01 6.000000000000000000e+00
-1.298336267471313032e+00 -7.005196094512938565e+00 -8.747781515121459961e-01 1.000000000000000000e+00
-1.919616341590880904e+00 -1.034724426269531072e+01 -9.207132458686828613e-01 2.000000000000000000e+00
-4.656301975250244141e+00 -2.504994964599609020e+01 -1.335299611091613992e+00 1.100000000000000000e+01
-5.974802374839782715e-01 -3.177270412445067915e+00 -7.463876008987426758e-01 9.000000000000000000e+00
-9.152098298072814941e-01 -4.852895736694335938e+00 -7.821723222732543945e-01 7.000000000000000000e+00
-1.324992537498473899e+00 -7.012324810028076172e+00 -8.762405514717102051e-01 3.000000000000000000e+00
-1.937210202217102051e+00 -1.024259567260742010e+01 -9.119976758956909180e-01 4.000000000000000000e+00
-4.754869937896729404e+00 -2.509241485595703125e+01 -1.338439702987670898e+00 1.100000000000000000e+01
-6.067332029342651367e-01 -3.165595769882202148e+00 -7.441380620002746582e-01 4.000000000000000000e+00
-9.276697039604187012e-01 -4.826393127441406250e+00 -7.784178853034973145e-01 7.000000000000000000e+00
-1.350212812423706055e+00 -7.011555194854736328e+00 -8.767280578613281250e-01 1.000000000000000000e+00
-1.963901400566101074e+00 -1.018881797790526988e+01 -9.078142046928405762e-01 8.000000000000000000e+00
-4.833340644836425781e+00 -2.502859878540039062e+01 -1.335927605628967063e+00 1.100000000000000000e+01
-9.467890858650207520e-01 -4.834756851196289062e+00 -7.802951335906982422e-01 7.000000000000000000e+00
-1.375443816184998003e+00 -7.010695457458496094e+00 -8.772155046463012695e-01 1.000000000000000000e+00
-1.985633969306946023e+00 -1.011151885986327947e+01 -9.015390276908874512e-01 1.200000000000000000e+01
-4.932243824005126953e+00 -2.507036590576171875e+01 -1.339067816734313965e+00 1.100000000000000000e+01
-9.648189544677734375e-01 -4.837234020233154297e+00 -7.812337279319763184e-01 6.000000000000000000e+00
-1.398351430892943892e+00 -6.998064994812011719e+00 -8.762405514717102051e-01 1.000000000000000000e+00
-2.012712001800537109e+00 -1.006349849700927912e+01 -8.978784680366516113e-01 1.200000000000000000e+01
-5.029927730560302734e+00 -2.510391426086426137e+01 -1.341789245605468972e+00 1.100000000000000000e+01
-9.903475046157836914e-01 -4.876425743103027344e+00 -7.881168127059936523e-01 3.000000000000000000e+00
-1.422770738601685014e+00 -6.993141174316406250e+00 -8.762405514717102051e-01 1.000000000000000000e+00
-2.053791284561156782e+00 -1.008569622039794922e+01 -9.004931449890136719e-01 1.000000000000000000e+01
-5.108743190765380859e+00 -2.504314994812012074e+01 -1.339486479759216087e+00 1.100000000000000000e+01
-1.010562658309936968e+00 -4.888414859771729404e+00 -7.906197905540466309e-01 1.000000000000000000e+00
-1.445562481880187988e+00 -6.980357170104979581e+00 -8.752655982971191406e-01 1.000000000000000000e+00
-2.104754924774169922e+00 -1.015455245971680043e+01 -9.072912931442260742e-01 1.000000000000000000e+01
-5.189632415771484375e+00 -2.499387550354003906e+01 -1.337811708450316939e+00 1.100000000000000000e+01
-1.032500028610229048e+00 -4.908054351806640625e+00 -7.943742275238037109e-01 1.000000000000000000e+00
-1.471556901931762917e+00 -6.983038425445556641e+00 -8.762405514717102051e-01 1.000000000000000000e+00
-2.135665178298950195e+00 -1.012569904327392933e+01 -9.053738713264465332e-01 4.000000000000000000e+00
-5.276845455169677734e+00 -2.497560882568359020e+01 -1.337811708450316939e+00 1.100000000000000000e+01
-1.037242412567138894e+00 -4.842427253723145419e+00 -7.843624353408813477e-01 1.000000000000000000e+00
-1.492976665496825950e+00 -6.958188533782958984e+00 -8.738031983375549316e-01 3.000000000000000000e+00
-2.171090126037598100e+00 -1.011001110076903942e+01 -9.046766161918640137e-01 6.000000000000000000e+00
-5.373390674591063565e+00 -2.497953033447265980e+01 -1.339067816734313965e+00 1.100000000000000000e+01
-1.058344125747681108e+00 -4.858078002929688388e+00 -7.874910831451416016e-01 3.000000000000000000e+00
-1.515140056610106978e+00 -6.943237304687500000e+00 -8.725845217704772949e-01 3.000000000000000000e+00
-2.204666852951049805e+00 -1.009458541870117010e+01 -9.039793610572814941e-01 1.000000000000000000e+01
-5.471650600433349609e+00 -2.501135063171387074e+01 -1.341789245605468972e+00 1.100000000000000000e+01
-1.074021339416503906e+00 -4.852612972259520596e+00 -7.871782183647155762e-01 4.000000000000000000e+00
-1.542882561683655007e+00 -6.959493160247802734e+00 -8.752655982971191406e-01 1.000000000000000000e+00
-2.214824914932250977e+00 -9.982184410095214844e+00 -8.945665359497070312e-01 8.000000000000000000e+00
-5.571026802062988281e+00 -2.506715774536133168e+01 -1.345766782760619895e+00 1.100000000000000000e+01
-1.086183905601501021e+00 -4.827635288238525391e+00 -7.837366461753845215e-01 6.000000000000000000e+00
-1.563674926757812944e+00 -6.938572883605957031e+00 -8.733156919479370117e-01 3.000000000000000000e+00
-2.251847505569458008e+00 -9.984109878540039062e+00 -8.954380750656127930e-01 6.000000000000000000e+00
-5.654972553253173828e+00 -2.503197288513183949e+01 -1.344929456710814986e+00 1.100000000000000000e+01
-1.097304582595824973e+00 -4.798780441284179688e+00 -7.796693444252014160e-01 6.000000000000000000e+00
-1.591431021690369096e+00 -6.948552608489990234e+00 -8.752655982971191406e-01 1.000000000000000000e+00
-2.296032667160034180e+00 -1.001697158813476918e+01 -8.990986347198486328e-01 4.000000000000000000e+00
-5.737846851348876953e+00 -2.499261474609375000e+01 -1.343882679939270020e+00 1.100000000000000000e+01
-1.111366510391234907e+00 -4.783376216888427734e+00 -7.777921557426452637e-01 7.000000000000000000e+00
-1.610277175903320090e+00 -6.919754028320313388e+00 -8.723407387733459473e-01 3.000000000000000000e+00
-2.283985137939453125e+00 -9.807087898254394531e+00 -8.809702396392822266e-01 3.000000000000000000e+00
-5.836848735809326172e+00 -2.502300453186035156e+01 -1.346604108810425027e+00 2.300000000000000000e+01
-1.131756901741028054e+00 -4.798890590667724609e+00 -7.809208631515502930e-01 7.000000000000000000e+00
-1.632302403450011985e+00 -6.910511970520020419e+00 -8.718532919883728027e-01 1.000000000000000000e+00
-2.297243356704711914e+00 -9.718023300170898438e+00 -8.736491799354553223e-01 3.000000000000000000e+00
-5.912433624267578125e+00 -2.497241401672362926e+01 -1.344929456710814986e+00 1.100000000000000000e+01
-1.145740509033202903e+00 -4.783384799957275391e+00 -7.790436148643493652e-01 7.000000000000000000e+00
-1.661045312881469949e+00 -6.924075603485107422e+00 -8.742906451225280762e-01 1.000000000000000000e+00
-2.352546930313109907e+00 -9.799063682556152344e+00 -8.816674947738647461e-01 5.000000000000000000e+00
-5.999567508697509766e+00 -2.495162391662598012e+01 -1.344929456710814986e+00 1.100000000000000000e+01
-1.162430644035338911e+00 -4.779356002807617188e+00 -7.790436148643493652e-01 7.000000000000000000e+00
-1.678627490997314009e+00 -6.891233444213867188e+00 -8.708783388137817383e-01 3.000000000000000000e+00
-2.410803318023682085e+00 -9.889513015747070312e+00 -8.905574083328247070e-01 7.000000000000000000e+00
-6.099892139434813565e+00 -2.498485755920410156e+01 -1.347860217094420943e+00 1.100000000000000000e+01
-1.177212476730346902e+00 -4.767598152160645419e+00 -7.777921557426452637e-01 7.000000000000000000e+00
-1.709343671798706055e+00 -6.912310600280761719e+00 -8.742906451225280762e-01 1.000000000000000000e+00
-2.399361133575439009e+00 -9.695368766784667969e+00 -8.738234639167785645e-01 5.000000000000000000e+00
-6.187068462371826172e+00 -2.496341323852539062e+01 -1.347860217094420943e+00 1.100000000000000000e+01
-1.196952700614928977e+00 -4.768790721893311435e+00 -7.787307500839233398e-01 9.000000000000000000e+00
