-1.626653671264647993e+00 2.114542245864868164e+00 -6.159160137176513672e-01 1.600000000000000000e+01
-1.898099303245543990e+00 2.468294858932495117e+00 -6.052461266517639160e-01 1.000000000000000000e+01
-2.291705608367919922e+00 2.982295751571654829e+00 -5.957024693489074707e-01 9.000000000000000000e+00
-2.891921520233153853e+00 3.766102790832519975e+00 -5.830229520797729492e-01 9.000000000000000000e+00
-3.831177234649658203e+00 4.991083621978759766e+00 -5.504756569862365723e-01 6.000000000000000000e+00
-5.770347595214843750e+00 7.522781372070313388e+00 -4.968775808811187744e-01 2.000000000000000000e+00
-1.151788425445556996e+01 1.502668380737305043e+01 -3.304787576198577881e-01 3.000000000000000000e+00
-1.413576006889343040e+00 1.849549651145935059e+00 -6.237539052963256836e-01 1.600000000000000000e+01
-1.619262695312500000e+00 2.120207548141479048e+00 -6.159160137176513672e-01 1.500000000000000000e+01
-1.885897755622863992e+00 2.470224142074584961e+00 -6.041013002395629883e-01 1.000000000000000000e+01
-2.288470506668090820e+00 2.999700307846068892e+00 -5.975796580314636230e-01 9.000000000000000000e+00
-2.881164789199829102e+00 3.779331922531127930e+00 -5.835103988647460938e-01 9.000000000000000000e+00
-3.807693481445312944e+00 4.996502876281738281e+00 -5.496041178703308105e-01 7.000000000000000000e+00
-5.736792564392089844e+00 7.533343791961669922e+00 -4.962495267391204834e-01 2.000000000000000000e+00
-1.405098915100098100e+00 1.851149439811706987e+00 -6.227186322212219238e-01 1.600000000000000000e+01
-1.626354932785033958e+00 2.144197225570679155e+00 -6.213148236274719238e-01 1.500000000000000000e+01
-1.871765017509460005e+00 2.468642234802246094e+00 -6.021931767463684082e-01 1.100000000000000000e+01
-2.268966913223267046e+00 2.994676589965819868e+00 -5.950766801834106445e-01 9.000000000000000000e+00
-2.861426591873168945e+00 3.779369354248046875e+00 -5.820479989051818848e-01 9.000000000000000000e+00
-3.780282258987427202e+00 4.994803905487061435e+00 -5.480353236198425293e-01 6.000000000000000000e+00
-5.706960678100585938e+00 7.545954704284667969e+00 -4.958308637142180841e-01 2.000000000000000000e+00
-1.141533470153808949e+01 1.510473442077637074e+01 -3.304787576198577881e-01 3.000000000000000000e+00
-1.399791240692138894e+00 1.857585787773132102e+00 -6.232362389564514160e-01 1.600000000000000000e+01
-1.604793429374695046e+00 2.131180286407471147e+00 -6.159160137176513672e-01 1.500000000000000000e+01
-1.869039893150330034e+00 2.483003616333007812e+00 -6.041013002395629883e-01 1.100000000000000000e+01
-2.253750085830688032e+00 2.996263980865478960e+00 -5.938252210617065430e-01 9.000000000000000000e+00
-2.852987766265869141e+00 3.795681953430175781e+00 -5.830229520797729492e-01 9.000000000000000000e+00
-3.754446268081665039e+00 4.996819496154785156e+00 -5.468151569366455078e-01 6.000000000000000000e+00
-5.680585384368895596e+00 7.565829753875732422e+00 -4.958308637142180841e-01 2.000000000000000000e+00
-1.394455790519713911e+00 1.864007592201232910e+00 -6.237539052963256836e-01 1.500000000000000000e+01
-1.593844056129456010e+00 2.132086515426636186e+00 -6.145662665367126465e-01 1.600000000000000000e+01
-1.870938181877136008e+00 2.503666639328002930e+00 -6.075358390808105469e-01 1.100000000000000000e+01
-2.252732753753662109e+00 3.016775131225585938e+00 -5.963281989097595215e-01 9.000000000000000000e+00
-2.834972143173218218e+00 3.799253702163695845e+00 -5.820479989051818848e-01 9.000000000000000000e+00
-3.738172531127930132e+00 5.011491298675537109e+00 -5.469894409179687500e-01 6.000000000000000000e+00
-5.642205238342285156e+00 7.569598674774169922e+00 -4.947841167449951172e-01 2.000000000000000000e+00
-1.389092564582824929e+00 1.870414614677428977e+00 -6.242715120315551758e-01 1.400000000000000000e+01
-1.589876055717468040e+00 2.142331838607788086e+00 -6.159160137176513672e-01 1.500000000000000000e+01
-1.852829575538635032e+00 2.497568130493164062e+00 -6.044828891754150391e-01 1.100000000000000000e+01
-2.239835739135742188e+00 3.021446466445922852e+00 -5.957024693489074707e-01 9.000000000000000000e+00
-2.819329738616942915e+00 3.805936336517333984e+00 -5.815604925155639648e-01 9.000000000000000000e+00
-3.723027706146239790e+00 5.027711868286132812e+00 -5.473380684852600098e-01 6.000000000000000000e+00
-5.615747928619384766e+00 7.589247703552246094e+00 -4.947841167449951172e-01 2.000000000000000000e+00
-1.113764476776123047e+01 1.506265735626221058e+01 -3.269882798194885254e-01 3.000000000000000000e+00
-1.382555127143860085e+00 1.875252127647399902e+00 -6.242715120315551758e-01 1.100000000000000000e+01
-1.584699988365172896e+00 2.151006221771239790e+00 -6.168158054351806641e-01 1.600000000000000000e+01
-1.840607523918152078e+00 2.499278068542480025e+00 -6.033380627632141113e-01 1.200000000000000000e+01
-2.231616973876953125e+00 3.032428503036499023e+00 -5.963281989097595215e-01 9.000000000000000000e+00
-2.801323175430297852e+00 3.809357404708861861e+00 -5.805855393409729004e-01 1.100000000000000000e+01
-3.700734615325928178e+00 5.034255504608154297e+00 -5.466408133506774902e-01 6.000000000000000000e+00
-5.589222431182861328e+00 7.608804225921630859e+00 -4.947841167449951172e-01 2.000000000000000000e+00
-1.108499908447265980e+01 1.510144329071044922e+01 -3.269882798194885254e-01 3.000000000000000000e+00
-1.376000761985779031e+00 1.880066752433777078e+00 -6.242715120315551758e-01 9.000000000000000000e+00
-1.577181935310363992e+00 2.156524896621704102e+00 -6.168158054351806641e-01 1.600000000000000000e+01
-1.839982986450195090e+00 2.516781806945800781e+00 -6.060093641281127930e-01 1.100000000000000000e+01
-2.214026689529418945e+00 3.030629396438599077e+00 -5.944509506225585938e-01 9.000000000000000000e+00
-2.790349960327147993e+00 3.822319269180297852e+00 -5.810730457305908203e-01 9.000000000000000000e+00
-3.672569036483765093e+00 5.032658100128173828e+00 -5.450720191001892090e-01 8.000000000000000000e+00
-5.562628746032714844e+00 7.628267765045166016e+00 -4.947841167449951172e-01 2.000000000000000000e+00
-1.103221702575683949e+01 1.514004516601563033e+01 -3.269882798194885254e-01 3.000000000000000000e+00
-1.362616658210753950e+00 1.875481009483336958e+00 -6.211656928062438965e-01 7.000000000000000000e+00
-1.563920140266418013e+00 2.154132366180419922e+00 -6.145662665367126465e-01 1.700000000000000000e+01
-1.821961522102355957e+00 2.510478019714355025e+00 -6.029564142227172852e-01 1.200000000000000000e+01
-2.198795318603516069e+00 3.031942844390869141e+00 -5.931994915008544922e-01 9.000000000000000000e+00
-2.773496150970458984e+00 3.827214002609252930e+00 -5.803418159484863281e-01 1.100000000000000000e+01
-3.658485889434814009e+00 5.050287723541259766e+00 -5.455949306488037109e-01 8.000000000000000000e+00
-5.517228603363037109e+00 7.621752738952636719e+00 -4.931093752384185791e-01 1.000000000000000000e+00
-1.095586204528808949e+01 1.514605712890625000e+01 -3.262901902198792059e-01 3.000000000000000000e+00
-1.362842082977294922e+00 1.889627099037169966e+00 -6.242715120315551758e-01 6.000000000000000000e+00
-1.555251955986022949e+00 2.157997369766234907e+00 -6.141163706779479980e-01 1.400000000000000000e+01
-1.820072650909424050e+00 2.526380062103271040e+00 -6.052461266517639160e-01 1.100000000000000000e+01
-2.192815065383911133e+00 3.046012163162231001e+00 -5.944509506225585938e-01 9.000000000000000000e+00
-2.762438058853148970e+00 3.840094804763793945e+00 -5.808292627334594727e-01 1.100000000000000000e+01
-3.635018825531005859e+00 5.054939746856688565e+00 -5.447233915328979492e-01 8.000000000000000000e+00
-5.481266498565673828e+00 7.627989292144775391e+00 -4.922719895839691162e-01 1.000000000000000000e+00
-1.092625236511229936e+01 1.521669483184813920e+01 -3.269882798194885254e-01 3.000000000000000000e+00
-1.364109754562377930e+00 1.905368328094481978e+00 -6.278949975967407227e-01 8.000000000000000000e+00
-1.551111221313477007e+00 2.168167829513549805e+00 -6.154660582542419434e-01 1.500000000000000000e+01
-1.811242938041687012e+00 2.532717943191527876e+00 -6.052461266517639160e-01 1.100000000000000000e+01
-2.184466123580933061e+00 3.056862354278564009e+00 -5.950766801834106445e-01 9.000000000000000000e+00
-2.744402408599853960e+00 3.843252182006835938e+00 -5.798543095588684082e-01 1.100000000000000000e+01
-3.613878965377808061e+00 5.062732696533203125e+00 -5.442004799842834473e-01 8.000000000000000000e+00
-5.459245681762695312e+00 7.653580188751220703e+00 -4.926906824111937921e-01 1.000000000000000000e+00
-1.083128547668457031e+01 1.519611930847167969e+01 -3.257317245006560724e-01 3.000000000000000000e+00
-1.355212330818176047e+00 1.906968951225280984e+00 -6.268597245216369629e-01 8.000000000000000000e+00
-1.541276812553405984e+00 2.170391321182250977e+00 -6.145662665367126465e-01 1.600000000000000000e+01
-1.795572400093079057e+00 2.529419660568236861e+00 -6.029564142227172852e-01 1.100000000000000000e+01
-2.178354024887084961e+00 3.070913791656494141e+00 -5.963281989097595215e-01 9.000000000000000000e+00
-2.724082708358765093e+00 3.843091487884521040e+00 -5.783919095993041992e-01 1.000000000000000000e+01
-3.598488569259643999e+00 5.078567981719970703e+00 -5.445491075515747070e-01 9.000000000000000000e+00
-5.432496547698974609e+00 7.672589778900145596e+00 -4.926906824111937921e-01 1.000000000000000000e+00
-1.070425701141357067e+01 1.512936019897460938e+01 -3.234978020191193182e-01 3.000000000000000000e+00
-1.345206737518310991e+00 1.906952142715454102e+00 -6.253067851066589355e-01 1.200000000000000000e+01
-1.538182377815247026e+00 2.182129144668579102e+00 -6.163659095764160156e-01 1.500000000000000000e+01
-1.786732077598571999e+00 2.535671949386597124e+00 -6.029564142227172852e-01 1.100000000000000000e+01
-2.158523082733153853e+00 3.065577507019042969e+00 -5.938252210617065430e-01 9.000000000000000000e+00
-2.711793422698975053e+00 3.854200363159180132e+00 -5.786356329917907715e-01 1.000000000000000000e+01
-3.580739021301269975e+00 5.091097831726074219e+00 -5.445491075515747070e-01 9.000000000000000000e+00
-5.405681133270263672e+00 7.691505908966063565e+00 -4.926906824111937921e-01 1.000000000000000000e+00
-1.333001732826232910e+00 1.903723716735840066e+00 -6.227186322212219238e-01 1.500000000000000000e+01
-1.531673192977905051e+00 2.189081907272338867e+00 -6.168158054351806641e-01 1.600000000000000000e+01
-1.775619626045227051e+00 2.538675785064696822e+00 -6.021931767463684082e-01 1.100000000000000000e+01
-2.147809028625487837e+00 3.073093414306641069e+00 -5.938252210617065430e-01 9.000000000000000000e+00
-2.705142974853516069e+00 3.873407840728760210e+00 -5.800980925559997559e-01 1.100000000000000000e+01
-3.553822040557860884e+00 5.090496540069580078e+00 -5.431545972824096680e-01 6.000000000000000000e+00
-5.319377899169921875e+00 7.625149726867675781e+00 -4.872477650642395020e-01 1.000000000000000000e+00
-1.059837436676025035e+01 1.520372009277343928e+01 -3.234978020191193182e-01 3.000000000000000000e+00
-1.332529902458190918e+00 1.915831804275512917e+00 -6.253067851066589355e-01 1.600000000000000000e+01
-1.514778852462768999e+00 2.179481029510498047e+00 -6.127666831016540527e-01 1.500000000000000000e+01
-1.773236274719238059e+00 2.552303075790404829e+00 -6.041013002395629883e-01 1.000000000000000000e+01
-2.141523599624633789e+00 3.084693908691405806e+00 -5.947638154029846191e-01 1.000000000000000000e+01
-2.679383039474486861e+00 3.862314701080321822e+00 -5.771732330322265625e-01 1.000000000000000000e+01
-3.545759677886962891e+00 5.113096714019775391e+00 -5.443747639656066895e-01 6.000000000000000000e+00
-5.311322689056395596e+00 7.664806365966796875e+00 -4.887131452560424805e-01 1.000000000000000000e+00
-1.333517074584960938e+00 1.931600093841552956e+00 -6.289302706718444824e-01 1.900000000000000000e+01
-1.511588096618651900e+00 2.191171646118164062e+00 -6.145662665367126465e-01 1.800000000000000000e+01
-1.757629036903380904e+00 2.548779964447021040e+00 -6.018115878105163574e-01 1.000000000000000000e+01
-2.125138759613037109e+00 3.084017515182495117e+00 -5.931994915008544922e-01 9.000000000000000000e+00
-2.671513557434082031e+00 3.879818677902222124e+00 -5.783919095993041992e-01 1.000000000000000000e+01
-3.526760578155518022e+00 5.123801708221436435e+00 -5.442004799842834473e-01 6.000000000000000000e+00
-5.268689632415770596e+00 7.660261154174804688e+00 -4.872477650642395020e-01 1.000000000000000000e+00
-1.045653152465819957e+01 1.521434879302979049e+01 -3.222412467002869207e-01 3.000000000000000000e+00
-1.314419627189636008e+00 1.918942809104918990e+00 -6.232362389564514160e-01 1.700000000000000000e+01
-1.503546953201293945e+00 2.196697235107421875e+00 -6.145662665367126465e-01 1.500000000000000000e+01
-1.741623878479003906e+00 2.545483112335205078e+00 -5.995218753814697266e-01 1.100000000000000000e+01
-2.116050720214844194e+00 3.095047235488892046e+00 -5.938252210617065430e-01 9.000000000000000000e+00
-2.660634756088256836e+00 3.894501686096190962e+00 -5.791231393814086914e-01 9.000000000000000000e+00
-3.494473695755004883e+00 5.116949558258056641e+00 -5.421087145805358887e-01 6.000000000000000000e+00
-5.231571674346923828e+00 7.666322708129882812e+00 -4.864103794097899836e-01 1.000000000000000000e+00
-1.038492584228515980e+01 1.522944164276123047e+01 -3.217525780200958252e-01 3.000000000000000000e+00
-1.305540919303894043e+00 1.920324087142943892e+00 -6.222009658813476562e-01 1.800000000000000000e+01
-1.496964931488037109e+00 2.203544139862060991e+00 -6.150161623954772949e-01 1.700000000000000000e+01
-1.737139582633971946e+00 2.558043479919434038e+00 -6.010483503341674805e-01 1.200000000000000000e+01
-2.103015661239624023e+00 3.099145650863647017e+00 -5.931994915008544922e-01 9.000000000000000000e+00
-2.642568111419678178e+00 3.897193193435668945e+00 -5.781481862068176270e-01 8.000000000000000000e+00
-3.475472927093505859e+00 5.127467155456542969e+00 -5.419344305992126465e-01 6.000000000000000000e+00
-5.213739395141601562e+00 7.697766780853270596e+00 -4.872477650642395020e-01 1.000000000000000000e+00
-1.027566146850585938e+01 1.518279552459716975e+01 -3.200073242187500000e-01 3.000000000000000000e+00
-1.299910426139831987e+00 1.926470994949341042e+00 -6.227186322212219238e-01 1.600000000000000000e+01
-1.490353465080261008e+00 2.210371971130371094e+00 -6.154660582542419434e-01 1.600000000000000000e+01
-1.724907994270324929e+00 2.559207677841186968e+00 -5.999034643173217773e-01 1.200000000000000000e+01
-2.085564136505126953e+00 3.096637010574340820e+00 -5.913223028182983398e-01 9.000000000000000000e+00
-2.620081663131713867e+00 3.893218755722045898e+00 -5.761982798576354980e-01 8.000000000000000000e+00
-3.447544574737548828e+00 5.124689579010009766e+00 -5.403655767440795898e-01 4.000000000000000000e+00
-5.186837673187255859e+00 7.715919017791748047e+00 -4.872477650642395020e-01 1.000000000000000000e+00
-1.022260093688965021e+01 1.521857166290283025e+01 -3.200073242187500000e-01 3.000000000000000000e+00
-1.296402692794800027e+00 1.935812234878540039e+00 -6.242715120315551758e-01 1.600000000000000000e+01
-1.473958373069762962e+00 2.202604293823242188e+00 -6.118668913841247559e-01 1.500000000000000000e+01
-1.717055678367614968e+00 2.566844940185546875e+00 -6.002851128578186035e-01 1.200000000000000000e+01
-2.076937675476074219e+00 3.107182741165161133e+00 -5.919480323791503906e-01 9.000000000000000000e+00
-2.609783411026000977e+00 3.907293081283568892e+00 -5.769294500350952148e-01 1.000000000000000000e+01
-3.442911148071289062e+00 5.156576156616210938e+00 -5.424573421478271484e-01 6.000000000000000000e+00
-5.151004791259765625e+00 7.720685958862304688e+00 -4.864103794097899836e-01 1.000000000000000000e+00
-1.014057540893555043e+01 1.521090221405028942e+01 -3.190998136997222900e-01 3.000000000000000000e+00
-1.288906574249268022e+00 1.938491940498352051e+00 -6.237539052963256836e-01 1.600000000000000000e+01
-1.465567827224731001e+00 2.205856800079346147e+00 -6.114169359207153320e-01 1.300000000000000000e+01
-1.718309760093688965e+00 2.587243795394897017e+00 -6.037196516990661621e-01 1.300000000000000000e+01
-2.066622257232666016e+00 3.114053010940552202e+00 -5.919480323791503906e-01 9.000000000000000000e+00
-2.590229511260985884e+00 3.905999660491942915e+00 -5.754670500755310059e-01 1.000000000000000000e+01
-3.440103292465209961e+00 5.189553737640380859e+00 -5.447233915328979492e-01 6.000000000000000000e+00
-5.125373363494873047e+00 7.737724781036376953e+00 -4.864103794097899836e-01 1.000000000000000000e+00
-1.007462692260742010e+01 1.522110080718993963e+01 -3.186111450195313055e-01 3.000000000000000000e+00
-1.284260153770446999e+00 1.946204066276550071e+00 -6.247891783714294434e-01 1.600000000000000000e+01
-1.460004448890686035e+00 2.214212894439696822e+00 -6.123167872428894043e-01 1.300000000000000000e+01
-1.696302771568297896e+00 2.573555469512939009e+00 -5.991402268409729004e-01 1.100000000000000000e+01
-2.057912826538085938e+00 3.124547243118286133e+00 -5.925737619400024414e-01 9.000000000000000000e+00
-2.579853057861328125e+00 3.919991970062255859e+00 -5.761982798576354980e-01 1.000000000000000000e+01
-3.412111997604370117e+00 5.186549663543701172e+00 -5.431545972824096680e-01 6.000000000000000000e+00
-5.089555740356445312e+00 7.742217063903808594e+00 -4.855729937553405762e-01 1.000000000000000000e+00
-1.001045513153075994e+01 1.523946189880370916e+01 -3.182620704174041748e-01 3.000000000000000000e+00
-1.268653512001038042e+00 1.937967538833617942e+00 -6.206480860710144043e-01 1.600000000000000000e+01
-1.452945947647094949e+00 2.221180200576781782e+00 -6.127666831016540527e-01 1.300000000000000000e+01
-1.686858892440795898e+00 2.579755544662476030e+00 -5.991402268409729004e-01 1.200000000000000000e+01
-2.046447038650513139e+00 3.132068872451781782e+00 -5.925737619400024414e-01 9.000000000000000000e+00
-2.564383029937744141e+00 3.927759170532227007e+00 -5.759544968605041504e-01 1.000000000000000000e+01
-3.371300935745238814e+00 5.165651321411132812e+00 -5.396683812141418457e-01 6.000000000000000000e+00
-5.037142753601074219e+00 7.724014282226563388e+00 -4.832702279090880793e-01 1.000000000000000000e+00
-9.939248085021972656e+00 1.525259399414063033e+01 -3.177734017372130793e-01 3.000000000000000000e+00
-1.270300626754760964e+00 1.955344200134276900e+00 -6.247891783714294434e-01 1.900000000000000000e+01
-1.446244835853577104e+00 2.227872848510742188e+00 -6.132165789604187012e-01 1.200000000000000000e+01
-1.686393022537231001e+00 2.598803043365478960e+00 -6.021931767463684082e-01 1.100000000000000000e+01
-2.026903867721558061e+00 3.125933647155762163e+00 -5.900707840919494629e-01 9.000000000000000000e+00
-2.553895235061645952e+00 3.941684484481811968e+00 -5.766857266426086426e-01 1.000000000000000000e+01
-3.361913681030272993e+00 5.190765857696533203e+00 -5.410628318786621094e-01 6.000000000000000000e+00
-5.007979869842529297e+00 7.738196849822998047e+00 -4.830608665943145752e-01 1.000000000000000000e+00
-9.846854209899902344e+00 1.522674560546875000e+01 -3.165168464183806818e-01 3.000000000000000000e+00
-1.262420654296875000e+00 1.958142757415771040e+00 -6.242715120315551758e-01 1.800000000000000000e+01
-1.435293197631835938e+00 2.227993011474608931e+00 -6.118668913841247559e-01 1.200000000000000000e+01
-1.676248311996459961e+00 2.603023290634154829e+00 -6.018115878105163574e-01 1.000000000000000000e+01
-2.018117666244506836e+00 3.136312246322631836e+00 -5.906965136528015137e-01 9.000000000000000000e+00
-2.541194200515747070e+00 3.952244997024536133e+00 -5.769294500350952148e-01 1.000000000000000000e+01
-3.339465141296387163e+00 5.195765495300292969e+00 -5.403655767440795898e-01 6.000000000000000000e+00
-4.963669300079345703e+00 7.728742122650145596e+00 -4.813861250877379816e-01 1.000000000000000000e+00
-9.815243721008300781e+00 1.529468345642090021e+01 -3.172149360179901123e-01 3.000000000000000000e+00
-1.252454400062561035e+00 1.957655549049376997e+00 -6.227186322212219238e-01 1.600000000000000000e+01
-1.429606556892395020e+00 2.236273288726807085e+00 -6.127666831016540527e-01 1.300000000000000000e+01
-1.663980364799499956e+00 2.603895664215087891e+00 -6.006667017936706543e-01 1.100000000000000000e+01
-2.007157802581787109e+00 3.143337726593018022e+00 -5.906965136528015137e-01 9.000000000000000000e+00
-2.520976305007935014e+00 3.951050519943236861e+00 -5.754670500755310059e-01 1.000000000000000000e+01
-3.323451042175292969e+00 5.210750102996826172e+00 -5.407142043113708496e-01 6.000000000000000000e+00
-4.940954685211181641e+00 7.752758979797363281e+00 -4.818048179149628241e-01 1.000000000000000000e+00
-9.686605453491210938e+00 1.521078205108642933e+01 -3.147715926170349121e-01 3.000000000000000000e+00
-1.246648788452147993e+00 1.963646531105041948e+00 -6.232362389564514160e-01 1.700000000000000000e+01
-1.417616128921509011e+00 2.234667778015137163e+00 -6.109670400619506836e-01 1.300000000000000000e+01
-1.653829574584960938e+00 2.608030319213867188e+00 -6.002851128578186035e-01 1.100000000000000000e+01
-1.996173143386841042e+00 3.150324821472167969e+00 -5.906965136528015137e-01 9.000000000000000000e+00
-2.505045413970946822e+00 3.956471920013428178e+00 -5.749795436859130859e-01 1.000000000000000000e+01
-3.295652151107788086e+00 5.207167625427246094e+00 -5.391454100608825684e-01 6.000000000000000000e+00
-4.926672458648681641e+00 7.790215015411376953e+00 -4.830608665943145752e-01 1.000000000000000000e+00
-9.686862945556640625e+00 1.532902431488036932e+01 -3.165168464183806818e-01 3.000000000000000000e+00
-1.235667824745178001e+00 1.961447954177856001e+00 -6.211656928062438965e-01 1.700000000000000000e+01
-1.417074203491210938e+00 2.251146793365478960e+00 -6.141163706779479980e-01 1.300000000000000000e+01
-1.645761370658874956e+00 2.615448951721190962e+00 -6.006667017936706543e-01 1.100000000000000000e+01
-1.985164284706115945e+00 3.157273530960083008e+00 -5.906965136528015137e-01 9.000000000000000000e+00
-2.489107370376586914e+00 3.961830377578734907e+00 -5.744920969009399414e-01 1.000000000000000000e+01
-3.282753705978393999e+00 5.227076053619384766e+00 -5.400170087814331055e-01 8.000000000000000000e+00
-4.876093864440917969e+00 7.770146369934082031e+00 -4.807581007480620783e-01 1.000000000000000000e+00
-9.565305709838867188e+00 1.525431823730468928e+01 -3.142829239368439276e-01 3.000000000000000000e+00
-1.228813648223876953e+00 1.965749263763427956e+00 -6.211656928062438965e-01 1.800000000000000000e+01
-1.407142758369446023e+00 2.252774000167847124e+00 -6.132165789604187012e-01 1.400000000000000000e+01
-1.629343271255492942e+00 2.609520673751831055e+00 -5.979954004287719727e-01 1.000000000000000000e+01
-1.967857599258423074e+00 3.154128074645996094e+00 -5.888193249702453613e-01 9.000000000000000000e+00
-2.474212646484375000e+00 3.968810081481934038e+00 -5.742483735084533691e-01 8.000000000000000000e+00
-3.255004167556763139e+00 5.223284721374511719e+00 -5.384481549263000488e-01 6.000000000000000000e+00
-4.848941326141357422e+00 7.787119865417479581e+00 -4.807581007480620783e-01 1.000000000000000000e+00
-9.512000083923339844e+00 1.528761386871338068e+01 -3.142829239368439276e-01 3.000000000000000000e+00
-1.228054046630858931e+00 1.979876875877379927e+00 -6.242715120315551758e-01 2.000000000000000000e+01
-1.390031099319458008e+00 2.242764472961425781e+00 -6.091674566268920898e-01 1.300000000000000000e+01
-1.629530072212219016e+00 2.630212545394897017e+00 -6.014299392700195312e-01 1.100000000000000000e+01
-1.956835627555846946e+00 3.160978078842163086e+00 -5.888193249702453613e-01 9.000000000000000000e+00
-2.465565443038939986e+00 3.985863685607910156e+00 -5.754670500755310059e-01 1.000000000000000000e+01
-3.237799644470214844e+00 5.236309528350830078e+00 -5.386224985122680664e-01 6.000000000000000000e+00
-4.821729660034179688e+00 7.803998470306395596e+00 -4.807581007480620783e-01 1.000000000000000000e+00
-9.448073387145996094e+00 1.530370807647705078e+01 -3.139338791370391846e-01 3.000000000000000000e+00
-3.236749267578125000e+01 5.244837570190429688e+01 1.651420783996582031e+01 2.600000000000000000e+01
-1.221828103065490945e+00 1.983725070953368919e+00 -6.242715120315551758e-01 1.800000000000000000e+01
-1.381956934928894043e+00 2.245460748672484907e+00 -6.087175607681274414e-01 1.200000000000000000e+01
-1.618172764778136985e+00 2.630302429199219194e+00 -6.002851128578186035e-01 1.200000000000000000e+01
-1.951033353805541992e+00 3.173841476440430132e+00 -5.900707840919494629e-01 9.000000000000000000e+00
-2.445758342742919922e+00 3.981749534606934038e+00 -5.737608671188354492e-01 8.000000000000000000e+00
-3.214035749435424805e+00 5.234570503234863281e+00 -5.374023318290710449e-01 6.000000000000000000e+00
-4.786744117736816406e+00 7.802083969116210938e+00 -4.797113835811614990e-01 1.000000000000000000e+00
-9.416670799255371094e+00 1.536059284210205078e+01 -3.144923746585845947e-01 3.000000000000000000e+00
-3.221173095703125000e+01 5.254418182373046875e+01 1.651420783996582031e+01 2.600000000000000000e+01
-1.208851814270019975e+00 1.978087544441222922e+00 -6.211656928062438965e-01 1.800000000000000000e+01
-1.381219625473022017e+00 2.261913299560546875e+00 -6.118668913841247559e-01 1.300000000000000000e+01
-1.604889988899230957e+00 2.629231929779053178e+00 -5.987586379051208496e-01 1.100000000000000000e+01
-1.941999912261962891e+00 3.184005260467528853e+00 -5.906965136528015137e-01 9.000000000000000000e+00
-2.431844472885131836e+00 3.990262508392333984e+00 -5.737608671188354492e-01 8.000000000000000000e+00
-3.195744037628173828e+00 5.245757579803466797e+00 -5.374023318290710449e-01 6.000000000000000000e+00
-4.740787506103515625e+00 7.788036823272705078e+00 -4.778272807598114014e-01 1.000000000000000000e+00
-9.319350242614746094e+00 1.532161331176757990e+01 -3.130263686180114746e-01 3.000000000000000000e+00
-1.200938105583190918e+00 1.980643272399901900e+00 -6.206480860710144043e-01 1.600000000000000000e+01
-1.378364562988281028e+00 2.275054216384888139e+00 -6.141163706779479980e-01 1.200000000000000000e+01
-1.594685435295104980e+00 2.633138656616210938e+00 -5.983769893646240234e-01 1.100000000000000000e+01
-1.927805781364440918e+00 3.185694694519042969e+00 -5.897579193115234375e-01 9.000000000000000000e+00
-2.425091266632080078e+00 4.010617733001708984e+00 -5.754670500755310059e-01 1.000000000000000000e+01
-3.172260522842406782e+00 5.248355388641357422e+00 -5.365307331085205078e-01 6.000000000000000000e+00
-4.715638637542724609e+00 7.807956695556640625e+00 -4.780366122722625732e-01 1.000000000000000000e+00
-1.195012927055359109e+00 1.986478686332703081e+00 -6.211656928062438965e-01 1.900000000000000000e+01
-1.362383127212523970e+00 2.266489982604980025e+00 -6.105171442031860352e-01 1.200000000000000000e+01
-1.590540170669556108e+00 2.647103309631348100e+00 -6.002851128578186035e-01 1.200000000000000000e+01
-1.911589860916137917e+00 3.183936595916748047e+00 -5.881935954093933105e-01 9.000000000000000000e+00
-2.411076784133911133e+00 4.019058227539063388e+00 -5.754670500755310059e-01 1.000000000000000000e+01
-3.145723581314086914e+00 5.245727062225341797e+00 -5.351362824440002441e-01 6.000000000000000000e+00
-4.688354969024658203e+00 7.824369907379150391e+00 -4.780366122722625732e-01 3.000000000000000000e+00
-9.212158203125000000e+00 1.538630008697509943e+01 -3.130263686180114746e-01 3.000000000000000000e+00
-1.188071489334106001e+00 1.990637898445128950e+00 -6.211656928062438965e-01 1.700000000000000000e+01
-1.352466940879821999e+00 2.267884492874145952e+00 -6.096173524856567383e-01 1.300000000000000000e+01
-1.584306120872498003e+00 2.657698154449462891e+00 -6.014299392700195312e-01 1.100000000000000000e+01
-1.896420598030090110e+00 3.183801412582397017e+00 -5.869421362876892090e-01 9.000000000000000000e+00
-2.397032976150513139e+00 4.027450084686279297e+00 -5.754670500755310059e-01 1.000000000000000000e+01
-3.143692493438721147e+00 5.284071922302246094e+00 -5.379252433776855469e-01 6.000000000000000000e+00
-4.652849674224854404e+00 7.826953411102294922e+00 -4.771992564201354980e-01 3.000000000000000000e+00
-9.121629714965820312e+00 1.535647010803223012e+01 -3.117697834968566895e-01 3.000000000000000000e+00
-1.181115627288817915e+00 1.994772911071776900e+00 -6.211656928062438965e-01 1.800000000000000000e+01
-1.338588595390320046e+00 2.262528419494628906e+00 -6.069179177284240723e-01 1.200000000000000000e+01
-1.569023132324218972e+00 2.653073310852050781e+00 -5.991402268409729004e-01 1.100000000000000000e+01
-1.887305378913878950e+00 3.193803071975708008e+00 -5.875678658485412598e-01 1.000000000000000000e+01
-2.369838953018188032e+00 4.013571262359619141e+00 -5.722984075546264648e-01 1.000000000000000000e+01
-3.114088773727416992e+00 5.276139259338378906e+00 -5.360078215599060059e-01 6.000000000000000000e+00
-4.631587505340576172e+00 7.853469371795654297e+00 -4.778272807598114014e-01 3.000000000000000000e+00
-9.053756713867187500e+00 1.536409759521484020e+01 -3.112811148166655939e-01 3.000000000000000000e+00
-1.174145340919495073e+00 1.998883605003356934e+00 -6.211656928062438965e-01 1.800000000000000000e+01
-1.334628462791443093e+00 2.273909807205200195e+00 -6.087175607681274414e-01 1.100000000000000000e+01
-1.552798271179198997e+00 2.646680593490601030e+00 -5.964689254760742188e-01 1.100000000000000000e+01
-1.879142522811890093e+00 3.205483913421630859e+00 -5.885064601898193359e-01 1.000000000000000000e+01
-2.356817960739136186e+00 4.023531913757324219e+00 -5.725421905517578125e-01 1.000000000000000000e+01
-3.094645738601685014e+00 5.285258293151854581e+00 -5.358334779739379883e-01 6.000000000000000000e+00
-4.592042446136474609e+00 7.848901748657226562e+00 -4.765712320804595947e-01 3.000000000000000000e+00
-8.989979743957519531e+00 1.537834358215332031e+01 -3.109320700168610174e-01 3.000000000000000000e+00
-1.164242863655090110e+00 1.997962594032288042e+00 -6.196128129959106445e-01 1.900000000000000000e+01
-1.333546757698059082e+00 2.290343284606934038e+00 -6.118668913841247559e-01 1.200000000000000000e+01
-1.549475550651550071e+00 2.662265539169311968e+00 -5.987586379051208496e-01 1.200000000000000000e+01
-1.868934869766234907e+00 3.213731527328491211e+00 -5.888193249702453613e-01 9.000000000000000000e+00
-2.348742723464965820e+00 4.042032241821289062e+00 -5.740045905113220215e-01 1.000000000000000000e+01
-3.066170930862427202e+00 5.278800010681152344e+00 -5.340903997421264648e-01 8.000000000000000000e+00
-4.572637081146240234e+00 7.878702640533447266e+00 -4.774085879325867254e-01 1.000000000000000000e+00
-8.896117210388183594e+00 1.534043598175049006e+01 -3.095358908176422119e-01 3.000000000000000000e+00
-1.155328035354614036e+00 1.998669266700745073e+00 -6.185775399208068848e-01 1.900000000000000000e+01
-1.322619915008544922e+00 2.289921760559082031e+00 -6.105171442031860352e-01 1.400000000000000000e+01
-1.541154623031615989e+00 2.669358253479003906e+00 -5.991402268409729004e-01 1.100000000000000000e+01
-1.853757143020630105e+00 3.213391542434691939e+00 -5.875678658485412598e-01 9.000000000000000000e+00
-2.329662561416625977e+00 4.041607379913330078e+00 -5.727859139442443848e-01 8.000000000000000000e+00
-3.051704645156859907e+00 5.296375751495361328e+00 -5.347876548767089844e-01 9.000000000000000000e+00
-4.539128303527832031e+00 7.884230613708496094e+00 -4.767805635929108221e-01 1.000000000000000000e+00
-8.842514991760253906e+00 1.537139606475830078e+01 -3.095358908176422119e-01 3.000000000000000000e+00
-1.153149127960205078e+00 2.011069536209106001e+00 -6.211656928062438965e-01 1.800000000000000000e+01
-1.314618468284606934e+00 2.294524669647216797e+00 -6.105171442031860352e-01 1.300000000000000000e+01
-1.531827449798583984e+00 2.674721479415893999e+00 -5.991402268409729004e-01 1.100000000000000000e+01
-1.840566754341125044e+00 3.216413736343383789e+00 -5.869421362876892090e-01 9.000000000000000000e+00
-2.307657718658446822e+00 4.035928249359130859e+00 -5.708360075950622559e-01 1.000000000000000000e+01
-3.029243469238280806e+00 5.300076961517333984e+00 -5.340903997421264648e-01 9.000000000000000000e+00
-4.495732307434082031e+00 7.872277259826660156e+00 -4.751058220863341730e-01 1.000000000000000000e+00
-8.739251136779785156e+00 1.531532669067382990e+01 -3.077906370162963867e-01 3.000000000000000000e+00
-1.142905950546265093e+00 2.010244131088256836e+00 -6.196128129959106445e-01 1.900000000000000000e+01
-1.302349567413330078e+00 2.292549848556518999e+00 -6.087175607681274414e-01 1.200000000000000000e+01
-1.518136143684386985e+00 2.673489093780518022e+00 -5.976137518882751465e-01 1.100000000000000000e+01
-1.832664966583251953e+00 3.230010509490966797e+00 -5.881935954093933105e-01 9.000000000000000000e+00
-2.288933753967285156e+00 4.037451744079589844e+00 -5.698610544204711914e-01 1.000000000000000000e+01
-3.016673564910889116e+00 5.323277950286865234e+00 -5.353105664253234863e-01 9.000000000000000000e+00
-4.474721431732177734e+00 7.902606010437011719e+00 -4.759431779384613037e-01 1.000000000000000000e+00
-8.669273376464843750e+00 1.532288932800292969e+01 -3.073019683361052912e-01 3.000000000000000000e+00
-1.137779831886291948e+00 2.017586946487427202e+00 -6.206480860710144043e-01 1.900000000000000000e+01
-1.293382525444030984e+00 2.295384168624877930e+00 -6.082676649093627930e-01 1.300000000000000000e+01
-1.503977298736572044e+00 2.670219182968140093e+00 -5.957056879997253418e-01 1.100000000000000000e+01
-1.815566062927246094e+00 3.226058959960937944e+00 -5.863163471221923828e-01 9.000000000000000000e+00
-2.278718471527100053e+00 4.052338123321533203e+00 -5.708360075950622559e-01 1.000000000000000000e+01
-2.984405994415283203e+00 5.309460163116455078e+00 -5.328702330589294434e-01 9.000000000000000000e+00
-4.447109222412109375e+00 7.918177604675292969e+00 -4.759431779384613037e-01 1.000000000000000000e+00
-8.615734100341796875e+00 1.535305690765381037e+01 -3.073019683361052912e-01 3.000000000000000000e+00
-1.124479532241821067e+00 2.009547710418701172e+00 -6.170246005058288574e-01 1.900000000000000000e+01
-1.290518641471863015e+00 2.308165073394774947e+00 -6.105171442031860352e-01 1.300000000000000000e+01
-1.496072053909301980e+00 2.676905632019042969e+00 -5.960872769355773926e-01 1.200000000000000000e+01
-1.806784272193908913e+00 3.235511302947998047e+00 -5.869421362876892090e-01 9.000000000000000000e+00
-2.262366056442261186e+00 4.054671764373779297e+00 -5.701047778129577637e-01 1.000000000000000000e+01
-2.968723773956298828e+00 5.322807788848876953e+00 -5.332188606262207031e-01 8.000000000000000000e+00
-4.416937828063964844e+00 7.925902366638183594e+00 -4.755244851112365723e-01 1.000000000000000000e+00
-8.529751777648925781e+00 1.531864738464354936e+01 -3.060454130172728937e-01 2.000000000000000000e+00
-1.118395566940308061e+00 2.015149831771851030e+00 -6.175422668457031250e-01 1.900000000000000000e+01
-1.282453775405884011e+00 2.312655925750731978e+00 -6.105171442031860352e-01 1.400000000000000000e+01
-1.490525960922240989e+00 2.688980102539062944e+00 -5.976137518882751465e-01 1.100000000000000000e+01
-1.790693879127501997e+00 3.233158349990845171e+00 -5.853777527809143066e-01 1.000000000000000000e+01
-2.255888223648070845e+00 4.076439380645751953e+00 -5.720546841621398926e-01 1.000000000000000000e+01
-2.940481424331665039e+00 5.315703868865966797e+00 -5.314757227897644043e-01 9.000000000000000000e+00
-4.383447647094726562e+00 7.930784225463867188e+00 -4.748964607715607245e-01 1.000000000000000000e+00
-8.476227760314941406e+00 1.534832859039306996e+01 -3.060454130172728937e-01 2.000000000000000000e+00
-1.111354589462280051e+00 2.019041538238524947e+00 -6.175422668457031250e-01 1.900000000000000000e+01
-1.264043092727660911e+00 2.298335552215576172e+00 -6.055682301521301270e-01 1.300000000000000000e+01
-1.483022212982177956e+00 2.697607517242432085e+00 -5.983769893646240234e-01 1.100000000000000000e+01
-1.781299233436584029e+00 3.242851972579956055e+00 -5.860034823417663574e-01 1.000000000000000000e+01
-2.239734888076781782e+00 4.080808639526367188e+00 -5.715672373771667480e-01 1.000000000000000000e+01
-2.922866582870482954e+00 5.327682495117188388e+00 -5.316500067710876465e-01 9.000000000000000000e+00
-4.355737209320068359e+00 7.946036815643311435e+00 -4.748964607715607245e-01 1.000000000000000000e+00
-8.397624969482421875e+00 1.533222198486327947e+01 -3.051378726959229071e-01 2.000000000000000000e+00
-1.107077002525330034e+00 2.027995586395264116e+00 -6.190951466560363770e-01 1.700000000000000000e+01
-1.259745240211487038e+00 2.309576988220214844e+00 -6.073678731918334961e-01 1.300000000000000000e+01
-1.473596811294556108e+00 2.702767848968505859e+00 -5.983769893646240234e-01 1.100000000000000000e+01
-1.772803664207458052e+00 3.254254102706909180e+00 -5.869421362876892090e-01 9.000000000000000000e+00
-2.211241245269774947e+00 4.062448501586914062e+00 -5.679111480712890625e-01 1.000000000000000000e+01
-2.906156063079833984e+00 5.341352939605712891e+00 -5.319986343383789062e-01 9.000000000000000000e+00
-4.329881668090820312e+00 7.964702129364013672e+00 -4.751058220863341730e-01 1.000000000000000000e+00
-8.344054222106933594e+00 1.536144256591797053e+01 -3.051378726959229071e-01 2.000000000000000000e+00
-1.100345730781554954e+00 2.031655550003052202e+00 -6.190951466560363770e-01 1.800000000000000000e+01
-1.253934383392333984e+00 2.317169666290283203e+00 -6.082676649093627930e-01 1.200000000000000000e+01
-1.460889697074889915e+00 2.700732231140137163e+00 -5.968505144119262695e-01 1.100000000000000000e+01
-1.763880848884582964e+00 3.263590812683105025e+00 -5.875678658485412598e-01 9.000000000000000000e+00
-2.200587034225463867e+00 4.074999332427979404e+00 -5.686423778533935547e-01 1.000000000000000000e+01
-2.878963470458983931e+00 5.333427906036376953e+00 -5.302555561065673828e-01 9.000000000000000000e+00
-4.292068958282470703e+00 7.957922458648681641e+00 -4.738497436046599787e-01 1.000000000000000000e+00
-8.247532844543457031e+00 1.530453014373778942e+01 -3.034624457359313965e-01 2.000000000000000000e+00
-1.087762713432312012e+00 2.025272607803345171e+00 -6.159893274307250977e-01 1.800000000000000000e+01
-1.249524235725403054e+00 2.328400850296020952e+00 -6.100672483444213867e-01 1.200000000000000000e+01
-1.453309535980225053e+00 2.709275484085083008e+00 -5.976137518882751465e-01 1.100000000000000000e+01
-1.746879100799560991e+00 3.259281396865845171e+00 -5.856906175613403320e-01 1.000000000000000000e+01
-2.187286376953125000e+00 4.084405899047851562e+00 -5.688861012458801270e-01 8.000000000000000000e+00
-2.863149642944335938e+00 5.348714828491210938e+00 -5.307784676551818848e-01 9.000000000000000000e+00
-4.251076698303222656e+00 7.948199272155761719e+00 -4.723843336105347235e-01 1.000000000000000000e+00
-8.203484535217285156e+00 1.535086345672607067e+01 -3.038114905357360840e-01 2.000000000000000000e+00
-1.080686569213866965e+00 2.029057264328002930e+00 -6.159893274307250977e-01 1.800000000000000000e+01
-1.240473508834839089e+00 2.331028223037720171e+00 -6.096173524856567383e-01 1.300000000000000000e+01
-1.443843603134155051e+00 2.714331865310668945e+00 -5.976137518882751465e-01 1.100000000000000000e+01
-1.733637213706969993e+00 3.261870861053466797e+00 -5.850648880004882812e-01 1.000000000000000000e+01
-2.178601980209351030e+00 4.102535247802734375e+00 -5.703485012054443359e-01 1.000000000000000000e+01
-2.842593431472777876e+00 5.355156421661376953e+00 -5.304298400878906250e-01 9.000000000000000000e+00
-4.217691898345947266e+00 7.952403545379638672e+00 -4.717563092708588202e-01 1.000000000000000000e+00
-8.116142272949218750e+00 1.531579494476318004e+01 -3.025549054145812988e-01 2.000000000000000000e+00
-1.075401663780211958e+00 2.036233663558959961e+00 -6.170246005058288574e-01 1.700000000000000000e+01
-1.222325086593627930e+00 2.316385507583618164e+00 -6.046684384346008301e-01 1.300000000000000000e+01
-1.434360027313231978e+00 2.719355344772338867e+00 -5.976137518882751465e-01 1.100000000000000000e+01
-1.721319675445557085e+00 3.266154766082764116e+00 -5.847520232200622559e-01 1.000000000000000000e+01
-2.156869173049927202e+00 4.096063137054443359e+00 -5.683985948562622070e-01 8.000000000000000000e+00
-2.825739145278931108e+00 5.368572711944580078e+00 -5.307784676551818848e-01 9.000000000000000000e+00
-4.182469844818115234e+00 7.952935695648193359e+00 -4.709189236164093018e-01 1.000000000000000000e+00
-8.062630653381347656e+00 1.534403228759765980e+01 -3.025549054145812988e-01 2.000000000000000000e+00
-1.072410821914673074e+00 2.048719406127930132e+00 -6.196128129959106445e-01 1.900000000000000000e+01
-1.217439413070678933e+00 2.327757120132445845e+00 -6.064680218696594238e-01 1.200000000000000000e+01
-1.424383401870727983e+00 2.724594116210937944e+00 -5.976137518882751465e-01 1.200000000000000000e+01
-1.711166143417357954e+00 3.275943756103516069e+00 -5.853777527809143066e-01 1.000000000000000000e+01
-2.141841650009154829e+00 4.103940963745117188e+00 -5.683985948562622070e-01 8.000000000000000000e+00
-2.806043386459351030e+00 5.378893375396729404e+00 -5.307784676551818848e-01 9.000000000000000000e+00
-4.132983207702636719e+00 7.929247379302979404e+00 -4.686161577701569159e-01 1.000000000000000000e+00
-7.982322692871093750e+00 1.532736682891846058e+01 -3.016473948955535889e-01 2.000000000000000000e+00
-1.061693191528320090e+00 2.045591592788695845e+00 -6.175422668457031250e-01 1.900000000000000000e+01
-1.211100816726685014e+00 2.335452556610106978e+00 -6.073678731918334961e-01 1.300000000000000000e+01
-1.413057208061218040e+00 2.726063728332519975e+00 -5.968505144119262695e-01 1.100000000000000000e+01
-1.704262852668761985e+00 3.290667295455933061e+00 -5.869421362876892090e-01 1.000000000000000000e+01
-2.125678777694702148e+00 4.107866287231445312e+00 -5.679111480712890625e-01 1.000000000000000000e+01
-2.789081096649169922e+00 5.392194747924804688e+00 -5.311270952224731445e-01 9.000000000000000000e+00
-4.129120826721191406e+00 7.989758014678955078e+00 -4.713376164436339777e-01 1.000000000000000000e+00
-7.860878944396972656e+00 1.522365379333495916e+01 -2.990644276142119806e-01 2.000000000000000000e+00
-1.054019689559936968e+00 2.047383546829224077e+00 -6.170246005058288574e-01 2.000000000000000000e+01
-1.208697795867919922e+00 2.349853515625000000e+00 -6.100672483444213867e-01 1.200000000000000000e+01
-1.400418639183043990e+00 2.723750591278076172e+00 -5.953240394592285156e-01 1.200000000000000000e+01
-1.686120152473449929e+00 3.282243967056273970e+00 -5.844391584396362305e-01 9.000000000000000000e+00
-2.112044811248778853e+00 4.114892959594726562e+00 -5.679111480712890625e-01 8.000000000000000000e+00
-2.760270833969116211e+00 5.380141735076904297e+00 -5.290353298187255859e-01 1.100000000000000000e+01
-4.091670513153076172e+00 7.982078552246093750e+00 -4.700815677642822266e-01 1.000000000000000000e+00
-7.810352325439453125e+00 1.524963760375976918e+01 -2.990644276142119806e-01 2.000000000000000000e+00
-1.044231891632080078e+00 2.045888185501099077e+00 -6.154716610908508301e-01 2.100000000000000000e+01
-1.197831988334655984e+00 2.348850250244141069e+00 -6.087175607681274414e-01 1.100000000000000000e+01
-1.396252036094665971e+00 2.739116907119750977e+00 -5.976137518882751465e-01 1.200000000000000000e+01
-1.673756241798401101e+00 3.286349534988402876e+00 -5.841262936592102051e-01 1.000000000000000000e+01
-2.100369215011597124e+00 4.127547740936279297e+00 -5.686423778533935547e-01 1.000000000000000000e+01
-2.736054182052611861e+00 5.379088878631591797e+00 -5.279895067214965820e-01 1.100000000000000000e+01
-4.051114559173583984e+00 7.971385478973388672e+00 -4.686161577701569159e-01 1.000000000000000000e+00
-7.771559238433837891e+00 1.530533599853515980e+01 -2.996229231357573908e-01 2.000000000000000000e+00
-1.038314223289489968e+00 2.051063299179077148e+00 -6.159893274307250977e-01 2.000000000000000000e+01
-1.185638546943664995e+00 2.344114780426024947e+00 -6.064680218696594238e-01 1.300000000000000000e+01
-1.388046979904175027e+00 2.745484113693236861e+00 -5.979954004287719727e-01 1.200000000000000000e+01
-1.661067843437195046e+00 3.288355350494385210e+00 -5.835005640983581543e-01 1.000000000000000000e+01
-2.081303596496582031e+00 4.123857021331787109e+00 -5.671799182891845703e-01 1.000000000000000000e+01
-2.718201398849486861e+00 5.388132572174072266e+00 -5.279895067214965820e-01 1.100000000000000000e+01
-4.008476734161376953e+00 7.952672481536865234e+00 -4.667320549488068182e-01 1.000000000000000000e+00
-7.706371307373046875e+00 1.530244731903075994e+01 -2.990644276142119806e-01 2.000000000000000000e+00
-1.032014846801758035e+00 2.056401729583739790e+00 -6.165069937705993652e-01 1.900000000000000000e+01
-1.174828410148621050e+00 2.343013048171997070e+00 -6.051183342933654785e-01 1.100000000000000000e+01
-1.372297167778014915e+00 2.738026618957519975e+00 -5.953240394592285156e-01 1.200000000000000000e+01
-1.653117179870605025e+00 3.301198720932006836e+00 -5.847520232200622559e-01 1.100000000000000000e+01
-2.059790134429932085e+00 4.116894721984863281e+00 -5.652300119400024414e-01 1.000000000000000000e+01
-2.704723834991455078e+00 5.408279895782470703e+00 -5.290353298187255859e-01 1.100000000000000000e+01
-3.984263420104980025e+00 7.973762512207031250e+00 -4.671507477760314941e-01 3.000000000000000000e+00
-7.626112937927246094e+00 1.527558040618895951e+01 -2.980172932147979736e-01 2.000000000000000000e+00
-1.026551365852355957e+00 2.063451051712036133e+00 -6.175422668457031250e-01 1.900000000000000000e+01
-1.175316452980041948e+00 2.364550352096558061e+00 -6.096173524856567383e-01 1.300000000000000000e+01
-1.364478468894958052e+00 2.746316432952880859e+00 -5.960872769355773926e-01 1.100000000000000000e+01
-1.640705466270446999e+00 3.305179595947266069e+00 -5.844391584396362305e-01 1.000000000000000000e+01
-2.050699234008789062e+00 4.134729862213134766e+00 -5.666924715042114258e-01 1.000000000000000000e+01
-2.678749322891234907e+00 5.403407573699951172e+00 -5.276408791542053223e-01 1.100000000000000000e+01
-3.951086521148682085e+00 7.976883411407470703e+00 -4.665227234363555908e-01 1.000000000000000000e+00
-7.565649032592773438e+00 1.528777027130126953e+01 -2.977380454540253241e-01 2.000000000000000000e+00
-1.015070080757140891e+00 2.058358669281005859e+00 -6.149540543556213379e-01 1.700000000000000000e+01
-1.162749052047729048e+00 2.359898090362548828e+00 -6.073678731918334961e-01 1.300000000000000000e+01
-1.355751156806946023e+00 2.752824068069458008e+00 -5.964689254760742188e-01 1.200000000000000000e+01
-1.627413868904113992e+00 3.307341814041138139e+00 -5.838134288787841797e-01 9.000000000000000000e+00
-2.034502267837523970e+00 4.138300418853759766e+00 -5.662049651145935059e-01 1.000000000000000000e+01
-2.653720617294311968e+00 5.400207996368408203e+00 -5.264207124710083008e-01 1.100000000000000000e+01
-3.919697046279906782e+00 7.983455181121826172e+00 -4.661040306091309149e-01 1.000000000000000000e+00
-7.487579345703125000e+00 1.526381683349609020e+01 -2.967607080936431885e-01 2.000000000000000000e+00
-1.010063290596008079e+00 2.067272424697875977e+00 -6.165069937705993652e-01 1.900000000000000000e+01
-1.150672197341918945e+00 2.357139110565185991e+00 -6.055682301521301270e-01 1.300000000000000000e+01
-1.347374320030211958e+00 2.761303424835205078e+00 -5.972321629524230957e-01 1.200000000000000000e+01
-1.611818432807921919e+00 3.306181907653809038e+00 -5.825619697570800781e-01 1.000000000000000000e+01
-2.021059513092041016e+00 4.149298667907714844e+00 -5.666924715042114258e-01 1.000000000000000000e+01
-2.633909940719604048e+00 5.409898281097412109e+00 -5.264207124710083008e-01 1.100000000000000000e+01
-3.895651817321776900e+00 8.008543968200683594e+00 -4.667320549488068182e-01 1.000000000000000000e+00
-7.419347286224365234e+00 1.526597785949707031e+01 -2.962720394134520929e-01 2.000000000000000000e+00
-1.002840995788573997e+00 2.070785522460937944e+00 -6.165069937705993652e-01 1.900000000000000000e+01
-1.139891028404236062e+00 2.355878829956055132e+00 -6.042185425758361816e-01 1.100000000000000000e+01
-1.335162997245789018e+00 2.760687589645386186e+00 -5.960872769355773926e-01 1.200000000000000000e+01
