2.148781538009643999e+00 1.421169042587280051e+00 -5.947706103324890137e-01 1.100000000000000000e+01
2.495850324630736861e+00 1.650088667869568093e+00 -5.815858244895935059e-01 1.200000000000000000e+01
2.966741085052489790e+00 1.959921956062316895e+00 -5.631640553474426270e-01 1.000000000000000000e+01
3.687764406204224077e+00 2.434404134750366211e+00 -5.425623059272766113e-01 1.000000000000000000e+01
4.890762805938720703e+00 3.227313756942749023e+00 -5.126500725746154785e-01 9.000000000000000000e+00
3.163761520385741832e+01 2.086908721923828125e+01 7.367135524749755859e+00 6.200000000000000000e+01
6.918073654174804688e+00 4.561628818511962891e+00 -4.342837631702423096e-01 2.000000000000000000e+00
1.135481357574463068e+01 7.481434822082520419e+00 -2.373527288436889926e-01 2.000000000000000000e+00
3.300230026245117188e+01 2.174448204040526988e+01 1.058983993530273082e+01 9.000000000000000000e+00
1.890761971473694070e+00 1.241998434066772017e+00 -6.061542034149169922e-01 1.900000000000000000e+01
3.257018661499022727e+01 2.138647651672362926e+01 6.801202893257141113e-01 3.300000000000000000e+01
2.140696048736571822e+00 1.405105113983154075e+00 -5.911713838577270508e-01 1.100000000000000000e+01
2.509802341461182085e+00 1.646751523017883079e+00 -5.834938883781433105e-01 1.400000000000000000e+01
2.968608379364014116e+00 1.946304917335510032e+00 -5.622254610061645508e-01 1.100000000000000000e+01
3.681295394897460938e+00 2.411725997924805132e+00 -5.403686761856079102e-01 9.000000000000000000e+00
4.898664951324462891e+00 3.208039045333861861e+00 -5.123014450073242188e-01 8.000000000000000000e+00
6.933954715728759766e+00 4.537452697753906250e+00 -4.342837631702423096e-01 2.000000000000000000e+00
3.247782897949218750e+01 2.124480056762694957e+01 8.959800720214843750e+00 1.200000000000000000e+01
1.139759635925292969e+01 7.452697277069091797e+00 -2.377017736434937079e-01 2.000000000000000000e+00
3.327582168579102273e+01 2.175021362304687855e+01 1.065195655822754084e+01 9.000000000000000000e+00
1.899940848350524902e+00 1.238555908203125000e+00 -6.077071428298950195e-01 1.700000000000000000e+01
2.152119398117064986e+00 1.401878714561461958e+00 -5.929709672927856445e-01 1.100000000000000000e+01
2.499083280563354048e+00 1.627267956733704057e+00 -5.796777009963989258e-01 1.400000000000000000e+01
2.978695631027222124e+00 1.938085317611693892e+00 -5.628511905670166016e-01 1.000000000000000000e+01
3.691355705261230025e+00 2.399943351745605025e+00 -5.406123995780944824e-01 1.000000000000000000e+01
3.289730072021483664e+01 2.138825416564941051e+01 6.214828491210938388e+00 1.400000000000000000e+01
4.913174152374267578e+00 3.193091392517089844e+00 -5.126500725746154785e-01 8.000000000000000000e+00
6.969851493835449219e+00 4.526274204254150391e+00 -4.355398416519165039e-01 2.000000000000000000e+00
1.145709133148193004e+01 7.434637069702148438e+00 -2.383998781442641934e-01 2.000000000000000000e+00
3.258934783935546875e+01 2.114760017395019887e+01 1.040970230102539062e+01 8.000000000000000000e+00
1.901008605957031028e+00 1.229817628860474077e+00 -6.066718697547912598e-01 1.800000000000000000e+01
2.156999588012694868e+00 1.394357800483704057e+00 -5.929709672927856445e-01 1.100000000000000000e+01
2.508046150207519975e+00 1.620665669441222922e+00 -5.804409384727478027e-01 1.400000000000000000e+01
2.995399713516234907e+00 1.934105038642883079e+00 -5.647284388542175293e-01 1.000000000000000000e+01
3.703046560287476030e+00 2.389195919036864790e+00 -5.410999059677124023e-01 1.000000000000000000e+01
4.932662010192871094e+00 3.181321144104003906e+00 -5.135216116905212402e-01 9.000000000000000000e+00
3.102938652038573863e+01 2.000473976135253906e+01 7.176326274871826172e+00 6.100000000000000000e+01
6.978893280029296875e+00 4.497589588165283203e+00 -4.351211488246917725e-01 2.000000000000000000e+00
3.077415275573730113e+01 1.982498741149901988e+01 8.451411247253417969e+00 1.100000000000000000e+01
1.144262313842773082e+01 7.368615150451660156e+00 -2.375621497631072998e-01 2.000000000000000000e+00
3.263048171997070312e+01 2.101279449462890980e+01 1.039934921264648082e+01 8.000000000000000000e+00
1.897161602973937988e+00 1.217956066131592019e+00 -6.040836572647094727e-01 1.900000000000000000e+01
3.228746795654296875e+01 2.072022819519042969e+01 6.696488261222839355e-01 3.200000000000000000e+01
2.171695232391356978e+00 1.393133282661437988e+00 -5.956704020500183105e-01 1.100000000000000000e+01
2.507077455520629883e+00 1.607661962509155051e+00 -5.789144635200500488e-01 1.400000000000000000e+01
3.007122516632080078e+00 1.926834583282470925e+00 -5.656670331954956055e-01 8.000000000000000000e+00
3.716379165649414062e+00 2.379466295242310014e+00 -5.418310761451721191e-01 1.000000000000000000e+01
3.138571929931640980e+01 2.008744430541991832e+01 5.901959419250488281e+00 1.300000000000000000e+01
4.940380573272705078e+00 3.161935567855834961e+00 -5.131729841232299805e-01 9.000000000000000000e+00
7.004645824432373047e+00 4.479658126831054688e+00 -4.357491731643676758e-01 2.000000000000000000e+00
3.092526245117187855e+01 1.976992607116698863e+01 8.473906517028808594e+00 1.100000000000000000e+01
1.150534534454346058e+01 7.352317810058593750e+00 -2.383300662040709894e-01 2.000000000000000000e+00
3.388220214843750000e+01 2.165191078186035156e+01 1.077411937713623047e+01 9.000000000000000000e+00
1.904660105705261008e+00 1.213402271270751953e+00 -6.051189303398132324e-01 1.900000000000000000e+01
2.179832696914672852e+00 1.387637138366698997e+00 -5.965701937675476074e-01 1.100000000000000000e+01
2.522611856460570845e+00 1.605224728584289995e+00 -5.812041759490966797e-01 1.500000000000000000e+01
2.990492820739746094e+00 1.901487231254578081e+00 -5.612868666648864746e-01 8.000000000000000000e+00
3.604966354370117188e+01 2.291312980651855113e+01 5.244769096374511719e+00 3.000000000000000000e+01
3.739742040634154829e+00 2.376060247421265093e+00 -5.440247654914855957e-01 1.000000000000000000e+01
4.958115100860595703e+00 3.148943901062012163e+00 -5.138702392578125000e-01 9.000000000000000000e+00
7.006749153137207031e+00 4.446618556976318359e+00 -4.349117875099182129e-01 2.000000000000000000e+00
3.097762870788573863e+01 1.965141677856444957e+01 8.469407081604003906e+00 1.100000000000000000e+01
1.154444980621338068e+01 7.320678710937500000e+00 -2.386092990636826117e-01 2.000000000000000000e+00
3.269190216064453125e+01 2.072290802001953125e+01 1.037139701843262074e+01 8.000000000000000000e+00
1.913360357284545898e+00 1.210511207580565962e+00 -6.066718697547912598e-01 1.700000000000000000e+01
2.171003818511962891e+00 1.372451663017272949e+00 -5.929709672927856445e-01 1.100000000000000000e+01
2.535940647125244141e+00 1.602535724639893022e+00 -5.831122994422912598e-01 1.400000000000000000e+01
3.008143663406372070e+00 1.899465680122375044e+00 -5.634769201278686523e-01 8.000000000000000000e+00
3.601403427124022727e+01 2.273195266723633168e+01 5.229169845581054688e+00 3.000000000000000000e+01
3.740472793579102007e+00 2.360062599182128906e+00 -5.430498123168945312e-01 1.000000000000000000e+01
4.957872390747070312e+00 3.126974821090697798e+00 -5.128244161605834961e-01 9.000000000000000000e+00
7.030822277069091797e+00 4.430973529815673828e+00 -4.355398416519165039e-01 2.000000000000000000e+00
3.097325897216796875e+01 1.951245307922362926e+01 8.451411247253417969e+00 1.100000000000000000e+01
1.156739139556884943e+01 7.284374713897705078e+00 -2.386092990636826117e-01 2.000000000000000000e+00
3.246226501464843750e+01 2.044257736206055043e+01 1.027925682067870916e+01 8.000000000000000000e+00
1.920846462249756081e+00 1.205879330635071023e+00 -6.077071428298950195e-01 1.900000000000000000e+01
2.175781488418579102e+00 1.364865064620971902e+00 -5.929709672927856445e-01 1.100000000000000000e+01
2.536529302597045898e+00 1.590544939041137917e+00 -5.819674134254455566e-01 1.300000000000000000e+01
3.014755725860596147e+00 1.888953685760498047e+00 -5.634769201278686523e-01 1.000000000000000000e+01
3.140949821472167969e+01 1.967259788513183949e+01 4.550601482391357422e+00 1.900000000000000000e+01
3.736910581588745117e+00 2.339617729187012163e+00 -5.413436293601989746e-01 9.000000000000000000e+00
4.968757152557373047e+00 3.109649419784545898e+00 -5.128244161605834961e-01 6.000000000000000000e+00
7.036086082458496094e+00 4.400050163269042969e+00 -4.349117875099182129e-01 2.000000000000000000e+00
3.114363288879394887e+01 1.946825981140137074e+01 8.479305267333984375e+00 1.100000000000000000e+01
1.165040588378906072e+01 7.279981613159179688e+00 -2.397960573434829989e-01 2.000000000000000000e+00
3.268742370605468750e+01 2.042536926269530895e+01 1.032791519165039062e+01 8.000000000000000000e+00
1.918485164642333984e+00 1.195081233978271040e+00 -6.056365370750427246e-01 2.000000000000000000e+01
2.183841228485106978e+00 1.359321475028991921e+00 -5.938707590103149414e-01 1.000000000000000000e+01
2.545399665832519975e+00 1.583755493164062944e+00 -5.827306509017944336e-01 1.400000000000000000e+01
3.028041362762451172e+00 1.882590651512145996e+00 -5.647284388542175293e-01 1.300000000000000000e+01
3.162971878051758168e+01 1.965714263916015980e+01 4.572537899017333984e+00 1.900000000000000000e+01
3.751799345016479048e+00 2.330749273300170898e+00 -5.423185825347900391e-01 9.000000000000000000e+00
4.972811222076416016e+00 3.088082075119018999e+00 -5.121271610260009766e-01 9.000000000000000000e+00
3.092664146423339844e+01 1.919775581359862926e+01 7.075579166412354404e+00 6.100000000000000000e+01
7.064979076385498047e+00 4.383887767791748047e+00 -4.357491731643676758e-01 2.000000000000000000e+00
3.115178298950194957e+01 1.932245063781737926e+01 8.463109016418457031e+00 1.100000000000000000e+01
1.165535259246825994e+01 7.226624965667724609e+00 -2.393772006034851074e-01 2.000000000000000000e+00
1.921001791954040971e+00 1.187361478805541992e+00 -6.051189303398132324e-01 2.100000000000000000e+01
2.195204973220825195e+00 1.355786204338073953e+00 -5.956704020500183105e-01 1.100000000000000000e+01
2.540889263153076172e+00 1.568672657012939009e+00 -5.804409384727478027e-01 1.300000000000000000e+01
3.036275625228881836e+00 1.873046517372130904e+00 -5.650413036346435547e-01 1.400000000000000000e+01
3.176572799682616832e+01 1.958829116821289062e+01 4.582287311553955078e+00 1.900000000000000000e+01
3.763292074203491211e+00 2.319722175598144975e+00 -5.428060293197631836e-01 9.000000000000000000e+00
4.995433807373046875e+00 3.078021049499512163e+00 -5.133473277091979980e-01 8.000000000000000000e+00
3.266508102416992188e+01 2.011927795410155895e+01 7.457197189331054688e+00 6.200000000000000000e+01
7.087041854858398438e+00 4.363388061523438388e+00 -4.361678659915924072e-01 1.000000000000000000e+00
3.138168334960937855e+01 1.931369018554687855e+01 8.507199287414550781e+00 1.100000000000000000e+01
1.168050765991210938e+01 7.185895919799804688e+00 -2.393772006034851074e-01 2.000000000000000000e+00
3.162159538269042969e+01 1.944612693786621094e+01 9.946933746337890625e+00 8.000000000000000000e+00
1.931515216827393022e+00 1.185025691986083984e+00 -6.071894764900207520e-01 2.100000000000000000e+01
2.201350212097167969e+00 1.349517703056335005e+00 -5.961202979087829590e-01 1.200000000000000000e+01
2.554446935653686968e+00 1.565367102622986062e+00 -5.823490619659423828e-01 1.400000000000000000e+01
3.037416219711304155e+00 1.859872937202454057e+00 -5.641027092933654785e-01 1.400000000000000000e+01
3.203368377685546875e+01 1.960720252990723012e+01 4.611536026000976562e+00 1.900000000000000000e+01
3.770963668823242188e+00 2.307229995727539062e+00 -5.428060293197631836e-01 9.000000000000000000e+00
5.010712623596191406e+00 3.064557313919066939e+00 -5.138702392578125000e-01 9.000000000000000000e+00
7.118514537811279297e+00 4.350277423858642578e+00 -4.372145831584929865e-01 1.000000000000000000e+00
3.171163558959960938e+01 1.937206268310546875e+01 8.579183578491210938e+00 1.100000000000000000e+01
1.175888538360596058e+01 7.180471897125244141e+00 -2.404941618442535123e-01 2.000000000000000000e+00
1.940590500831604004e+00 1.181289672851562944e+00 -6.087424159049987793e-01 2.000000000000000000e+01
2.192728042602539062e+00 1.333723664283751997e+00 -5.925210714340209961e-01 1.200000000000000000e+01
2.573315620422362837e+00 1.564600467681884988e+00 -5.854020118713378906e-01 1.300000000000000000e+01
3.045578002929687944e+00 1.850284695625304954e+00 -5.644155740737915039e-01 1.100000000000000000e+01
3.407691192626953125e+01 2.069465637207030895e+01 4.895247936248779297e+00 2.100000000000000000e+01
3.794266700744628906e+00 2.303323745727539062e+00 -5.449997186660766602e-01 1.000000000000000000e+01
3.320803070068358664e+01 2.015112876892089844e+01 6.152254581451416016e+00 1.400000000000000000e+01
4.997533321380615234e+00 3.032577514648437944e+00 -5.114299058914184570e-01 9.000000000000000000e+00
7.126824855804443359e+00 4.321260452270507812e+00 -4.367958903312683105e-01 2.000000000000000000e+00
3.178239631652832031e+01 1.926326942443848012e+01 8.580082893371582031e+00 1.100000000000000000e+01
1.178387832641601918e+01 7.139381885528563565e+00 -2.404941618442535123e-01 2.000000000000000000e+00
3.343517684936522727e+01 2.025704002380371094e+01 1.047492408752441051e+01 9.000000000000000000e+00
1.948009490966797097e+00 1.176506042480468972e+00 -6.097776889801025391e-01 2.000000000000000000e+01
2.205712556838988814e+00 1.331095933914185014e+00 -5.947706103324890137e-01 1.100000000000000000e+01
2.563631772994995117e+00 1.546481609344481978e+00 -5.819674134254455566e-01 1.300000000000000000e+01
3.058785438537598100e+00 1.843721389770508035e+00 -5.656670331954956055e-01 1.200000000000000000e+01
3.410813522338867188e+01 2.055099296569823863e+01 4.889398097991943359e+00 2.100000000000000000e+01
3.786979198455810991e+00 2.280847549438477007e+00 -5.428060293197631836e-01 1.000000000000000000e+01
5.025157451629638672e+00 3.025390863418579102e+00 -5.131729841232299805e-01 6.000000000000000000e+00
7.138442516326904297e+00 4.294297695159912109e+00 -4.365865588188170832e-01 2.000000000000000000e+00
3.195632743835448863e+01 1.921648406982421875e+01 8.608877182006835938e+00 1.100000000000000000e+01
1.180872726440430043e+01 7.098204612731933594e+00 -2.404941618442535123e-01 2.000000000000000000e+00
3.355556488037108664e+01 2.016221618652344105e+01 1.048941802978515980e+01 9.000000000000000000e+00
1.942161560058593972e+00 1.163741350173949973e+00 -6.066718697547912598e-01 2.000000000000000000e+01
2.208673477172852007e+00 1.322387456893920898e+00 -5.943207144737243652e-01 1.300000000000000000e+01
2.562276124954224077e+00 1.533490657806396040e+00 -5.804409384727478027e-01 1.300000000000000000e+01
3.073679447174071822e+00 1.838102221488953081e+00 -5.672313570976257324e-01 1.200000000000000000e+01
3.398542404174804688e+01 2.031569480895996094e+01 4.861611843109130859e+00 2.100000000000000000e+01
3.796621799468994141e+00 2.268632888793944868e+00 -5.430498123168945312e-01 1.000000000000000000e+01
3.165201759338378906e+01 1.890584564208984020e+01 5.839385509490966797e+00 1.300000000000000000e+01
5.025424480438232422e+00 3.001701354980469194e+00 -5.121271610260009766e-01 9.000000000000000000e+00
7.149959087371826172e+00 4.267306804656982422e+00 -4.363771975040435791e-01 2.000000000000000000e+00
3.227424240112304688e+01 1.925458145141601918e+01 8.676362037658691406e+00 1.100000000000000000e+01
1.181625843048096058e+01 7.046699047088623047e+00 -2.401451170444489081e-01 2.000000000000000000e+00
3.370870971679688211e+01 2.009442329406737926e+01 1.051529979705811080e+01 9.000000000000000000e+00
1.944551348686218040e+00 1.155967593193053977e+00 -6.061542034149169922e-01 2.200000000000000000e+01
2.221653223037720171e+00 1.319645643234252930e+00 -5.965701937675476074e-01 1.400000000000000000e+01
2.569301366806029829e+00 1.525539636611938032e+00 -5.808225870132446289e-01 1.300000000000000000e+01
3.073281288146973100e+00 1.823330163955688032e+00 -5.659798979759216309e-01 1.300000000000000000e+01
3.809640645980834961e+00 2.258403301239014116e+00 -5.437809824943542480e-01 9.000000000000000000e+00
3.179949760437012074e+01 1.885114669799805043e+01 5.855029106140136719e+00 1.300000000000000000e+01
5.018731117248535156e+00 2.973984003067017046e+00 -5.103840231895446777e-01 9.000000000000000000e+00
3.323923873901367188e+01 1.968896675109862926e+01 7.509479045867919922e+00 6.300000000000000000e+01
7.171685218811035156e+00 4.246392726898193359e+00 -4.367958903312683105e-01 1.000000000000000000e+00
3.242510604858397727e+01 1.919143486022948863e+01 8.698857307434082031e+00 1.100000000000000000e+01
1.184766769409180043e+01 7.009482860565186435e+00 -2.402847260236740112e-01 2.000000000000000000e+00
3.621967315673828125e+01 2.142025566101073863e+01 1.127519321441650035e+01 1.000000000000000000e+01
1.946910500526428001e+00 1.148191452026366965e+00 -6.056365370750427246e-01 2.300000000000000000e+01
2.226246118545531782e+00 1.311882615089416948e+00 -5.965701937675476074e-01 1.400000000000000000e+01
2.586452245712279829e+00 1.523536682128906028e+00 -5.834938883781433105e-01 1.300000000000000000e+01
3.074519872665404829e+00 1.809585332870482954e+00 -5.650413036346435547e-01 1.100000000000000000e+01
3.183718490600585938e+01 1.873108863830566051e+01 4.535489559173583984e+00 1.900000000000000000e+01
3.829478502273560014e+00 2.252135515213013139e+00 -5.454871654510498047e-01 1.000000000000000000e+01
5.046257495880126953e+00 2.966544389724731001e+00 -5.121271610260009766e-01 9.000000000000000000e+00
3.332807540893554688e+01 1.958475494384765980e+01 7.514058113098145419e+00 6.300000000000000000e+01
7.193353176116943359e+00 4.225379467010498047e+00 -4.372145831584929865e-01 2.000000000000000000e+00
1.191000461578368963e+01 6.990352630615234375e+00 -2.410526424646378119e-01 2.000000000000000000e+00
1.962979435920715110e+00 1.147532224655150923e+00 -6.092600226402282715e-01 2.200000000000000000e+01
2.226218938827515093e+00 1.300376057624816895e+00 -5.952205061912536621e-01 1.500000000000000000e+01
2.597369194030762163e+00 1.516564011573791948e+00 -5.846387743949890137e-01 1.200000000000000000e+01
3.086564302444458008e+00 1.800753116607666016e+00 -5.659798979759216309e-01 1.000000000000000000e+01
3.199118232727051137e+01 1.865670585632323863e+01 4.547188758850097656e+00 1.900000000000000000e+01
3.836382865905762163e+00 2.236415147781372070e+00 -5.452434420585632324e-01 9.000000000000000000e+00
5.066218376159667969e+00 2.952161788940430132e+00 -5.129987001419067383e-01 1.100000000000000000e+01
7.209524154663085938e+00 4.197728157043457031e+00 -4.372145831584929865e-01 2.000000000000000000e+00
1.194021415710449041e+01 6.946581363677979404e+00 -2.411224544048309049e-01 2.000000000000000000e+00
3.725703048706054688e+01 2.167540550231933949e+01 1.154954147338867010e+01 1.100000000000000000e+01
1.973657727241515891e+00 1.144549608230591042e+00 -6.113305687904357910e-01 2.100000000000000000e+01
2.229058265686035156e+00 1.291620254516602007e+00 -5.947706103324890137e-01 1.400000000000000000e+01
2.587357521057128906e+00 1.498632311820984109e+00 -5.812041759490966797e-01 1.200000000000000000e+01
3.097960472106934038e+00 1.792936444282531960e+00 -5.669184923171997070e-01 1.100000000000000000e+01
3.227948760986328125e+01 1.867414855957030895e+01 4.578875064849854404e+00 1.900000000000000000e+01
3.833855390548706055e+00 2.217047452926636186e+00 -5.437809824943542480e-01 1.000000000000000000e+01
5.081667423248291016e+00 2.937450647354125977e+00 -5.135216116905212402e-01 9.000000000000000000e+00
7.224133014678955078e+00 4.172536373138427734e+00 -4.372145831584929865e-01 2.000000000000000000e+00
3.289077377319335938e+01 1.898949813842773082e+01 8.768141746520996094e+00 1.100000000000000000e+01
1.196438980102539062e+01 6.904860019683837891e+00 -2.411224544048309049e-01 2.000000000000000000e+00
3.372174453735352273e+01 1.945356750488280895e+01 1.043144321441650035e+01 8.000000000000000000e+00
1.968872666358947976e+00 1.133524179458617942e+00 -6.087424159049987793e-01 1.900000000000000000e+01
2.236483573913574219e+00 1.286554455757140891e+00 -5.956704020500183105e-01 1.200000000000000000e+01
2.592052936553955078e+00 1.490496516227721946e+00 -5.812041759490966797e-01 1.200000000000000000e+01
3.105290412902832031e+00 1.784179210662842019e+00 -5.672313570976257324e-01 1.000000000000000000e+01
3.231045150756835938e+01 1.855682945251464844e+01 4.574975013732910156e+00 1.900000000000000000e+01
3.832193613052368164e+00 2.200050592422484907e+00 -5.425623059272766113e-01 1.000000000000000000e+01
5.087414264678955078e+00 2.919488430023192915e+00 -5.131729841232299805e-01 9.000000000000000000e+00
7.247601509094238281e+00 4.155781745910645419e+00 -4.378426074981688898e-01 2.000000000000000000e+00
3.311257934570313211e+01 1.897910499572753906e+01 8.811332702636718750e+00 1.200000000000000000e+01
1.200684452056884943e+01 6.879167556762695312e+00 -2.415413111448287964e-01 2.000000000000000000e+00
3.375585174560546875e+01 1.933998298645019887e+01 1.042419624328612926e+01 8.000000000000000000e+00
1.969462275505065918e+00 1.124728560447693093e+00 -6.077071428298950195e-01 2.100000000000000000e+01
2.249423503875731978e+00 1.283568978309630904e+00 -5.979198813438415527e-01 1.200000000000000000e+01
2.593829154968262163e+00 1.479493975639343040e+00 -5.804409384727478027e-01 1.100000000000000000e+01
3.113215684890747070e+00 1.774306893348694070e+00 -5.675442218780517578e-01 9.000000000000000000e+00
3.860549926757812944e+00 2.198448181152344194e+00 -5.454871654510498047e-01 1.000000000000000000e+01
5.090648174285888672e+00 2.897769689559936968e+00 -5.124757885932922363e-01 9.000000000000000000e+00
7.279424667358398438e+00 4.140331745147705078e+00 -4.388893246650695801e-01 2.000000000000000000e+00
3.361231231689453125e+01 1.910997390747069957e+01 8.926507949829101562e+00 1.200000000000000000e+01
1.201687526702881037e+01 6.829309940338134766e+00 -2.412620633840560913e-01 5.000000000000000000e+00
3.718933868408203125e+01 2.112648391723633168e+01 1.146050739288330078e+01 1.100000000000000000e+01
1.973181247711182085e+00 1.118191361427306907e+00 -6.077071428298950195e-01 2.100000000000000000e+01
2.241797447204589844e+00 1.269381165504456010e+00 -5.947706103324890137e-01 1.200000000000000000e+01
2.603846788406372070e+00 1.473785638809204102e+00 -5.815858244895935059e-01 1.200000000000000000e+01
3.108765840530395952e+00 1.758138895034790039e+00 -5.656670331954956055e-01 9.000000000000000000e+00
3.869547128677368164e+00 2.186610698699951172e+00 -5.457309484481811523e-01 1.000000000000000000e+01
5.112372875213623047e+00 2.887731790542602983e+00 -5.136959552764892578e-01 9.000000000000000000e+00
7.265285015106201172e+00 4.100462913513183594e+00 -4.372145831584929865e-01 1.000000000000000000e+00
1.202900505065917969e+01 6.783529281616210938e+00 -2.410526424646378119e-01 2.000000000000000000e+00
3.261457061767578125e+01 1.839236831665039062e+01 1.003286170959473012e+01 8.000000000000000000e+00
1.977072358131408913e+00 1.111296892166137917e+00 -6.077071428298950195e-01 2.100000000000000000e+01
2.244515657424927202e+00 1.260593771934509055e+00 -5.943207144737243652e-01 1.300000000000000000e+01
2.614111185073852983e+00 1.467570781707763894e+00 -5.827306509017944336e-01 1.200000000000000000e+01
3.114883899688721147e+00 1.747276544570923074e+00 -5.656670331954956055e-01 9.000000000000000000e+00
3.877156257629394975e+00 2.173089981079102007e+00 -5.457309484481811523e-01 1.000000000000000000e+01
3.239878845214843750e+01 1.815162277221680043e+01 5.881936073303222656e+00 1.300000000000000000e+01
5.120683670043945312e+00 2.868894815444945845e+00 -5.135216116905212402e-01 9.000000000000000000e+00
7.272583007812500000e+00 4.071174621582031250e+00 -4.367958903312683105e-01 1.000000000000000000e+00
1.206657314300536932e+01 6.749308109283447266e+00 -2.413318753242492953e-01 2.000000000000000000e+00
3.260082626342772727e+01 1.822745323181151988e+01 1.000801467895507990e+01 8.000000000000000000e+00
1.991063594818115012e+00 1.110033154487610085e+00 -6.108129620552062988e-01 2.100000000000000000e+01
2.247199773788452148e+00 1.251802921295166016e+00 -5.938707590103149414e-01 1.100000000000000000e+01
2.617502689361571822e+00 1.457481741905211958e+00 -5.823490619659423828e-01 1.200000000000000000e+01
3.131321191787720171e+00 1.742155313491821067e+00 -5.675442218780517578e-01 9.000000000000000000e+00
3.264997863769531250e+01 1.815781974792480113e+01 4.587162017822265625e+00 1.900000000000000000e+01
3.870837926864624023e+00 2.151826858520507812e+00 -5.437809824943542480e-01 9.000000000000000000e+00
5.148082733154296875e+00 2.860680341720581055e+00 -5.152647495269775391e-01 9.000000000000000000e+00
7.276272773742675781e+00 4.039947032928466797e+00 -4.361678659915924072e-01 2.000000000000000000e+00
3.354150009155272727e+01 1.861532211303710938e+01 8.856323242187500000e+00 1.200000000000000000e+01
1.210055065155028942e+01 6.712967395782470703e+00 -2.415413111448287964e-01 2.000000000000000000e+00
3.267798233032227273e+01 1.812861633300780895e+01 1.001319122314452947e+01 8.000000000000000000e+00
1.988163709640502930e+00 1.099336981773376021e+00 -6.087424159049987793e-01 1.900000000000000000e+01
2.263495683670043945e+00 1.250547885894774947e+00 -5.970200896263122559e-01 1.200000000000000000e+01
2.617418527603148970e+00 1.445488810539246050e+00 -5.812041759490966797e-01 1.300000000000000000e+01
3.156408309936522993e+00 1.741712331771851030e+00 -5.709857940673828125e-01 1.000000000000000000e+01
3.282440948486328125e+01 1.810510063171387074e+01 4.602761268615722656e+00 1.900000000000000000e+01
3.885279178619385210e+00 2.142135858535767046e+00 -5.447559356689453125e-01 9.000000000000000000e+00
5.152801990509033203e+00 2.839807748794556108e+00 -5.147418379783630371e-01 8.000000000000000000e+00
7.300827503204345703e+00 4.020303726196289062e+00 -4.367958903312683105e-01 2.000000000000000000e+00
3.350725936889647727e+01 1.844362449645996094e+01 8.830228805541992188e+00 1.200000000000000000e+01
1.216595745086669922e+01 6.693823337554931641e+00 -2.423790246248244962e-01 2.000000000000000000e+00
3.285423660278320312e+01 1.806923675537109020e+01 1.004683780670166016e+01 1.600000000000000000e+01
1.993873596191406028e+00 1.092971205711364968e+00 -6.092600226402282715e-01 2.000000000000000000e+01
2.269773244857788086e+00 1.243179440498352051e+00 -5.974699854850769043e-01 1.100000000000000000e+01
2.627865076065063032e+00 1.438714146614074929e+00 -5.823490619659423828e-01 1.300000000000000000e+01
3.148906707763671875e+00 1.722547650337219016e+00 -5.684828162193298340e-01 1.100000000000000000e+01
3.900072097778319868e+00 2.131689548492432085e+00 -5.457309484481811523e-01 1.000000000000000000e+01
5.166672706604003906e+00 2.822813272476195845e+00 -5.150904655456542969e-01 9.000000000000000000e+00
3.280682373046875000e+01 1.791658401489258168e+01 7.266006469726563388e+00 6.200000000000000000e+01
7.350574970245361328e+00 4.012657642364501953e+00 -4.388893246650695801e-01 1.000000000000000000e+00
1.214827728271484020e+01 6.626206874847412109e+00 -2.415413111448287964e-01 2.000000000000000000e+00
3.289506149291992188e+01 1.794241905212401988e+01 1.004010868072509943e+01 8.000000000000000000e+00
1.990887641906738059e+00 1.082313895225524902e+00 -6.071894764900207520e-01 1.900000000000000000e+01
2.282660961151123047e+00 1.239899754524230957e+00 -5.997195243835449219e-01 1.200000000000000000e+01
2.644948482513428178e+00 1.436089873313904031e+00 -5.850203633308410645e-01 1.300000000000000000e+01
3.154900312423706055e+00 1.711545467376708984e+00 -5.684828162193298340e-01 1.100000000000000000e+01
3.921450853347777876e+00 2.125630617141724077e+00 -5.476808547973632812e-01 9.000000000000000000e+00
5.199267864227294922e+00 2.817100048065185991e+00 -5.173565149307250977e-01 9.000000000000000000e+00
7.357511043548583984e+00 3.983171463012694868e+00 -4.384706318378447931e-01 1.000000000000000000e+00
3.479353713989257812e+01 1.882849311828612926e+01 9.133462905883789062e+00 1.200000000000000000e+01
1.220651054382324041e+01 6.602788925170898438e+00 -2.422394007444381991e-01 2.000000000000000000e+00
3.272099304199218750e+01 1.769217681884765980e+01 9.967121124267578125e+00 1.600000000000000000e+01
2.002967357635498047e+00 1.080291152000427024e+00 -6.097776889801025391e-01 1.900000000000000000e+01
2.278182506561278853e+00 1.227700948715209961e+00 -5.974699854850769043e-01 1.200000000000000000e+01
2.647967815399169922e+00 1.426380038261414018e+00 -5.846387743949890137e-01 1.300000000000000000e+01
3.160558700561522993e+00 1.701074004173279031e+00 -5.684828162193298340e-01 1.000000000000000000e+01
3.595609664916992188e+01 1.934417724609375000e+01 5.013217449188232422e+00 2.400000000000000000e+01
3.912743091583251953e+00 2.104153156280518022e+00 -5.454871654510498047e-01 1.000000000000000000e+01
3.473265838623046875e+01 1.867815780639648082e+01 6.246115207672119141e+00 1.400000000000000000e+01
5.191031932830811435e+00 2.790409803390502930e+00 -5.156133770942687988e-01 1.300000000000000000e+01
7.360122203826904297e+00 3.953081130981444868e+00 -4.378426074981688898e-01 1.000000000000000000e+00
1.223891067504882990e+01 6.567947864532470703e+00 -2.424488365650177002e-01 2.000000000000000000e+00
2.010133028030395952e+00 1.075115203857422097e+00 -6.108129620552062988e-01 1.900000000000000000e+01
2.285891532897949219e+00 1.221578121185302956e+00 -5.983697772026062012e-01 1.000000000000000000e+01
2.652930736541748047e+00 1.417128205299376997e+00 -5.846387743949890137e-01 1.300000000000000000e+01
3.638986968994141336e+01 1.943038177490234020e+01 3.609119415283203125e+00 5.400000000000000000e+01
3.171705245971680132e+00 1.692821621894835982e+00 -5.694214701652526855e-01 1.000000000000000000e+01
3.918312549591064009e+00 2.089548349380493164e+00 -5.452434420585632324e-01 1.000000000000000000e+01
3.479764556884766336e+01 1.855680465698241832e+01 6.246115207672119141e+00 1.400000000000000000e+01
5.206015110015869141e+00 2.775084257125854048e+00 -5.161362886428833008e-01 1.300000000000000000e+01
7.391504287719726562e+00 3.936754226684569868e+00 -4.388893246650695801e-01 2.000000000000000000e+00
1.229000759124756037e+01 6.540216922760009766e+00 -2.430073022842406949e-01 2.000000000000000000e+00
3.345326614379882812e+01 1.780239868164062855e+01 1.015398883819580078e+01 8.000000000000000000e+00
2.010274171829224077e+00 1.066632509231566939e+00 -6.097776889801025391e-01 1.900000000000000000e+01
2.289929866790771040e+00 1.213991045951843040e+00 -5.983697772026062012e-01 1.100000000000000000e+01
2.645472288131713867e+00 1.401888012886046919e+00 -5.819674134254455566e-01 1.200000000000000000e+01
3.177301406860352007e+00 1.682294487953186035e+00 -5.694214701652526855e-01 9.000000000000000000e+00
3.925220251083374023e+00 2.076543092727661133e+00 -5.452434420585632324e-01 1.000000000000000000e+01
5.208143711090087891e+00 2.754079818725585938e+00 -5.154390335083007812e-01 1.400000000000000000e+01
7.404518604278563565e+00 3.912221431732178178e+00 -4.388893246650695801e-01 2.000000000000000000e+00
3.512364959716796875e+01 1.854994773864746094e+01 9.170354843139648438e+00 1.200000000000000000e+01
1.230101776123047053e+01 6.493824481964111328e+00 -2.427978813648223877e-01 2.000000000000000000e+00
3.359753799438477273e+01 1.773645973205566051e+01 1.017987060546875000e+01 8.000000000000000000e+00
2.012275457382202148e+00 1.058709383010864036e+00 -6.092600226402282715e-01 1.900000000000000000e+01
2.302778244018555132e+00 1.210524082183837891e+00 -6.006193161010742188e-01 1.300000000000000000e+01
2.652087688446044922e+00 1.393558263778686968e+00 -5.823490619659423828e-01 1.100000000000000000e+01
3.188401222229003906e+00 1.673948168754578081e+00 -5.703600645065307617e-01 1.100000000000000000e+01
3.852634429931641336e+01 2.021820640563964844e+01 5.342264652252197266e+00 3.300000000000000000e+01
3.948266029357910156e+00 2.071128129959106001e+00 -5.474370718002319336e-01 1.000000000000000000e+01
3.363174438476563211e+01 1.763460350036621094e+01 6.014592170715332031e+00 1.300000000000000000e+01
5.196551322937011719e+00 2.724780559539794922e+00 -5.133473277091979980e-01 1.700000000000000000e+01
7.439359664916992188e+00 3.897473335266112837e+00 -4.401454031467437744e-01 1.000000000000000000e+00
1.233778381347656072e+01 6.458265304565429688e+00 -2.430771142244338989e-01 2.000000000000000000e+00
3.346718597412108664e+01 1.751109886169433949e+01 1.012086009979248047e+01 8.000000000000000000e+00
2.010820388793944868e+00 1.048998236656188965e+00 -6.077071428298950195e-01 1.600000000000000000e+01
2.298349380493164062e+00 1.197974920272826926e+00 -5.983697772026062012e-01 1.100000000000000000e+01
2.656935930252075195e+00 1.384292244911194070e+00 -5.823490619659423828e-01 1.300000000000000000e+01
3.194225072860718218e+00 1.662808299064636008e+00 -5.703600645065307617e-01 1.000000000000000000e+01
3.960754871368408203e+00 2.060081481933594194e+00 -5.481683015823364258e-01 1.000000000000000000e+01
3.366154861450195312e+01 1.750069618225098012e+01 6.008960723876953125e+00 1.300000000000000000e+01
5.220172882080078125e+00 2.713977098464965820e+00 -5.147418379783630371e-01 1.400000000000000000e+01
7.442284584045410156e+00 3.865957260131835938e+00 -4.395173490047454834e-01 2.000000000000000000e+00
1.236380195617675959e+01 6.417001247406005859e+00 -2.431469261646271030e-01 2.000000000000000000e+00
3.365538406372070312e+01 1.746765708923339844e+01 1.016020011901854936e+01 8.000000000000000000e+00
2.028197050094604048e+00 1.049073100090027078e+00 -6.118482351303100586e-01 1.600000000000000000e+01
2.295592308044434038e+00 1.186366081237792969e+00 -5.965701937675476074e-01 1.100000000000000000e+01
2.668728828430175781e+00 1.378613591194153054e+00 -5.838755369186401367e-01 1.200000000000000000e+01
3.192988395690917969e+00 1.648024201393126997e+00 -5.691086053848266602e-01 1.000000000000000000e+01
3.962628841400146040e+00 2.043513774871826172e+00 -5.474370718002319336e-01 1.000000000000000000e+01
5.224301815032958984e+00 2.693000078201293945e+00 -5.142188668251037598e-01 1.100000000000000000e+01
3.235618972778320312e+01 1.667167854309082031e+01 7.075197696685791016e+00 6.100000000000000000e+01
7.455734252929688388e+00 3.839955329895019975e+00 -4.395173490047454834e-01 2.000000000000000000e+00
3.405116271972656250e+01 1.752998161315917969e+01 8.841926574707031250e+00 1.200000000000000000e+01
1.236834526062012074e+01 6.364654541015625000e+00 -2.427978813648223877e-01 2.000000000000000000e+00
3.901371765136718750e+01 2.007615661621094105e+01 1.175659656524658025e+01 1.200000000000000000e+01
2.030127763748168945e+00 1.041105389595031960e+00 -6.113305687904357910e-01 1.600000000000000000e+01
2.303188085556029829e+00 1.180122971534729004e+00 -5.974699854850769043e-01 1.200000000000000000e+01
2.670030117034912109e+00 1.367499709129333052e+00 -5.831122994422912598e-01 1.200000000000000000e+01
3.203997135162353960e+00 1.639568209648132102e+00 -5.700471997261047363e-01 9.000000000000000000e+00
3.964435577392578125e+00 2.026958227157593218e+00 -5.467059016227722168e-01 1.000000000000000000e+01
5.231896400451660156e+00 2.673840761184691939e+00 -5.140445828437805176e-01 1.900000000000000000e+01
7.479765415191650391e+00 3.819356441497803178e+00 -4.401454031467437744e-01 1.000000000000000000e+00
3.410520172119141336e+01 1.740747070312500000e+01 8.840126991271972656e+00 1.200000000000000000e+01
1.239404964447020951e+01 6.323259830474854404e+00 -2.428676933050155917e-01 2.000000000000000000e+00
3.882543182373046875e+01 1.980816078186035156e+01 1.167895030975341975e+01 1.100000000000000000e+01
2.035471439361571822e+00 1.034888148307800071e+00 -6.118482351303100586e-01 1.600000000000000000e+01
2.317718029022216797e+00 1.177371740341186968e+00 -6.001694202423095703e-01 1.400000000000000000e+01
2.676537752151488814e+00 1.359060049057007058e+00 -5.834938883781433105e-01 1.200000000000000000e+01
3.213224172592163086e+00 1.630161643028259055e+00 -5.706729292869567871e-01 1.100000000000000000e+01
3.568533325195313211e+01 1.809637260437012074e+01 4.912796974182128906e+00 2.200000000000000000e+01
3.976798534393310991e+00 2.015799999237060991e+00 -5.474370718002319336e-01 1.000000000000000000e+01
3.403327178955078125e+01 1.724366378784180043e+01 6.042750358581542969e+00 1.300000000000000000e+01
5.237643241882324219e+00 2.653760671615601030e+00 -5.136959552764892578e-01 1.900000000000000000e+01
7.496615886688232422e+00 3.795027971267700195e+00 -4.403547346591948908e-01 1.000000000000000000e+00
3.420053482055664062e+01 1.730591201782226918e+01 8.849124908447265625e+00 1.200000000000000000e+01
1.241604614257813033e+01 6.279958248138427734e+00 -2.428676933050155917e-01 2.000000000000000000e+00
3.853227615356445312e+01 1.948093986511230113e+01 1.156921100616455078e+01 1.100000000000000000e+01
2.030446052551269975e+00 1.023429036140441895e+00 -6.092600226402282715e-01 1.700000000000000000e+01
2.332256555557250977e+00 1.174533367156981978e+00 -6.028688549995422363e-01 1.300000000000000000e+01
2.686526298522949219e+00 1.352357149124145952e+00 -5.846387743949890137e-01 1.200000000000000000e+01
3.225953817367554155e+00 1.622485756874084029e+00 -5.719243884086608887e-01 1.100000000000000000e+01
3.983810901641846147e+00 2.001906156539916992e+00 -5.474370718002319336e-01 1.200000000000000000e+01
3.395909881591796875e+01 1.705737495422362926e+01 6.018972396850585938e+00 1.300000000000000000e+01
5.229070663452148438e+00 2.626518964767456055e+00 -5.119528174400329590e-01 1.700000000000000000e+01
7.513387203216552734e+00 3.770628452301024947e+00 -4.405640661716461182e-01 1.000000000000000000e+00
1.243074131011963068e+01 6.232994556427001953e+00 -2.427280694246292114e-01 2.000000000000000000e+00
3.860184860229492188e+01 1.935565185546875000e+01 1.157076454162598012e+01 1.100000000000000000e+01
2.035734176635742188e+00 1.017198801040648970e+00 -6.097776889801025391e-01 1.900000000000000000e+01
2.329368114471435991e+00 1.162903308868407981e+00 -6.010692119598388672e-01 1.600000000000000000e+01
2.696500539779663086e+00 1.345601081848144975e+00 -5.857836008071899414e-01 1.200000000000000000e+01
3.217455148696898970e+00 1.604163885116576926e+00 -5.694214701652526855e-01 1.100000000000000000e+01
3.805297088623046875e+01 1.896422004699707031e+01 5.220395088195800781e+00 3.000000000000000000e+01
3.992551326751708984e+00 1.988872885704040971e+00 -5.476808547973632812e-01 1.100000000000000000e+01
3.402904510498046875e+01 1.694401550292969105e+01 6.020849704742431641e+00 1.300000000000000000e+01
5.241774082183837891e+00 2.610026121139525923e+00 -5.123014450073242188e-01 1.100000000000000000e+01
7.508621692657470703e+00 3.735482692718505859e+00 -4.395173490047454834e-01 2.000000000000000000e+00
3.255816650390625000e+01 1.619035530090332031e+01 8.394723892211914062e+00 1.100000000000000000e+01
1.248107337951659979e+01 6.203806400299072266e+00 -2.432865500450134000e-01 2.000000000000000000e+00
3.538922500610352273e+01 1.759046554565430043e+01 1.058932209014892933e+01 9.000000000000000000e+00
2.044466018676757812e+00 1.012658834457397017e+00 -6.113305687904357910e-01 1.700000000000000000e+01
2.324680328369141069e+00 1.150443553924560991e+00 -5.988197326660156250e-01 1.500000000000000000e+01
2.713499307632445845e+00 1.342273592948914018e+00 -5.884549617767333984e-01 1.200000000000000000e+01
3.231889486312866211e+00 1.597299337387084961e+00 -5.709857940673828125e-01 1.000000000000000000e+01
4.011929035186767578e+00 1.981076598167418990e+00 -5.493869781494140625e-01 1.100000000000000000e+01
5.256212711334229404e+00 2.594358444213867188e+00 -5.128244161605834961e-01 9.000000000000000000e+00
7.521615028381347656e+00 3.709249973297119141e+00 -4.395173490047454834e-01 2.000000000000000000e+00
3.234530258178710938e+01 1.594392013549805043e+01 8.325438499450683594e+00 1.000000000000000000e+01
1.247395229339599965e+01 6.146060466766357422e+00 -2.427280694246292114e-01 2.000000000000000000e+00
3.751927947998046875e+01 1.847804450988769887e+01 1.120634746551514027e+01 1.000000000000000000e+01
2.061861276626586914e+00 1.012327432632446067e+00 -6.154716610908508301e-01 1.700000000000000000e+01
3.820653915405272727e+01 1.875027656555176137e+01 7.428791522979736328e-01 4.200000000000000000e+01
2.330431461334228960e+00 1.143180131912231001e+00 -5.992696285247802734e-01 1.600000000000000000e+01
2.705828905105590820e+00 1.326743245124816895e+00 -5.857836008071899414e-01 1.200000000000000000e+01
3.240993261337279829e+00 1.587746262550354004e+00 -5.716115236282348633e-01 1.000000000000000000e+01
3.419448852539063211e+01 1.674430656433105113e+01 4.674908161163330078e+00 2.000000000000000000e+01
4.011687755584716797e+00 1.963569402694701926e+00 -5.484120249748229980e-01 1.000000000000000000e+01
3.420328521728516336e+01 1.673381614685058949e+01 6.030861377716063565e+00 1.300000000000000000e+01
5.270605564117431641e+00 2.578621864318848100e+00 -5.133473277091979980e-01 9.000000000000000000e+00
7.573992729187011719e+00 3.702268362045288086e+00 -4.418201446533203125e-01 2.000000000000000000e+00
3.229920578002929688e+01 1.578129863739014027e+01 8.299344062805175781e+00 1.000000000000000000e+01
1.252408027648925959e+01 6.116521358489990234e+00 -2.432865500450134000e-01 2.000000000000000000e+00
3.778145980834960938e+01 1.844357872009276988e+01 1.126535797119140980e+01 1.000000000000000000e+01
2.051311492919921875e+00 9.987192749977111816e-01 -6.113305687904357910e-01 1.500000000000000000e+01
2.353486061096190962e+00 1.144822597503662109e+00 -6.042185425758361816e-01 1.600000000000000000e+01
2.703151226043701172e+00 1.314329266548156960e+00 -5.842571258544921875e-01 1.200000000000000000e+01
3.248017549514770952e+00 1.577853202819823997e+00 -5.719243884086608887e-01 1.100000000000000000e+01
4.014605522155761719e+00 1.948521852493285911e+00 -5.479245781898498535e-01 1.000000000000000000e+01
3.428056716918945312e+01 1.663835716247558949e+01 6.035241603851318359e+00 1.300000000000000000e+01
5.261201858520507812e+00 2.552433252334595171e+00 -5.116041898727416992e-01 9.000000000000000000e+00
7.571850299835205078e+00 3.670162677764893022e+00 -4.409827589988707941e-01 2.000000000000000000e+00
1.252269744873047053e+01 6.064497470855712891e+00 -2.428676933050155917e-01 2.000000000000000000e+00
3.601663208007813211e+01 1.743439102172851918e+01 1.072183799743651988e+01 9.000000000000000000e+00
2.051305294036864790e+00 9.898736476898193359e-01 -6.102952957153320312e-01 1.800000000000000000e+01
2.357467889785767046e+00 1.136600494384766069e+00 -6.042185425758361816e-01 1.600000000000000000e+01
2.702416896820067915e+00 1.302328467369080034e+00 -5.831122994422912598e-01 1.100000000000000000e+01
3.257065057754517046e+00 1.568219780921936035e+00 -5.725501179695129395e-01 9.000000000000000000e+00
3.859702301025391336e+01 1.857549285888671875e+01 5.259393215179443359e+00 3.100000000000000000e+01
4.053582191467285156e+00 1.949986100196837935e+00 -5.523118376731872559e-01 8.000000000000000000e+00
5.286240100860595703e+00 2.541823148727416992e+00 -5.131729841232299805e-01 9.000000000000000000e+00
7.602618217468261719e+00 3.652358293533325195e+00 -4.420294761657714844e-01 2.000000000000000000e+00
3.208615875244141336e+01 1.540755367279052912e+01 8.217461585998535156e+00 1.000000000000000000e+01
1.255100059509276988e+01 6.024209499359130859e+00 -2.430073022842406949e-01 2.000000000000000000e+00
3.503569030761718750e+01 1.680885124206542969e+01 1.041229057312012074e+01 8.000000000000000000e+00
2.061719417572021040e+00 9.860412478446960449e-01 -6.123658418655395508e-01 1.800000000000000000e+01
2.357904434204102007e+00 1.126684069633484109e+00 -6.033187508583068848e-01 1.600000000000000000e+01
2.726433515548706055e+00 1.302194833755492942e+00 -5.873100757598876953e-01 1.200000000000000000e+01
3.251822471618651900e+00 1.551736593246459961e+00 -5.706729292869567871e-01 9.000000000000000000e+00
3.864371109008789062e+01 1.843210411071776988e+01 5.256956100463867188e+00 3.100000000000000000e+01
4.049612998962402344e+00 1.930698871612549050e+00 -5.508494377136230469e-01 6.000000000000000000e+00
3.461699295043945312e+01 1.650404357910155895e+01 6.074037551879882812e+00 1.400000000000000000e+01
5.291482925415039062e+00 2.521641016006470171e+00 -5.128244161605834961e-01 9.000000000000000000e+00
7.593681335449218750e+00 3.615494966506958008e+00 -4.407734274864196777e-01 2.000000000000000000e+00
3.203416824340820312e+01 1.524521255493164062e+01 8.190467834472656250e+00 1.000000000000000000e+01
1.256111812591552912e+01 5.975207328796386719e+00 -2.427978813648223877e-01 2.000000000000000000e+00
3.492899703979492188e+01 1.661540031433105113e+01 1.036415004730224965e+01 1.700000000000000000e+01
2.063403129577637163e+00 9.780110716819763184e-01 -6.118482351303100586e-01 1.600000000000000000e+01
2.354778051376343218e+00 1.115110397338866965e+00 -6.015191078186035156e-01 1.700000000000000000e+01
2.736285924911499023e+00 1.295189738273621050e+00 -5.884549617767333984e-01 1.200000000000000000e+01
3.264362335205078125e+00 1.543754100799560991e+00 -5.719243884086608887e-01 9.000000000000000000e+00
4.050943374633789062e+00 1.914007186889647993e+00 -5.501182079315185547e-01 7.000000000000000000e+00
5.294848442077636719e+00 2.500602483749390093e+00 -5.123014450073242188e-01 9.000000000000000000e+00
7.609868049621582031e+00 3.590670585632324219e+00 -4.409827589988707941e-01 2.000000000000000000e+00
3.266882705688477273e+01 1.540761947631835938e+01 8.338935852050781250e+00 1.000000000000000000e+01
1.258551692962645951e+01 5.933030128479003906e+00 -2.428676933050155917e-01 2.000000000000000000e+00
3.485859298706054688e+01 1.642550849914551137e+01 1.032532691955566051e+01 1.700000000000000000e+01
2.070131778717041016e+00 9.728064537048339844e-01 -6.128835082054138184e-01 1.500000000000000000e+01
2.365518808364868164e+00 1.110608339309691939e+00 -6.033187508583068848e-01 1.400000000000000000e+01
2.729902267456055132e+00 1.281104445457458052e+00 -5.861652493476867676e-01 1.100000000000000000e+01
3.273040771484375000e+00 1.534597754478455034e+00 -5.725501179695129395e-01 1.100000000000000000e+01
4.055470466613770419e+00 1.899721264839171919e+00 -5.498744845390319824e-01 1.100000000000000000e+01
3.478219604492188211e+01 1.629317092895508168e+01 6.083423614501953125e+00 1.400000000000000000e+01
5.331981658935546875e+00 2.496548175811768022e+00 -5.150904655456542969e-01 9.000000000000000000e+00
3.350039291381835938e+01 1.567847347259520951e+01 7.189682960510253906e+00 6.100000000000000000e+01
7.639824390411376953e+00 3.573878526687622070e+00 -4.420294761657714844e-01 2.000000000000000000e+00
3.210188674926757812e+01 1.501030349731444957e+01 8.181469917297363281e+00 1.000000000000000000e+01
1.259062957763672053e+01 5.884488582611083984e+00 -2.425884455442428866e-01 5.000000000000000000e+00
3.491352462768554688e+01 1.631755065917969105e+01 1.032636260986327947e+01 8.000000000000000000e+00
2.068260908126831055e+00 9.631278514862060547e-01 -6.113305687904357910e-01 1.600000000000000000e+01
2.364080667495727983e+00 1.099878311157227007e+00 -6.019690036773681641e-01 1.300000000000000000e+01
2.730797052383422852e+00 1.269911766052246094e+00 -5.854020118713378906e-01 1.100000000000000000e+01
3.285543441772460938e+00 1.526492714881896973e+00 -5.738016366958618164e-01 1.100000000000000000e+01
3.406394958496093750e+01 1.581918621063232067e+01 4.611536026000976562e+00 1.900000000000000000e+01
4.069279193878173828e+00 1.888896584510803001e+00 -5.508494377136230469e-01 1.100000000000000000e+01
5.331627368927001953e+00 2.473727941513061968e+00 -5.142188668251037598e-01 9.000000000000000000e+00
3.355491638183593750e+01 1.556143951416015980e+01 7.189682960510253906e+00 6.100000000000000000e+01
7.677621841430664062e+00 3.558948278427124023e+00 -4.434948861598969061e-01 2.000000000000000000e+00
3.216469955444335938e+01 1.490307044982909979e+01 8.184168815612792969e+00 2.100000000000000000e+01
1.263649654388427912e+01 5.852268695831298828e+00 -2.430771142244338989e-01 5.000000000000000000e+00
3.508880233764647727e+01 1.624304008483887074e+01 1.036052608489990057e+01 8.000000000000000000e+00
