3.073075413703917902e-01 -1.648447394371032937e+00 4.493098556995391846e-01 4.800000000000000000e+01
4.978015422821044922e-01 -2.685896635055541992e+00 -7.319402694702148438e-01 1.500000000000000000e+01
5.834425091743469238e-01 -3.154118061065673828e+00 -7.405388951301574707e-01 1.100000000000000000e+01
6.978302001953125000e-01 -3.776188135147095171e+00 -7.464447617530822754e-01 9.000000000000000000e+00
8.842564821243286133e-01 -4.794366836547851562e+00 -7.721605300903320312e-01 7.000000000000000000e+00
1.248090028762816939e+00 -6.780311107635498047e+00 -8.465044498443603516e-01 1.000000000000000000e+00
4.657861709594726562e+00 -2.537869071960448863e+01 -1.352256417274475098e+00 1.200000000000000000e+01
3.057618141174315851e-01 -1.667604327201843040e+00 3.914148211479187012e-01 1.000000000000000000e+01
2.993427217006682794e-01 -1.634202718734740989e+00 4.451687633991240900e-01 5.500000000000000000e+01
4.877321422100067139e-01 -2.683816432952880859e+00 -7.309049963951110840e-01 1.400000000000000000e+01
5.717334747314453125e-01 -3.152300596237183061e+00 -7.396390438079833984e-01 1.000000000000000000e+01
6.863946914672851562e-01 -3.788259983062744141e+00 -7.483528852462768555e-01 1.000000000000000000e+01
8.682186603546142578e-01 -4.801311969757080078e+00 -7.727862596511840820e-01 7.000000000000000000e+00
1.230055570602416992e+00 -6.815882682800292969e+00 -8.504042625427246094e-01 1.000000000000000000e+00
4.562171459197998047e+00 -2.535548210144042969e+01 -1.350162982940674050e+00 1.200000000000000000e+01
3.009732067584990900e-01 -1.674415469169616921e+00 3.927645385265349787e-01 3.500000000000000000e+01
2.926688492298126221e-01 -1.631485939025878906e+00 4.441334903240203857e-01 7.300000000000000000e+01
4.759894013404846191e-01 -2.672189235687255859e+00 -7.272815108299255371e-01 1.100000000000000000e+01
5.624317526817321777e-01 -3.163870334625244141e+00 -7.418885827064514160e-01 9.000000000000000000e+00
6.741968393325805664e-01 -3.796432018280028853e+00 -7.494977116584777832e-01 9.000000000000000000e+00
8.531772494316101074e-01 -4.814038753509520596e+00 -7.743505835533142090e-01 9.000000000000000000e+00
1.209022045135498047e+00 -6.835772991180419922e+00 -8.523541688919067383e-01 1.000000000000000000e+00
4.486121654510498047e+00 -2.544206047058105113e+01 -1.353931188583374023e+00 1.200000000000000000e+01
2.944504618644713800e-01 -1.671617507934570090e+00 3.918647468090056818e-01 4.900000000000000000e+01
2.835742533206940252e-01 -1.611518740653991921e+00 4.384394586086273193e-01 8.200000000000000000e+01
4.663266837596892755e-01 -2.671931505203247070e+00 -7.267639040946960449e-01 7.000000000000000000e+00
5.497125387191772461e-01 -3.156215190887451172e+00 -7.396390438079833984e-01 1.000000000000000000e+01
6.606041789054870605e-01 -3.796828031539916992e+00 -7.491161227226257324e-01 1.000000000000000000e+01
8.340024352073669434e-01 -4.803363800048828125e+00 -7.721605300903320312e-01 7.000000000000000000e+00
1.188542485237122026e+00 -6.859511375427246094e+00 -8.547915816307067871e-01 1.000000000000000000e+00
4.386406898498535156e+00 -2.539458656311035156e+01 -1.350581645965575950e+00 1.200000000000000000e+01
2.886136174201964777e-01 -1.672635078430176003e+00 3.918647468090056818e-01 6.200000000000000000e+01
2.806162238121033270e-01 -1.629681706428528054e+00 4.430982172489166260e-01 1.000000000000000000e+02
4.651344716548920233e-01 -2.721148729324340820e+00 -7.397048473358154297e-01 1.000000000000000000e+00
5.380365848541259766e-01 -3.154272794723511186e+00 -7.387392520904541016e-01 1.000000000000000000e+01
6.483361124992370605e-01 -3.804916858673096147e+00 -7.502609491348266602e-01 9.000000000000000000e+00
8.159059882164001465e-01 -4.798456192016601562e+00 -7.709090709686279297e-01 7.000000000000000000e+00
1.161270260810852051e+00 -6.844047069549561435e+00 -8.523541688919067383e-01 1.000000000000000000e+00
2.808253467082976740e-01 -1.662103295326232910e+00 3.891653120517731268e-01 6.900000000000000000e+01
2.752104699611663818e-01 -1.630603313446044922e+00 4.430982172489166260e-01 9.200000000000000000e+01
5.283066630363464355e-01 -3.163820266723632812e+00 -7.405388951301574707e-01 1.000000000000000000e+01
6.366655826568603516e-01 -3.816839456558227983e+00 -7.521690726280212402e-01 1.000000000000000000e+01
2.911182940006256104e-01 -1.747146368026732954e+00 1.549629122018814087e-01 2.000000000000000000e+00
8.023945689201354980e-01 -4.820760726928710938e+00 -7.740377187728881836e-01 7.000000000000000000e+00
1.134771108627318892e+00 -6.832392692565917969e+00 -8.504042625427246094e-01 1.000000000000000000e+00
2.734321057796478271e-01 -1.653460264205933061e+00 3.869158029556273859e-01 5.200000000000000000e+01
2.692321538925170898e-01 -1.631601095199584961e+00 4.430982172489166260e-01 5.700000000000000000e+01
2.911899983882904053e-01 -1.782091736793518066e+00 3.151904419064521790e-02 1.000000000000000000e+00
5.179628133773803711e-01 -3.173428535461425781e+00 -7.423384785652160645e-01 1.000000000000000000e+01
2.825005650520325262e-01 -1.732712388038635032e+00 9.200660884380340576e-02 1.000000000000000000e+00
6.201445460319519043e-01 -3.803645849227904829e+00 -7.491161227226257324e-01 1.000000000000000000e+01
2.831114232540131170e-01 -1.738369345664978027e+00 1.540913581848145086e-01 2.700000000000000000e+01
7.866232991218566895e-01 -4.835367679595947266e+00 -7.759149670600891113e-01 7.000000000000000000e+00
2.811515331268311102e-01 -1.730141520500183105e+00 2.152212560176849088e-01 1.000000000000000000e+00
1.111629843711853027e+00 -6.848262786865234375e+00 -8.518667221069335938e-01 1.000000000000000000e+00
2.753604054450988770e-01 -1.696374416351317915e+00 2.721959650516510010e-01 5.000000000000000000e+00
2.661264538764954168e-01 -1.646756291389465110e+00 3.851162195205687921e-01 5.600000000000000000e+01
2.950977385044097900e-01 -1.828052639961242898e+00 -3.232185542583466270e-02 1.000000000000000000e+00
2.598407566547393799e-01 -1.609645009040832964e+00 4.368865489959716797e-01 6.100000000000000000e+01
2.770780920982360840e-01 -1.733731389045715110e+00 3.064642660319805145e-02 9.000000000000000000e+00
5.059607028961181641e-01 -3.169444084167480025e+00 -7.409887909889221191e-01 6.000000000000000000e+00
2.758215367794036865e-01 -1.729743242263793945e+00 9.179726988077163696e-02 1.000000000000000000e+01
6.077910065650939941e-01 -3.811603784561156782e+00 -7.502609491348266602e-01 8.000000000000000000e+00
2.695201635360717773e-01 -1.692124843597412109e+00 1.499078720808028897e-01 4.500000000000000000e+01
7.688088417053222656e-01 -4.832231521606445312e+00 -7.749763131141662598e-01 1.000000000000000000e+00
2.751104831695557196e-01 -1.731112360954284890e+00 2.152212560176849088e-01 1.500000000000000000e+01
1.090207934379578081e+00 -6.867785453796386719e+00 -8.538166284561157227e-01 1.000000000000000000e+00
2.719252407550811768e-01 -1.714931249618530051e+00 2.750117778778076172e-01 2.400000000000000000e+01
2.724160254001616877e-01 -1.719967007637023926e+00 3.384951651096343994e-01 2.000000000000000000e+00
2.603765726089478094e-01 -1.647675156593322976e+00 3.851162195205687921e-01 5.100000000000000000e+01
2.781140804290770929e-01 -1.761913537979125977e+00 -3.113509342074393879e-02 2.000000000000000000e+01
2.527358531951903742e-01 -1.602953433990478960e+00 4.348160028457642157e-01 6.600000000000000000e+01
2.673099339008330744e-01 -1.708956956863403098e+00 3.019266389310359955e-02 3.600000000000000000e+01
2.920945286750792902e-01 -1.869546055793761985e+00 -4.368549585342407227e-01 1.000000000000000000e+00
2.688521444797515869e-01 -1.722754955291748047e+00 9.137857705354690552e-02 3.600000000000000000e+01
2.636005282402039129e-01 -1.691040635108947976e+00 1.497335731983185092e-01 4.500000000000000000e+01
2.644874453544617254e-01 -1.700630903244018999e+00 2.113214433193207065e-01 3.400000000000000000e+01
1.082663536071776900e+00 -6.969441413879395419e+00 -8.660035729408264160e-01 1.000000000000000000e+00
2.665362954139708918e-01 -1.715777039527893066e+00 2.750117778778076172e-01 4.200000000000000000e+01
2.643053829669951837e-01 -1.705340147018433061e+00 3.354422152042388916e-01 1.900000000000000000e+01
2.783581912517548163e-01 -1.798084497451782005e+00 -9.535611420869827271e-02 3.000000000000000000e+00
2.519333064556121826e-01 -1.629271030426024947e+00 3.806171715259552002e-01 4.500000000000000000e+01
2.716593742370604914e-01 -1.758873581886291948e+00 -3.106528334319591869e-02 5.400000000000000000e+01
2.485834360122680942e-01 -1.609467148780822976e+00 4.363689124584197998e-01 6.900000000000000000e+01
2.592280209064484198e-01 -1.696042418479918990e+00 2.994832955300807953e-02 4.600000000000000000e+01
2.696856558322905939e-01 -1.766527533531188965e+00 -4.125602245330811102e-01 9.000000000000000000e+00
2.607294619083405096e-01 -1.709861874580383079e+00 9.064587950706481934e-02 5.100000000000000000e+01
2.764147818088530939e-01 -1.812726020812988059e+00 -3.564312160015106201e-01 1.000000000000000000e+00
2.555961012840270996e-01 -1.678162813186645952e+00 1.485133916139602939e-01 4.700000000000000000e+01
2.759993672370911200e-01 -1.814251303672790971e+00 -2.906552255153656006e-01 1.000000000000000000e+00
2.567602396011353094e-01 -1.689768433570862038e+00 2.098590135574341098e-01 5.000000000000000000e+01
2.590634524822235107e-01 -1.706931948661803977e+00 2.734474539756774902e-01 4.800000000000000000e+01
2.542362213134766180e-01 -1.679076552391052024e+00 3.300995528697968084e-01 3.400000000000000000e+01
2.699893712997437079e-01 -1.785221576690674050e+00 -9.462340921163558960e-02 3.600000000000000000e+01
2.447892129421234131e-01 -1.620506167411803977e+00 3.783676624298096258e-01 5.900000000000000000e+01
2.649214267730712891e-01 -1.755856513977051003e+00 -3.099547326564789165e-02 4.600000000000000000e+01
2.426756173372268954e-01 -1.608414769172668013e+00 4.358512759208679199e-01 7.500000000000000000e+01
2.533061504364014227e-01 -1.696936964988708052e+00 2.994832955300807953e-02 4.700000000000000000e+01
2.640924155712128241e-01 -1.771313071250915971e+00 -4.134600460529326837e-01 4.300000000000000000e+01
2.506408095359802246e-01 -1.683104872703552024e+00 8.918046951293945312e-02 5.500000000000000000e+01
2.645912468433380127e-01 -1.776784896850585938e+00 -3.491804599761962891e-01 1.300000000000000000e+01
2.476848512887954989e-01 -1.665249824523926003e+00 1.472932100296021063e-01 4.800000000000000000e+01
2.615371048450469971e-01 -1.760493516921997070e+00 -2.818948924541472834e-01 1.400000000000000000e+01
2.505689263343811035e-01 -1.688690781593322976e+00 2.096152752637862882e-01 5.900000000000000000e+01
2.502022385597229004e-01 -1.690283179283142090e+00 2.706316113471984863e-01 4.900000000000000000e+01
2.486607432365416925e-01 -1.681895971298217995e+00 3.304811716079711914e-01 4.800000000000000000e+01
2.628808617591857910e-01 -1.780225634574889915e+00 -9.430938959121704102e-02 4.800000000000000000e+01
2.379937320947647095e-01 -1.613639235496520996e+00 3.765680789947509766e-01 6.600000000000000000e+01
2.570421397686005194e-01 -1.744900465011596902e+00 -3.078604489564895977e-02 5.000000000000000000e+01
2.379043549299240112e-01 -1.614985823631287065e+00 4.374041855335236151e-01 8.000000000000000000e+01
2.473811954259871881e-01 -1.697810888290405051e+00 2.994832955300807953e-02 4.700000000000000000e+01
2.579077780246735174e-01 -1.772224187850951926e+00 -4.134600460529326837e-01 5.600000000000000000e+01
2.424659132957457941e-01 -1.668157577514647993e+00 8.834309130907058716e-02 5.800000000000000000e+01
2.566931545734406073e-01 -1.766040563583374023e+00 -3.468907475471497137e-01 4.100000000000000000e+01
2.430154830217360895e-01 -1.673991084098815918e+00 1.479904502630234042e-01 6.100000000000000000e+01
2.551067769527434748e-01 -1.759440898895263894e+00 -2.815820276737213135e-01 4.900000000000000000e+01
2.452417761087417880e-01 -1.693484425544738992e+00 2.101027518510817926e-01 6.100000000000000000e+01
2.426059395074844083e-01 -1.679415822029113992e+00 2.687544226646422785e-01 5.200000000000000000e+01
2.495379894971848089e-01 -1.727402210235595925e+00 -1.526968628168106079e-01 1.000000000000000000e+00
2.399847507476806918e-01 -1.663322329521178977e+00 3.266650140285491943e-01 5.600000000000000000e+01
2.535315752029418945e-01 -1.759387254714966042e+00 -9.315799921751022339e-02 4.900000000000000000e+01
2.318044155836105069e-01 -1.610602378845215066e+00 3.756682574748992920e-01 6.600000000000000000e+01
2.475354522466660101e-01 -1.722034811973571999e+00 -3.036718629300593983e-02 4.200000000000000000e+01
2.308853864669800082e-01 -1.608197927474976030e+00 4.353336393833159845e-01 8.400000000000000000e+01
1.049256250262260021e-01 -7.363245487213134766e-01 -1.992906630039215088e-01 6.000000000000000000e+00
2.389320880174637118e-01 -1.678824424743651900e+00 2.959928102791309010e-02 4.700000000000000000e+01
2.503840029239655096e-01 -1.761493563652039018e+00 -4.107606112957000732e-01 6.100000000000000000e+01
2.363713085651397983e-01 -1.664997577667236106e+00 8.813375234603881836e-02 5.800000000000000000e+01
2.500075101852416992e-01 -1.761050820350646973e+00 -3.457458913326262873e-01 4.600000000000000000e+01
2.341066151857376099e-01 -1.651115894317626953e+00 1.458987146615982056e-01 6.500000000000000000e+01
2.481629848480224887e-01 -1.752453684806823953e+00 -2.803305685520172119e-01 7.500000000000000000e+01
2.376787215471267978e-01 -1.680529594421386941e+00 2.083965837955475131e-01 6.500000000000000000e+01
2.454370707273482999e-01 -1.737572908401489036e+00 -2.154649943113327026e-01 5.000000000000000000e+00
2.351038604974746982e-01 -1.666519045829772949e+00 2.665643393993378241e-01 5.700000000000000000e+01
2.374069839715957919e-01 -1.682844638824462891e+00 -1.486876904964447021e-01 2.100000000000000000e+01
2.330981045961380005e-01 -1.654388785362244096e+00 3.247569203376770020e-01 6.100000000000000000e+01
2.443561106920242032e-01 -1.736485004425049050e+00 -9.190193563699722290e-02 3.900000000000000000e+01
2.253773510456084928e-01 -1.603643178939818892e+00 3.738686442375183105e-01 6.900000000000000000e+01
2.393220067024230957e-01 -1.705023646354675071e+00 -3.005304373800754894e-02 4.100000000000000000e+01
2.236837297677994052e-01 -1.593610525131226030e+00 4.311925172805786133e-01 8.800000000000000000e+01
9.996201843023300171e-02 -7.194650769233703613e-01 -1.946319192647933960e-01 3.600000000000000000e+01
2.300471216440201083e-01 -1.657860279083251953e+00 2.921532839536666870e-02 5.000000000000000000e+01
2.426286786794661920e-01 -1.750775098800658958e+00 -4.080612063407897949e-01 5.800000000000000000e+01
2.316532284021378119e-01 -1.673726201057434082e+00 8.855243772268295288e-02 6.800000000000000000e+01
2.433204501867294034e-01 -1.758023381233215110e+00 -3.449826538562775213e-01 4.900000000000000000e+01
2.288873493671416959e-01 -1.655870199203490989e+00 1.462473422288894931e-01 7.300000000000000000e+01
2.404234409332275113e-01 -1.741568326950073020e+00 -2.784533500671387274e-01 8.300000000000000000e+01
2.296421378850936890e-01 -1.665617108345031960e+00 2.064466625452041904e-01 7.000000000000000000e+01
2.350378334522247037e-01 -1.706954479217529075e+00 -2.115651816129683893e-01 4.000000000000000000e+01
2.300925403833389005e-01 -1.673200368881226030e+00 2.675029337406157892e-01 6.100000000000000000e+01
2.347884923219681064e-01 -1.707348823547363059e+00 -1.507794409990310947e-01 6.100000000000000000e+01
2.251848131418227872e-01 -1.639632344245911089e+00 3.217039704322814941e-01 6.300000000000000000e+01
2.304224371910094937e-01 -1.679944157600403054e+00 -8.886645734310150146e-02 5.200000000000000000e+01
2.211005836725234985e-01 -1.614073634147644043e+00 3.761181533336638849e-01 7.100000000000000000e+01
2.320136725902557095e-01 -1.695942521095276101e+00 -2.987851947546004902e-02 4.300000000000000000e+01
2.170722335577011108e-01 -1.586725592613219993e+00 4.291219711303710938e-01 7.000000000000000000e+01
9.563577920198440552e-02 -7.064089179039001465e-01 -1.910084486007689875e-01 7.000000000000000000e+00
2.242587208747864047e-01 -1.658653259277343972e+00 2.921532839536666870e-02 5.300000000000000000e+01
2.352120131254195889e-01 -1.741955280303955078e+00 -4.058116972446442206e-01 6.000000000000000000e+01
2.242308706045151034e-01 -1.660630106925963911e+00 8.781973272562026978e-02 6.700000000000000000e+01
2.356081008911133090e-01 -1.747188091278075950e+00 -3.426929414272307794e-01 5.900000000000000000e+01
2.223081290721893033e-01 -1.650735497474669966e+00 1.457244008779526034e-01 7.600000000000000000e+01
2.346060723066329956e-01 -1.744354724884032981e+00 -2.787662148475646973e-01 9.300000000000000000e+01
2.227696180343627930e-01 -1.658538818359375000e+00 2.054717093706130981e-01 7.200000000000000000e+01
2.277584373950957974e-01 -1.697927117347717063e+00 -2.103464901447295865e-01 5.600000000000000000e+01
2.248053550720215121e-01 -1.675912022590636985e+00 2.678157985210419256e-01 6.300000000000000000e+01
2.275046110153197965e-01 -1.698284268379210982e+00 -1.499078720808028897e-01 8.700000000000000000e+01
2.186790555715560913e-01 -1.634570717811584029e+00 3.205591142177581787e-01 7.000000000000000000e+01
2.213829755783081055e-01 -1.656982183456420898e+00 -8.761039376258850098e-02 6.200000000000000000e+01
2.141764014959335050e-01 -1.605177521705626997e+00 3.738686442375183105e-01 6.900000000000000000e+01
2.255640625953674039e-01 -1.692777633666991965e+00 -2.980870939791202892e-02 6.900000000000000000e+01
2.125528752803801935e-01 -1.595133304595947044e+00 4.311925172805786133e-01 8.500000000000000000e+01
2.182065546512604037e-01 -1.657443284988403098e+00 2.918042428791522980e-02 6.100000000000000000e+01
2.296380698680877963e-01 -1.746629953384398970e+00 -4.067115187644957941e-01 6.900000000000000000e+01
2.155428081750870029e-01 -1.641638159751892090e+00 8.677301555871963501e-02 7.400000000000000000e+01
2.282299548387526911e-01 -1.738267183303833008e+00 -3.407848775386809748e-01 7.000000000000000000e+01
2.160265743732452115e-01 -1.647550463676453081e+00 1.453757733106612882e-01 7.800000000000000000e+01
2.277462929487228116e-01 -1.739287018775939941e+00 -2.778276205062866211e-01 8.800000000000000000e+01
2.156919389963150024e-01 -1.649464726448059082e+00 2.042530179023742953e-01 7.700000000000000000e+01
2.220872193574905118e-01 -1.700680136680603027e+00 -2.105902284383774081e-01 6.200000000000000000e+01
2.163623124361037930e-01 -1.659095644950866921e+00 2.649999856948853094e-01 5.800000000000000000e+01
2.208021730184555054e-01 -1.693140983581542969e+00 -1.493849456310271939e-01 8.600000000000000000e+01
2.111972421407699863e-01 -1.621696352958678977e+00 3.178877830505371094e-01 7.600000000000000000e+01
2.161128520965575894e-01 -1.661705970764159934e+00 -8.781973272562026978e-02 7.500000000000000000e+01
2.058110982179642001e-01 -1.584657669067383035e+00 3.689197301864624023e-01 7.200000000000000000e+01
2.183677703142166138e-01 -1.683639287948607954e+00 -2.963418699800968170e-02 7.800000000000000000e+01
2.084420025348663053e-01 -1.609312534332274947e+00 4.348160028457642157e-01 9.200000000000000000e+01
2.121302485466002863e-01 -1.658231973648071067e+00 2.918042428791522980e-02 7.000000000000000000e+01
2.237286865711211881e-01 -1.751325964927672896e+00 -4.076113104820250910e-01 6.700000000000000000e+01
2.098111212253571112e-01 -1.642380475997925027e+00 8.677301555871963501e-02 7.300000000000000000e+01
2.203667163848876953e-01 -1.727407217025757058e+00 -3.384951651096343994e-01 7.000000000000000000e+01
2.102383375167846957e-01 -1.650307536125183105e+00 1.455500870943068903e-01 8.400000000000000000e+01
2.218685448169707974e-01 -1.744029283523560014e+00 -2.784533500671387274e-01 8.800000000000000000e+01
2.103954106569289884e-01 -1.656151890754699929e+00 2.049842327833175937e-01 8.500000000000000000e+01
2.158524245023726862e-01 -1.701482772827147993e+00 -2.105902284383774081e-01 7.000000000000000000e+01
2.092869132757186890e-01 -1.652038693428039995e+00 2.637484967708588202e-01 5.900000000000000000e+01
2.130925953388214111e-01 -1.682079434394835982e+00 -1.483390778303146085e-01 8.800000000000000000e+01
2.054983973503113071e-01 -1.624407291412353960e+00 3.182694017887114923e-01 8.200000000000000000e+01
2.110222429037094116e-01 -1.670413017272948997e+00 -8.823842555284500122e-02 7.500000000000000000e+01
2.004894614219666082e-01 -1.589268207550049050e+00 3.698195219039916992e-01 7.400000000000000000e+01
2.096960991621016901e-01 -1.664588212966918945e+00 -2.928513847291469921e-02 8.800000000000000000e+01
2.011329978704453070e-01 -1.596613407135009988e+00 4.311925172805786133e-01 8.200000000000000000e+01
2.065874785184859952e-01 -1.660946726799011008e+00 2.921532839536666870e-02 7.700000000000000000e+01
2.176140546798706055e-01 -1.752096176147460938e+00 -4.076113104820250910e-01 6.200000000000000000e+01
2.053077220916748047e-01 -1.653012990951538086e+00 8.729637414216995239e-02 8.200000000000000000e+01
2.153021544218063077e-01 -1.735959172248840110e+00 -3.400216400623322088e-01 7.200000000000000000e+01
2.020275890827178955e-01 -1.631258487701416016e+00 1.438069790601730069e-01 8.400000000000000000e+01
2.157793939113616943e-01 -1.744793057441710982e+00 -2.784533500671387274e-01 8.100000000000000000e+01
2.060728669166564941e-01 -1.668696999549865945e+00 2.064466625452041904e-01 8.500000000000000000e+01
2.106406837701796930e-01 -1.708136320114135964e+00 -2.113214433193207065e-01 6.400000000000000000e+01
2.032775282859801969e-01 -1.650798559188842995e+00 2.634356319904326837e-01 6.000000000000000000e+01
2.069762498140335083e-01 -1.680835485458374023e+00 -1.481647640466690063e-01 1.000000000000000000e+02
1.991081088781357089e-01 -1.619269013404845969e+00 3.171245455741881769e-01 8.600000000000000000e+01
2.051901221275329867e-01 -1.671139478683471902e+00 -8.823842555284500122e-02 7.500000000000000000e+01
1.949406713247298917e-01 -1.589958429336548074e+00 3.698195219039916992e-01 7.400000000000000000e+01
2.038843184709548950e-01 -1.665310025215148926e+00 -2.928513847291469921e-02 8.200000000000000000e+01
1.939152032136917114e-01 -1.583883047103882058e+00 4.275690615177155096e-01 7.400000000000000000e+01
1.998288631439208984e-01 -1.653716683387755904e+00 2.907570824027061115e-02 8.000000000000000000e+01
2.114967852830887118e-01 -1.752845168113708052e+00 -4.076113104820250910e-01 6.700000000000000000e+01
1.997255533933640081e-01 -1.657720208168030007e+00 8.750572055578231812e-02 8.500000000000000000e+01
2.099457383155823031e-01 -1.742547631263732910e+00 -3.411664962768555243e-01 7.800000000000000000e+01
1.968081593513489047e-01 -1.635910034179687944e+00 1.441555917263031006e-01 8.800000000000000000e+01
2.078027874231339056e-01 -1.729845523834228960e+00 -2.759504020214080811e-01 6.700000000000000000e+01
1.993010938167572021e-01 -1.661522269248961958e+00 2.054717093706130981e-01 8.500000000000000000e+01
2.063294202089309970e-01 -1.722658276557921919e+00 -2.130276113748550137e-01 6.600000000000000000e+01
1.980370879173279086e-01 -1.653424978256226030e+00 2.637484967708588202e-01 5.900000000000000000e+01
2.006345838308334073e-01 -1.677591204643249956e+00 -1.478161364793776911e-01 9.300000000000000000e+01
1.915922164916991910e-01 -1.604358911514282005e+00 3.140715956687927246e-01 8.600000000000000000e+01
1.988825350999831876e-01 -1.667879104614258035e+00 -8.802907913923263550e-02 7.500000000000000000e+01
1.903110891580581943e-01 -1.598369479179382102e+00 3.716191351413726807e-01 7.100000000000000000e+01
1.990143805742264072e-01 -1.673954486846924050e+00 -2.942475676536560059e-02 8.200000000000000000e+01
1.897028088569641113e-01 -1.598011851310729980e+00 4.311925172805786133e-01 7.700000000000000000e+01
1.935891807079314908e-01 -1.650431990623473899e+00 2.900590002536774029e-02 7.800000000000000000e+01
2.046968638896942139e-01 -1.747766256332397017e+00 -4.062615931034088135e-01 6.900000000000000000e+01
1.932979375123977939e-01 -1.650438666343688965e+00 8.708702772855758667e-02 7.700000000000000000e+01
2.045459300279617032e-01 -1.749119758605957031e+00 -3.423113524913787842e-01 7.800000000000000000e+01
1.910965740680695135e-01 -1.636587023735045943e+00 1.441555917263031006e-01 8.600000000000000000e+01
2.019919902086257935e-01 -1.732522368431091087e+00 -2.762632668018341064e-01 6.900000000000000000e+01
1.914342492818832120e-01 -1.644461870193481001e+00 2.032780647277832031e-01 8.700000000000000000e+01
2.005441635847091952e-01 -1.725339770317078081e+00 -2.132713496685028076e-01 6.100000000000000000e+01
1.917479187250137052e-01 -1.652177453041077104e+00 2.634356319904326837e-01 6.200000000000000000e+01
1.970743685960769931e-01 -1.698072314262389915e+00 -1.495592594146729071e-01 9.200000000000000000e+01
1.855388134717941007e-01 -1.601117491722106934e+00 3.133083581924437921e-01 9.300000000000000000e+01
1.935184597969054898e-01 -1.672531247138977051e+00 -8.823842555284500122e-02 7.500000000000000000e+01
1.838359981775284091e-01 -1.591280579566956010e+00 3.698195219039916992e-01 7.200000000000000000e+01
1.938574165105819980e-01 -1.680598497390747070e+00 -2.952947095036507000e-02 8.000000000000000000e+01
1.827973425388335904e-01 -1.587149262428283913e+00 4.280866980552672785e-01 8.200000000000000000e+01
1.888566911220551092e-01 -1.655005693435668945e+00 2.907570824027061115e-02 8.000000000000000000e+01
1.987638771533966064e-01 -1.744528174400330034e+00 -4.053618013858795166e-01 6.900000000000000000e+01
1.863032281398772916e-01 -1.635162353515625000e+00 8.624965697526931763e-02 8.200000000000000000e+01
1.981622874736785889e-01 -1.741950988769531028e+00 -3.407848775386809748e-01 8.000000000000000000e+01
1.868535578250885010e-01 -1.645097970962523970e+00 1.448528468608855924e-01 8.800000000000000000e+01
1.972158998250961026e-01 -1.739036798477173074e+00 -2.772018611431121826e-01 8.000000000000000000e+01
1.867137700319289884e-01 -1.649000167846679910e+00 2.037655413150787076e-01 8.700000000000000000e+01
1.942308694124222079e-01 -1.718071222305298074e+00 -2.122963964939116877e-01 6.100000000000000000e+01
1.855135411024093905e-01 -1.640961885452270952e+00 2.615584135055541992e-01 6.200000000000000000e+01
1.910683363676070889e-01 -1.692743659019469993e+00 -1.490363180637359897e-01 8.400000000000000000e+01
1.809475719928740900e-01 -1.605594277381896973e+00 3.140715956687927246e-01 9.100000000000000000e+01
1.882631033658981046e-01 -1.673130869865417036e+00 -8.823842555284500122e-02 7.400000000000000000e+01
1.768778860568999967e-01 -1.574421286582946999e+00 3.657703995704650879e-01 8.000000000000000000e+01
1.867934763431549072e-01 -1.665301322937011941e+00 -2.925023250281811107e-02 8.000000000000000000e+01
1.788852959871292114e-01 -1.597314953804015891e+00 4.306748807430266779e-01 9.200000000000000000e+01
1.843971759080887118e-01 -1.667580246925354004e+00 2.928513847291469921e-02 7.700000000000000000e+01
1.935285031795501987e-01 -1.752959251403809038e+00 -4.071614146232604980e-01 6.900000000000000000e+01
1.814709752798079889e-01 -1.643743515014647993e+00 8.666834235191345215e-02 8.200000000000000000e+01
1.916503459215163907e-01 -1.738729238510132058e+00 -3.400216400623322088e-01 8.000000000000000000e+01
1.811099648475646973e-01 -1.645740151405334029e+00 1.448528468608855924e-01 8.600000000000000000e+01
1.911443173885344904e-01 -1.739714622497559038e+00 -2.772018611431121826e-01 7.900000000000000000e+01
1.809565424919127863e-01 -1.649641871452331987e+00 2.037655413150787076e-01 9.300000000000000000e+01
1.893130540847778043e-01 -1.728605151176453081e+00 -2.135150879621506015e-01 6.600000000000000000e+01
1.793542802333832065e-01 -1.637672185897826926e+00 2.609326839447020929e-01 6.000000000000000000e+01
1.860246360301970880e-01 -1.701322674751281960e+00 -1.497335731983185092e-01 8.800000000000000000e+01
1.757680028676986972e-01 -1.610119462013245073e+00 3.148348331451416016e-01 9.300000000000000000e+01
1.832872182130813876e-01 -1.681719899177551047e+00 -8.865711092948913574e-02 7.400000000000000000e+01
1.732782572507857999e-01 -1.592464804649353027e+00 3.698195219039916992e-01 8.900000000000000000e+01
1.809793561697005948e-01 -1.665943264961242898e+00 -2.925023250281811107e-02 7.600000000000000000e+01
1.724753230810165128e-01 -1.590247392654418945e+00 4.286043345928192139e-01 9.500000000000000000e+01
1.772980540990828913e-01 -1.656283736228943093e+00 2.907570824027061115e-02 8.000000000000000000e+01
1.880296021699905118e-01 -1.759437322616576926e+00 -4.085111021995543878e-01 7.400000000000000000e+01
1.757321357727051059e-01 -1.644366979598999023e+00 8.666834235191345215e-02 8.200000000000000000e+01
1.857881546020508090e-01 -1.741339802742003950e+00 -3.404032588005065918e-01 7.600000000000000000e+01
1.745200455188750943e-01 -1.638437628746032937e+00 1.441555917263031006e-01 8.800000000000000000e+01
1.846526563167572021e-01 -1.736442685127258079e+00 -2.765761315822600763e-01 8.200000000000000000e+01
1.764545142650603970e-01 -1.662107467651366965e+00 2.052279710769653043e-01 9.300000000000000000e+01
1.832779496908187866e-01 -1.729255437850951926e+00 -2.135150879621506015e-01 6.600000000000000000e+01
1.725956499576568881e-01 -1.628466367721558061e+00 2.593683302402495783e-01 6.800000000000000000e+01
1.794558465480803888e-01 -1.696017622947693093e+00 -1.492106318473815918e-01 8.200000000000000000e+01
1.699403226375580112e-01 -1.608770847320557085e+00 3.144532144069672186e-01 9.800000000000000000e+01
1.774158030748367032e-01 -1.682349443435668945e+00 -8.865711092948913574e-02 7.400000000000000000e+01
1.677184700965881070e-01 -1.593060016632080078e+00 3.698195219039916992e-01 9.400000000000000000e+01
1.751630157232285101e-01 -1.666564822196960005e+00 -2.925023250281811107e-02 7.600000000000000000e+01
1.661912649869919101e-01 -1.581204175949096902e+00 4.260161519050598145e-01 1.000000000000000000e+02
1.706918627023696899e-01 -1.648936271667480025e+00 2.893608994781970978e-02 8.000000000000000000e+01
1.816865652799606046e-01 -1.758144497871398926e+00 -4.080612063407897949e-01 7.800000000000000000e+01
1.708123683929443082e-01 -1.652917146682739036e+00 8.708702772855758667e-02 8.000000000000000000e+01
1.807159483432770053e-01 -1.751742243766784890e+00 -3.423113524913787842e-01 7.800000000000000000e+01
1.687997579574584961e-01 -1.639036893844604048e+00 1.441555917263031006e-01 9.000000000000000000e+01
1.785902082920073908e-01 -1.737076640129088911e+00 -2.765761315822600763e-01 8.100000000000000000e+01
1.706515997648239136e-01 -1.662713289260864036e+00 2.052279710769653043e-01 9.900000000000000000e+01
1.780499219894408902e-01 -1.737783670425415039e+00 -2.144900411367416104e-01 6.600000000000000000e+01
1.675142049789428988e-01 -1.634954214096068892e+00 2.603069543838500977e-01 7.000000000000000000e+01
1.733318269252777100e-01 -1.694651603698730025e+00 -1.490363180637359897e-01 8.500000000000000000e+01
1.623294204473494928e-01 -1.589823246002197044e+00 3.106370568275452215e-01 9.600000000000000000e+01
1.719472855329514105e-01 -1.686932444572448953e+00 -8.886645734310150146e-02 7.400000000000000000e+01
1.625511646270751953e-01 -1.597513198852539062e+00 3.707193434238433838e-01 8.900000000000000000e+01
1.719716191291809082e-01 -1.693029046058655007e+00 -2.970399521291255951e-02 8.800000000000000000e+01
1.605896353721618930e-01 -1.583724737167357954e+00 4.265337884426116943e-01 9.500000000000000000e+01
1.649349629878998080e-01 -1.649522066116333008e+00 2.893608994781970978e-02 8.200000000000000000e+01
1.741935461759566983e-01 -1.745194196701050027e+00 -4.049119055271149237e-01 7.400000000000000000e+01
1.651490181684494019e-01 -1.657506942749022993e+00 8.729637414216995239e-02 8.200000000000000000e+01
1.749894320964812955e-01 -1.756269454956054910e+00 -3.430745601654052734e-01 7.800000000000000000e+01
1.634718030691147128e-01 -1.643581271171570046e+00 1.445042192935943881e-01 8.800000000000000000e+01
1.731110960245131891e-01 -1.743586540222167969e+00 -2.775147557258605957e-01 9.000000000000000000e+01
1.624972522258759100e-01 -1.639593839645385964e+00 2.023031115531921109e-01 9.300000000000000000e+01
1.715919673442841131e-01 -1.734443783760071023e+00 -2.140025645494461060e-01 7.300000000000000000e+01
1.627785265445708951e-01 -1.645357847213744895e+00 2.618713080883026123e-01 6.600000000000000000e+01
1.685901731252670011e-01 -1.707142829895019975e+00 -1.500821858644484919e-01 8.500000000000000000e+01
1.560084968805313110e-01 -1.582564949989319070e+00 3.091105818748474121e-01 9.000000000000000000e+01
1.650797873735428134e-01 -1.677584052085876021e+00 -8.834309130907058716e-02 7.200000000000000000e+01
1.569738239049910944e-01 -1.598070859909058061e+00 3.707193434238433838e-01 8.900000000000000000e+01
1.654753983020781916e-01 -1.687648534774780051e+00 -2.959928102791309010e-02 7.800000000000000000e+01
1.560909897089005072e-01 -1.591939091682434082e+00 4.286043345928192139e-01 9.200000000000000000e+01
1.599440872669219971e-01 -1.658049583435059038e+00 2.907570824027061115e-02 8.200000000000000000e+01
1.682873964309692105e-01 -1.747731447219849077e+00 -4.053618013858795166e-01 6.900000000000000000e+01
1.582157462835311890e-01 -1.646144747734070046e+00 8.666834235191345215e-02 8.200000000000000000e+01
1.679186969995498935e-01 -1.747098326683043990e+00 -3.411664962768555243e-01 7.600000000000000000e+01
1.584947258234024048e-01 -1.652075052261352983e+00 1.452014744281769076e-01 8.400000000000000000e+01
1.679652929306029996e-01 -1.754012107849121094e+00 -2.790790796279907227e-01 8.600000000000000000e+01
1.575285345315932950e-01 -1.648055434226989968e+00 2.032780647277832031e-01 9.100000000000000000e+01
1.647824347019196112e-01 -1.727127671241760032e+00 -2.130276113748550137e-01 7.000000000000000000e+01
1.550614386796951016e-01 -1.628245115280150923e+00 2.590554654598236084e-01 6.900000000000000000e+01
1.641411781311034879e-01 -1.723588228225708008e+00 -1.514766812324523926e-01 8.300000000000000000e+01
1.517838388681412021e-01 -1.596781015396117942e+00 3.117819130420684814e-01 1.000000000000000000e+02
1.599775403738022128e-01 -1.686103343963623047e+00 -8.876178413629531860e-02 7.200000000000000000e+01
1.499247103929519931e-01 -1.583088517189026101e+00 3.671201169490814209e-01 9.200000000000000000e+01
1.588306427001953125e-01 -1.680252671241760032e+00 -2.945966273546218872e-02 8.000000000000000000e+01
1.506181210279464999e-01 -1.596347093582153098e+00 4.296396076679229736e-01 1.000000000000000000e+02
1.553436666727066040e-01 -1.674553871154784934e+00 2.935494855046271931e-02 7.700000000000000000e+01
1.620601713657378873e-01 -1.750276923179626021e+00 -4.058116972446442206e-01 7.100000000000000000e+01
1.525488495826720914e-01 -1.650691151618957964e+00 8.687768876552581787e-02 7.700000000000000000e+01
1.615141332149505893e-01 -1.747702121734618919e+00 -3.411664962768555243e-01 7.200000000000000000e+01
1.520725041627883911e-01 -1.648676872253417969e+00 1.448528468608855924e-01 8.800000000000000000e+01
1.622597575187683105e-01 -1.762484192848206010e+00 -2.803305685520172119e-01 8.100000000000000000e+01
1.513054221868515015e-01 -1.646644949913024902e+00 2.030343264341354093e-01 8.800000000000000000e+01
1.588136702775954923e-01 -1.731673598289489968e+00 -2.135150879621506015e-01 7.000000000000000000e+01
1.490160524845123013e-01 -1.624842286109924094e+00 2.584297358989716131e-01 7.000000000000000000e+01
1.574595868587493896e-01 -1.720210075378417969e+00 -1.511280536651611051e-01 8.800000000000000000e+01
1.455730795860291082e-01 -1.593416452407836914e+00 3.110186755657196045e-01 1.000000000000000000e+02
1.548847705125808993e-01 -1.698612451553344949e+00 -8.938981592655181885e-02 7.200000000000000000e+01
1.441213935613631925e-01 -1.583627462387084961e+00 3.671201169490814209e-01 9.400000000000000000e+01
1.519475728273392001e-01 -1.672857522964477983e+00 -2.932004258036613117e-02 8.000000000000000000e+01
1.441711485385895053e-01 -1.587243437767029031e+00 4.270514249801635742e-01 1.000000000000000000e+02
1.487863957881926935e-01 -1.667118787765502930e+00 2.921532839536666870e-02 7.700000000000000000e+01
1.571598351001740057e-01 -1.764419317245482954e+00 -4.089610278606414795e-01 5.400000000000000000e+01
1.467859297990798950e-01 -1.651213526725769043e+00 8.687768876552581787e-02 7.700000000000000000e+01
1.561078876256943027e-01 -1.756077408790587935e+00 -3.426929414272307794e-01 7.400000000000000000e+01
1.459644734859467108e-01 -1.645228505134582964e+00 1.445042192935943881e-01 8.600000000000000000e+01
1.555838733911514005e-01 -1.757136821746825950e+00 -2.793919444084166925e-01 7.000000000000000000e+01
1.471292674541473111e-01 -1.664959549903870073e+00 2.052279710769653043e-01 9.100000000000000000e+01
1.539887785911560059e-01 -1.746059298515320046e+00 -2.152212560176849088e-01 6.100000000000000000e+01
1.434060931205750067e-01 -1.629312992095947044e+00 2.590554654598236084e-01 6.600000000000000000e+01
1.507552266120910922e-01 -1.712810397148132102e+00 -1.504308134317398071e-01 8.300000000000000000e+01
1.398383527994155884e-01 -1.591959118843079057e+00 3.106370568275452215e-01 1.000000000000000000e+02
1.486057192087172907e-01 -1.695163488388061968e+00 -8.918046951293945312e-02 7.000000000000000000e+01
1.389323025941849032e-01 -1.588003516197205034e+00 3.680199384689331055e-01 9.400000000000000000e+01
1.468030363321304044e-01 -1.681346178054810014e+00 -2.945966273546218872e-02 7.800000000000000000e+01
1.380172520875931064e-01 -1.583912134170532005e+00 4.260161519050598145e-01 1.000000000000000000e+02
1.425725817680358887e-01 -1.659633636474608931e+00 2.907570824027061115e-02 7.800000000000000000e+01
1.528060436248779019e-01 -1.782405376434325950e+00 -4.130101501941680908e-01 5.300000000000000000e+01
1.426715254783630094e-01 -1.667611122131348100e+00 8.771505951881408691e-02 8.000000000000000000e+01
1.507857292890548984e-01 -1.762453794479369895e+00 -3.438377976417542059e-01 6.600000000000000000e+01
1.405078917741776068e-01 -1.645703554153441939e+00 1.445042192935943881e-01 9.400000000000000000e+01
1.490853428840636929e-01 -1.749770164489746094e+00 -2.781404852867125910e-01 5.600000000000000000e+01
1.407663673162460050e-01 -1.655548572540282981e+00 2.040092796087265015e-01 8.800000000000000000e+01
1.490369737148284912e-01 -1.756450295448303001e+00 -2.164399474859237948e-01 5.500000000000000000e+01
1.367836445569992065e-01 -1.612040758132935014e+00 2.562396526336669922e-01 5.900000000000000000e+01
1.455788314342499057e-01 -1.719256758689879927e+00 -1.509537398815155029e-01 8.200000000000000000e+01
1.337319165468215942e-01 -1.582632660865783913e+00 3.087289631366729736e-01 1.000000000000000000e+02
1.431513577699660977e-01 -1.697637081146240012e+00 -8.928514271974563599e-02 7.500000000000000000e+01
1.346459686756134033e-01 -1.600106716156006081e+00 3.707193434238433838e-01 9.400000000000000000e+01
1.418960094451904019e-01 -1.689794540405272993e+00 -2.959928102791309010e-02 7.400000000000000000e+01
1.336871832609176913e-01 -1.592038154602051003e+00 4.280866980552672785e-01 1.000000000000000000e+02
1.367785185575484952e-01 -1.660121202468872070e+00 2.907570824027061115e-02 7.700000000000000000e+01
1.469027101993561069e-01 -1.786812305450439009e+00 -4.139099419116973877e-01 4.100000000000000000e+01
1.366862952709197998e-01 -1.666108369827270952e+00 8.761039376258850098e-02 7.300000000000000000e+01
1.454353183507919034e-01 -1.772752761840820090e+00 -3.457458913326262873e-01 5.500000000000000000e+01
1.352501511573792059e-01 -1.652141213417053001e+00 1.450271606445313055e-01 9.700000000000000000e+01
1.428157687187195102e-01 -1.748311042785644975e+00 -2.778276205062866211e-01 5.400000000000000000e+01
1.340189129114151001e-01 -1.644158720970154031e+00 2.025468498468399048e-01 7.900000000000000000e+01
1.438704729080199918e-01 -1.768831253051758035e+00 -2.179023921489716131e-01 7.300000000000000000e+01
1.311938911676407138e-01 -1.616469144821166992e+00 2.568653821945189875e-01 6.000000000000000000e+01
1.411883533000946045e-01 -1.739613056182861106e+00 -1.526968628168106079e-01 7.900000000000000000e+01
1.280482113361358920e-01 -1.581133008003235085e+00 3.083473443984984796e-01 9.600000000000000000e+01
1.370637565851212103e-01 -1.696135759353637917e+00 -8.918046951293945312e-02 7.000000000000000000e+01
1.287464797496795932e-01 -1.596682190895081010e+00 3.698195219039916992e-01 9.400000000000000000e+01
1.377607733011246005e-01 -1.712205290794373003e+00 -2.998323366045951843e-02 7.300000000000000000e+01
1.284695565700531006e-01 -1.600220084190369096e+00 4.301572442054749090e-01 9.700000000000000000e+01
1.319480985403060913e-01 -1.676559567451477051e+00 2.935494855046271931e-02 7.700000000000000000e+01
1.299547553062438965e-01 -1.658633589744568093e+00 8.719170093536376953e-02 7.200000000000000000e+01
1.386301666498183927e-01 -1.769359350204467995e+00 -3.449826538562775213e-01 4.000000000000000000e+01
1.296596825122832974e-01 -1.658584833145142046e+00 1.455500870943068903e-01 9.400000000000000000e+01
1.371749937534331998e-01 -1.758669734001159890e+00 -2.793919444084166925e-01 5.700000000000000000e+01
1.275298148393630981e-01 -1.638701438903809038e+00 2.018156349658966064e-01 7.700000000000000000e+01
1.361570060253143033e-01 -1.753513574600219949e+00 -2.159524708986282071e-01 7.300000000000000000e+01
1.253976374864577970e-01 -1.614947795867919922e+00 2.565525174140930176e-01 6.400000000000000000e+01
1.351191848516463956e-01 -1.744091749191283958e+00 -1.530454903841018954e-01 7.900000000000000000e+01
1.225548163056374013e-01 -1.585506558418273926e+00 3.091105818748474121e-01 1.000000000000000000e+02
1.317676305770874023e-01 -1.708574771881103960e+00 -8.980850130319595337e-02 6.700000000000000000e+01
1.225944682955742021e-01 -1.593257308006287065e+00 3.689197301864624023e-01 9.400000000000000000e+01
1.311781555414200107e-01 -1.708711028099060059e+00 -2.991342544555664062e-02 7.800000000000000000e+01
1.227350905537605008e-01 -1.598732590675354004e+00 4.296396076679229736e-01 1.000000000000000000e+02
1.265448182821274081e-01 -1.682992100715636985e+00 2.945966273546218872e-02 7.400000000000000000e+01
2.416947633028030118e-01 -3.221958398818970171e+00 -7.459377050399780273e-01 1.200000000000000000e+01
1.247604787349701067e-01 -1.667043805122375044e+00 8.761039376258850098e-02 7.200000000000000000e+01
2.914261519908905029e-01 -3.894023180007935014e+00 -7.590382099151611328e-01 9.000000000000000000e+00
1.235726550221443037e-01 -1.655053615570067915e+00 1.452014744281769076e-01 9.200000000000000000e+01
1.316221952438353937e-01 -1.767017483711242898e+00 -2.806434333324431818e-01 4.500000000000000000e+01
1.226915717124938965e-01 -1.651014447212219016e+00 2.032780647277832031e-01 9.000000000000000000e+01
1.306223422288894931e-01 -1.761896729469299094e+00 -2.169274240732192993e-01 6.600000000000000000e+01
1.181663796305656017e-01 -1.597666501998900923e+00 2.537367045879364014e-01 6.600000000000000000e+01
1.290303468704223910e-01 -1.744552731513977051e+00 -1.530454903841018954e-01 7.600000000000000000e+01
1.174530237913131991e-01 -1.591798424720763938e+00 3.102554380893707275e-01 1.000000000000000000e+02
1.265359073877334872e-01 -1.718983650207519975e+00 -9.033185988664627075e-02 6.600000000000000000e+01
1.167467683553695956e-01 -1.589788556098937988e+00 3.680199384689331055e-01 9.400000000000000000e+01
1.243362128734589039e-01 -1.697192430496216042e+00 -2.970399521291255951e-02 7.100000000000000000e+01
1.165929883718491017e-01 -1.595318317413330078e+00 4.286043345928192139e-01 1.000000000000000000e+02
1.209552511572837968e-01 -1.687412738800049050e+00 2.952947095036507000e-02 7.100000000000000000e+01
2.311415076255798062e-01 -3.232501506805419922e+00 -7.481871843338012695e-01 1.100000000000000000e+01
1.196511611342429976e-01 -1.677430152893065962e+00 8.813375234603881836e-02 7.700000000000000000e+01
2.762951552867888849e-01 -3.873475551605225053e+00 -7.548403739929199219e-01 1.100000000000000000e+01
1.172290444374084056e-01 -1.647525429725646973e+00 1.445042192935943881e-01 9.400000000000000000e+01
1.173483058810233931e-01 -1.657373070716857910e+00 2.040092796087265015e-01 9.600000000000000000e+01
1.250308007001877109e-01 -1.770262598991394043e+00 -2.179023921489716131e-01 5.400000000000000000e+01
1.131460145115851940e-01 -1.601990580558777078e+00 2.543624341487885077e-01 7.500000000000000000e+01
1.220998018980025968e-01 -1.733067750930785911e+00 -1.519996225833893100e-01 7.600000000000000000e+01
1.112077310681342940e-01 -1.582406640052794966e+00 3.083473443984984796e-01 1.000000000000000000e+02
1.215124502778053006e-01 -1.733361482620239036e+00 -9.106456488370895386e-02 6.900000000000000000e+01
1.117404103279114047e-01 -1.597962379455565962e+00 3.698195219039916992e-01 9.200000000000000000e+01
1.192460060119629045e-01 -1.709585189819335938e+00 -2.991342544555664062e-02 7.300000000000000000e+01
1.103611215949058949e-01 -1.582206010818481001e+00 4.249808788299561102e-01 1.000000000000000000e+02
1.145203039050101956e-01 -1.679844379425049050e+00 2.938985265791416168e-02 7.100000000000000000e+01
2.198565751314162930e-01 -3.233288526535034180e+00 -7.481871843338012695e-01 1.100000000000000000e+01
1.144708544015883983e-01 -1.687801003456115945e+00 8.865711092948913574e-02 9.000000000000000000e+01
2.633039355278015137e-01 -3.882251501083374023e+00 -7.563668489456176758e-01 1.100000000000000000e+01
1.116118654608727057e-01 -1.649912357330322044e+00 1.446785330772399902e-01 7.800000000000000000e+01
3.301891088485717773e-01 -4.893733501434326172e+00 -7.768535614013671875e-01 9.000000000000000000e+00
1.107625514268874983e-01 -1.645888924598694070e+00 2.025468498468399048e-01 9.800000000000000000e+01
1.191165596246718944e-01 -1.774649620056151900e+00 -2.183898687362670898e-01 2.500000000000000000e+01
1.078179180622100969e-01 -1.606317639350890891e+00 2.549881637096405029e-01 7.700000000000000000e+01
1.168480291962624013e-01 -1.745411038398742898e+00 -1.530454903841018954e-01 7.900000000000000000e+01
1.051602363586426059e-01 -1.574949622154236062e+00 3.068208694458007812e-01 1.000000000000000000e+02
1.151957213878632008e-01 -1.729789376258850098e+00 -9.085521847009658813e-02 7.000000000000000000e+01
1.066784039139748036e-01 -1.606120467185973899e+00 3.716191351413726807e-01 9.200000000000000000e+01
1.135420724749564986e-01 -1.713981628417968972e+00 -2.998323366045951843e-02 7.100000000000000000e+01
1.053483039140701016e-01 -1.590292096138000044e+00 4.270514249801635742e-01 1.000000000000000000e+02
1.093010827898979048e-01 -1.690211534500122070e+00 2.956437692046165119e-02 6.800000000000000000e+01
2.080672830343245905e-01 -3.226257562637329102e+00 -7.463876008987426758e-01 1.200000000000000000e+01
1.083222478628158986e-01 -1.684204101562500000e+00 8.844776451587677002e-02 9.600000000000000000e+01
2.505067884922028143e-01 -3.894902229309082031e+00 -7.586565613746643066e-01 1.100000000000000000e+01
1.058519184589385986e-01 -1.650291919708251953e+00 1.446785330772399902e-01 5.500000000000000000e+01
3.141135871410369873e-01 -4.910627365112304688e+00 -7.793564796447753906e-01 9.000000000000000000e+00
1.050166562199593007e-01 -1.646265506744384988e+00 2.025468498468399048e-01 9.500000000000000000e+01
1.023049503564835011e-01 -1.612616300582885964e+00 2.559267878532410223e-01 7.800000000000000000e+01
1.112592741847037991e-01 -1.753761768341064009e+00 -1.537427306175231934e-01 7.600000000000000000e+01
9.953803569078445435e-02 -1.573347806930541992e+00 3.064392507076262873e-01 1.000000000000000000e+02
1.090311706066132008e-01 -1.728187680244446023e+00 -9.075054526329040527e-02 6.600000000000000000e+01
1.005818992853164950e-01 -1.598703503608704057e+00 3.698195219039916992e-01 1.000000000000000000e+02
1.079341098666190962e-01 -1.720354914665221946e+00 -3.008794784545898091e-02 6.900000000000000000e+01
1.000384390354155939e-01 -1.594506263732909934e+00 4.280866980552672785e-01 1.000000000000000000e+02
1.037667095661163053e-01 -1.696570754051208052e+00 2.966909110546112061e-02 7.400000000000000000e+01
1.968042701482773105e-01 -3.226964235305786133e+00 -7.463876008987426758e-01 1.200000000000000000e+01
1.022001504898071012e-01 -1.680584788322448953e+00 8.823842555284500122e-02 8.800000000000000000e+01
2.361945062875747958e-01 -3.883995056152344194e+00 -7.563668489456176758e-01 1.100000000000000000e+01
