7.443944931030273438e+00 3.792879343032836914e+00 -4.378426074981688898e-01 1.000000000000000000e+00
1.243876743316650035e+01 6.332400321960449219e+00 -2.436355948448180875e-01 2.000000000000000000e+00
3.885475540161132812e+01 1.978040504455566051e+01 1.168257427215575994e+01 1.100000000000000000e+01
2.036373853683472124e+00 1.033111453056335005e+00 -6.118482351303100586e-01 1.700000000000000000e+01
2.320482730865478960e+00 1.176229715347290039e+00 -6.006193161010742188e-01 1.500000000000000000e+01
2.677722692489624023e+00 1.356723904609679954e+00 -5.834938883781433105e-01 1.200000000000000000e+01
3.214645624160767046e+00 1.627357006072998047e+00 -5.706729292869567871e-01 1.000000000000000000e+01
3.581270217895507812e+01 1.812168884277344105e+01 4.928152561187744141e+00 2.200000000000000000e+01
3.982099056243896040e+00 2.014120578765869141e+00 -5.479245781898498535e-01 1.000000000000000000e+01
3.396016311645507812e+01 1.716939353942871094e+01 6.027107238769531250e+00 1.300000000000000000e+01
5.229288578033447266e+00 2.643795251846313032e+00 -5.126500725746154785e-01 1.700000000000000000e+01
7.478531837463378906e+00 3.777678251266479048e+00 -4.390986859798430841e-01 1.000000000000000000e+00
3.420866775512695312e+01 1.727254676818848012e+01 8.847325325012207031e+00 1.200000000000000000e+01
1.244294452667235973e+01 6.279932498931884766e+00 -2.432865500450134000e-01 2.000000000000000000e+00
3.851304244995117188e+01 1.942903327941894887e+01 1.155834102630615057e+01 1.100000000000000000e+01
2.036515951156616211e+00 1.024260878562927024e+00 -6.108129620552062988e-01 1.700000000000000000e+01
2.331539392471313032e+00 1.171622633934020996e+00 -6.024188995361328125e-01 1.500000000000000000e+01
2.682442426681518999e+00 1.347368597984313965e+00 -5.834938883781433105e-01 1.200000000000000000e+01
3.223837375640869141e+00 1.617897868156433105e+00 -5.712986588478088379e-01 1.100000000000000000e+01
3.800141906738281250e+01 1.906288719177246094e+01 5.220151424407958984e+00 3.000000000000000000e+01
4.005075931549072266e+00 2.008216142654418945e+00 -5.501182079315185547e-01 1.600000000000000000e+01
3.401691055297852273e+01 1.705668449401855113e+01 6.027107238769531250e+00 1.300000000000000000e+01
5.234922885894775391e+00 2.623740196228026900e+00 -5.123014450073242188e-01 1.400000000000000000e+01
7.527390003204345703e+00 3.769436120986938032e+00 -4.411921203136444092e-01 1.000000000000000000e+00
1.242186927795409979e+01 6.214986324310302734e+00 -2.424488365650177002e-01 2.000000000000000000e+00
2.040078878402709961e+00 1.017145872116089089e+00 -6.108129620552062988e-01 1.700000000000000000e+01
2.326893329620360884e+00 1.159132242202759011e+00 -6.001694202423095703e-01 1.400000000000000000e+01
2.695916414260863814e+00 1.342372298240662065e+00 -5.854020118713378906e-01 1.100000000000000000e+01
3.224159479141234907e+00 1.603995203971863015e+00 -5.703600645065307617e-01 1.100000000000000000e+01
4.008506298065186435e+00 1.992456555366515891e+00 -5.496307611465454102e-01 1.100000000000000000e+01
3.410750579833983664e+01 1.694595336914062855e+01 6.032113075256347656e+00 1.300000000000000000e+01
5.251186847686767578e+00 2.608996868133544922e+00 -5.129987001419067383e-01 1.100000000000000000e+01
7.544079780578613281e+00 3.744913816452025923e+00 -4.414014518260955811e-01 1.000000000000000000e+00
3.249198150634766336e+01 1.612209129333496094e+01 8.374028205871582031e+00 1.000000000000000000e+01
1.250439739227294922e+01 6.201797485351563388e+00 -2.436355948448180875e-01 2.000000000000000000e+00
3.727000045776367188e+01 1.847667121887207031e+01 1.114630126953125000e+01 1.000000000000000000e+01
2.048459053039550781e+00 1.013301372528075950e+00 -6.123658418655395508e-01 1.900000000000000000e+01
2.332270383834838867e+00 1.152679920196532981e+00 -6.006193161010742188e-01 1.500000000000000000e+01
2.707160949707030806e+00 1.337374448776244895e+00 -5.869284868240356445e-01 1.200000000000000000e+01
3.234496831893920898e+00 1.596481204032897949e+00 -5.712986588478088379e-01 1.100000000000000000e+01
4.004063606262207031e+00 1.974585771560668945e+00 -5.481683015823364258e-01 9.000000000000000000e+00
3.430645370483397727e+01 1.691806983947753906e+01 6.058393955230712891e+00 1.400000000000000000e+01
5.253995895385742188e+00 2.589844226837158203e+00 -5.124757885932922363e-01 9.000000000000000000e+00
7.519972801208496094e+00 3.703546285629272017e+00 -4.393080174922943115e-01 2.000000000000000000e+00
3.234665298461914062e+01 1.592353916168213068e+01 8.323638916015625000e+00 1.000000000000000000e+01
1.249511146545409979e+01 6.148356914520263672e+00 -2.430771142244338989e-01 2.000000000000000000e+00
3.754999542236328125e+01 1.847688865661621094e+01 1.121359348297118963e+01 1.000000000000000000e+01
2.055452823638916016e+00 1.007845759391784890e+00 -6.134011149406433105e-01 1.600000000000000000e+01
2.332779884338378906e+00 1.142817020416259988e+00 -5.997195243835449219e-01 1.600000000000000000e+01
2.699470281600952148e+00 1.321872711181641069e+00 -5.842571258544921875e-01 1.200000000000000000e+01
3.234726667404174805e+00 1.582576632499695046e+00 -5.703600645065307617e-01 1.000000000000000000e+01
3.420859909057617188e+01 1.672901725769042969e+01 4.675639152526854581e+00 2.000000000000000000e+01
3.998447895050048828e+00 1.954494595527648926e+00 -5.464621186256408691e-01 1.000000000000000000e+01
3.426528930664063211e+01 1.674192047119140980e+01 6.040247440338134766e+00 1.300000000000000000e+01
5.279115676879882812e+00 2.579360485076903853e+00 -5.140445828437805176e-01 9.000000000000000000e+00
3.288301849365233664e+01 1.605943870544433949e+01 7.113359451293945312e+00 6.100000000000000000e+01
7.547213077545166016e+00 3.684283494949340820e+00 -4.401454031467437744e-01 2.000000000000000000e+00
3.225842666625977273e+01 1.574045658111572088e+01 8.286746978759765625e+00 1.000000000000000000e+01
1.255603790283202947e+01 6.123988628387451172e+00 -2.438450157642365057e-01 2.000000000000000000e+00
3.578026580810546875e+01 1.744347190856933949e+01 1.066593265533447088e+01 9.000000000000000000e+00
2.048533201217650923e+00 9.955980777740478516e-01 -6.102952957153320312e-01 1.600000000000000000e+01
2.336754798889160156e+00 1.134667158126831055e+00 -5.997195243835449219e-01 1.500000000000000000e+01
2.705834388732910156e+00 1.313298940658568892e+00 -5.846387743949890137e-01 1.200000000000000000e+01
3.249118328094481978e+00 1.575585246086121050e+00 -5.719243884086608887e-01 1.100000000000000000e+01
3.861466598510742188e+01 1.871697044372558949e+01 5.268898963928222656e+00 3.100000000000000000e+01
4.019537925720214844e+00 1.947449684143065962e+00 -5.484120249748229980e-01 1.000000000000000000e+01
3.442372512817382812e+01 1.667815589904785156e+01 6.058393955230712891e+00 1.400000000000000000e+01
5.280914306640625000e+00 2.557443618774414062e+00 -5.133473277091979980e-01 1.100000000000000000e+01
7.578006267547607422e+00 3.666615486145019975e+00 -4.411921203136444092e-01 2.000000000000000000e+00
1.252332687377930043e+01 6.054012775421142578e+00 -2.427978813648223877e-01 2.000000000000000000e+00
3.598053359985352273e+01 1.739366912841796875e+01 1.070837879180908025e+01 9.000000000000000000e+00
2.051995992660522017e+00 9.884412884712219238e-01 -6.102952957153320312e-01 1.600000000000000000e+01
2.352993011474608931e+00 1.132419109344481978e+00 -6.028688549995422363e-01 1.600000000000000000e+01
2.703325271606444868e+00 1.300441622734070046e+00 -5.831122994422912598e-01 1.100000000000000000e+01
3.249257087707519975e+00 1.561666965484618919e+00 -5.709857940673828125e-01 1.000000000000000000e+01
3.867976379394531250e+01 1.858206748962401988e+01 5.268898963928222656e+00 3.100000000000000000e+01
4.047784805297851562e+00 1.943718552589416948e+00 -5.513368844985961914e-01 8.000000000000000000e+00
5.291605472564697266e+00 2.539856433868408203e+00 -5.135216116905212402e-01 9.000000000000000000e+00
7.612370014190673828e+00 3.650504350662231001e+00 -4.424481689929962158e-01 2.000000000000000000e+00
3.203715896606445312e+01 1.535651016235351918e+01 8.202165603637695312e+00 1.000000000000000000e+01
1.255881023406982067e+01 6.017173767089843750e+00 -2.430771142244338989e-01 2.000000000000000000e+00
3.497423934936522727e+01 1.674934196472167969e+01 1.039054965972900035e+01 8.000000000000000000e+00
2.057348489761352983e+00 9.817457199096679688e-01 -6.108129620552062988e-01 1.800000000000000000e+01
2.360645771026610884e+00 1.125464558601378950e+00 -6.037686467170715332e-01 1.700000000000000000e+01
2.722251892089844194e+00 1.297281265258789062e+00 -5.861652493476867676e-01 1.100000000000000000e+01
3.256742477416992188e+00 1.550596594810486062e+00 -5.712986588478088379e-01 9.000000000000000000e+00
4.051296234130859375e+00 1.927164196968079057e+00 -5.508494377136230469e-01 6.000000000000000000e+00
3.454219055175781250e+01 1.643140029907226918e+01 6.058393955230712891e+00 1.400000000000000000e+01
5.318872451782226562e+00 2.529000043869018999e+00 -5.152647495269775391e-01 9.000000000000000000e+00
7.625698566436767578e+00 3.622579097747803178e+00 -4.424481689929962158e-01 2.000000000000000000e+00
3.204041671752929688e+01 1.521390819549561080e+01 8.188668251037597656e+00 1.000000000000000000e+01
1.256994056701659979e+01 5.965958595275878906e+00 -2.428676933050155917e-01 2.000000000000000000e+00
3.488065338134766336e+01 1.655509185791015980e+01 1.034551525115966975e+01 1.700000000000000000e+01
2.071241378784180132e+00 9.795136451721191406e-01 -6.139187812805175781e-01 1.600000000000000000e+01
2.348702430725098100e+00 1.109724998474121094e+00 -5.997195243835449219e-01 1.600000000000000000e+01
2.737415075302124023e+00 1.292801380157470925e+00 -5.884549617767333984e-01 1.200000000000000000e+01
3.265708208084106001e+00 1.540904879570007102e+00 -5.719243884086608887e-01 9.000000000000000000e+00
4.061590194702148438e+00 1.914703726768494096e+00 -5.513368844985961914e-01 8.000000000000000000e+00
3.459933471679688211e+01 1.631072425842285156e+01 6.058393955230712891e+00 1.400000000000000000e+01
5.315051555633544922e+00 2.504473447799683061e+00 -5.140445828437805176e-01 9.000000000000000000e+00
7.631069183349609375e+00 3.592535495758057085e+00 -4.420294761657714844e-01 2.000000000000000000e+00
3.212859344482421875e+01 1.511856842041015980e+01 8.197666168212890625e+00 1.000000000000000000e+01
1.259068965911865057e+01 5.922044754028320312e+00 -2.428676933050155917e-01 2.000000000000000000e+00
3.482460021972656250e+01 1.637978935241698863e+01 1.031186866760254084e+01 1.700000000000000000e+01
2.069061279296875000e+00 9.705405831336975098e-01 -6.123658418655395508e-01 1.500000000000000000e+01
2.359235286712646040e+00 1.105648756027221902e+00 -6.015191078186035156e-01 1.300000000000000000e+01
2.723684310913085938e+00 1.275866985321044922e+00 -5.846387743949890137e-01 1.100000000000000000e+01
3.268743991851807085e+00 1.529800415039062944e+00 -5.716115236282348633e-01 1.100000000000000000e+01
4.056795597076416016e+00 1.896889448165893999e+00 -5.498744845390319824e-01 1.100000000000000000e+01
3.494672393798828125e+01 1.633306884765625000e+01 6.109704494476318359e+00 1.400000000000000000e+01
5.322893619537354404e+00 2.487763404846190962e+00 -5.140445828437805176e-01 9.000000000000000000e+00
3.351132965087891336e+01 1.565508174896240057e+01 7.189682960510253906e+00 6.100000000000000000e+01
7.642317771911621094e+00 3.568544149398804155e+00 -4.420294761657714844e-01 2.000000000000000000e+00
3.209469985961914062e+01 1.497964668273925959e+01 8.176970481872558594e+00 1.000000000000000000e+01
1.260560703277588068e+01 5.880770206451416016e+00 -2.427978813648223877e-01 5.000000000000000000e+00
3.757548141479492188e+01 1.752972030639648082e+01 1.111006641387938920e+01 1.000000000000000000e+01
2.070684671401977983e+00 9.624980092048645020e-01 -6.118482351303100586e-01 1.600000000000000000e+01
2.368382692337036133e+00 1.099869132041930930e+00 -6.028688549995422363e-01 1.400000000000000000e+01
2.728121519088745117e+00 1.266351819038390891e+00 -5.846387743949890137e-01 1.100000000000000000e+01
3.281232118606566939e+00 1.521705389022826926e+00 -5.728629827499389648e-01 1.000000000000000000e+01
3.407318496704102273e+01 1.579456615447998047e+01 4.611292362213134766e+00 1.900000000000000000e+01
4.065193653106688565e+00 1.883551597595215066e+00 -5.501182079315185547e-01 1.100000000000000000e+01
5.326121330261229581e+00 2.466655969619750977e+00 -5.135216116905212402e-01 9.000000000000000000e+00
7.661978244781494141e+00 3.545200347900391069e+00 -4.424481689929962158e-01 2.000000000000000000e+00
3.220339584350585938e+01 1.489370059967041016e+01 8.191368103027343750e+00 1.000000000000000000e+01
1.262242794036865057e+01 5.835054397583007812e+00 -2.427280694246292114e-01 5.000000000000000000e+00
3.502647781372070312e+01 1.618450546264648082e+01 1.033878517150879084e+01 8.000000000000000000e+00
2.070522546768188032e+00 9.536477327346801758e-01 -6.108129620552062988e-01 1.600000000000000000e+01
2.379288911819458008e+00 1.094853758811950906e+00 -6.046684384346008301e-01 1.200000000000000000e+01
2.734308958053588867e+00 1.257641553878783958e+00 -5.850203633308410645e-01 1.000000000000000000e+01
3.288318872451781782e+00 1.511067271232604980e+00 -5.731759071350097656e-01 1.100000000000000000e+01
4.086175918579101562e+00 1.875975966453552024e+00 -5.520681142807006836e-01 1.100000000000000000e+01
5.345563888549804688e+00 2.453035354614257812e+00 -5.145674943923950195e-01 9.000000000000000000e+00
3.350559997558593750e+01 1.536836433410645064e+01 7.165259361267089844e+00 6.100000000000000000e+01
7.681568622589111328e+00 3.521763086318970171e+00 -4.428668618202208918e-01 2.000000000000000000e+00
3.237211227416992188e+01 1.483478069305419922e+01 8.221061706542968750e+00 1.000000000000000000e+01
1.268271636962890980e+01 5.809278488159179688e+00 -2.434959709644317905e-01 5.000000000000000000e+00
3.506590652465820312e+01 1.606182861328125000e+01 1.033464431762694957e+01 8.000000000000000000e+00
2.070323705673218218e+00 9.448103904724121094e-01 -6.097776889801025391e-01 1.600000000000000000e+01
3.835747909545897727e+01 1.749668312072753906e+01 7.358981966972351074e-01 4.000000000000000000e+01
2.376003503799438032e+00 1.083308100700377974e+00 -6.028688549995422363e-01 1.200000000000000000e+01
2.744041681289672852e+00 1.250531792640686035e+00 -5.861652493476867676e-01 1.200000000000000000e+01
3.286382198333739790e+00 1.496305465698241965e+00 -5.719243884086608887e-01 1.100000000000000000e+01
4.107154846191406250e+00 1.868276596069335938e+00 -5.540180206298828125e-01 1.300000000000000000e+01
5.354094028472900391e+00 2.434360742568970171e+00 -5.145674943923950195e-01 9.000000000000000000e+00
3.367343139648438211e+01 1.530329990386963068e+01 7.189682960510253906e+00 6.100000000000000000e+01
7.704725742340087891e+00 3.499884128570557085e+00 -4.434948861598969061e-01 2.000000000000000000e+00
1.273205280303955078e+01 5.778194904327392578e+00 -2.440544515848160068e-01 2.000000000000000000e+00
2.087691307067871094e+00 9.439451098442077637e-01 -6.139187812805175781e-01 1.700000000000000000e+01
3.841831970214843750e+01 1.736268234252930043e+01 7.358981966972351074e-01 4.000000000000000000e+01
2.376218557357788086e+00 1.073403120040893999e+00 -6.019690036773681641e-01 1.200000000000000000e+01
2.759125947952270952e+00 1.245793104171752930e+00 -5.884549617767333984e-01 1.300000000000000000e+01
3.295186519622803178e+00 1.486449241638184038e+00 -5.725501179695129395e-01 1.100000000000000000e+01
4.115461349487304688e+00 1.854744195938109907e+00 -5.542617440223693848e-01 1.200000000000000000e+01
3.577371215820313211e+01 1.612239265441894887e+01 6.214828491210938388e+00 1.400000000000000000e+01
5.364375591278076172e+00 2.416475057601929155e+00 -5.147418379783630371e-01 9.000000000000000000e+00
7.705967903137207031e+00 3.468050241470336914e+00 -4.428668618202208918e-01 1.000000000000000000e+00
1.274849700927734020e+01 5.732076168060302734e+00 -2.439846396446228027e-01 2.000000000000000000e+00
3.508908462524414062e+01 1.577702140808104936e+01 1.030876255035400035e+01 8.000000000000000000e+00
2.094499826431273970e+00 9.382314682006835938e-01 -6.149540543556213379e-01 1.800000000000000000e+01
3.847869110107421875e+01 1.722847175598144887e+01 7.358981966972351074e-01 4.000000000000000000e+01
2.383508443832397017e+00 1.066694140434264915e+00 -6.028688549995422363e-01 1.100000000000000000e+01
2.761665582656859907e+00 1.235352754592895952e+00 -5.880733132362365723e-01 1.200000000000000000e+01
3.303962230682373047e+00 1.476549863815308061e+00 -5.731759071350097656e-01 1.000000000000000000e+01
3.460576248168945312e+01 1.545816516876221058e+01 4.653702735900878906e+00 1.900000000000000000e+01
4.107409477233886719e+00 1.833892822265625000e+00 -5.523118376731872559e-01 1.200000000000000000e+01
5.381875038146972656e+00 2.401794910430908203e+00 -5.156133770942687988e-01 9.000000000000000000e+00
7.718026638031005859e+00 3.441130161285399947e+00 -4.428668618202208918e-01 1.000000000000000000e+00
1.284149456024169922e+01 5.720087528228759766e+00 -2.453808337450026911e-01 2.000000000000000000e+00
3.466664123535156250e+01 1.543458271026610973e+01 1.016796493530273082e+01 8.000000000000000000e+00
2.090698957443236861e+00 9.277801513671875000e-01 -6.128835082054138184e-01 1.700000000000000000e+01
2.385435819625854048e+00 1.057577848434448020e+00 -6.024188995361328125e-01 1.300000000000000000e+01
2.749806880950928178e+00 1.218546628952025923e+00 -5.846387743949890137e-01 1.300000000000000000e+01
3.307289838790893999e+00 1.464208245277405007e+00 -5.728629827499389648e-01 1.000000000000000000e+01
3.473575210571289062e+01 1.537101268768311080e+01 4.663939952850341797e+00 2.000000000000000000e+01
4.117416858673095703e+00 1.821150064468384011e+00 -5.527993440628051758e-01 1.300000000000000000e+01
5.390226364135742188e+00 2.382994174957274947e+00 -5.156133770942687988e-01 9.000000000000000000e+00
3.598672866821289062e+01 1.590205955505370916e+01 7.647624492645263672e+00 6.300000000000000000e+01
7.748261451721191406e+00 3.422237634658813032e+00 -4.439135789871215820e-01 2.000000000000000000e+00
3.651594543457031250e+01 1.612067985534667969e+01 9.215344429016113281e+00 1.200000000000000000e+01
1.287967872619629084e+01 5.683300495147705078e+00 -2.457298785448074063e-01 2.000000000000000000e+00
3.525493240356445312e+01 1.555662822723389027e+01 1.032532691955566051e+01 8.000000000000000000e+00
2.088619232177733931e+00 9.181443452835083008e-01 -6.113305687904357910e-01 1.700000000000000000e+01
2.398034334182738814e+00 1.053162693977355957e+00 -6.046684384346008301e-01 1.400000000000000000e+01
2.773818016052246094e+00 1.217620968818664995e+00 -5.888365507125854492e-01 1.300000000000000000e+01
3.319617033004761186e+00 1.455828189849853960e+00 -5.741145014762878418e-01 1.000000000000000000e+01
3.476010513305664062e+01 1.523691749572754084e+01 4.660039901733398438e+00 2.000000000000000000e+01
4.134658336639404297e+00 1.811546325683593972e+00 -5.542617440223693848e-01 1.200000000000000000e+01
5.394861221313476562e+00 2.362565755844116211e+00 -5.152647495269775391e-01 9.000000000000000000e+00
7.760159969329833984e+00 3.395170450210570845e+00 -4.439135789871215820e-01 2.000000000000000000e+00
1.299105358123778942e+01 5.678351879119873047e+00 -2.474751174449920932e-01 2.000000000000000000e+00
3.527715682983397727e+01 1.541954326629639027e+01 1.031600952148438033e+01 8.000000000000000000e+00
2.091652393341064009e+00 9.112131595611572266e-01 -6.113305687904357910e-01 1.800000000000000000e+01
2.406873941421508789e+00 1.047537803649901900e+00 -6.060181260108947754e-01 1.500000000000000000e+01
2.786842107772827148e+00 1.212331771850585938e+00 -5.907446742057800293e-01 1.400000000000000000e+01
3.311744689941405806e+00 1.439300298690795898e+00 -5.719243884086608887e-01 9.000000000000000000e+00
3.620875930786132812e+01 1.572899055480957031e+01 4.847231388092041016e+00 2.000000000000000000e+01
4.147926330566406250e+00 1.800987720489501953e+00 -5.552367568016052246e-01 1.200000000000000000e+01
3.635499191284179688e+01 1.578497028350830078e+01 6.277402400970458984e+00 1.400000000000000000e+01
5.400838851928710938e+00 2.343869447708129883e+00 -5.150904655456542969e-01 8.000000000000000000e+00
7.811689853668212891e+00 3.386896848678588867e+00 -4.462163746356964111e-01 2.000000000000000000e+00
3.396419525146483664e+01 1.471873855590819957e+01 8.545890808105468750e+00 1.100000000000000000e+01
1.297311305999756037e+01 5.619344711303710938e+00 -2.467770278453826904e-01 2.000000000000000000e+00
3.693695068359375000e+01 1.599170112609862926e+01 1.078498935699463068e+01 9.000000000000000000e+00
2.107236623764038086e+00 9.092640280723571777e-01 -6.149540543556213379e-01 1.900000000000000000e+01
2.385462284088135210e+00 1.028329610824584961e+00 -5.997195243835449219e-01 1.500000000000000000e+01
2.792859792709351030e+00 1.203373432159424050e+00 -5.911262631416320801e-01 1.400000000000000000e+01
3.320377349853516069e+00 1.429293513298034890e+00 -5.725501179695129395e-01 1.000000000000000000e+01
3.639108657836914062e+01 1.565742111206055043e+01 4.864293098449707031e+00 2.100000000000000000e+01
4.163305759429931641e+00 1.790418982505797896e+00 -5.564554333686828613e-01 1.300000000000000000e+01
5.425461292266845703e+00 2.332083940505981001e+00 -5.166592597961425781e-01 9.000000000000000000e+00
7.801442146301270419e+00 3.350151300430297852e+00 -4.449602961540222168e-01 2.000000000000000000e+00
1.304778099060058949e+01 5.597678184509277344e+00 -2.478241771459578913e-01 2.000000000000000000e+00
3.510341644287108664e+01 1.505259609222411932e+01 1.023422241210938033e+01 8.000000000000000000e+00
2.103448867797852007e+00 8.984990119934082031e-01 -6.128835082054138184e-01 1.600000000000000000e+01
2.403554201126099077e+00 1.025698661804198997e+00 -6.033187508583068848e-01 1.600000000000000000e+01
2.786416530609130859e+00 1.188507437705994096e+00 -5.888365507125854492e-01 1.500000000000000000e+01
3.334680080413817915e+00 1.420986056327820046e+00 -5.741145014762878418e-01 1.000000000000000000e+01
4.153401374816895419e+00 1.768149733543395996e+00 -5.542617440223693848e-01 1.300000000000000000e+01
5.444972515106201172e+00 2.316863536834716797e+00 -5.177050828933715820e-01 9.000000000000000000e+00
7.802640438079833984e+00 3.316846847534180132e+00 -4.443322718143463135e-01 2.000000000000000000e+00
1.310502147674561080e+01 5.565451145172119141e+00 -2.485222667455672940e-01 2.000000000000000000e+00
3.523659515380858664e+01 1.495704746246338068e+01 1.025699901580811080e+01 8.000000000000000000e+00
2.110130786895751953e+00 8.926564455032348633e-01 -6.139187812805175781e-01 1.600000000000000000e+01
2.414299964904785156e+00 1.020336866378783958e+00 -6.051183342933654785e-01 1.500000000000000000e+01
3.709039688110352273e+01 1.567522716522216975e+01 2.110290527343750000e+00 2.300000000000000000e+01
2.794165372848511186e+00 1.180301666259766069e+00 -5.895997881889343262e-01 1.400000000000000000e+01
3.350539684295653853e+00 1.413945317268372026e+00 -5.759916901588439941e-01 1.100000000000000000e+01
4.170523166656494141e+00 1.758267879486083984e+00 -5.557242035865783691e-01 1.200000000000000000e+01
5.456698894500732422e+00 2.299390316009521040e+00 -5.180537104606628418e-01 9.000000000000000000e+00
7.825215339660645419e+00 3.294239997863769975e+00 -4.449602961540222168e-01 2.000000000000000000e+00
1.312436866760254084e+01 5.519672393798828125e+00 -2.485222667455672940e-01 2.000000000000000000e+00
3.514968109130858664e+01 1.477556514739990057e+01 1.021662330627441051e+01 8.000000000000000000e+00
2.104324817657471147e+00 8.815530538558959961e-01 -6.113305687904357910e-01 1.700000000000000000e+01
2.426835298538208008e+00 1.015664935111999956e+00 -6.073678731918334961e-01 1.400000000000000000e+01
2.801890611648560014e+00 1.172056317329406960e+00 -5.903630256652832031e-01 1.300000000000000000e+01
3.355454921722412109e+00 1.402241110801696999e+00 -5.759916901588439941e-01 1.000000000000000000e+01
3.639452743530272727e+01 1.520177459716797053e+01 4.842844009399414062e+00 2.000000000000000000e+01
4.178467273712158203e+00 1.744464159011841042e+00 -5.559679269790649414e-01 1.200000000000000000e+01
5.457336902618408203e+00 2.277259826660155806e+00 -5.173565149307250977e-01 9.000000000000000000e+00
3.486228942871093750e+01 1.454033470153808949e+01 7.342329978942871094e+00 6.200000000000000000e+01
7.858788490295410156e+00 3.276126861572266069e+00 -4.462163746356964111e-01 2.000000000000000000e+00
3.325146865844727273e+01 1.385487079620360973e+01 8.316440582275390625e+00 1.000000000000000000e+01
1.320631980895995916e+01 5.499965190887451172e+00 -2.497090250253677091e-01 2.000000000000000000e+00
3.744910430908203125e+01 1.559622669219971058e+01 1.086988258361816051e+01 9.000000000000000000e+00
2.107389211654663086e+00 8.742022514343261719e-01 -6.113305687904357910e-01 1.500000000000000000e+01
2.417763948440552202e+00 1.001965045928955078e+00 -6.042185425758361816e-01 1.500000000000000000e+01
2.805964946746826172e+00 1.162268757820128950e+00 -5.903630256652832031e-01 1.300000000000000000e+01
3.340251207351685014e+00 1.382211446762084961e+00 -5.725501179695129395e-01 1.000000000000000000e+01
3.642902374267578125e+01 1.506705379486083984e+01 4.840406417846679688e+00 2.000000000000000000e+01
4.201041698455811435e+00 1.736693382263184038e+00 -5.581616163253784180e-01 1.100000000000000000e+01
3.553226089477539062e+01 1.468889045715332031e+01 6.089680671691895419e+00 1.400000000000000000e+01
5.452363014221191406e+00 2.252870321273804155e+00 -5.161362886428833008e-01 8.000000000000000000e+00
7.855407238006591797e+00 3.242578029632567915e+00 -4.453789889812468927e-01 2.000000000000000000e+00
3.309066390991210938e+01 1.365250205993651988e+01 8.264251708984375000e+00 1.000000000000000000e+01
1.321064853668213068e+01 5.447733879089354581e+00 -2.494297921657561978e-01 2.000000000000000000e+00
3.758460235595703125e+01 1.549125576019286932e+01 1.089265823364257990e+01 1.000000000000000000e+01
2.114001989364624023e+00 8.683087229728698730e-01 -6.123658418655395508e-01 1.500000000000000000e+01
2.419443845748900923e+00 9.927795529365539551e-01 -6.037686467170715332e-01 1.400000000000000000e+01
2.824536323547362837e+00 1.158426761627197044e+00 -5.934159755706787109e-01 1.300000000000000000e+01
3.345055580139160156e+00 1.370543479919434038e+00 -5.725501179695129395e-01 1.100000000000000000e+01
4.208915710449218750e+00 1.722770452499390093e+00 -5.584053397178649902e-01 1.100000000000000000e+01
3.558331680297852273e+01 1.456476974487305043e+01 6.089680671691895419e+00 1.400000000000000000e+01
5.480478286743164062e+00 2.242122888565063032e+00 -5.180537104606628418e-01 9.000000000000000000e+00
7.862980365753173828e+00 3.213626623153686968e+00 -4.451696574687957764e-01 2.000000000000000000e+00
3.337263870239257812e+01 1.363271331787109020e+01 8.322738647460937500e+00 1.000000000000000000e+01
1.331104278564452947e+01 5.434846401214599609e+00 -2.509655952453612726e-01 2.000000000000000000e+00
3.764292144775391336e+01 1.536945629119873047e+01 1.089472866058349965e+01 1.000000000000000000e+01
2.115230560302733931e+00 8.601964116096496582e-01 -6.118482351303100586e-01 1.500000000000000000e+01
2.417478084564208984e+00 9.821276068687438965e-01 -6.024188995361328125e-01 1.500000000000000000e+01
2.824924707412720171e+00 1.147082924842834029e+00 -5.926527380943298340e-01 1.300000000000000000e+01
3.360802412033081055e+00 1.363313913345336914e+00 -5.744273662567138672e-01 1.100000000000000000e+01
4.200185298919677734e+00 1.702103614807128906e+00 -5.564554333686828613e-01 1.100000000000000000e+01
5.514124393463134766e+00 2.233450412750244141e+00 -5.204941034317016602e-01 9.000000000000000000e+00
7.877853393554688388e+00 3.187658548355102983e+00 -4.453789889812468927e-01 2.000000000000000000e+00
1.333734893798827947e+01 5.391346454620361328e+00 -2.511052191257476807e-01 2.000000000000000000e+00
3.763809967041016336e+01 1.520677947998047053e+01 1.087712955474854049e+01 1.000000000000000000e+01
2.119863271713256836e+00 8.538991808891296387e-01 -6.123658418655395508e-01 1.600000000000000000e+01
2.427953243255614790e+00 9.770155549049377441e-01 -6.042185425758361816e-01 1.500000000000000000e+01
2.817784309387207031e+00 1.133313298225403054e+00 -5.903630256652832031e-01 1.300000000000000000e+01
3.374469518661499023e+00 1.355844020843506081e+00 -5.759916901588439941e-01 1.100000000000000000e+01
4.224228858947753906e+00 1.695560455322266069e+00 -5.588927865028381348e-01 1.100000000000000000e+01
5.497461795806884766e+00 2.205508708953856978e+00 -5.182280540466308594e-01 8.000000000000000000e+00
7.910627365112304688e+00 3.170433282852172852e+00 -4.466350376605988104e-01 1.000000000000000000e+00
3.470563507080078125e+01 1.390234661102294922e+01 8.631371498107910156e+00 1.100000000000000000e+01
1.338485622406006037e+01 5.358981132507324219e+00 -2.516637146472930908e-01 2.000000000000000000e+00
3.757449340820313211e+01 1.504394149780273082e+01 1.084503555297851918e+01 9.000000000000000000e+00
2.128214359283446822e+00 8.486409187316894531e-01 -6.139187812805175781e-01 1.600000000000000000e+01
2.442211151123046875e+00 9.728614687919616699e-01 -6.069179177284240723e-01 1.500000000000000000e+01
2.827195167541503906e+00 1.125649213790893999e+00 -5.915079116821289062e-01 1.600000000000000000e+01
3.377346277236938032e+00 1.343326568603516069e+00 -5.756788253784179688e-01 1.100000000000000000e+01
4.024700927734375000e+01 1.599995899200438920e+01 5.317890644073486328e+00 3.200000000000000000e+01
4.233811378479003906e+00 1.682270765304564986e+00 -5.593802928924560547e-01 1.100000000000000000e+01
5.488461494445800781e+00 2.179687023162841797e+00 -5.166592597961425781e-01 9.000000000000000000e+00
7.929071903228759766e+00 3.145746707916260210e+00 -4.470537304878234863e-01 1.000000000000000000e+00
1.351502227783202947e+01 5.356433868408203125e+00 -2.537579834461212158e-01 2.000000000000000000e+00
3.769403839111328125e+01 1.493173694610596058e+01 1.086367034912109020e+01 9.000000000000000000e+00
2.132960557937622070e+00 8.419161438941955566e-01 -6.144363880157470703e-01 1.700000000000000000e+01
2.452843666076660156e+00 9.671900272369384766e-01 -6.087175607681274414e-01 1.500000000000000000e+01
2.843892812728881836e+00 1.120812535285949929e+00 -5.941792130470275879e-01 1.700000000000000000e+01
3.376500606536864790e+00 1.329358220100403054e+00 -5.747402310371398926e-01 1.100000000000000000e+01
4.241505146026611328e+00 1.668208360671997070e+00 -5.596240162849426270e-01 1.100000000000000000e+01
5.499745368957520419e+00 2.161973237991333008e+00 -5.170078873634338379e-01 9.000000000000000000e+00
7.936286449432373047e+00 3.116589784622191939e+00 -4.468443989753723145e-01 2.000000000000000000e+00
3.471114349365233664e+01 1.362411880493164062e+01 8.608877182006835938e+00 1.100000000000000000e+01
1.353363704681395951e+01 5.309225082397460938e+00 -2.537579834461212158e-01 2.000000000000000000e+00
3.745919799804688211e+01 1.469518470764159979e+01 1.078188419342041016e+01 9.000000000000000000e+00
2.135886430740356001e+00 8.344656229019165039e-01 -6.144363880157470703e-01 1.700000000000000000e+01
2.436235666275023970e+00 9.508284330368041992e-01 -6.037686467170715332e-01 1.400000000000000000e+01
2.856932878494263139e+00 1.114446043968200906e+00 -5.960872769355773926e-01 1.300000000000000000e+01
3.386641979217528853e+00 1.319715619087219016e+00 -5.756788253784179688e-01 1.100000000000000000e+01
4.243602752685546875e+00 1.651952385902405007e+00 -5.591365694999694824e-01 1.100000000000000000e+01
5.538824081420898438e+00 2.155043840408325195e+00 -5.199711322784423828e-01 9.000000000000000000e+00
7.943393707275390625e+00 3.087420940399169922e+00 -4.466350376605988104e-01 2.000000000000000000e+00
3.556501007080078125e+01 1.381618595123291016e+01 8.808633804321289062e+00 1.200000000000000000e+01
1.358936977386474965e+01 5.276427268981933594e+00 -2.544560730457305908e-01 2.000000000000000000e+00
3.764247894287108664e+01 1.460811328887938920e+01 1.081915378570556996e+01 9.000000000000000000e+00
2.142245292663574219e+00 8.287722468376159668e-01 -6.154716610908508301e-01 1.500000000000000000e+01
2.444828510284423828e+00 9.448518157005310059e-01 -6.051183342933654785e-01 1.500000000000000000e+01
2.849624633789062944e+00 1.100721597671509011e+00 -5.937975645065307617e-01 1.300000000000000000e+01
3.389156818389893022e+00 1.307766795158386008e+00 -5.753659605979919434e-01 1.100000000000000000e+01
4.249057292938232422e+00 1.637871026992798074e+00 -5.591365694999694824e-01 1.100000000000000000e+01
5.553376674652099609e+00 2.139529705047606978e+00 -5.206683874130249023e-01 9.000000000000000000e+00
7.972228050231933594e+00 3.068236589431763139e+00 -4.476817548274993896e-01 2.000000000000000000e+00
3.554515457153320312e+01 1.367298507690430043e+01 8.792436599731445312e+00 1.100000000000000000e+01
1.362545680999756037e+01 5.238510131835938388e+00 -2.548051476478577215e-01 2.000000000000000000e+00
3.723378372192382812e+01 1.431508350372313920e+01 1.068870925903319957e+01 9.000000000000000000e+00
2.139712810516356978e+00 8.192171454429626465e-01 -6.139187812805175781e-01 1.600000000000000000e+01
2.444471597671508789e+00 9.349197745323181152e-01 -6.042185425758361816e-01 1.200000000000000000e+01
2.847948074340819868e+00 1.088664770126342995e+00 -5.926527380943298340e-01 1.300000000000000000e+01
3.419536828994750977e+00 1.305794119834899902e+00 -5.797461271286010742e-01 1.000000000000000000e+01
4.262167453765869141e+00 1.625859022140502930e+00 -5.601115226745605469e-01 1.100000000000000000e+01
5.566396236419677734e+00 2.122261047363280806e+00 -5.211913585662841797e-01 9.000000000000000000e+00
8.005287170410156250e+00 3.048919916152954102e+00 -4.489378333091735840e-01 1.000000000000000000e+00
3.621553039550781250e+01 1.378592872619629084e+01 8.946303367614746094e+00 1.200000000000000000e+01
1.363244628906250000e+01 5.186649799346923828e+00 -2.545956969261168878e-01 2.000000000000000000e+00
3.751713180541992188e+01 1.426640892028808949e+01 1.075496673583984020e+01 9.000000000000000000e+00
2.135050773620605025e+00 8.097507357597351074e-01 -6.118482351303100586e-01 1.500000000000000000e+01
2.460152864456177202e+00 9.320685863494873047e-01 -6.073678731918334961e-01 1.400000000000000000e+01
2.860534191131591797e+00 1.083188533782958984e+00 -5.945608019828796387e-01 1.300000000000000000e+01
3.419926881790161133e+00 1.293647170066833052e+00 -5.791203975677490234e-01 1.000000000000000000e+01
4.270968437194824219e+00 1.613864421844481978e+00 -5.605989694595336914e-01 1.100000000000000000e+01
5.554397106170654297e+00 2.097723960876464844e+00 -5.194482207298278809e-01 9.000000000000000000e+00
8.011089324951171875e+00 3.022345781326293945e+00 -4.487285017967224121e-01 2.000000000000000000e+00
3.552929687500000000e+01 1.339706325531006037e+01 8.766342163085937500e+00 1.100000000000000000e+01
1.364118862152099965e+01 5.140975952148438388e+00 -2.544560730457305908e-01 2.000000000000000000e+00
3.737490844726563211e+01 1.408553981781006037e+01 1.070216751098632990e+01 9.000000000000000000e+00
2.143290281295775923e+00 8.043293356895446777e-01 -6.134011149406433105e-01 1.600000000000000000e+01
2.467041015625000000e+00 9.248434901237487793e-01 -6.082676649093627930e-01 1.400000000000000000e+01
2.869813203811645952e+00 1.075263381004333052e+00 -5.957056879997253418e-01 1.300000000000000000e+01
3.413321495056151900e+00 1.277546882629394975e+00 -5.772431492805480957e-01 1.000000000000000000e+01
4.280294418334960938e+00 1.600336551666259988e+00 -5.610864758491516113e-01 1.100000000000000000e+01
5.580348968505859375e+00 2.085297107696533203e+00 -5.211913585662841797e-01 9.000000000000000000e+00
8.014105796813964844e+00 2.991569519042969194e+00 -4.483098089694976807e-01 1.000000000000000000e+00
3.552837371826171875e+01 1.325525093078612926e+01 8.754645347595214844e+00 1.100000000000000000e+01
1.373025035858153942e+01 5.119877815246582031e+00 -2.557824552059174139e-01 2.000000000000000000e+00
2.147895812988280806e+00 7.975153923034667969e-01 -6.139187812805175781e-01 1.600000000000000000e+01
2.457464456558227983e+00 9.114824533462524414e-01 -6.051183342933654785e-01 1.600000000000000000e+01
2.871708154678345171e+00 1.064556837081908958e+00 -5.953240394592285156e-01 1.300000000000000000e+01
3.423317670822143999e+00 1.267682313919066939e+00 -5.781818032264709473e-01 1.000000000000000000e+01
4.291440010070800781e+00 1.587451815605164018e+00 -5.618176460266113281e-01 1.100000000000000000e+01
5.583856582641601562e+00 2.064423322677611861e+00 -5.208427309989929199e-01 9.000000000000000000e+00
8.031993865966796875e+00 2.966344594955443892e+00 -4.487285017967224121e-01 2.000000000000000000e+00
3.563658142089843750e+01 1.315409660339354936e+01 8.769941329956054688e+00 1.100000000000000000e+01
1.374803829193115057e+01 5.071918964385986328e+00 -2.557824552059174139e-01 2.000000000000000000e+00
3.717871475219727273e+01 1.371595191955566051e+01 1.061830997467041016e+01 9.000000000000000000e+00
2.159733533859252930e+00 7.933435440063476562e-01 -6.165069937705993652e-01 1.600000000000000000e+01
2.466119527816772017e+00 9.049126505851745605e-01 -6.064680218696594238e-01 1.600000000000000000e+01
2.880936384201049805e+00 1.056554198265075906e+00 -5.964689254760742188e-01 1.400000000000000000e+01
3.425867080688477007e+00 1.255045413970947044e+00 -5.778689384460449219e-01 1.100000000000000000e+01
4.285769939422607422e+00 1.568369150161742942e+00 -5.603552460670471191e-01 1.100000000000000000e+01
5.579802036285400391e+00 2.040813207626343218e+00 -5.197968482971191406e-01 9.000000000000000000e+00
8.023539543151855469e+00 2.931435585021973100e+00 -4.476817548274993896e-01 1.000000000000000000e+00
1.375063037872313920e+01 5.018414020538330078e+00 -2.555032372474669855e-01 2.000000000000000000e+00
3.699642944335938211e+01 1.349485683441161932e+01 1.055205249786376953e+01 9.000000000000000000e+00
2.162489652633666992e+00 7.857998609542846680e-01 -6.165069937705993652e-01 1.600000000000000000e+01
2.465599536895751953e+00 8.949689865112304688e-01 -6.055682301521301270e-01 1.600000000000000000e+01
2.879070043563843218e+00 1.044482827186584029e+00 -5.953240394592285156e-01 1.200000000000000000e+01
3.435798645019530806e+00 1.245098352432250977e+00 -5.788075327873229980e-01 9.000000000000000000e+00
4.302417755126953125e+00 1.557453513145446999e+00 -5.618176460266113281e-01 1.100000000000000000e+01
5.596259117126464844e+00 2.024713039398192915e+00 -5.206683874130249023e-01 9.000000000000000000e+00
8.056262969970703125e+00 2.911556482315063032e+00 -4.489378333091735840e-01 1.000000000000000000e+00
3.955818176269531250e+01 1.428863430023193004e+01 9.710237503051757812e+00 1.300000000000000000e+01
1.380191993713379084e+01 4.982606887817382812e+00 -2.561315298080443781e-01 2.000000000000000000e+00
3.683019638061522727e+01 1.329600524902343928e+01 1.049200630187987926e+01 9.000000000000000000e+00
2.156129598617554155e+00 7.749793529510498047e-01 -6.139187812805175781e-01 1.500000000000000000e+01
2.487049818038939986e+00 8.929420709609985352e-01 -6.100672483444213867e-01 1.500000000000000000e+01
2.880850553512572798e+00 1.033763527870178001e+00 -5.949424505233764648e-01 1.200000000000000000e+01
3.451281070709228960e+00 1.237096905708312988e+00 -5.806847214698791504e-01 9.000000000000000000e+00
4.311565876007080078e+00 1.543764114379883035e+00 -5.623051524162292480e-01 1.100000000000000000e+01
5.608920574188232422e+00 2.007179975509643999e+00 -5.211913585662841797e-01 9.000000000000000000e+00
8.077661514282226562e+00 2.887450933456420898e+00 -4.495658576488494873e-01 1.000000000000000000e+00
3.667526626586914062e+01 1.310276699066161932e+01 8.991293907165527344e+00 1.200000000000000000e+01
1.390962409973145064e+01 4.966676235198974609e+00 -2.578069567680358887e-01 2.000000000000000000e+00
3.711653900146483664e+01 1.325311374664306996e+01 1.056033420562743963e+01 9.000000000000000000e+00
2.153360843658446822e+00 7.655071020126342773e-01 -6.123658418655395508e-01 1.500000000000000000e+01
2.486478805541992188e+00 8.829510211944580078e-01 -6.091674566268920898e-01 1.500000000000000000e+01
2.893692493438721147e+00 1.026984333992003950e+00 -5.968505144119262695e-01 1.300000000000000000e+01
3.444407224655150923e+00 1.221081852912903054e+00 -5.788075327873229980e-01 1.000000000000000000e+01
4.324413299560546875e+00 1.531355142593384011e+00 -5.632801055908203125e-01 1.100000000000000000e+01
5.615892410278320312e+00 1.987588882446289062e+00 -5.211913585662841797e-01 9.000000000000000000e+00
8.083925247192382812e+00 2.857905626296997070e+00 -4.493565261363983154e-01 2.000000000000000000e+00
3.655908584594727273e+01 1.291753482818604049e+01 8.951702117919921875e+00 1.200000000000000000e+01
1.392687606811523082e+01 4.918092250823974609e+00 -2.578069567680358887e-01 2.000000000000000000e+00
3.691119384765625000e+01 1.303470039367675959e+01 1.048890018463134943e+01 9.000000000000000000e+00
2.166954755783081055e+00 7.618302106857299805e-01 -6.154716610908508301e-01 1.500000000000000000e+01
2.469320297241210938e+00 8.671635985374450684e-01 -6.042185425758361816e-01 1.400000000000000000e+01
2.887997388839722124e+00 1.013626337051392046e+00 -5.949424505233764648e-01 1.200000000000000000e+01
3.463561773300170898e+00 1.214279532432555930e+00 -5.813104510307312012e-01 9.000000000000000000e+00
4.318491458892822266e+00 1.512314081192017046e+00 -5.618176460266113281e-01 1.100000000000000000e+01
5.639721393585205078e+00 1.973897337913512962e+00 -5.227601528167724609e-01 6.000000000000000000e+00
8.097622871398925781e+00 2.830988168716431108e+00 -4.495658576488494873e-01 1.000000000000000000e+00
3.658187866210938211e+01 1.278212738037109020e+01 8.946303367614746094e+00 1.200000000000000000e+01
1.397794055938721058e+01 4.881315708160400391e+00 -2.584352493286132812e-01 2.000000000000000000e+00
2.173250436782836914e+00 7.555301785469055176e-01 -6.165069937705993652e-01 1.500000000000000000e+01
2.481536865234375000e+00 8.617351055145263672e-01 -6.064680218696594238e-01 1.200000000000000000e+01
2.898936986923218218e+00 1.006114006042480025e+00 -5.964689254760742188e-01 1.300000000000000000e+01
3.464046478271483931e+00 1.200887918472290039e+00 -5.806847214698791504e-01 9.000000000000000000e+00
4.321867942810058594e+00 1.496580958366394043e+00 -5.615739226341247559e-01 1.100000000000000000e+01
5.655991077423095703e+00 1.957457065582274947e+00 -5.236316919326782227e-01 3.000000000000000000e+00
8.130106925964355469e+00 2.810535669326781782e+00 -4.508219361305236816e-01 2.000000000000000000e+00
3.650839233398438211e+01 1.261362648010254084e+01 8.917510032653808594e+00 1.200000000000000000e+01
1.396087169647216975e+01 4.820745468139648438e+00 -2.578069567680358887e-01 2.000000000000000000e+00
2.170393705368041992e+00 7.460555434226989746e-01 -6.149540543556213379e-01 1.500000000000000000e+01
2.493745326995850053e+00 8.562319278717041016e-01 -6.087175607681274414e-01 1.100000000000000000e+01
2.896860361099243164e+00 9.940770268440246582e-01 -5.953240394592285156e-01 1.300000000000000000e+01
3.486903667449951172e+00 1.195194005966186968e+00 -5.838134288787841797e-01 9.000000000000000000e+00
4.328943729400634766e+00 1.482128739356995073e+00 -5.618176460266113281e-01 1.100000000000000000e+01
5.651478767395020419e+00 1.933831810951232910e+00 -5.225858092308044434e-01 8.000000000000000000e+00
8.151207923889160156e+00 2.786014795303345171e+00 -4.514499604701995850e-01 1.000000000000000000e+00
1.401546287536620916e+01 4.784904956817626953e+00 -2.585050463676453192e-01 2.000000000000000000e+00
2.171026706695557085e+00 7.382322549819946289e-01 -6.144363880157470703e-01 1.500000000000000000e+01
2.498416185379027876e+00 8.485843539237976074e-01 -6.091674566268920898e-01 1.300000000000000000e+01
2.901999950408935991e+00 9.850962758064270020e-01 -5.957056879997253418e-01 1.300000000000000000e+01
3.479623317718505859e+00 1.179818511009216087e+00 -5.819361805915832520e-01 9.000000000000000000e+00
3.624789428710938211e+01 1.228333950042724965e+01 4.699281692504882812e+00 2.000000000000000000e+01
4.343235969543457031e+00 1.470949172973633035e+00 -5.630363821983337402e-01 1.100000000000000000e+01
5.638988494873046875e+00 1.908692359924315962e+00 -5.208427309989929199e-01 8.000000000000000000e+00
8.171753883361816406e+00 2.762807369232178178e+00 -4.520779848098754883e-01 2.000000000000000000e+00
1.401609706878661932e+01 4.733283519744873047e+00 -2.582257986068726141e-01 2.000000000000000000e+00
2.173590421676636186e+00 7.306494116783142090e-01 -6.144363880157470703e-01 1.600000000000000000e+01
2.508752584457397017e+00 8.423392176628112793e-01 -6.109670400619506836e-01 1.300000000000000000e+01
2.903559684753417969e+00 9.743357896804809570e-01 -5.953240394592285156e-01 1.300000000000000000e+01
3.476228475570679155e+00 1.165154099464416948e+00 -5.806847214698791504e-01 9.000000000000000000e+00
4.355873584747313565e+00 1.458300352096558061e+00 -5.640113353729248047e-01 1.100000000000000000e+01
5.649395465850830078e+00 1.890261411666869895e+00 -5.211913585662841797e-01 9.000000000000000000e+00
8.196502685546875000e+00 2.739330291748046875e+00 -4.529153704643250067e-01 1.000000000000000000e+00
1.407426261901854936e+01 4.698259353637695312e+00 -2.589937150478363037e-01 2.000000000000000000e+00
2.179794311523437944e+00 7.242760062217712402e-01 -6.154716610908508301e-01 1.700000000000000000e+01
2.487633705139160156e+00 8.255971670150756836e-01 -6.051183342933654785e-01 1.200000000000000000e+01
2.921850442886352983e+00 9.691391587257385254e-01 -5.983769893646240234e-01 1.200000000000000000e+01
3.480274438858031782e+00 1.153012633323668990e+00 -5.806847214698791504e-01 9.000000000000000000e+00
4.359053134918212891e+00 1.442463040351867898e+00 -5.637676119804382324e-01 1.100000000000000000e+01
5.674875736236572266e+00 1.876785755157470925e+00 -5.229344367980957031e-01 1.000000000000000000e+01
8.198429107666015625e+00 2.708196640014647993e+00 -4.524966776371002197e-01 1.000000000000000000e+00
3.896975708007813211e+01 1.286538219451903942e+01 9.474488258361816406e+00 1.200000000000000000e+01
1.413235569000243963e+01 4.662886619567871094e+00 -2.597616314887999933e-01 2.000000000000000000e+00
3.669172286987304688e+01 1.209911537170409979e+01 1.035224437713623047e+01 8.000000000000000000e+00
2.184144496917725053e+00 7.172654867172241211e-01 -6.159893274307250977e-01 1.400000000000000000e+01
2.496055364608765093e+00 8.187307715415954590e-01 -6.064680218696594238e-01 1.300000000000000000e+01
2.914022207260131836e+00 9.552646875381469727e-01 -5.960872769355773926e-01 1.300000000000000000e+01
3.495542049407958984e+00 1.144545316696166992e+00 -5.825619697570800781e-01 9.000000000000000000e+00
4.356514453887938565e+00 1.424770116806030051e+00 -5.627925992012023926e-01 1.100000000000000000e+01
5.700330257415770596e+00 1.863155126571655051e+00 -5.246775746345520020e-01 9.000000000000000000e+00
8.215426445007324219e+00 2.682041645050048828e+00 -4.529153704643250067e-01 2.000000000000000000e+00
3.915152359008789062e+01 1.277400398254395064e+01 9.507781028747558594e+00 1.200000000000000000e+01
1.420177841186523082e+01 4.630885124206542969e+00 -2.607389390468596857e-01 2.000000000000000000e+00
3.671903610229492188e+01 1.196617507934569957e+01 1.034810352325438920e+01 8.000000000000000000e+00
2.186635017395019975e+00 7.096369862556457520e-01 -6.159893274307250977e-01 1.400000000000000000e+01
2.506313323974608931e+00 8.124164938926696777e-01 -6.082676649093627930e-01 1.200000000000000000e+01
2.917338848114014116e+00 9.450870156288146973e-01 -5.960872769355773926e-01 1.300000000000000000e+01
3.507033586502075195e+00 1.134769201278686968e+00 -5.838134288787841797e-01 9.000000000000000000e+00
4.367127895355224609e+00 1.411385655403136985e+00 -5.635238289833068848e-01 1.100000000000000000e+01
5.699215412139892578e+00 1.840796470642090066e+00 -5.239803194999694824e-01 9.000000000000000000e+00
8.251349449157714844e+00 2.661932945251464844e+00 -4.543807804584503174e-01 2.000000000000000000e+00
1.421785736083984020e+01 4.581283569335938388e+00 -2.607389390468596857e-01 2.000000000000000000e+00
