-4.488904571533203125e+01 5.830069065093994141e+00 5.557973384857177734e+00 7.700000000000000000e+01
-5.549241542816162109e+00 7.217054963111877441e-01 -6.870993375778198242e-01 1.000000000000000000e+01
-8.009510040283203125e+00 1.043096780776977983e+00 -7.066587805747985840e-01 2.000000000000000000e+00
-1.470479774475098012e+01 1.920259833335876021e+00 -7.771889567375183105e-01 4.000000000000000000e+00
-3.402630615234375000e+01 4.455483913421630859e+00 -5.990014672279357910e-01 1.900000000000000000e+01
-2.491607427597045898e+00 3.297961056232451837e-01 -6.734471321105957031e-01 1.500000000000000000e+01
-4.477554702758789062e+01 5.934568405151367188e+00 7.883949875831604004e-01 4.900000000000000000e+01
-2.895769596099853960e+00 3.843207359313964844e-01 -6.744032502174377441e-01 1.400000000000000000e+01
-3.440782546997069868e+00 4.572648704051970880e-01 -6.747006177902221680e-01 1.200000000000000000e+01
-4.483795166015625000e+01 5.966731071472167969e+00 3.957393646240233931e+00 5.400000000000000000e+01
-4.235304832458496094e+00 5.643579363822937012e-01 -6.767355203628540039e-01 9.000000000000000000e+00
-4.488613128662108664e+01 5.989088535308837891e+00 5.560166835784912109e+00 7.700000000000000000e+01
-5.560461521148681641e+00 7.429117560386657715e-01 -6.888055205345153809e-01 1.200000000000000000e+01
-8.009769439697265625e+00 1.071577310562134011e+00 -7.070074081420898438e-01 1.000000000000000000e+00
-1.469800567626952947e+01 1.971577405929564986e+00 -7.771889567375183105e-01 4.000000000000000000e+00
-3.404423904418945312e+01 4.578762054443359375e+00 -5.995948910713195801e-01 1.300000000000000000e+01
-2.488526821136475053e+00 3.382312655448914129e-01 -6.729295253753662109e-01 1.400000000000000000e+01
-4.479814910888671875e+01 6.096760749816895419e+00 7.891629338264465332e-01 4.900000000000000000e+01
-2.875101566314696822e+00 3.917952477931975763e-01 -6.699042320251464844e-01 1.100000000000000000e+01
-3.433329582214355025e+00 4.684763848781586248e-01 -6.735557317733764648e-01 1.200000000000000000e+01
-4.486817550659179688e+01 6.130220413208007812e+00 3.961925745010375977e+00 5.400000000000000000e+01
-4.225480079650878906e+00 5.780674815177917480e-01 -6.754840016365051270e-01 9.000000000000000000e+00
-4.486888504028320312e+01 6.146272659301757812e+00 5.560654163360595703e+00 7.700000000000000000e+01
-5.540134429931640625e+00 7.598891258239746094e-01 -6.866118907928466797e-01 1.000000000000000000e+01
-8.009927749633789062e+00 1.100072264671325906e+00 -7.073560357093811035e-01 1.000000000000000000e+00
-3.398248672485352273e+01 4.691280841827392578e+00 -5.987920761108398438e-01 1.900000000000000000e+01
-2.500724315643310991e+00 3.487837910652161200e-01 -6.765530109405517578e-01 1.500000000000000000e+01
-4.480036163330078125e+01 6.256417274475097656e+00 7.895817756652832031e-01 4.900000000000000000e+01
-2.879506349563599077e+00 4.026384353637694757e-01 -6.712539196014404297e-01 1.300000000000000000e+01
-4.484249496459960938e+01 6.278259754180908203e+00 2.373016834259033203e+00 3.500000000000000000e+01
-3.421952009201049805e+00 4.790970087051392157e-01 -6.716476678848266602e-01 1.300000000000000000e+01
-4.487413024902343750e+01 6.290674686431884766e+00 3.964366197586060014e+00 5.400000000000000000e+01
-4.229305267333984375e+00 5.936374068260192871e-01 -6.764226555824279785e-01 9.000000000000000000e+00
-4.488254165649414062e+01 6.307829856872558594e+00 5.565041542053222656e+00 7.800000000000000000e+01
-5.525653839111328125e+00 7.775634527206420898e-01 -6.851494312286376953e-01 1.000000000000000000e+01
-8.000120162963867188e+00 1.127191424369812012e+00 -7.068330645561218262e-01 2.000000000000000000e+00
-3.399956512451171875e+01 4.814640045166015625e+00 -5.993854403495788574e-01 1.900000000000000000e+01
-2.495666742324829102e+00 3.569637537002562921e-01 -6.755176782608032227e-01 1.500000000000000000e+01
-4.477429199218750000e+01 6.412194728851318359e+00 7.895119786262512207e-01 4.900000000000000000e+01
-2.883870363235474077e+00 4.135171473026276190e-01 -6.726036667823791504e-01 1.300000000000000000e+01
-4.482426071166992188e+01 6.435318946838378906e+00 2.373226165771483931e+00 3.500000000000000000e+01
-3.410542249679564986e+00 4.896439313888549805e-01 -6.697395443916320801e-01 1.200000000000000000e+01
-4.487161636352539062e+01 6.450111389160156250e+00 3.966109275817871094e+00 5.400000000000000000e+01
-4.235028266906738281e+00 6.095224022865295410e-01 -6.776741147041320801e-01 9.000000000000000000e+00
-4.489954376220703125e+01 6.470123291015625000e+00 5.569916248321533203e+00 7.800000000000000000e+01
-5.528800010681152344e+00 7.976973056793212891e-01 -6.858806610107421875e-01 1.200000000000000000e+01
-7.974445819854736328e+00 1.151976704597472922e+00 -7.049156427383422852e-01 2.000000000000000000e+00
-3.399244308471679688e+01 4.934727668762207031e+00 -5.995599627494812012e-01 1.900000000000000000e+01
-2.486886978149414062e+00 3.636841773986815851e-01 -6.734471321105957031e-01 1.600000000000000000e+01
-4.476975250244141336e+01 6.555142879486083984e+00 7.897912263870239258e-01 4.900000000000000000e+01
-2.890269517898560014e+00 4.237056672573090155e-01 -6.744032502174377441e-01 1.400000000000000000e+01
-4.483543777465820312e+01 6.580747127532958984e+00 2.374901056289672852e+00 3.500000000000000000e+01
-3.408987045288085938e+00 5.003560185432434082e-01 -6.697395443916320801e-01 1.200000000000000000e+01
-4.483536148071289062e+01 6.588730335235595703e+00 3.964714765548706055e+00 5.400000000000000000e+01
-4.229183673858642578e+00 6.222490072250366211e-01 -6.770483851432800293e-01 9.000000000000000000e+00
-4.489667129516602273e+01 6.613750934600830078e+00 5.572110176086425781e+00 7.800000000000000000e+01
-5.520375251770020419e+00 8.141936063766479492e-01 -6.851494312286376953e-01 1.200000000000000000e+01
-7.947135448455811435e+00 1.173530817031859907e+00 -7.028239369392395020e-01 1.000000000000000000e+00
-1.447223091125487926e+01 2.142235279083251953e+00 -7.667217850685119629e-01 4.000000000000000000e+00
-3.396490478515625000e+01 5.039732456207275391e+00 -5.993505716323852539e-01 1.900000000000000000e+01
-2.477960109710692915e+00 3.712179660797119141e-01 -6.713765859603881836e-01 1.600000000000000000e+01
-4.478615188598632812e+01 6.717310905456542969e+00 7.904893159866333008e-01 4.900000000000000000e+01
-2.871428728103638139e+00 4.311875104904174805e-01 -6.703541278839111328e-01 1.200000000000000000e+01
-4.484774398803710938e+01 6.742556571960449219e+00 2.376785039901732954e+00 3.500000000000000000e+01
-3.409161090850830078e+00 5.125444531440734863e-01 -6.701211929321289062e-01 1.100000000000000000e+01
-4.485149383544921875e+01 6.751125812530517578e+00 3.968200922012329102e+00 5.400000000000000000e+01
-4.217219352722167969e+00 6.355360150337219238e-01 -6.754840016365051270e-01 9.000000000000000000e+00
-4.488508987426757812e+01 6.772206306457520419e+00 5.573572635650634766e+00 7.800000000000000000e+01
-5.529276371002197266e+00 8.352373838424682617e-01 -6.866118907928466797e-01 1.000000000000000000e+01
-7.927230834960938388e+00 1.198880910873413086e+00 -7.014294266700744629e-01 1.000000000000000000e+00
-3.394117736816406250e+01 5.157360076904296875e+00 -5.992458462715148926e-01 1.900000000000000000e+01
-2.484154224395751953e+00 3.819040656089783270e-01 -6.734471321105957031e-01 1.500000000000000000e+01
-4.475212097167968750e+01 6.888010501861572266e+00 7.903496623039245605e-01 4.900000000000000000e+01
-2.863973855972290039e+00 4.413194358348845880e-01 -6.690044403076171875e-01 1.300000000000000000e+01
-4.484521102905272727e+01 6.918364048004150391e+00 2.378041267395019975e+00 3.500000000000000000e+01
-3.418809890747069868e+00 5.274268984794616699e-01 -6.724109053611755371e-01 1.300000000000000000e+01
-4.487643814086914062e+01 6.931200027465820312e+00 3.972733020782471147e+00 5.400000000000000000e+01
-4.210843563079833984e+00 6.511205434799194336e-01 -6.748582720756530762e-01 9.000000000000000000e+00
-4.487248611450195312e+01 6.946628093719482422e+00 5.575278759002686435e+00 7.800000000000000000e+01
-5.506412029266357422e+00 8.534216880798339844e-01 -6.841744780540466309e-01 1.000000000000000000e+01
-7.934381961822509766e+00 1.231143355369568093e+00 -7.024753093719482422e-01 1.000000000000000000e+00
-3.394483184814453125e+01 5.291342735290527344e+00 -5.996646881103515625e-01 1.300000000000000000e+01
-2.496164560317993164e+00 3.926745355129241943e-01 -6.770706176757812500e-01 1.900000000000000000e+01
-4.479496765136718750e+01 7.054759979248046875e+00 7.915364503860473633e-01 5.000000000000000000e+01
-2.870115756988524947e+00 4.525279104709625244e-01 -6.708040237426757812e-01 1.300000000000000000e+01
-4.482078933715820312e+01 7.074860572814941406e+00 2.378041267395019975e+00 3.500000000000000000e+01
-3.401433944702147993e+00 5.369086861610412598e-01 -6.693579554557800293e-01 1.100000000000000000e+01
-4.489920043945313211e+01 7.095269680023193359e+00 3.976916551589965820e+00 5.400000000000000000e+01
-4.202692031860351562e+00 6.648890972137451172e-01 -6.739196777343750000e-01 1.000000000000000000e+01
-4.485580825805664062e+01 7.104462146759033203e+00 5.576253890991210938e+00 7.800000000000000000e+01
-5.499478340148925781e+00 8.720157146453857422e-01 -6.836870312690734863e-01 1.200000000000000000e+01
-7.906423091888427734e+00 1.255083680152893066e+00 -7.003835439682006836e-01 1.000000000000000000e+00
-1.444820308685302912e+01 2.298711538314818892e+00 -7.667217850685119629e-01 4.000000000000000000e+00
-3.390245819091796875e+01 5.406021118164063388e+00 -5.992458462715148926e-01 1.300000000000000000e+01
-2.483474254608153853e+00 3.986772894859313965e-01 -6.739647984504699707e-01 1.500000000000000000e+01
-4.481602096557617188e+01 7.202433109283447266e+00 7.923043370246887207e-01 5.000000000000000000e+01
-2.870604038238524947e+00 4.618519544601439875e-01 -6.712539196014404297e-01 1.200000000000000000e+01
-4.482594680786132812e+01 7.220080852508544922e+00 2.379506587982178178e+00 3.500000000000000000e+01
-3.388100862503052202e+00 5.457187891006469727e-01 -6.670682430267333984e-01 1.100000000000000000e+01
-4.487668991088867188e+01 7.236289501190186435e+00 3.976916551589965820e+00 5.400000000000000000e+01
-4.200582504272460938e+00 6.780889630317687988e-01 -6.739196777343750000e-01 1.000000000000000000e+01
-4.489009857177733664e+01 7.254529476165770596e+00 5.583322048187255859e+00 7.900000000000000000e+01
-5.506509780883789062e+00 8.908736705780029297e-01 -6.849057078361511230e-01 1.200000000000000000e+01
-7.902441024780273438e+00 1.279916167259216087e+00 -7.003835439682006836e-01 1.000000000000000000e+00
-1.434233665466308949e+01 2.328089714050292969e+00 -7.614881396293640137e-01 4.000000000000000000e+00
-3.387741470336914062e+01 5.511217594146729404e+00 -5.991061925888061523e-01 1.300000000000000000e+01
-2.474442005157471147e+00 4.060923755168914795e-01 -6.718942523002624512e-01 1.500000000000000000e+01
-4.480244445800781250e+01 7.360771179199218750e+00 7.925137877464294434e-01 5.000000000000000000e+01
-2.872820138931273970e+00 4.725019633769989014e-01 -6.721537709236145020e-01 1.200000000000000000e+01
-4.480835342407227273e+01 7.377806186676025391e+00 2.379925251007080078e+00 3.500000000000000000e+01
-3.390049695968627930e+00 5.581800341606140137e-01 -6.678314805030822754e-01 1.100000000000000000e+01
-4.487867736816406250e+01 7.397430896759033203e+00 3.979357004165648970e+00 5.400000000000000000e+01
-4.213781833648681641e+00 6.953204870223999023e-01 -6.764226555824279785e-01 1.000000000000000000e+01
-4.489975738525391336e+01 7.417004585266113281e+00 5.587709426879882812e+00 7.900000000000000000e+01
-5.493573665618895596e+00 9.084702134132385254e-01 -6.836870312690734863e-01 1.200000000000000000e+01
-7.870406150817871094e+00 1.302937269210814986e+00 -6.979432106018066406e-01 2.000000000000000000e+00
-1.433412361145020064e+01 2.378139734268188032e+00 -7.614881396293640137e-01 4.000000000000000000e+00
-3.373961257934570312e+01 5.609759807586669922e+00 -5.970119237899780273e-01 1.300000000000000000e+01
-2.465243816375731978e+00 4.143098294734954834e-01 -6.698237061500549316e-01 1.500000000000000000e+01
-4.479357147216796875e+01 7.536063194274902344e+00 7.928628325462341309e-01 5.000000000000000000e+01
-2.861376285552978960e+00 4.819110333919525146e-01 -6.699042320251464844e-01 1.300000000000000000e+01
-4.482696151733397727e+01 7.557772636413574219e+00 2.382437467575072798e+00 3.500000000000000000e+01
-3.395625114440917969e+00 5.724983215332031250e-01 -6.693579554557800293e-01 1.200000000000000000e+01
-4.488137817382813211e+01 7.575002670288085938e+00 3.982145786285399947e+00 5.400000000000000000e+01
-4.187707901000976562e+00 7.075459957122802734e-01 -6.726682186126708984e-01 1.000000000000000000e+01
-4.489834594726563211e+01 7.593986988067626953e+00 5.591121673583984375e+00 7.900000000000000000e+01
-5.497874259948729581e+00 9.308828115463256836e-01 -6.846619844436645508e-01 1.200000000000000000e+01
-7.861416339874267578e+00 1.332481861114501953e+00 -6.975945830345153809e-01 1.000000000000000000e+00
-1.422643375396729049e+01 2.416438341140747070e+00 -7.562545537948608398e-01 4.000000000000000000e+00
-3.383610534667968750e+01 5.759401798248291016e+00 -5.991061925888061523e-01 1.300000000000000000e+01
-2.477110624313354048e+00 4.252003729343413752e-01 -6.734471321105957031e-01 1.500000000000000000e+01
-4.478670120239257812e+01 7.695762634277343750e+00 7.932118773460388184e-01 5.000000000000000000e+01
-2.853914976119995117e+00 4.909051060676575262e-01 -6.685545444488525391e-01 1.300000000000000000e+01
-4.483179855346679688e+01 7.719624519348145419e+00 2.384112119674683061e+00 3.600000000000000000e+01
-3.403279781341553178e+00 5.860135555267333984e-01 -6.712660193443298340e-01 1.200000000000000000e+01
-4.487036895751953125e+01 7.734329223632813388e+00 3.983540296554564986e+00 5.400000000000000000e+01
-4.185212612152099609e+00 7.221595048904418945e-01 -6.726682186126708984e-01 1.000000000000000000e+01
-4.488721466064453125e+01 7.753368377685546875e+00 5.593071460723876953e+00 7.900000000000000000e+01
-5.480898857116699219e+00 9.477007389068603516e-01 -6.829558014869689941e-01 1.200000000000000000e+01
-7.860643863677979404e+00 1.360594868659972922e+00 -6.979432106018066406e-01 1.000000000000000000e+00
-1.411951828002930043e+01 2.449016809463500977e+00 -7.510209679603576660e-01 4.000000000000000000e+00
-3.380791473388671875e+01 5.876107215881347656e+00 -5.989665985107421875e-01 1.300000000000000000e+01
-2.475687026977539062e+00 4.334124326705933172e-01 -6.734471321105957031e-01 1.600000000000000000e+01
-4.478850936889647727e+01 7.849071025848388672e+00 7.937005162239074707e-01 5.000000000000000000e+01
-2.852271556854248047e+00 5.003663301467895508e-01 -6.685545444488525391e-01 1.300000000000000000e+01
-4.483742904663085938e+01 7.873776912689208984e+00 2.385787010192871094e+00 3.600000000000000000e+01
-3.389715909957886186e+00 5.952586531639099121e-01 -6.689763665199279785e-01 1.200000000000000000e+01
-4.486017227172852273e+01 7.885841846466063565e+00 3.984934806823730025e+00 5.400000000000000000e+01
-4.175012588500976562e+00 7.346647977828979492e-01 -6.714166998863220215e-01 1.000000000000000000e+01
-4.486125564575195312e+01 7.902176856994628906e+00 5.593071460723876953e+00 7.900000000000000000e+01
-5.465996265411376953e+00 9.638026356697082520e-01 -6.814933419227600098e-01 1.200000000000000000e+01
-7.840392112731933594e+00 1.383883714675903098e+00 -6.965487003326416016e-01 1.000000000000000000e+00
-3.372523498535156250e+01 5.977019309997558594e+00 -5.978496074676513672e-01 6.000000000000000000e+00
-2.468453884124755859e+00 4.410322308540344238e-01 -6.718942523002624512e-01 1.500000000000000000e+01
-4.480020904541016336e+01 8.012405395507812500e+00 7.943986654281616211e-01 5.000000000000000000e+01
-2.858180522918701172e+00 5.116932392120361328e-01 -6.703541278839111328e-01 1.300000000000000000e+01
-4.481753540039063211e+01 8.031649589538574219e+00 2.386205673217772993e+00 3.600000000000000000e+01
-3.385684967041016069e+00 6.067410111427307129e-01 -6.685947179794311523e-01 1.100000000000000000e+01
-4.488336181640625000e+01 8.051531791687011719e+00 3.989466905593872070e+00 5.400000000000000000e+01
-4.180200099945068359e+00 7.506303787231445312e-01 -6.726682186126708984e-01 1.000000000000000000e+01
-4.485879898071289062e+01 8.063289642333984375e+00 5.596240043640136719e+00 7.900000000000000000e+01
-5.458691120147705078e+00 9.821735620498657227e-01 -6.810058951377868652e-01 1.200000000000000000e+01
-7.811983585357666016e+00 1.407005310058593972e+00 -6.944569349288940430e-01 1.000000000000000000e+00
-1.400424575805664062e+01 2.527332305908203125e+00 -7.457873821258544922e-01 4.000000000000000000e+00
-3.371990585327147727e+01 6.097552299499511719e+00 -5.981288552284240723e-01 1.900000000000000000e+01
-2.455574274063109907e+00 4.471389949321746826e-01 -6.687884330749511719e-01 1.400000000000000000e+01
-4.482847595214843750e+01 8.170964241027832031e+00 7.953759431838989258e-01 5.000000000000000000e+01
-2.854550838470458984e+00 5.208187103271484375e-01 -6.699042320251464844e-01 1.200000000000000000e+01
-4.485352706909179688e+01 8.191708564758300781e+00 2.389554977416992188e+00 3.600000000000000000e+01
-3.375929117202758789e+00 6.165541410446166992e-01 -6.670682430267333984e-01 1.100000000000000000e+01
-4.486425399780272727e+01 8.201759338378906250e+00 3.990164279937744141e+00 5.400000000000000000e+01
-4.166028976440429688e+00 7.623548507690429688e-01 -6.707909703254699707e-01 1.000000000000000000e+01
-4.488453292846679688e+01 8.221658706665039062e+00 5.602821350097656250e+00 8.000000000000000000e+01
-5.463214397430419922e+00 1.001701831817626953e+00 -6.819808483123779297e-01 1.200000000000000000e+01
-7.822701454162597656e+00 1.437145709991455078e+00 -6.958514451980590820e-01 1.000000000000000000e+00
-1.399578762054443004e+01 2.573758125305175781e+00 -7.457873821258544922e-01 4.000000000000000000e+00
-3.374670028686522727e+01 6.218034744262695312e+00 -5.989665985107421875e-01 1.900000000000000000e+01
-2.457717418670653853e+00 4.568422138690947931e-01 -6.698237061500549316e-01 1.500000000000000000e+01
-4.482327270507813211e+01 8.331780433654785156e+00 7.957948446273803711e-01 5.000000000000000000e+01
-2.852715492248535156e+00 5.307797789573669434e-01 -6.699042320251464844e-01 1.200000000000000000e+01
-4.484822082519531250e+01 8.352615356445312500e+00 2.390811204910277876e+00 3.600000000000000000e+01
-3.373646497726439986e+00 6.289233565330505371e-01 -6.670682430267333984e-01 1.100000000000000000e+01
-4.485739517211914062e+01 8.370525360107421875e+00 3.992255926132202148e+00 5.400000000000000000e+01
-4.159323215484619141e+00 7.768935561180114746e-01 -6.701652407646179199e-01 1.000000000000000000e+01
-4.485165786743164062e+01 8.377556800842285156e+00 5.602333545684813565e+00 7.900000000000000000e+01
-5.453830718994140625e+00 1.019671440124511941e+00 -6.812496185302734375e-01 1.000000000000000000e+01
-7.809803962707520419e+00 1.462975978851317915e+00 -6.951541900634765625e-01 1.000000000000000000e+00
-1.398626041412354049e+01 2.625037908554077148e+00 -7.457873821258544922e-01 4.000000000000000000e+00
-3.376605987548828125e+01 6.343548297882080078e+00 -5.996996164321899414e-01 1.900000000000000000e+01
-2.461802005767821822e+00 4.664974808692932129e-01 -6.713765859603881836e-01 1.600000000000000000e+01
-4.479243469238281250e+01 8.496009826660156250e+00 7.957948446273803711e-01 5.000000000000000000e+01
-2.841178178787231001e+00 5.394145250320434570e-01 -6.676547527313232422e-01 1.200000000000000000e+01
-4.484870147705078125e+01 8.522901535034179688e+00 2.392485857009888139e+00 3.600000000000000000e+01
-3.375288248062133789e+00 6.414288282394409180e-01 -6.678314805030822754e-01 1.100000000000000000e+01
-4.485921859741210938e+01 8.533013343811035156e+00 3.995044946670531782e+00 5.400000000000000000e+01
-4.160467147827148438e+00 7.921465635299682617e-01 -6.707909703254699707e-01 1.000000000000000000e+01
-4.488305282592772727e+01 8.553781509399414062e+00 5.610133171081542969e+00 8.000000000000000000e+01
-5.442256927490234375e+00 1.038166046142577903e+00 -6.802746653556823730e-01 1.000000000000000000e+01
-7.769164085388183594e+00 1.484858155250549094e+00 -6.920166015625000000e-01 2.000000000000000000e+00
-1.397701168060302912e+01 2.673843145370482954e+00 -7.457873821258544922e-01 4.000000000000000000e+00
-3.371705245971679688e+01 6.462370872497558594e+00 -5.992458462715148926e-01 1.300000000000000000e+01
-2.463869333267211914e+00 4.762505590915679932e-01 -6.724118590354919434e-01 1.400000000000000000e+01
-4.479391860961914062e+01 8.658385276794433594e+00 7.963532805442810059e-01 5.000000000000000000e+01
-2.839277982711791992e+00 5.493288040161132812e-01 -6.676547527313232422e-01 1.300000000000000000e+01
-4.481867599487304688e+01 8.679401397705078125e+00 2.392485857009888139e+00 3.600000000000000000e+01
-3.370987176895142046e+00 6.534219980239868164e-01 -6.674498915672302246e-01 1.200000000000000000e+01
-4.487849807739257812e+01 8.707240104675292969e+00 3.999577045440673828e+00 5.400000000000000000e+01
-4.155596733093261719e+00 8.070135116577148438e-01 -6.704781055450439453e-01 1.000000000000000000e+01
-4.489968872070313211e+01 8.719483375549316406e+00 5.615983009338378906e+00 8.000000000000000000e+01
-5.430805683135986328e+00 1.055641651153564009e+00 -6.792997121810913086e-01 1.000000000000000000e+01
-7.775667667388916016e+00 1.514253616333008035e+00 -6.930624842643737793e-01 1.000000000000000000e+00
-3.362952041625977273e+01 6.567378044128417969e+00 -5.980939865112304688e-01 1.900000000000000000e+01
-2.452714443206787109e+00 4.829819202423096258e-01 -6.698237061500549316e-01 1.600000000000000000e+01
-4.481681823730468750e+01 8.833332061767578125e+00 7.973306179046630859e-01 5.100000000000000000e+01
-2.837245464324951172e+00 5.597316026687622070e-01 -6.676547527313232422e-01 1.300000000000000000e+01
-4.482183456420897727e+01 8.850575447082519531e+00 2.394370079040526900e+00 3.600000000000000000e+01
-3.360981464385985884e+00 6.636636257171630859e-01 -6.659234166145324707e-01 1.200000000000000000e+01
-4.488301086425781250e+01 8.870795249938964844e+00 4.002714633941650391e+00 5.400000000000000000e+01
-4.160505771636962891e+00 8.230476975440979004e-01 -6.717295646667480469e-01 9.000000000000000000e+00
-4.487911224365233664e+01 8.886303901672363281e+00 5.617445468902587891e+00 8.000000000000000000e+01
-5.411322116851806641e+00 1.072452187538146973e+00 -6.773498058319091797e-01 1.000000000000000000e+01
-7.742705821990966797e+00 1.537310481071471946e+00 -6.906220912933349609e-01 1.000000000000000000e+00
-1.376162528991699041e+01 2.734860658645629883e+00 -7.353202104568481445e-01 4.000000000000000000e+00
-3.359542083740233664e+01 6.688640117645263672e+00 -5.979194641113281250e-01 1.300000000000000000e+01
-2.447139739990233931e+00 4.912079572677611750e-01 -6.687884330749511719e-01 1.600000000000000000e+01
-4.481707763671875000e+01 8.996015548706054688e+00 7.978891134262084961e-01 5.100000000000000000e+01
-2.841006040573120117e+00 5.707835555076599121e-01 -6.690044403076171875e-01 1.200000000000000000e+01
-4.482199478149414062e+01 9.013278961181640625e+00 2.396044731140137163e+00 3.600000000000000000e+01
-3.352752447128295898e+00 6.748156547546386719e-01 -6.647785305976867676e-01 1.100000000000000000e+01
-4.487754058837891336e+01 9.040748596191406250e+00 4.005155086517333984e+00 5.400000000000000000e+01
-4.140033721923828125e+00 8.347771763801574707e-01 -6.689137816429138184e-01 1.000000000000000000e+01
-4.488673782348632812e+01 9.050754547119140625e+00 5.622320175170898438e+00 8.100000000000000000e+01
-5.428950309753417969e+00 1.095654487609863059e+00 -6.800309419631958008e-01 1.200000000000000000e+01
-7.690423488616943359e+00 1.554852247238158958e+00 -6.864386200904846191e-01 1.000000000000000000e+00
-1.380240440368651988e+01 2.795589685440063032e+00 -7.380416393280029297e-01 4.000000000000000000e+00
-3.368945693969727273e+01 6.829707622528076172e+00 -6.000137329101562500e-01 1.300000000000000000e+01
-2.445671558380126953e+00 4.984665811061859131e-01 -6.687884330749511719e-01 1.500000000000000000e+01
-4.478859710693358664e+01 9.136767387390136719e+00 7.978891134262084961e-01 5.100000000000000000e+01
-2.831561326980590820e+00 5.781466364860534668e-01 -6.672048568725585938e-01 1.300000000000000000e+01
-4.482476806640625000e+01 9.160445213317871094e+00 2.397719383239746094e+00 3.600000000000000000e+01
-3.360352993011475053e+00 6.867259144783020020e-01 -6.666866540908813477e-01 1.200000000000000000e+01
-4.490127182006835938e+01 9.184244155883789062e+00 4.009686946868895596e+00 5.400000000000000000e+01
-4.125926971435546875e+00 8.446800708770751953e-01 -6.670365333557128906e-01 1.000000000000000000e+01
-4.490086746215820312e+01 9.200491905212402344e+00 5.627682685852050781e+00 8.100000000000000000e+01
-5.429370403289794922e+00 1.113502144813538042e+00 -6.805183887481689453e-01 1.200000000000000000e+01
-7.699162006378173828e+00 1.581811428070067915e+00 -6.876587867736816406e-01 2.000000000000000000e+00
-1.374318504333495916e+01 2.826070547103881836e+00 -7.353202104568481445e-01 4.000000000000000000e+00
-3.365999984741210938e+01 6.933898448944091797e+00 -5.998741388320922852e-01 1.300000000000000000e+01
-2.438153505325316939e+00 5.062488317489624023e-01 -6.672354936599731445e-01 1.500000000000000000e+01
-4.478384017944335938e+01 9.298745155334472656e+00 7.983778119087219238e-01 5.100000000000000000e+01
-2.819986104965209961e+00 5.860445499420166016e-01 -6.649553179740905762e-01 1.300000000000000000e+01
-4.485118103027343750e+01 9.329058647155761719e+00 2.400859594345093218e+00 3.600000000000000000e+01
-3.363579511642456055e+00 7.002380490303039551e-01 -6.678314805030822754e-01 1.200000000000000000e+01
-4.138273715972900391e+00 8.630229234695434570e-01 -6.695395112037658691e-01 1.000000000000000000e+01
-5.400188922882080078e+00 1.127174615859984907e+00 -6.773498058319091797e-01 1.200000000000000000e+01
-7.683842658996582031e+00 1.606638073921204057e+00 -6.867872476577758789e-01 1.000000000000000000e+00
-1.373273468017577947e+01 2.876422882080078125e+00 -7.353202104568481445e-01 4.000000000000000000e+00
-3.366690444946289062e+01 7.057916164398193359e+00 -6.004325747489929199e-01 1.300000000000000000e+01
-2.457253456115723100e+00 5.187204480171203613e-01 -6.729295253753662109e-01 1.500000000000000000e+01
-2.819829940795897993e+00 5.962877273559570312e-01 -6.654052138328552246e-01 1.300000000000000000e+01
-6.125518798828125000e+01 1.296433162689208984e+01 3.281359672546387163e+00 5.500000000000000000e+01
-3.353556156158446822e+00 7.097622156143188477e-01 -6.663050055503845215e-01 1.200000000000000000e+01
-4.119929313659667969e+00 8.734636306762695312e-01 -6.670365333557128906e-01 1.000000000000000000e+01
-5.382628917694091797e+00 1.143131256103516069e+00 -6.756436228752136230e-01 1.200000000000000000e+01
-7.674290180206298828e+00 1.632620692253113015e+00 -6.864386200904846191e-01 1.000000000000000000e+00
-3.358339309692382812e+01 7.162878990173339844e+00 -5.993854403495788574e-01 1.900000000000000000e+01
-2.440317630767821822e+00 5.240498185157775879e-01 -6.687884330749511719e-01 1.500000000000000000e+01
-2.821541547775268999e+00 6.069467663764953613e-01 -6.663050055503845215e-01 1.200000000000000000e+01
-3.341336250305175781e+00 7.199810743331909180e-01 -6.643969416618347168e-01 1.200000000000000000e+01
-4.136009693145751953e+00 8.927258253097534180e-01 -6.701652407646179199e-01 1.000000000000000000e+01
-5.390247821807861328e+00 1.164428114891052024e+00 -6.771060824394226074e-01 1.200000000000000000e+01
-7.676333427429199219e+00 1.661084532737731934e+00 -6.871358752250671387e-01 1.000000000000000000e+00
-3.360117721557617188e+01 7.289390087127686435e+00 -6.001533269882202148e-01 1.300000000000000000e+01
-2.430831193923950195e+00 5.313403606414794922e-01 -6.667178869247436523e-01 1.600000000000000000e+01
-2.813587188720703125e+00 6.160337328910827637e-01 -6.649553179740905762e-01 1.400000000000000000e+01
-3.338802576065063032e+00 7.316401600837707520e-01 -6.643969416618347168e-01 1.300000000000000000e+01
-4.117432594299316406e+00 9.037696719169616699e-01 -6.676623225212097168e-01 1.000000000000000000e+01
-5.372372150421142578e+00 1.181192636489867942e+00 -6.753998994827270508e-01 1.200000000000000000e+01
-7.615712642669677734e+00 1.677210092544556108e+00 -6.822551488876342773e-01 1.000000000000000000e+00
-3.359766769409179688e+01 7.417668819427490234e+00 -6.005722284317016602e-01 1.300000000000000000e+01
-2.432639122009276900e+00 5.410851240158081055e-01 -6.677531599998474121e-01 1.600000000000000000e+01
-2.820930480957030806e+00 6.279684901237487793e-01 -6.672048568725585938e-01 1.300000000000000000e+01
-3.338014841079711914e+00 7.442998290061950684e-01 -6.647785305976867676e-01 1.300000000000000000e+01
-4.110236644744873047e+00 9.179936051368713379e-01 -6.670365333557128906e-01 1.000000000000000000e+01
-5.370153427124023438e+00 1.200371503829956055e+00 -6.756436228752136230e-01 1.200000000000000000e+01
-7.621477127075195312e+00 1.706395506858825906e+00 -6.833010315895080566e-01 1.000000000000000000e+00
-3.371985626220703125e+01 7.568183422088623047e+00 -6.032249927520751953e-01 1.300000000000000000e+01
-2.431022882461547852e+00 5.483005046844482422e-01 -6.677531599998474121e-01 1.600000000000000000e+01
-2.813241243362427202e+00 6.355392932891845703e-01 -6.658551096916198730e-01 1.400000000000000000e+01
-3.335791826248168945e+00 7.542006373405456543e-01 -6.647785305976867676e-01 1.300000000000000000e+01
-4.101715087890625000e+00 9.288759231567382812e-01 -6.660979390144348145e-01 9.000000000000000000e+00
-5.362483978271484375e+00 1.216358184814452903e+00 -6.751561760902404785e-01 1.200000000000000000e+01
-7.631621837615966797e+00 1.733861923217772993e+00 -6.846955418586730957e-01 1.000000000000000000e+00
-3.365301895141602273e+01 7.664310932159423828e+00 -6.024570465087890625e-01 1.300000000000000000e+01
-2.432762861251831055e+00 5.580708980560302734e-01 -6.687884330749511719e-01 1.800000000000000000e+01
-2.807207107543944868e+00 6.444833874702453613e-01 -6.649553179740905762e-01 1.300000000000000000e+01
-3.329178571701049805e+00 7.655419111251831055e-01 -6.640152931213378906e-01 1.300000000000000000e+01
-4.096358299255371094e+00 9.434598684310913086e-01 -6.657850742340087891e-01 1.000000000000000000e+01
-5.327255725860595703e+00 1.227935433387755904e+00 -6.712563633918762207e-01 1.200000000000000000e+01
-7.594461917877197266e+00 1.753319621086121050e+00 -6.819065213203430176e-01 1.000000000000000000e+00
-3.352085876464843750e+01 7.757389068603515625e+00 -6.005722284317016602e-01 1.900000000000000000e+01
-2.419511318206787109e+00 5.639283061027526855e-01 -6.656825542449951172e-01 2.000000000000000000e+01
-2.810519218444824219e+00 6.560969948768615723e-01 -6.663050055503845215e-01 1.200000000000000000e+01
-3.315015316009521040e+00 7.744783759117126465e-01 -6.617255806922912598e-01 1.300000000000000000e+01
-4.108427047729492188e+00 9.613536596298217773e-01 -6.682880520820617676e-01 1.000000000000000000e+01
-5.330450057983398438e+00 1.249264359474181907e+00 -6.722313165664672852e-01 1.200000000000000000e+01
-7.576346397399902344e+00 1.778411149978637917e+00 -6.808606386184692383e-01 1.000000000000000000e+00
-3.357395553588867188e+01 7.899432659149169922e+00 -6.020382046699523926e-01 2.000000000000000000e+01
-2.411788940429687944e+00 5.714562535285949707e-01 -6.641296744346618652e-01 2.100000000000000000e+01
-2.800627231597899947e+00 6.641050577163696289e-01 -6.645054221153259277e-01 1.300000000000000000e+01
-3.317884683609008789e+00 7.879842519760131836e-01 -6.628704667091369629e-01 1.200000000000000000e+01
-4.091423988342285156e+00 9.732055068016052246e-01 -6.660979390144348145e-01 9.000000000000000000e+00
-5.322194576263427734e+00 1.266944050788878950e+00 -6.717438101768493652e-01 1.200000000000000000e+01
-7.570092678070068359e+00 1.804846763610840066e+00 -6.808606386184692383e-01 1.000000000000000000e+00
-3.362786483764647727e+01 8.036100387573242188e+00 -6.035042405128479004e-01 1.300000000000000000e+01
-2.411657571792602983e+00 5.803234577178955078e-01 -6.646472811698913574e-01 2.000000000000000000e+01
-2.801963329315185991e+00 6.752785444259643555e-01 -6.654052138328552246e-01 1.300000000000000000e+01
-3.317022562026977983e+00 8.000213503837585449e-01 -6.632520556449890137e-01 1.200000000000000000e+01
-4.074560642242431641e+00 9.842345714569091797e-01 -6.639078855514526367e-01 1.000000000000000000e+01
-5.323303699493408203e+00 1.287842750549315962e+00 -6.724750399589538574e-01 1.400000000000000000e+01
-7.536317348480224609e+00 1.826012015342711958e+00 -6.784203052520751953e-01 0.000000000000000000e+00
-1.324740505218506037e+01 3.212227821350098100e+00 -7.143858075141906738e-01 4.000000000000000000e+00
-3.358263778686522727e+01 8.155523300170898438e+00 -6.032249927520751953e-01 1.300000000000000000e+01
-2.420773983001708984e+00 5.919117927551269531e-01 -6.677531599998474121e-01 1.900000000000000000e+01
-2.780660152435303178e+00 6.804232001304626465e-01 -6.609061956405639648e-01 1.300000000000000000e+01
-3.319788455963135210e+00 8.135753870010375977e-01 -6.643969416618347168e-01 1.300000000000000000e+01
-4.070925712585449219e+00 9.991619586944580078e-01 -6.639078855514526367e-01 1.000000000000000000e+01
-5.309136867523193359e+00 1.304049134254456010e+00 -6.712563633918762207e-01 1.200000000000000000e+01
-7.587938785552979404e+00 1.866585254669189009e+00 -6.836496591567993164e-01 0.000000000000000000e+00
-3.360832977294921875e+01 8.286102294921875000e+00 -6.042023301124572754e-01 1.300000000000000000e+01
-2.422757387161254883e+00 6.000205874443054199e-01 -6.687884330749511719e-01 1.900000000000000000e+01
-2.804988861083983931e+00 6.957234144210815430e-01 -6.672048568725585938e-01 1.300000000000000000e+01
-3.305927276611328125e+00 8.205840587615966797e-01 -6.621072292327880859e-01 1.200000000000000000e+01
-4.067943572998046875e+00 1.011236190795897993e+00 -6.639078855514526367e-01 1.000000000000000000e+01
-5.301161289215087891e+00 1.319762706756592019e+00 -6.707688570022583008e-01 1.200000000000000000e+01
-7.525974750518798828e+00 1.876436233520508035e+00 -6.785945892333984375e-01 2.000000000000000000e+00
-1.303202533721924006e+01 3.251664876937866211e+00 -7.039186358451843262e-01 4.000000000000000000e+00
-3.358213424682617188e+01 8.391645431518554688e+00 -6.042023301124572754e-01 6.000000000000000000e+00
-2.411174535751343218e+00 6.065400242805480957e-01 -6.662002205848693848e-01 1.900000000000000000e+01
-2.794984102249145952e+00 7.036074995994567871e-01 -6.654052138328552246e-01 1.200000000000000000e+01
-3.302897691726685014e+00 8.326953649520874023e-01 -6.621072292327880859e-01 1.300000000000000000e+01
-4.077616691589354581e+00 1.029524207115172896e+00 -6.660979390144348145e-01 9.000000000000000000e+00
-5.277276039123535156e+00 1.333396315574645996e+00 -6.683315038681030273e-01 1.100000000000000000e+01
-7.521310329437255859e+00 1.903184056282043013e+00 -6.787689328193664551e-01 1.000000000000000000e+00
-1.302001953125000000e+01 3.299407720565795898e+00 -7.039186358451843262e-01 4.000000000000000000e+00
-3.368444442749022727e+01 8.542243003845214844e+00 -6.065758466720581055e-01 6.000000000000000000e+00
-2.397918462753295898e+00 6.116674542427062988e-01 -6.630944013595581055e-01 2.100000000000000000e+01
-2.801951646804810014e+00 7.157711386680603027e-01 -6.676547527313232422e-01 1.400000000000000000e+01
-3.302020072937012163e+00 8.441298604011535645e-01 -6.624888181686401367e-01 1.400000000000000000e+01
-4.060784816741943359e+00 1.039610981941222922e+00 -6.639078855514526367e-01 1.000000000000000000e+01
-5.272589683532714844e+00 1.351809263229369895e+00 -6.683315038681030273e-01 1.100000000000000000e+01
-7.472165584564208984e+00 1.918526053428649902e+00 -6.749340891838073730e-01 2.000000000000000000e+00
-1.300900650024414062e+01 3.342565536499022993e+00 -7.039186358451843262e-01 4.000000000000000000e+00
-3.369702529907227273e+01 8.670734405517578125e+00 -6.073437333106994629e-01 1.300000000000000000e+01
-2.399400711059569868e+00 6.214208602905273438e-01 -6.641296744346618652e-01 1.900000000000000000e+01
-2.795663118362427202e+00 7.245695590972900391e-01 -6.667549014091491699e-01 1.400000000000000000e+01
-3.297003746032714844e+00 8.557334542274475098e-01 -6.621072292327880859e-01 1.300000000000000000e+01
-4.041652202606201172e+00 1.050512075424193892e+00 -6.614049077033996582e-01 1.000000000000000000e+01
-6.085955429077147727e+01 1.581870365142822088e+01 7.720910549163818359e+00 6.300000000000000000e+01
-5.267838954925537109e+00 1.370205760002136008e+00 -6.683315038681030273e-01 1.100000000000000000e+01
-7.480847358703613281e+00 1.948614835739135964e+00 -6.763285398483276367e-01 1.000000000000000000e+00
-1.299666786193848012e+01 3.390223503112792969e+00 -7.039186358451843262e-01 4.000000000000000000e+00
-3.378264617919921875e+01 8.818611145019531250e+00 -6.094380617141723633e-01 2.100000000000000000e+01
-2.401063919067382812e+00 6.303552389144897461e-01 -6.651649475097656250e-01 1.900000000000000000e+01
-2.772385358810424805e+00 7.288734316825866699e-01 -6.618059873580932617e-01 1.300000000000000000e+01
-3.296046733856201172e+00 8.671615719795227051e-01 -6.624888181686401367e-01 1.200000000000000000e+01
-4.038146495819091797e+00 1.063908815383910911e+00 -6.614049077033996582e-01 1.000000000000000000e+01
-6.086155319213867188e+01 1.604622840881348012e+01 7.728222370147705078e+00 6.300000000000000000e+01
-5.239990711212158203e+00 1.382508635520935059e+00 -6.654066443443298340e-01 1.100000000000000000e+01
-7.466294765472412109e+00 1.972680211067199929e+00 -6.756313443183898926e-01 2.000000000000000000e+00
-1.298535442352294922e+01 3.433303356170653853e+00 -7.039186358451843262e-01 4.000000000000000000e+00
-3.375165557861328125e+01 8.936480522155761719e+00 -6.094380617141723633e-01 1.400000000000000000e+01
-2.408071041107178178e+00 6.416383385658264160e-01 -6.677531599998474121e-01 1.900000000000000000e+01
-2.767941236495972124e+00 7.380443215370178223e-01 -6.613560914993286133e-01 1.400000000000000000e+01
-3.287155866622924805e+00 8.777168989181518555e-01 -6.613439917564392090e-01 1.300000000000000000e+01
-4.039944648742675781e+00 1.080233097076416016e+00 -6.623435020446777344e-01 9.000000000000000000e+00
-5.237050533294677734e+00 1.401304364204406960e+00 -6.656503677368164062e-01 1.100000000000000000e+01
-7.459363460540770596e+00 1.998730421066283958e+00 -6.756313443183898926e-01 1.000000000000000000e+00
-1.289938068389892933e+01 3.461205005645751953e+00 -6.999410986900329590e-01 4.000000000000000000e+00
-3.374343109130858664e+01 9.060464859008789062e+00 -6.098569035530090332e-01 1.400000000000000000e+01
-2.394852399826049805e+00 6.461808085441589355e-01 -6.646472811698913574e-01 1.800000000000000000e+01
-2.778647422790526900e+00 7.507773041725158691e-01 -6.645054221153259277e-01 1.200000000000000000e+01
-3.278696537017821822e+00 8.865022063255310059e-01 -6.601991057395935059e-01 1.300000000000000000e+01
-4.034624576568604404e+00 1.092403292655945046e+00 -6.620306372642517090e-01 1.000000000000000000e+01
-5.226627349853515625e+00 1.417104959487915039e+00 -6.649191379547119141e-01 1.100000000000000000e+01
-7.433818817138671875e+00 2.016937732696533203e+00 -6.738882064819335938e-01 1.000000000000000000e+00
-3.374407196044921875e+01 9.180711746215820312e+00 -6.104153394699096680e-01 7.000000000000000000e+00
-2.386992216110229048e+00 6.530071496963500977e-01 -6.630944013595581055e-01 1.900000000000000000e+01
-2.781648397445679155e+00 7.620166540145874023e-01 -6.658551096916198730e-01 1.400000000000000000e+01
-3.279368877410889116e+00 8.989796638488769531e-01 -6.609623432159423828e-01 1.400000000000000000e+01
-6.090089797973632812e+01 1.670630836486816051e+01 5.524976730346679688e+00 5.300000000000000000e+01
-4.034596443176270419e+00 1.107525944709778054e+00 -6.626563668251037598e-01 1.000000000000000000e+01
-5.212078094482421875e+00 1.432709932327270952e+00 -6.637004613876342773e-01 1.100000000000000000e+01
-7.395996570587158203e+00 2.034419536590576172e+00 -6.710992455482482910e-01 2.000000000000000000e+00
-1.275675773620604936e+01 3.513796329498291016e+00 -6.934514045715332031e-01 4.000000000000000000e+00
-3.368869018554688211e+01 9.292063713073730469e+00 -6.099964976310729980e-01 7.000000000000000000e+00
-2.379113435745238814e+00 6.597865223884582520e-01 -6.615414619445800781e-01 1.800000000000000000e+01
-2.771460771560668945e+00 7.696360349655151367e-01 -6.640555262565612793e-01 1.300000000000000000e+01
-3.274319410324097124e+00 9.098956584930419922e-01 -6.605807542800903320e-01 1.300000000000000000e+01
-4.007869243621826172e+00 1.115247845649719016e+00 -6.589019894599914551e-01 9.000000000000000000e+00
-5.212782382965087891e+00 1.452493190765381081e+00 -6.644316315650939941e-01 1.100000000000000000e+01
-7.392688274383544922e+00 2.061294317245482954e+00 -6.714478135108947754e-01 2.000000000000000000e+00
-1.274441432952881037e+01 3.558304309844971147e+00 -6.934514045715332031e-01 4.000000000000000000e+00
-3.368686294555664062e+01 9.418217658996582031e+00 -6.105549931526184082e-01 7.000000000000000000e+00
-2.391674041748046875e+00 6.722692847251892090e-01 -6.656825542449951172e-01 2.000000000000000000e+01
-2.749998807907104048e+00 7.740256786346435547e-01 -6.595565080642700195e-01 1.400000000000000000e+01
-3.278682231903076172e+00 9.234486222267150879e-01 -6.621072292327880859e-01 1.400000000000000000e+01
-4.003951549530029297e+00 1.129231214523314986e+00 -6.589019894599914551e-01 9.000000000000000000e+00
-5.203859329223632812e+00 1.469601392745971902e+00 -6.639441847801208496e-01 1.100000000000000000e+01
-7.350936412811279297e+00 2.077334165573120117e+00 -6.683102250099182129e-01 2.000000000000000000e+00
-1.273191547393799006e+01 3.602769136428833008e+00 -6.934514045715332031e-01 4.000000000000000000e+00
-3.355758285522460938e+01 9.508491516113281250e+00 -6.088097691535949707e-01 1.300000000000000000e+01
-2.387454986572266069e+00 6.800844073295593262e-01 -6.651649475097656250e-01 1.900000000000000000e+01
-2.758524179458618164e+00 7.868274450302124023e-01 -6.622558832168579102e-01 1.300000000000000000e+01
-3.264111518859862837e+00 9.316546916961669922e-01 -6.598175168037414551e-01 1.400000000000000000e+01
-3.999985456466674805e+00 1.143200635910033958e+00 -6.589019894599914551e-01 9.000000000000000000e+00
-5.185338497161865234e+00 1.483934044837952104e+00 -6.622380018234252930e-01 1.100000000000000000e+01
-7.358963489532470703e+00 2.107369184494018999e+00 -6.697047352790832520e-01 2.000000000000000000e+00
-1.257719039916992010e+01 3.606451272964477983e+00 -6.857057213783264160e-01 4.000000000000000000e+00
-3.360875701904296875e+01 9.649853706359863281e+00 -6.103455424308776855e-01 7.000000000000000000e+00
-2.381354331970214844e+00 6.873425841331481934e-01 -6.641296744346618652e-01 1.900000000000000000e+01
-2.753888607025146040e+00 7.959105968475341797e-01 -6.618059873580932617e-01 1.500000000000000000e+01
-3.257067680358887163e+00 9.419520497322082520e-01 -6.590542793273925781e-01 1.300000000000000000e+01
-4.007355213165283203e+00 1.160452961921691895e+00 -6.607791781425476074e-01 1.000000000000000000e+01
-5.170594215393066406e+00 1.499261140823364036e+00 -6.610193252563476562e-01 1.100000000000000000e+01
-7.351562976837158203e+00 2.133044004440308061e+00 -6.697047352790832520e-01 2.000000000000000000e+00
-1.256452465057373047e+01 3.650331974029541016e+00 -6.857057213783264160e-01 4.000000000000000000e+00
-3.345966339111328125e+01 9.733597755432128906e+00 -6.082512736320495605e-01 6.000000000000000000e+00
-2.367815256118773970e+00 6.923976540565490723e-01 -6.610238552093505859e-01 2.100000000000000000e+01
-2.752964019775391069e+00 8.060662150382995605e-01 -6.622558832168579102e-01 1.300000000000000000e+01
-3.246223688125609907e+00 9.511075615882873535e-01 -6.575278043746948242e-01 1.300000000000000000e+01
-3.995697975158690962e+00 1.172209978103637917e+00 -6.595277190208435059e-01 9.000000000000000000e+00
-5.171043395996093750e+00 1.518979191780090110e+00 -6.617505550384521484e-01 9.000000000000000000e+00
-7.305841922760009766e+00 2.147455453872681108e+00 -6.662185192108154297e-01 2.000000000000000000e+00
-1.250189018249512074e+01 3.679506540298461914e+00 -6.829842329025268555e-01 4.000000000000000000e+00
-3.349069976806641336e+01 9.869553565979003906e+00 -6.094380617141723633e-01 7.000000000000000000e+00
-2.374645471572875977e+00 7.034019827842712402e-01 -6.636120080947875977e-01 2.000000000000000000e+01
-2.746396780014038086e+00 8.145627379417419434e-01 -6.613560914993286133e-01 1.400000000000000000e+01
-3.250412225723267046e+00 9.646674990653991699e-01 -6.590542793273925781e-01 1.300000000000000000e+01
-3.984007835388184038e+00 1.183899641036987083e+00 -6.582762002944946289e-01 9.000000000000000000e+00
-5.163806915283203125e+00 1.536454081535338911e+00 -6.615067720413208008e-01 1.100000000000000000e+01
-7.302120208740234375e+00 2.174081563949584961e+00 -6.665671467781066895e-01 2.000000000000000000e+00
-1.248897075653075994e+01 3.723123788833618164e+00 -6.829842329025268555e-01 4.000000000000000000e+00
-3.342538452148438211e+01 9.977246284484863281e+00 -6.088795661926269531e-01 1.300000000000000000e+01
-2.366624355316162109e+00 7.100213766098022461e-01 -6.620591282844543457e-01 2.100000000000000000e+01
-2.737937688827515093e+00 8.224625587463378906e-01 -6.600064039230346680e-01 1.500000000000000000e+01
-3.252665519714355025e+00 9.777031540870666504e-01 -6.601991057395935059e-01 1.200000000000000000e+01
-6.085614013671875000e+01 1.830403709411621094e+01 5.559839248657226562e+00 5.200000000000000000e+01
-3.987417221069335938e+00 1.200076341629028098e+00 -6.595277190208435059e-01 9.000000000000000000e+00
-5.147008419036865234e+00 1.551033258438109907e+00 -6.600443720817565918e-01 1.100000000000000000e+01
-7.294486999511718750e+00 2.199557304382324219e+00 -6.665671467781066895e-01 2.000000000000000000e+00
-1.244530582427979049e+01 3.757459402084351030e+00 -6.813094615936279297e-01 4.000000000000000000e+00
-3.347074890136718750e+01 1.011816501617431996e+01 -6.103455424308776855e-01 1.400000000000000000e+01
-2.375222206115723100e+00 7.216476798057556152e-01 -6.651649475097656250e-01 1.900000000000000000e+01
-2.733185768127440962e+00 8.314475417137145996e-01 -6.595565080642700195e-01 1.400000000000000000e+01
-3.236085891723632812e+00 9.850491285324096680e-01 -6.575278043746948242e-01 1.200000000000000000e+01
-3.979424715042113814e+00 1.212835907936095969e+00 -6.589019894599914551e-01 9.000000000000000000e+00
-5.137765407562255859e+00 1.567831397056580034e+00 -6.595568656921386719e-01 1.100000000000000000e+01
-7.279142379760742188e+00 2.222679138183594194e+00 -6.658698916435241699e-01 2.000000000000000000e+00
-1.246267414093017933e+01 3.810221910476685014e+00 -6.829842329025268555e-01 4.000000000000000000e+00
-3.357672119140625000e+01 1.027825164794922053e+01 -6.129285097122192383e-01 7.000000000000000000e+00
-2.370842218399047852e+00 7.293663024902343750e-01 -6.646472811698913574e-01 2.000000000000000000e+01
-2.745165824890137163e+00 8.455723524093627930e-01 -6.631557345390319824e-01 1.400000000000000000e+01
-3.230751514434814009e+00 9.957609176635742188e-01 -6.571461558341979980e-01 1.200000000000000000e+01
-3.971391916275023970e+00 1.225554347038269043e+00 -6.582762002944946289e-01 9.000000000000000000e+00
-5.124674797058104581e+00 1.583411931991576926e+00 -6.585819125175476074e-01 1.100000000000000000e+01
-7.254208087921142578e+00 2.242778062820435014e+00 -6.643010973930358887e-01 3.000000000000000000e+00
-1.241113948822020951e+01 3.841889381408690962e+00 -6.808907985687255859e-01 4.000000000000000000e+00
-3.363614273071289062e+01 1.042499351501465021e+01 -6.146737337112426758e-01 1.400000000000000000e+01
-2.357215166091918945e+00 7.341907620429992676e-01 -6.615414619445800781e-01 2.100000000000000000e+01
-2.742197513580321822e+00 8.551496267318725586e-01 -6.631557345390319824e-01 1.400000000000000000e+01
